# .PCD v0.7 - Point Cloud Data file format
VERSION 0.7
FIELDS x y z intensity
SIZE 4 4 4 4
TYPE F F F F
COUNT 1 1 1 1
WIDTH 1403
HEIGHT 1
VIEWPOINT 0 0 0 1 0 0 0
POINTS 1403
DATA ascii
-0.110647 -1.723877 -68.15918 7
-0.541861 -3.1381841 73.047852 7
-0.165148 5.5899658 -68.72168 7
-0.104555 5.2834468 -66.919922 7
-0.160313 5.245605 -68.595703 7
-0.068452999 1.841431 -65.939453 7
-0.13674501 -1.540894 -60.535156 7
-0.110609 -1.668823 -59.830078 7
-0.132778 -1.849854 -61.262695 7
-0.066602997 5.072021 -58.611328 7
-0.146198 5.1036382 -60.746094 7
-0.220791 5.1143799 -62.746094 7
-0.193949 -1.582153 -56.887695 7
-0.134087 -1.677124 -55.411133 7
-0.104069 -1.787964 -54.664062 7
-0.040600002 -1.8675539 -53.098633 7
-0.43323499 -0.46960399 58.655273 7
-0.38608199 -0.061278999 57.639648 7
-0.033798002 5.1697998 -52.171875 7
-0.108519 5.2124019 -53.989258 7
-0.090874001 4.9107671 -53.583008 7
-0.174522 4.9555659 -55.616211 7
-0.14145499 -1.876465 -49.648438 7
-0.116035 -1.9755861 -49.083008 7
-0.047812998 -2.032959 -47.576172 7
-0.129288 -2.227905 -49.359375 7
-0.38330799 -0.29931599 52.790039 7
-0.352144 -0.17541499 52.171875 7
-0.36453199 -0.05542 52.422852 7
-0.057039 5.09375 -47.691406 7
-0.080716997 5.029541 -48.22168 7
-0.0083919996 4.7548828 -46.644531 7
-0.064713001 4.7597661 -47.889648 7
-0.088399999 4.6914058 -48.417969 7
-0.170444 4.737915 -50.229492 7
-0.17818099 -2.0006101 -46.958984 7
-0.136759 -2.077759 -46.099609 7
-0.102453 -2.1578369 -45.386719 7
-0.16868401 -2.334106 -46.731445 7
-0.13637 -2.4144289 -46.060547 7
-0.39763999 -3.005615 49.273438 7
-0.41416499 -2.910645 49.589844 7
-0.39376301 -0.165527 49.408203 7
-0.32730901 -0.050292999 48.174805 7
-0.37112799 0.061646 48.994141 7
-0.309715 0.170288 47.854492 7
-0.049414001 4.8959961 -43.708984 7
-0.090310998 4.8762212 -44.546875 7
-0.143269 4.8780522 -45.626953 7
-0.072926 4.6220698 -44.212891 7
-0.101456 4.5705571 -44.800781 7
-0.161615 4.5782471 -46.027344 7
-0.17531 -2.030396 -42.637695 7
-0.13046101 -2.0939939 -41.791992 7
-0.091454998 -2.259521 -41.045898 7
-0.066633001 -2.334106 -40.573242 7
-0.102892 -2.472656 -41.239258 7
-0.072424002 -2.539185 -40.660156 7
-0.047897 -2.6099851 -40.193359 7
-0.32525399 -2.7869871 44.177734 7
-0.331633 -2.6925049 44.294922 7
-0.28698701 0.054687999 43.685547 7
-0.305502 0.15649401 44.036133 7
-0.283813 0.25512701 43.666992 7
-0.028362 4.8162842 -39.334961 7
-0.058634002 4.7818599 -39.905273 7
-0.082006 4.7325439 -40.345703 7
-0.111027 4.692627 -40.891602 7
-0.053484 4.4769292 -39.839844 7
-0.12602399 4.4194341 -41.198242 7
-0.16354901 -2.2463379 -38.999023 7
-0.14238 -2.320801 -38.625977 7
-0.130724 -2.4033201 -38.416016 7
-0.17098799 -2.540894 -39.097656 7
-0.144394 -2.606812 -38.630859 7
-0.104206 -2.654907 -37.930664 7
-0.090162002 -2.7310791 -37.679688 7
-0.075103998 -2.804565 -37.410156 7
-0.293722 -2.8344729 40.613281 7
-0.29395899 -2.742065 40.625977 7
-0.31189299 -2.6680911 40.917969 7
-0.257025 0.050781 40.226562 7
-0.23556501 0.14160199 39.886719 7
-0.26152599 0.235229 40.301758 7
-0.23196401 0.32336399 39.833008 7
-0.100426 4.8659668 -37.394531 7
-0.118216 4.810791 -37.707031 7
-0.14759301 4.7780762 -38.217773 7
-0.161301 4.7113042 -38.460938 7
-0.132374 4.5594478 -37.978516 7
-0.142673 4.4857178 -38.162109 7
0.0096000005 1.194824 -35.74707 7
0.0098590003 1.106445 -35.744141 7
-0.010349 1.027588 -36.091797 7
0.016876001 0.92675799 -35.625977 7
0.017502001 0.83862299 -35.617188 7
0.014015 0.751831 -35.676758 7
0.039205998 0.65600598 -35.246094 7
-0.158701 -2.752686 -35.486328 7
-0.15853301 -2.839844 -35.473633 7
-0.13095701 -2.8924561 -35.029297 7
-0.114113 -2.9567871 -34.754883 7
-0.111343 -3.0386961 -34.701172 7
-0.100779 4.9720459 -34.114258 7
-0.109377 4.9061279 -34.258789 7
-0.135061 4.8752441 -34.669922 7
-0.15890899 4.838623 -35.051758 7
-0.18460301 4.8039551 -35.462891 7
0.014273 1.41687 -32.583008 7
-0.015554 1.35437 -33.051758 7
0.014875 1.254761 -32.577148 7
-0.014189 1.189941 -33.035156 7
-0.035464998 1.11853 -33.371094 7
-0.020918 0.70092797 -33.147461 7
0.015478 0.608643 -32.577148 7
-0.017708 0.53601098 -33.097656 7
0.006788 0.44885299 -32.713867 7
0.027546 0.36438 -32.387695 7
-0.16210601 -2.9013669 -33.071289 7
-0.164272 -2.9854741 -33.09375 7
-0.14819901 -3.045898 -32.847656 7
-0.13649701 -3.1112061 -32.666016 7
-0.109737 4.979248 -31.865234 7
-0.132486 4.8687739 -32.21875 7
-0.154799 4.8349609 -32.553711 7
-0.20694201 4.8601069 -33.323242 7
-0.034947999 1.4312741 -31.068359 7
-0.0067540002 1.337158 -30.65625 7
-0.01079 0.42822301 -31.066406 7
-0.027557001 0.354004 -31.3125 7
-0.001003 0.19665501 -30.916992 7
-0.001163 0.119873 -30.917969 7
0.0086230002 -0.031860001 -28.067383 7
-0.168997 -3.2205811 -30.525391 7
-0.15289301 -3.273315 -30.296875 7
-0.148361 -3.341675 -30.225586 7
-0.17553499 -3.4560549 -30.583008 7
-0.10025 5.1010742 -29.179688 7
-0.087844998 5.000977 -29.024414 7
-0.104193 4.9641109 -29.254883 7
-0.123562 4.9326172 -29.526367 7
-0.151941 4.9187012 -29.918945 7
-0.179892 4.9021001 -30.304688 7
-0.198826 4.865356 -30.571289 7
0.002666 1.583496 -28.126953 7
-0.016314 1.526611 -28.385742 7
0.014154 1.4356689 -27.974609 7
-0.0061070002 1.37854 -28.25293 7
-0.035812002 1.325806 -28.65918 7
-0.023808001 0.251831 -28.511719 7
0.0040910002 0.178589 -28.131836 7
-0.021778001 0.109741 -28.483398 7
-0.0080700004 0.038451999 -28.296875 7
0.00235 -0.028441999 -26.455078 7
-0.00036599999 -0.226685 -26.483398 7
-0.20811801 -3.270752 -28.869141 7
-0.200048 -3.3309331 -28.755859 7
-0.189192 -3.3865969 -28.608398 7
-0.179726 -3.4438479 -28.478516 7
-0.086611003 5.0021968 -26.926758 7
-0.098145999 4.9599609 -27.082031 7
-0.112892 4.9238281 -27.27832 7
-0.13775399 4.9080811 -27.600586 7
-0.160311 4.8861079 -27.894531 7
-0.1654 4.8267822 -27.969727 7
0.0032289999 1.609375 -26.146484 7
-0.027186999 1.565186 -26.536133 7
-0.002722 1.494507 -26.522461 7
-0.00057799998 1.42688 -26.495117 7
-0.025379 1.376099 -26.813477 7
-0.0072380002 1.298584 -26.583984 7
-0.032131001 0.105225 -26.899414 7
-0.02709 -0.15100101 -24.5625 7
-0.0012000001 -0.209961 -24.498047 7
0.0031030001 -0.270996 -24.445312 7
-0.0065330002 -0.39514199 -24.553711 7
-0.20397 -3.3625491 -26.612305 7
-0.17250299 -3.579102 -26.203125 7
-0.090342999 5.0305181 -24.878906 7
-0.097790003 4.9841309 -24.977539 7
-0.109705 4.947021 -25.126953 7
-0.123085 4.912354 -25.292969 7
-0.14884 4.9029541 -25.603516 7
-0.155302 4.8522949 -25.689453 7
-0.020178 1.634033 -24.449219 7
-0.021810999 1.450439 -24.477539 7
-0.0049299998 -0.36828601 -22.81543 7
0.00073600002 -0.42456099 -22.75 7
-0.030517999 -0.488525 -23.091797 7
-0.015871 -0.54296899 -22.927734 7
-0.0075630001 -0.59826702 -22.833008 7
-0.203264 -3.5705571 -24.682617 7
-0.20023499 -3.6274409 -24.639648 7
-0.186083 -3.6668701 -24.475586 7
-0.178829 -3.716675 -24.386719 7
-0.17686801 -3.774292 -24.354492 7
-0.10976 5.0906978 -23.27832 7
-0.105038 5.021729 -23.238281 7
-0.11459 4.9836431 -23.352539 7
-0.125742 4.9486079 -23.485352 7
-0.13795701 4.9150391 -23.626953 7
-0.158621 4.8988042 -23.862305 7
-0.149124 4.8189702 -23.770508 7
-0.018440001 1.811646 -22.699219 7
-0.0063109999 1.744629 -22.569336 7
0.00050199998 1.625488 -22.501953 7
-0.030316999 1.5330811 -22.84668 7
-0.013264 -0.344971 -21.128906 7
-0.018414 -0.39965799 -21.180664 7
-0.032060999 -0.45605499 -21.319336 7
-0.015675001 -0.50634801 -21.149414 7
-0.0049629998 -0.55712903 -21.037109 7
-0.034067001 -0.62036097 -21.537109 7
-0.020083999 -0.67040998 -21.389648 7
-0.011753 -0.72155797 -21.300781 7
-0.17107201 -3.5214839 -22.630859 7
-0.184772 -3.598877 -22.762695 7
-0.195667 -3.672852 -22.863281 7
-0.191296 -3.7232671 -22.808594 7
-0.18125699 -3.7644041 -22.695312 7
-0.175154 -3.8114009 -22.623047 7
-0.17531399 -3.8682859 -22.613281 7
-0.109213 5.09021 -21.606445 7
-0.114887 5.047729 -21.674805 7
-0.121136 5.0065918 -21.750977 7
-0.129078 4.9683838 -21.841797 7
-0.14438801 4.9456792 -22.006836 7
-0.16082001 4.9243159 -22.183594 7
-0.15631101 4.8588872 -22.150391 7
-0.007524 1.846802 -21.017578 7
-0.016619001 1.801025 -21.114258 7
-0.010996 1.742798 -21.061523 7
-0.0036810001 1.6837161 -20.990234 7
-0.013353 1.637695 -21.09082 7
-0.027542001 1.5944819 -21.239258 7
-0.049325999 -0.53552198 -20.306641 7
-0.035645999 -0.58337402 -20.170898 7
-0.033464 -0.684937 -20.144531 7
-0.034304 -0.78723103 -20.146484 7
-0.028416 -0.83581501 -20.086914 7
-0.21573099 -3.7523191 -21.548828 7
-0.214664 -3.80481 -21.52832 7
-0.205761 -3.844604 -21.433594 7
-0.195684 -3.881958 -21.325195 7
-0.18858901 -3.92395 -21.248047 7
-0.19836199 -3.9937739 -21.330078 7
-0.126753 5.1315918 -20.314453 7
-0.128567 5.0838618 -20.344727 7
-0.137005 5.0505371 -20.436523 7
-0.143658 5.0128169 -20.510742 7
-0.154512 4.9838872 -20.624023 7
-0.174973 4.9746089 -20.829102 7
-0.177994 4.927856 -20.870117 7
-0.156984 4.8312988 -20.681641 7
-0.023783 1.900391 -19.811523 7
-0.036453001 1.860474 -19.9375 7
-0.028666001 1.803223 -19.866211 7
-0.019083001 1.745239 -19.777344 7
-0.028139001 1.701538 -19.869141 7
-0.042617999 1.661865 -20.011719 7
-0.035633001 -0.64123499 -18.665039 7
-0.054917999 -0.695068 -18.836914 7
-0.038302999 -0.73767102 -18.68457 7
-0.025518 -0.78088403 -18.566406 7
-0.05057 -0.83776897 -18.791016 7
-0.053164002 -0.886841 -18.8125 7
-0.042316001 -0.93041998 -18.710938 7
-0.210934 -3.8692629 -20.029297 7
-0.204657 -3.9095459 -19.962891 7
-0.19453201 -3.9432371 -19.863281 7
-0.19017 -3.9859619 -19.8125 7
-0.187737 -4.0318599 -19.78125 7
-0.19683599 -4.0974121 -19.851562 7
-0.118889 5.0904541 -18.842773 7
-0.127859 5.0620122 -18.933594 7
-0.13748699 5.0344238 -19.030273 7
-0.14455 5.000854 -19.104492 7
-0.15737499 4.9793701 -19.230469 7
-0.17340299 4.9639888 -19.382812 7
-0.17151099 4.910645 -19.37793 7
-0.14400899 4.8041992 -19.146484 7
-0.029665001 1.979858 -18.543945 7
-0.023296 1.92688 -18.491211 7
-0.041262001 1.894775 -18.657227 7
-0.020802001 1.8299561 -18.476562 7
-0.025318 1.786255 -18.521484 7
-0.031114999 1.743408 -18.578125 7
-0.045244001 1.706787 -18.708984 7
-0.030549999 1.647949 -18.580078 7
-0.028509 -0.65026897 -17.647461 7
-0.051121 -0.79333502 -17.833008 7
-0.037122998 -0.87890601 -17.707031 7
-0.049396999 -0.92919898 -17.810547 7
-0.21042401 -3.84375 -18.791992 7
-0.213926 -3.897095 -18.8125 7
-0.216093 -3.9482419 -18.819336 7
-0.21362901 -4.0396729 -18.77832 7
-0.208326 -4.0780029 -18.722656 7
-0.21726801 -4.1408691 -18.787109 7
-0.140654 5.1273189 -17.819336 7
-0.13796 5.075562 -17.80957 7
-0.146788 5.0489502 -17.893555 7
-0.161724 5.0350342 -18.030273 7
-0.179354 5.026123 -18.189453 7
-0.18548 4.9456792 -18.263672 7
-0.16516501 4.8569341 -18.105469 7
-0.028408 1.867798 -17.417969 7
-0.044725001 1.7911381 -17.56543 7
-0.039407998 1.651733 -17.530273 7
-0.038090002 1.605713 -17.522461 7
-0.039328001 -0.65832502 -16.644531 7
-0.043028001 -0.70214802 -16.669922 7
-0.044553999 -0.74536097 -16.679688 7
-0.046087001 -0.78869599 -16.689453 7
-0.060513001 -0.836914 -16.803711 7
-0.048422001 -0.87512201 -16.703125 7
-0.042059001 -0.91552699 -16.649414 7
-0.205368 -3.8847661 -17.541992 7
-0.216253 -3.9472661 -17.618164 7
-0.227156 -4.0102539 -17.693359 7
-0.222982 -4.0483398 -17.649414 7
-0.21589699 -4.0811772 -17.583008 7
-0.21242499 -4.1201172 -17.544922 7
-0.20967101 -4.15979 -17.512695 7
-0.176754 4.9969478 -16.978516 7
-0.052136999 -0.99035603 -15.72168 7
-0.063594997 -1.036255 -15.806641 7
-0.078091003 -1.0838619 -15.914062 7
-0.068324998 -1.119751 -15.835938 7
-0.067668997 -1.160278 -15.827148 7
-0.069270998 -1.2019041 -15.835938 7
-0.082246996 -1.249756 -15.931641 7
-0.222008 -4.162231 -16.510742 7
-0.219841 -4.2006841 -16.484375 7
-0.217667 -4.2390141 -16.457031 7
-0.22464 -4.2935791 -16.498047 7
-0.234632 -4.3537598 -16.561523 7
-0.24082001 -4.407227 -16.595703 7
-0.23790599 -4.4443359 -16.5625 7
-0.042652 1.915894 -15.441406 7
-0.047222 1.879761 -15.480469 7
-0.048771001 1.84082 -15.496094 7
-0.046512999 1.7987061 -15.483398 7
-0.041988 1.755005 -15.453125 7
-0.035185002 1.709595 -15.405273 7
-0.047366999 1.6787111 -15.500977 7
-0.041317001 1.634033 -15.458984 7
-0.224663 -4.1760249 -15.481445 7
-0.223167 -4.2132568 -15.459961 7
-0.221672 -4.2502441 -15.438477 7
-0.23142201 -4.307373 -15.49707 7
-0.238777 -4.360352 -15.536133 7
-0.24290299 -4.4077148 -15.553711 7
-0.24784701 -4.4567871 -15.576172 7
-0.070130996 0.84460402 17.166992 7
-0.066744 0.880615 17.141602 7
-0.065843999 0.91735798 17.132812 7
-0.037023999 1.844238 -14.463867 7
-0.033032998 1.803345 -14.439453 7
-0.032248002 1.7648931 -14.438477 7
-0.037099998 1.730835 -14.477539 7
-0.046766002 1.700562 -14.549805 7
-0.027534001 1.6105959 -14.419922 7
-0.023544 1.5699461 -14.394531 7
-0.057698999 -0.963135 -13.993164 7
-0.057783 -0.99963403 -13.990234 7
-0.061232001 -1.0374759 -14.010742 7
-0.070684001 -1.1151119 -14.069336 7
-0.070761003 -1.151733 -14.066406 7
-0.069173999 -1.1875 -14.052734 7
-0.070920996 -1.224854 -14.061523 7
-0.235046 -4.1724849 -14.649414 7
-0.235153 -4.2104492 -14.640625 7
-0.234421 -4.2469478 -14.624023 7
-0.23282599 -4.2819819 -14.602539 7
-0.23632 -4.3258061 -14.614258 7
-0.248266 -4.3851318 -14.682617 7
-0.25176001 -4.4293208 -14.694336 7
-0.252707 -4.4689941 -14.689453 7
-0.063097 0.83630401 16.350586 7
-0.064722002 0.90783697 16.358398 7
-0.065537997 0.94360399 16.362305 7
-0.13569801 5.1019292 -13.612305 7
-0.133158 5.0605469 -13.608398 7
-0.139925 5.0394292 -13.664062 7
-0.14246599 5.0089111 -13.693359 7
-0.146708 4.9460449 -13.744141 7
-0.166977 4.9525151 -13.887695 7
-0.168694 4.9196782 -13.910156 7
-0.070868 -0.98925799 -13.302734 7
-0.057663001 -1.018188 -13.212891 7
-0.061278999 -1.0543211 -13.233398 7
-0.071111999 -1.093628 -13.294922 7
-0.069509998 -1.162354 -13.277344 7
-0.072339997 -1.233276 -13.289062 7
-0.077742003 -1.27124 -13.321289 7
-0.24469 -4.19519 -13.84668 7
-0.241234 -4.2249761 -13.814453 7
-0.240448 -4.259521 -13.797852 7
-0.237885 -4.290771 -13.771484 7
-0.242432 -4.3345952 -13.788086 7
-0.253212 -4.3898931 -13.845703 7
-0.25598899 -4.4306641 -13.851562 7
-0.110245 -2.237061 15.734375 7
-0.11203 -2.2049561 15.75 7
-0.105568 -2.164917 15.714844 7
-0.061296001 0.82861298 15.609375 7
-0.063927002 0.89709502 15.62207 7
-0.163811 5.0766602 -12.973633 7
-0.166481 5.0482178 -13.001953 7
-0.177147 5.036499 -13.079102 7
-0.176285 4.9655762 -13.09668 7
-0.161209 4.865356 -13.027344 7
-0.042885002 1.565796 -12.953125 7
-0.042029999 1.530884 -12.950195 7
-0.041182999 1.4619139 -12.951172 7
-0.028786 1.3857419 -12.87793 7
-0.023484999 1.3486331 -12.845703 7
-0.019952999 1.3125 -12.826172 7
-0.035964999 1.287842 -12.932617 7
-0.010324 1.104004 -12.780273 7
-0.051430002 -1.032715 -12.473633 7
-0.051506002 -1.065552 -12.47168 7
-0.249878 -4.17627 -13.103516 7
-0.24996901 -4.2106929 -13.094727 7
-0.242607 -4.2321782 -13.040039 7
-0.23710801 -4.2563481 -12.996094 7
-0.23814601 -4.2922359 -12.992188 7
-0.24475101 -4.3378911 -13.020508 7
-0.244858 -4.3720698 -13.010742 7
-0.245895 -4.4078369 -13.004883 7
-0.25064799 -4.450439 -13.022461 7
-0.095154002 -2.2164309 14.97168 7
-0.096077003 -2.1851809 14.982422 7
-0.094123997 -2.1513669 14.976562 7
-0.095031999 -2.1201169 14.986328 7
-0.093079001 -2.08606 14.979492 7
-0.089211002 -2.0505371 14.962891 7
-0.071167 0.79406703 15.016602 7
-0.054850001 0.820557 14.916016 7
-0.054795999 0.85241699 14.914062 7
-0.056648001 0.88513201 14.923828 7
-0.058525 0.91796899 14.93457 7
-0.05751 0.94958502 14.925781 7
-0.016146 1.11853 -12.133789 7
-0.010586 1.08374 -12.101562 7
-0.0078090001 1.050171 -12.086914 7
-0.018084001 1.022705 -12.152344 7
-0.052668002 -0.98168898 -11.793945 7
-0.055681001 -1.014282 -11.80957 7
-0.044024002 -1.0400389 -11.737305 7
-0.044100001 -1.0712889 -11.735352 7
-0.045145001 -1.102905 -11.738281 7
-0.062804997 -1.142822 -11.838867 7
-0.070694 -1.178223 -11.882812 7
-0.055132002 -1.2012939 -11.787109 7
-0.055208001 -1.2325439 -11.785156 7
-0.057229999 -1.264771 -11.792969 7
-0.248377 -4.1937261 -12.308594 7
-0.25044301 -4.2294922 -12.308594 7
-0.247591 -4.2567139 -12.282227 7
-0.243769 -4.282104 -12.249023 7
-0.24386799 -4.3144531 -12.239258 7
-0.24296799 -4.3448491 -12.223633 7
-0.24209 -4.3756099 -12.208008 7
-0.246096 -4.4147949 -12.219727 7
-0.256989 -4.4667969 -12.268555 7
-0.082824998 -2.2193601 14.224609 7
-0.085814998 -2.1920171 14.248047 7
-0.083770998 -2.159668 14.241211 7
-0.080704004 -2.126343 14.229492 7
-0.079673998 -2.0949709 14.228516 7
-0.075607002 -2.061157 14.209961 7
-0.076576002 -2.031616 14.22168 7
-0.071511999 -1.9968261 14.197266 7
-0.069467999 -1.964722 14.191406 7
-0.043839999 0.77722198 14.200195 7
-0.040789001 0.80639601 14.181641 7
-0.043756001 0.83789098 14.197266 7
-0.041703999 0.86718798 14.183594 7
-0.043657001 0.898193 14.193359 7
-0.043604001 0.92858899 14.19043 7
-0.020183999 0.94238299 -11.492188 7
-0.01334 0.90893602 -11.455078 7
-0.013371 0.87817401 -11.457031 7
-0.013401 0.847534 -11.458984 7
-0.0065649999 0.814331 -11.420898 7
-0.001684 0.78210402 -11.393555 7
-0.002691 0.751831 -11.401367 7
-0.003696 0.72155797 -11.408203 7
-0.0086169997 0.69262701 -11.439453 7
-0.018421 0.66491699 -11.499023 7
-0.052156001 -0.96740699 -11.199219 7
-0.061434001 -1.001099 -11.249023 7
-0.049233999 -1.0255131 -11.176758 7
-0.048287999 -1.05481 -11.168945 7
-0.049456 -1.114746 -11.168945 7
-0.073090002 -1.1867681 -11.294922 7
-0.060899999 -1.2099611 -11.223633 7
-0.059953999 -1.239502 -11.21582 7
-0.064095996 -1.271606 -11.235352 7
-0.251398 -4.1962891 -11.651367 7
-0.25354201 -4.2307129 -11.652344 7
-0.25157401 -4.2581792 -11.631836 7
-0.247576 -4.2816162 -11.599609 7
-0.246622 -4.3106689 -11.583984 7
-0.247751 -4.3435059 -11.579102 7
-0.242708 -4.3648682 -11.541016 7
-0.24381401 -4.3973389 -11.537109 7
-0.250063 -4.439209 -11.558594 7
-0.087067001 -2.184937 13.680664 7
-0.080742002 -2.14978 13.652344 7
-0.080665998 -2.0917971 13.662109 7
-0.076424003 -2.05896 13.644531 7
-0.072196998 -2.026123 13.626953 7
-0.071114004 -1.9962161 13.625977 7
-0.07 -1.937378 13.630859 7
-0.065760002 -1.904907 13.612305 7
-0.049835 0.774414 13.675781 7
-0.049789 0.80358899 13.673828 7
-0.051796 0.86230499 13.681641 7
-0.052795 0.891846 13.685547 7
-0.052696001 0.94995099 13.680664 7
-0.158237 5.1108398 -10.710938 7
-0.141872 5.0465088 -10.638672 7
-0.129629 4.962769 -10.59668 7
-0.13474099 4.9162598 -10.648438 7
-0.133726 4.885376 -10.654297 7
-0.146 4.8535161 -10.741211 7
-0.151127 4.8352051 -10.779297 7
-0.0087869996 0.63269001 -10.865234 7
-0.0078560002 0.54479998 -10.862305 7
-0.0027749999 0.48498499 -10.835938 7
0.0053960001 0.45410201 -10.791992 7
0.0053420002 0.39587399 -10.793945 7
-0.00081400003 0.36792001 -10.828125 7
-0.0090389997 0.34020999 -10.875977 7
-0.00189 0.30981401 -10.836914 7
0.003206 0.27990699 -10.808594 7
0.0092850002 0.221191 -10.774414 7
0.00075499999 -0.038208 -10.227539 7
0.0039599999 -0.065917999 -10.209961 7
0.0050130002 -0.093506001 -10.204102 7
0.001762 -0.121338 -10.22168 7
0.002815 -0.148926 -10.214844 7
-0.047047 -1.059448 -10.548828 7
-0.048191 -1.088135 -10.551758 7
-0.245203 -4.3023682 -10.876953 7
-0.245295 -4.331543 -10.866211 7
-0.244295 -4.358521 -10.850586 7
-0.24332 -4.385498 -10.834961 7
-0.24448 -4.4165039 -10.829102 7
-0.251017 -4.457397 -10.851562 7
-0.096968003 -2.173584 13.136719 7
-0.054827001 -1.887939 12.963867 7
-0.048181999 -1.855225 12.93457 7
-0.048165999 -1.827881 12.938477 7
-0.047022 -1.799683 12.9375 7
-0.15453701 5.1010742 -9.9980469 7
-0.15669601 5.0787349 -10.019531 7
-0.1406 5.016602 -9.953125 7
-0.127739 4.9620361 -9.9003906 7
-0.126671 4.9327388 -9.9072266 7
-0.125587 4.9034419 -9.9130859 7
-0.13094901 4.887939 -9.9521484 7
-0.128813 4.8563228 -9.9521484 7
-0.13203201 4.835938 -9.9794922 7
-0.141691 4.8287349 -10.040039 7
-0.153492 4.8258061 -10.109375 7
-0.011618 -0.0095210001 -9.9052734 7
-0.0083370004 -0.036254998 -9.8867188 7
-0.0027999999 -0.062866002 -9.8583984 7
0.000504 -0.089354999 -9.8417969 7
0.00043499999 -0.115845 -9.8417969 7
0.00038899999 -0.14257801 -9.8408203 7
-0.001915 -0.169434 -9.8515615 7
-0.010916 -0.196899 -9.8974609 7
-0.016569 -0.22399899 -9.9248047 7
-0.01438 -0.25060999 -9.9130859 7
-0.0066129998 -0.276611 -9.8730469 7
-0.0033110001 -0.30273399 -9.8544922 7
-0.049518999 -0.96020502 -10.046875 7
-0.04623 -0.98584002 -10.027344 7
-0.049656 -1.014526 -10.042969 7
-0.056437001 -1.044678 -10.074219 7
-0.045306999 -1.066406 -10.014648 7
-0.049853999 -1.0955811 -10.035156 7
-0.047672 -1.121582 -10.020508 7
-0.047741 -1.148438 -10.017578 7
-0.065714002 -1.185059 -10.106445 7
-0.061296001 -1.209839 -10.081055 7
-0.062486999 -1.2375489 -10.083984 7
-0.059183002 -1.262939 -10.063477 7
-0.245441 -4.419189 -10.229492 7
-0.246655 -4.44873 -10.224609 7
-0.156231 5.1160889 -9.4003906 7
-0.157368 5.0926509 -9.4169922 7
-0.157368 5.066772 -9.4296885 7
-0.154011 5.0336909 -9.4257812 7
-0.158489 5.0175781 -9.4580078 7
-0.150656 4.9749761 -9.4335938 7
-0.154018 4.9561772 -9.4609385 7
-0.154011 4.9302979 -9.4726562 7
-0.15402 4.9044189 -9.484375 7
-0.14504801 4.8597412 -9.4550781 7
-0.14505599 4.8337402 -9.4658203 7
-0.14729901 4.8125 -9.4873047 7
-0.155155 4.8027339 -9.5351562 7
-0.026876001 -0.34362799 -9.3642578 7
-0.019873001 -0.36792001 -9.3291016 7
-0.015211 -0.392822 -9.3046885 7
-0.014082 -0.418091 -9.2978516 7
-0.0094219996 -0.44262701 -9.2744141 7
-0.018797001 -0.47009301 -9.3193359 7
-0.028181 -0.49792501 -9.3632812 7
-0.0222 -0.52282703 -9.4492188 7
-0.017584 -0.54748499 -9.4257812 7
-0.017645 -0.57312 -9.4238281 7
-0.017697999 -0.59863299 -9.421875 7
-0.021260999 -0.62524402 -9.4384766 7
-0.050067998 -0.97033697 -9.5498047 7
-0.060648002 -1.001099 -9.5986328 7
-0.054866999 -1.02417 -9.5683594 7
-0.058490999 -1.078003 -9.5800781 7
-0.050388001 -1.099854 -9.5371094 7
-0.052769002 -1.1268311 -9.5458984 7
-0.052829999 -1.152832 -9.5429688 7
-0.047047 -1.175781 -9.5117188 7
-0.062479001 -1.28772 -9.5751953 7
-0.064889997 -1.314819 -9.5820312 7
-0.063776001 -1.34021 -9.5742188 7
-0.26641801 -5.1151118 11.966797 7
-0.25803399 -5.0727539 11.943359 7
-0.26161999 -5.0550542 11.970703 7
-0.26400799 -5.0350342 11.992188 7
-0.26158899 -5.0050049 11.994141 7
-0.26756999 -4.992065 12.032227 7
-0.266357 -4.9646001 12.039062 7
-0.273527 -4.953979 12.081055 7
-0.265129 -4.9117432 12.056641 7
-0.26032999 -4.876709 12.047852 7
-0.25312799 -4.8372798 12.02832 7
-0.253113 -4.8121338 12.040039 7
-0.019667 -0.4021 -8.9863281 7
-0.019719999 -0.42663601 -8.9853516 7
-0.020987 -0.451538 -8.9902344 7
-0.030766999 -0.478149 -9.0351562 7
-0.028402001 -0.50219703 -9.0224609 7
-0.024800999 -0.52600098 -9.0029297 7
-0.023649 -0.55029303 -8.9960938 7
-0.021260999 -0.57421899 -8.9833984 7
-0.024977 -0.59985399 -9 7
-0.023817001 -0.62414598 -8.9931641 7
-0.039213002 -0.97448701 -9.0341797 7
-0.055096 -1.0062259 -9.1054688 7
-0.055140998 -1.031006 -9.1035156 7
-0.052784 -1.05481 -9.0888672 7
-0.054042999 -1.0802 -9.0927734 7
-0.052891001 -1.10437 -9.0839844 7
-0.054173 -1.129761 -9.0869141 7
-0.05302 -1.154053 -9.078125 7
-0.053073999 -1.178833 -9.0751953 7
-0.070169002 -1.212646 -9.1523438 7
-0.071459003 -1.238281 -9.1552734 7
-0.063000001 -1.258545 -9.1113281 7
-0.26156601 -5.110352 11.40918 7
-0.26654601 -5.097168 11.442383 7
-0.26530299 -5.0706792 11.450195 7
-0.27651799 -5.0700679 11.507812 7
-0.261536 -5.0152588 11.458984 7
-0.26775199 -5.004272 11.496094 7
-0.26524201 -4.951416 11.508789 7
-0.25772899 -4.864624 11.513672 7
-0.052414 -1.9456789 11.510742 7
-0.025183 -0.64343297 -8.5292969 7
-0.030324999 -0.66821301 -8.5507812 7
-0.029104 -0.69140601 -8.5439453 7
-0.020271 -0.71203601 -8.5019531 7
-0.016502 -0.73413098 -8.4833984 7
-0.015282 -0.75720203 -8.4755859 7
-0.017875999 -0.78137201 -8.4853516 7
-0.020477001 -0.80578601 -8.4951172 7
-0.037062 -0.83544898 -8.5673828 7
-0.038382001 -0.859375 -8.5712891 7
-0.033360999 -0.88098103 -8.5449219 7
-0.030858999 -0.90344203 -8.5322266 7
-0.024567001 -0.92431599 -8.5009766 7
-0.027159 -0.94885302 -8.5107422 7
-0.031034 -0.97387701 -8.5253906 7
-0.038717002 -1.000977 -8.5576172 7
-0.045134 -1.027344 -8.5830078 7
-0.050289001 -1.053467 -8.6025391 7
-0.052891001 -1.078125 -8.6113281 7
-0.044043001 -1.0975339 -8.5693359 7
-0.039014999 -1.118652 -8.5439453 7
-0.041616 -1.143433 -8.5527344 7
-0.044202998 -1.168213 -8.5605469 7
-0.044271 -1.191895 -8.5576172 7
-0.057041001 -1.22229 -8.6123047 7
-0.060931999 -1.248047 -8.625 7
-0.064792998 -1.273926 -8.6396484 7
-0.26205999 -5.0892329 10.863281 7
-0.255539 -5.0532231 10.851562 7
-0.25553101 -5.0307622 10.863281 7
-0.25551599 -5.0085449 10.875 7
-0.25290701 -4.9807129 10.875977 7
-0.045180999 -1.899536 11.025391 7
-0.045157999 -1.876587 11.030273 7
-0.047729 -1.856079 11.045898 7
-0.049004 -1.8343509 11.055664 7
-0.048973002 -1.811401 11.05957 7
-0.04245 -1.783569 11.036133 7
-0.037218001 -1.756592 11.017578 7
-0.033296999 -1.730835 11.004883 7
-0.033266 -1.7080081 11.008789 7
-0.037133999 -1.688354 11.029297 7
-0.043609999 -1.67041 11.0625 7
-0.039696001 -1.644653 11.048828 7
-0.038355 -1.620972 11.046875 7
-0.058169998 -0.96838403 -8.2353516 7
-0.059544001 -0.99182099 -8.2382812 7
-0.050344002 -1.010376 -8.1962891 7
-0.049070001 -1.0324709 -8.1884766 7
-0.045155998 -1.053345 -8.1689453 7
-0.04521 -1.075928 -8.1660156 7
-0.054515999 -1.103027 -8.203125 7
-0.051931001 -1.124512 -8.1894531 7
-0.051984999 -1.147095 -8.1865234 7
-0.057339001 -1.1726069 -8.2070312 7
-0.056056999 -1.19458 -8.1982422 7
-0.060084999 -1.219604 -8.2119141 7
-0.076021001 -1.251099 -8.2773438 7
-0.077417001 -1.274536 -8.2792969 7
-0.26282901 -4.3786621 -8.1660156 7
-0.268208 -4.4107671 -8.1757812 7
-0.26031101 -4.4188228 -8.1347656 7
-0.25108901 -4.4246831 -8.0888672 7
-0.25516099 -4.4544678 -8.0927734 7
-0.25521499 -4.4769292 -8.0830078 7
-0.358448 -6.0921631 -7.6445308 7
-0.357189 -6.110352 -7.625 7
-0.34927899 -6.1124272 -7.5820308 7
-0.34403801 -6.120728 -7.5488281 7
-0.34411401 -6.1418462 -7.5332031 7
-0.34419799 -6.1630859 -7.5185552 7
-0.34562501 -6.1873779 -7.507812 7
-0.35367399 -6.2279048 -7.5214839 7
-0.35242999 -6.245728 -7.5019531 7
-0.352507 -6.2668462 -7.4873052 7
-0.36189699 -6.3110352 -7.5058589 7
-0.365971 -6.3417969 -7.5048828 7
-0.370029 -6.3730469 -7.5039058 7
-0.27433601 -5.1043701 10.426758 7
-0.27162701 -5.0775151 10.428711 7
-0.264853 -5.0421138 10.416016 7
-0.266211 -5.02356 10.433594 7
-0.266195 -5.0020752 10.445312 7
-0.267553 -4.983398 10.461914 7
-0.27024701 -4.9674072 10.483398 7
-0.270239 -4.9459229 10.495117 7
-0.278339 -4.9406738 10.537109 7
-0.27698901 -4.9162598 10.544922 7
-0.270224 -4.8812261 10.53125 7
-0.267508 -4.854248 10.533203 7
-0.26208299 -4.8218989 10.524414 7
-0.26207501 -4.800293 10.535156 7
-0.05455 -1.919067 10.663086 7
-0.053176999 -1.896118 10.662109 7
-0.054497 -1.875244 10.672852 7
-0.055831999 -1.85437 10.682617 7
-0.063917004 -1.839233 10.719727 7
-0.061186001 -1.814819 10.713867 7
-0.044945002 -1.779907 10.650391 7
-0.040863 -1.754761 10.637695 7
-0.042183001 -1.734009 10.647461 7
-0.042160001 -1.712158 10.651367 7
-0.038086001 -1.687134 10.639648 7
-0.048866 -1.673462 10.6875 7
-0.042091001 -1.646484 10.664062 7
-0.042061001 -1.624512 10.667969 7
-0.042038001 -1.6025389 10.671875 7
-0.260786 -5.0102539 9.9277344 7
-0.257956 -4.9842529 9.9287109 7
-0.25793299 -4.9439702 9.9521484 7
-0.26496699 -4.9378662 9.9892578 7
-0.267782 -4.9229741 10.010742 7
-0.26215899 -4.8913569 10.003906 7
-0.25791001 -4.8421631 10.011719 7
-0.259321 -4.824707 10.02832 7
-0.040764 -1.891724 10.21582 7
-0.040725999 -1.87085 10.219727 7
-0.040709998 -1.8499759 10.224609 7
-0.039207 -1.765137 10.236328 7
-0.02791 -1.7146 10.200195 7
-0.030710001 -1.695923 10.21582 7
-0.026476 -1.671997 10.204102 7
-0.019378999 0.98608398 10.299805 7
-0.019355999 1.00708 10.297852 7
-0.02211 1.0294189 10.306641 7
-0.020638 1.070801 10.295898 7
-0.026222 1.094727 10.316406 7
-0.036001001 1.120728 10.352539 7
-0.027512001 1.158691 10.314453 7
-0.035879001 1.184082 10.344727 7
-0.037245002 1.206177 10.347656 7
-0.031560998 1.245239 10.319336 7
-0.041356999 1.272095 10.356445 7
-0.27440301 -5.119873 9.4882812 7
-0.25836 -5.0675049 9.4482422 7
-0.25398099 -5.0393071 9.4453115 7
-0.255438 -5.0231929 9.4628906 7
-0.25688699 -5.0070801 9.4794922 7
-0.25980899 -4.993896 9.5009766 7
-0.25541499 -4.9659419 9.4980469 7
-0.25397301 -4.9437261 9.5058594 7
-0.25395799 -4.9246831 9.5166016 7
-0.25978699 -4.9171138 9.5488281 7
-0.25540701 -4.8890381 9.5449219 7
-0.25977901 -4.8786621 9.5712891 7
-0.25394201 -4.8475342 9.5634766 7
-0.25537699 -4.8310552 9.5791016 7
-0.25685701 -4.8145752 9.5966797 7
-0.037781 -1.898193 9.8574219 7
-0.040679999 -1.880615 9.8740234 7
-0.0392 -1.859253 9.8720703 7
-0.037712 -1.838135 9.8701172 7
-0.047897 -1.826416 9.9140615 7
-0.049339 -1.807373 9.9238281 7
-0.046402 -1.7850339 9.9169922 7
-0.033257 -1.754395 9.8710938 7
-0.025948999 -1.72876 9.8476562 7
-0.027391 -1.709839 9.8574219 7
-0.027369 -1.689941 9.8613281 7
-0.021508999 -1.665527 9.8427734 7
-0.030235 -1.6521 9.8798828 7
-0.037505999 -1.637207 9.9130859 7
-0.031661998 -1.612793 9.8945312 7
-0.02462 0.971802 9.9853516 7
-0.015861999 0.988159 9.9501953 7
-0.01873 1.009644 9.9589844 7
-0.01725 1.029297 9.9511719 7
-0.018654 1.0500489 9.9541016 7
-0.017174 1.06958 9.9462891 7
-0.0186 1.090454 9.9492188 7
-0.028737999 1.115845 9.9853516 7
-0.027243 1.135498 9.9765615 7
-0.028669 1.156372 9.9794922 7
-0.032995 1.178955 9.9941406 7
-0.028585 1.1968991 9.9736328 7
-0.031461999 1.218872 9.9824219 7
-0.032887999 1.23999 9.9853516 7
-0.031378001 1.2593991 9.9765615 7
-0.121822 4.7979741 -6.335938 7
-0.118954 4.773438 -6.3378911 7
-0.116116 4.7492681 -6.3378911 7
-0.118961 4.7366939 -6.358398 7
-0.12038 4.7209468 -6.375 7
-0.121815 4.7052002 -6.391602 7
-0.245985 -4.4338379 -6.7128911 7
-0.246115 -4.472168 -6.6914058 7
-0.26411799 -5.100708 9.0117188 7
-0.27472299 -5.1046138 9.0566406 7
-0.2626 -5.061523 9.0302734 7
-0.25654399 -5.0310059 9.0244141 7
-0.258055 -5.0158691 9.0410156 7
-0.259565 -5.000977 9.0566406 7
-0.25048599 -4.964355 9.0400391 7
-0.255018 -4.9555659 9.0664062 7
-0.250471 -4.9281011 9.0644531 7
-0.258039 -4.9251709 9.0986328 7
-0.26106599 -4.9129639 9.1210938 7
-0.25652099 -4.8857422 9.1181641 7
-0.270138 -4.8947749 9.1728516 7
-0.268635 -4.8731689 9.1806641 7
-0.25651401 -4.830688 9.1533203 7
-0.25499499 -4.8093262 9.1601562 7
-0.045967001 -1.908325 9.5419922 7
-0.052007999 -1.894165 9.5683594 7
-0.051991999 -1.874878 9.5732422 7
-0.042885002 -1.847778 9.5449219 7
-0.051947001 -1.83606 9.5820312 7
-0.056456 -1.820435 9.6025391 7
-0.048872001 -1.7950439 9.5791016 7
-0.048841 -1.775635 9.5830078 7
-0.036727998 -1.746704 9.5439453 7
-0.038222998 -1.7286381 9.5537109 7
-0.03215 -1.704712 9.5341797 7
-0.032120001 -1.685547 9.5390615 7
-0.036651999 -1.669556 9.5595703 7
-0.048712 -1.659302 9.6074219 7
-0.035087999 -1.6298831 9.5615234 7
-0.039604001 -1.613892 9.5820312 7
-0.029394001 0.97522002 9.6660156 7
-0.038435001 0.99890101 9.6982422 7
-0.033872999 1.016479 9.6787109 7
-0.023267999 1.031006 9.6367188 7
-0.02021 1.049072 9.6230469 7
-0.023198999 1.0699461 9.6318359 7
-0.029188 1.092285 9.6513672 7
-0.026136 1.110352 9.6376953 7
-0.033651002 1.1337889 9.6630859 7
-0.038153 1.15564 9.6777344 7
-0.045666002 1.179199 9.703125 7
-0.041081998 1.196411 9.6826172 7
-0.035009 1.212646 9.6572266 7
-0.041021001 1.235474 9.6767578 7
-0.044002999 1.2568361 9.6855469 7
-0.042454001 1.275391 9.6767578 7
-0.118336 4.7956538 -5.8955078 7
-0.127239 4.7965088 -5.9355469 7
-0.124271 4.7729492 -5.936523 7
-0.11832 4.7432861 -5.929688 7
-0.121281 4.731689 -5.9501948 7
-0.118313 4.7081299 -5.952148 7
-0.127224 4.7086182 -5.9912109 7
-0.13462999 4.7060552 -6.0263672 7
-0.13759001 4.6942139 -6.047852 7
-0.145014 4.6912842 -6.0830078 7
-0.147972 4.6794429 -6.1035161 7
-0.131639 4.6290278 -6.0605469 7
-0.125706 4.5991211 -6.0527339 7
-0.130144 4.59021 -6.079102 7
-0.140543 4.592773 -6.1230469 7
-0.131624 4.557373 -6.1054692 7
-0.128649 4.5334468 -6.1064448 7
-0.139048 4.5358891 -6.1503911 7
-0.133112 4.5062261 -6.1425781 7
-0.237045 -4.167603 -6.4443359 7
-0.23403201 -4.1807861 -6.4248052 7
-0.235626 -4.2020259 -6.4199219 7
-0.241859 -4.2312012 -6.429688 7
-0.241928 -4.2497559 -6.4189448 7
-0.24507099 -4.2736821 -6.4179692 7
-0.24821299 -4.2976069 -6.4179692 7
-0.24056999 -4.3023682 -6.3837891 7
-0.24371301 -4.3262939 -6.3837891 7
-0.25149301 -4.358521 -6.3974609 7
-0.246925 -4.3686519 -6.3720698 7
-0.257772 -4.4064941 -6.3974609 7
-0.248594 -4.4080811 -6.3554692 7
-0.24866299 -4.4263921 -6.3457031 7
-0.24254601 -4.4334722 -6.3154302 7
-0.24570499 -4.457397 -6.3144531 7
-0.245766 -4.475708 -6.3037109 7
-0.27031299 -5.106689 8.6455078 7
-0.267178 -5.0831299 8.6484385 7
-0.26405001 -5.0594478 8.6513672 7
-0.24996001 -4.961792 8.6572266 7
-0.25309601 -4.9508061 8.6777344 7
-0.24996801 -4.9273682 8.6806641 7
-0.251524 -4.9134521 8.6962891 7
-0.25153199 -4.8961182 8.7089844 7
-0.25465199 -4.8850098 8.7294922 7
-0.25935701 -4.8770752 8.7558594 7
-0.260914 -4.862793 8.7714844 7
-0.264034 -4.85144 8.7919922 7
-0.25934201 -4.824585 8.7900391 7
-0.25620699 -4.8010249 8.7919922 7
-0.055937 -1.905151 9.2783203 7
-0.055914 -1.886597 9.2832031 7
-0.057470001 -1.8692631 9.2929688 7
-0.057447001 -1.8505861 9.296875 7
-0.057432 -1.831787 9.3017578 7
-0.057417002 -1.8132319 9.3066406 7
-0.062070999 -1.798218 9.3271484 7
-0.062056001 -1.779541 9.3310547 7
-0.058905002 -1.7581789 9.3242188 7
-0.040123001 -1.7249759 9.2626953 7
-0.046354 -1.7113039 9.2890615 7
-0.046339002 -1.692627 9.2929688 7
-0.044767 -1.672729 9.2919922 7
-0.044737 -1.653931 9.2958984 7
-0.044721998 -1.635254 9.2998047 7
-0.049398001 -1.6201169 9.3203115 7
-0.047812 -1.60022 9.3183594 7
-0.26472899 -5.1082759 8.1933594 7
-0.25661099 -5.0751948 8.1835938 7
-0.26147801 -5.0693359 8.2089844 7
-0.26148599 -5.0531011 8.2216797 7
-0.25986099 -5.033813 8.2285156 7
-0.25336799 -5.0041499 8.2216797 7
-0.24526 -4.971313 8.2119141 7
-0.246878 -4.9586182 8.2275391 7
-0.25174299 -4.952271 8.2529297 7
-0.250135 -4.9327388 8.2607422 7
-0.246878 -4.9100342 8.2626953 7
-0.248503 -4.8970952 8.2792969 7
-0.248503 -4.8808589 8.2900391 7
-0.24524499 -4.8579102 8.2929688 7
-0.25012001 -4.8511958 8.3183594 7
-0.060377002 -1.906006 8.9707031 7
-0.053869002 -1.88269 8.953125 7
-0.052221 -1.863403 8.9521484 7
-0.050581001 -1.84436 8.9511719 7
-0.052191 -1.827759 8.9609385 7
-0.050549999 -1.808594 8.9589844 7
-0.053778 -1.793335 8.9746094 7
-0.065113001 -1.7844239 9.0175781 7
-0.050496999 -1.755005 8.9716797 7
-0.053716999 -1.739746 8.9873047 7
-0.037482999 -1.709229 8.9365234 7
-0.035828002 -1.690063 8.9345703 7
-0.043921001 -1.678467 8.9667969 7
-0.037415002 -1.65564 8.9482422 7
-0.035774 -1.636719 8.9462891 7
-0.047125001 -1.627197 8.9892578 7
-0.043852001 -1.606812 8.9814453 7
-0.02844 0.97656202 9.0546885 7
-0.015472 0.98889202 9.0078115 7
-0.020284999 1.008911 9.0224609 7
-0.020253999 1.0271 9.0205078 7
-0.015358 1.042725 9.0009766 7
-0.015327 1.060791 8.9980469 7
-0.01368 1.078003 8.9902344 7
-0.018499 1.098267 9.0048828 7
-0.023321001 1.118652 9.0185547 7
-0.023290999 1.136597 9.015625 7
-0.018415 1.1521 8.9970703 7
-0.018385001 1.1700439 8.9951172 7
-0.016721999 1.187134 8.9863281 7
-0.026411001 1.2105711 9.0175781 7
-0.032857999 1.231934 9.0371094 7
-0.029577 1.248291 9.0224609 7
-0.036022 1.269897 9.0419922 7
-0.25145701 -4.4901118 -5.515625 7
-0.25150299 -4.5065918 -5.5058589 7
-0.24659 -4.5135498 -5.4804692 7
-0.24996901 -4.5358891 -5.4785161 7
-0.250038 -4.5523682 -5.467773 7
-0.246773 -4.5622559 -5.4472661 7
-0.255211 -4.610229 -5.4482422 7
-0.26522601 -4.6452641 -5.4658198 7
-0.27359599 -4.6773682 -5.4785161 7
-0.34909099 -6.2095952 -4.4755859 7
-0.34250799 -6.2070308 -4.445312 7
-0.34256199 -6.2209468 -4.4306641 7
-0.35095999 -6.2553711 -4.4345698 7
-0.35433999 -6.2772222 -4.4277339 7
-0.34940299 -6.278687 -4.4013672 7
-0.34614 -6.2840581 -4.3789058 7
-0.34954101 -6.3060298 -4.3720698 7
-0.35626999 -6.3361821 -4.3710942 7
-0.34800899 -6.329102 -4.3378911 7
-0.35304999 -6.3553472 -4.3339839 7
-0.359795 -6.385498 -4.3339839 7
-0.067959003 -1.908813 8.6884766 7
-0.057844002 -1.883057 8.6591797 7
-0.056157999 -1.864624 8.6591797 7
-0.062870003 -1.852783 8.6865234 7
-0.059489999 -1.8330081 8.6796885 7
-0.051068999 -1.808838 8.6572266 7
-0.057774998 -1.797119 8.6826172 7
-0.059436999 -1.781128 8.6923828 7
-0.062771 -1.766479 8.7080078 7
-0.059390999 -1.7468261 8.7011719 7
-0.042562 -1.716553 8.6503906 7
-0.049268998 -1.7043459 8.6767578 7
-0.045889001 -1.684692 8.6699219 7
-0.039136998 -1.662598 8.6503906 7
-0.042479001 -1.647827 8.6660156 7
-0.044165 -1.631958 8.6757812 7
-0.055906001 -1.623291 8.7177734 7
-0.052526001 -1.603516 8.7109385 7
-0.031645 0.97570801 8.7705078 7
-0.01483 0.98571801 8.7119141 7
-0.031590998 1.010498 8.765625 7
-0.023161 1.02417 8.7353516 7
-0.018103 1.03894 8.7167969 7
-0.013021 1.053955 8.6972656 7
-0.0096439999 1.06958 8.6835938 7
-0.018011 1.09082 8.7089844 7
-0.017973 1.1081541 8.7070312 7
-0.012915 1.122925 8.6875 7
-0.016233001 1.141724 8.6962891 7
-0.016194999 1.158936 8.6933594 7
-0.027929001 1.1826169 8.7304688 7
-0.032917 1.202515 8.7441406 7
-0.032887001 1.219849 8.7412109 7
-0.036212999 1.2392581 8.7490234 7
-0.037852999 1.2574461 8.7509766 7
-0.027745999 1.269043 8.7148438 7
-0.34452999 -6.0848389 -4.1162109 7
-0.34805501 -6.1062012 -4.108398 7
-0.34811601 -6.1192632 -4.094727 7
-0.351616 -6.140625 -4.0878911 7
-0.34823 -6.1451421 -4.0654302 7
-0.351753 -6.1665039 -4.0576172 7
-0.35523999 -6.1876221 -4.0507808 7
-0.35530099 -6.200562 -4.0371089 7
-0.35536999 -6.213501 -4.0214839 7
-0.346811 -6.2050781 -3.988281 7
-0.35377499 -6.2349849 -3.988281 7
-0.343485 -6.2220459 -3.952148 7
-0.341822 -6.2305908 -3.933594 7
-0.34531599 -6.2514648 -3.925781 7
-0.34884101 -6.2727051 -3.917969 7
-0.352341 -6.2938228 -3.9111331 7
-0.35239601 -6.306519 -3.8955081 7
-0.35247201 -6.3189702 -3.8808589 7
-0.34907001 -6.3227539 -3.858398 7
-0.35087001 -6.3396001 -3.847656 7
-0.356087 -6.3648682 -3.842773 7
-0.26639 -5.114502 7.3945308 7
-0.262936 -5.0930181 7.398438 7
-0.26292801 -5.0788569 7.4101558 7
-0.26815999 -5.075439 7.4355469 7
-0.261204 -5.0466309 7.4306641 7
-0.25945699 -5.0288091 7.438477 7
-0.262936 -5.021729 7.4580078 7
-0.245518 -4.9716802 7.4267578 7
-0.24902 -4.9646001 7.4472661 7
-0.247272 -4.9467769 7.4550781 7
-0.249027 -4.9359131 7.4707031 7
-0.249027 -4.9215088 7.4824219 7
-0.243793 -4.8964839 7.4804692 7
-0.243809 -4.8820801 7.492188 7
-0.242071 -4.8642578 7.5 7
-0.24729501 -4.860352 7.5244141 7
-0.254269 -4.8596191 7.5537109 7
-0.256008 -4.8485112 7.570312 7
-0.249043 -4.8200679 7.5644531 7
-0.058063999 -1.91272 8.3671885 7
-0.063274004 -1.9005131 8.3886719 7
-0.051068999 -1.873901 8.3544922 7
-0.049314 -1.855957 8.3544922 7
-0.054533001 -1.843872 8.375 7
-0.052763 -1.825928 8.3730469 7
-0.049276002 -1.806519 8.3671885 7
-0.057957001 -1.796997 8.3984385 7
-0.052717 -1.776489 8.3867188 7
-0.057934001 -1.763916 8.4072266 7
-0.052687 -1.743408 8.3945312 7
-0.047444999 -1.722656 8.3828115 7
-0.043958999 -1.703491 8.3759766 7
-0.045674998 -1.688354 8.3847656 7
-0.042172998 -1.669312 8.3779297 7
-0.042158 -1.652832 8.3828115 7
-0.038671002 -1.633667 8.3759766 7
-0.047346 -1.623535 8.40625 7
-0.043844 -1.604248 8.3994141 7
-0.012014 0.96484399 8.4326172 7
-0.013723 0.98217797 8.4355469 7
-0.017163999 1.000366 8.4443359 7
-0.027563 1.021729 8.4755859 7
-0.017103 1.033569 8.4404297 7
-0.011854 1.047852 8.4208984 7
-0.013563 1.065308 8.4238281 7
-0.01354 1.081787 8.4208984 7
-0.015249 1.099121 8.4238281 7
-0.013472 1.11499 8.4169922 7
-0.013449 1.131592 8.4140615 7
-0.013411 1.1480711 8.4111328 7
-0.013388 1.164673 8.4082031 7
-0.016821001 1.182983 8.4160156 7
-0.023740999 1.203491 8.4355469 7
-0.032391001 1.224854 8.4599609 7
-0.025412001 1.2375489 8.4355469 7
-0.027128 1.255249 8.4384766 7
-0.025358001 1.270996 8.4296885 7
-0.35594901 -6.23877 -3.5185549 7
-0.35600501 -6.2503662 -3.5048831 7
-0.35427299 -6.2575679 -3.485352 7
-0.347193 -6.2515869 -3.4580081 7
-0.35260999 -6.276123 -3.452148 7
-0.35445601 -6.2921138 -3.4404299 7
-0.352732 -6.2990718 -3.422852 7
-0.35279301 -6.3106689 -3.4082029 7
-0.35463899 -6.3262939 -3.3964839 7
-0.35289201 -6.333252 -3.3779299 7
-0.35653099 -6.3535161 -3.3691411 7
-0.35659999 -6.3648682 -3.3544919 7
-0.35486799 -6.37146 -3.3349609 7
-0.36028299 -6.3961182 -3.329102 7
-0.26084501 -5.081665 7.0253911 7
-0.018049 0.96508801 8.1953115 7
-0.028790999 0.98571801 8.2265615 7
-0.019796001 0.99792498 8.1962891 7
-0.019750999 1.013916 8.1933594 7
-0.014341 1.0274661 8.1748047 7
-0.021482 1.046875 8.1943359 7
-0.023267999 1.0637209 8.1972656 7
-0.028613999 1.082397 8.2119141 7
-0.019606 1.094116 8.1806641 7
-0.023176 1.111816 8.1894531 7
-0.026738999 1.129761 8.1982422 7
-0.024916001 1.144897 8.1904297 7
-0.021299001 1.159058 8.1767578 7
-0.028446 1.1787111 8.1962891 7
-0.028423 1.1949461 8.1933594 7
-0.019407 1.206055 8.1630859 7
-0.031939998 1.229004 8.1992188 7
-0.019354001 1.238037 8.1572266 7
-0.019308001 1.254028 8.1542969 7
-0.035457999 1.279175 8.2011719 7
-0.051178001 -2.000175 13.237722 7
-0.28196001 -4.9655762 11.450205 7
-0.065641999 -1.734622 10.675591 7
-0.036263 1.062269 10.547342 7
-0.248035 -4.9839869 10.150043 7
-0.055473998 -1.810903 9.9498997 7
-0.025568999 1.199355 9.8524456 7
0.0020379999 1.059978 9.1797295 7
-0.29768401 -4.9128318 9.1298037 7
-0.104248 -1.864518 9.3280697 7
-0.096707001 -1.62535 9.3463478 7
-0.26085201 -4.9592881 8.0335035 7
-0.269853 -4.8231812 8.2678471 7
-0.076787002 -1.674158 8.790741 7
-0.033987001 1.15417 8.6560116 7
-0.080275998 -1.7576129 8.4350929 7
-0.023906 1.063554 8.2953539 7
-0.034731001 1.259779 8.314189 7
-0.245335 -5.048553 6.339777 7
-0.22792301 -4.8449898 6.497261 7
-0.054396 -1.759889 7.9607391 7
-0.0081390003 0.97592503 7.9466648 7
-0.013695 1.147704 7.9360652 7
-0.0026140001 1.0637569 7.652782 7
-0.071006998 -1.749052 7.5403538 7
-0.041228 1.211072 7.598525 7
-0.238507 -4.553741 5.0530338 7
-0.054095 -1.755172 7.2162519 7
-0.021443 0.978055 7.3631992 7
-0.035222001 1.137922 7.3849292 7
-0.09341 -4.2521482 -12.455264 7
-0.233934 -4.321332 -9.988821 7
-0.13454001 -2.254333 14.594392 7
-0.213404 -4.3705029 -8.1423111 7
0.026905 -1.3352129 -5.7933569 7
-0.192387 -4.3875942 -6.6562471 7
0.027310999 -1.30478 -4.9633141 7
-0.011506 -1.765866 10.879663 7
-0.35318199 -4.9132619 11.449551 7
-0.065488003 -1.59506 -4.2964411 7
-0.40274501 -6.7537699 9.565649 7
-0.308314 -5.0952058 10.250469 7
-0.305509 -4.806273 10.431599 7
-0.043806002 -1.678393 10.010462 7
-0.37534699 -6.2153921 -3.276866 7
-0.26371101 -4.9509082 9.3948994 7
-0.059962001 -1.906476 9.5927057 7
-0.027324 -1.623669 9.4587612 7
-0.24512801 -4.8828802 8.7648258 7
-0.032249998 -1.828234 9.0389242 7
-0.218247 -4.6690769 -2.222692 7
-0.31617701 -5.0703659 8.109314 7
-0.29620299 -4.8142371 8.2118969 7
-0.072879001 -1.765089 8.6014175 7
-0.26712701 -4.60532 -1.67228 7
-0.275592 -4.9188461 7.5469708 7
-0.25767699 -4.5732088 -1.223824 7
-0.2872 -5.079968 7.0313959 7
-0.062453002 -1.87749 7.9619212 7
-0.039754 -1.667333 7.9097409 7
0.00051400001 -1.409674 -1.312541 7
-0.242616 -4.671494 -0.63189799 7
-0.24936301 -4.9134259 6.581799 7
-0.258028 -4.8032799 6.7738771 7
-0.02658 -1.807512 7.5803571 7
-0.0059210001 -1.615001 7.5370498 7
0.0053869998 -1.388016 -1.068683 7
-0.0050400002 -1.571545 -1.076586 7
-0.229525 -4.6034288 -0.25447801 7
-0.235989 -4.7538319 -0.107099 7
-0.29937699 -4.969171 6.0918822 7
-0.28420201 -4.806046 6.2240539 7
-0.051761001 -1.7543319 7.29634 7
-0.023209 -1.363221 -0.798186 7
-0.032566998 -1.534705 -0.80161601 7
-0.26579499 -4.5222068 0.098433003 7
-0.25413099 -4.605866 0.285671 7
-0.056563001 -1.885507 7.0954032 7
-0.029606 -1.707341 7.040339 7
-0.011464 -1.343876 -0.57849503 7
-0.023758 -1.5075721 -0.59403598 7
-0.236579 -4.6129718 0.754475 7
-0.24250799 -4.7222428 0.902623 7
-0.00128 -1.326561 -0.381942 7
-0.012211 -1.481323 -0.39269701 7
-0.022276999 -1.5994101 -0.40302601 7
-0.222167 -4.7136889 4.8689651 7
-0.229718 -4.666954 5.0352659 7
0.011357 -1.309855 -0.191586 7
0.001861 -1.455968 -0.197706 7
0.022932 -1.294693 -0.018802 7
-0.25995499 -4.639895 1.7298599 7
-0.270666 -4.7249489 1.874362 7
-0.267019 -4.761487 2.0371959 7
-0.25954399 -4.7323079 4.3018498 7
-0.26098299 -4.6891751 4.4588232 7
-0.027868999 -1.434213 -0.037668999 7
-0.030765999 -1.570878 -0.015912 7
-0.25529301 -4.5505462 1.938362 7
-0.255014 -4.595202 2.090385 7
-0.25650099 -4.6389289 2.242321 7
-0.246821 -4.6436701 2.403481 7
-0.248014 -4.674192 2.5570741 7
-0.249134 -4.6984391 2.71173 7
-0.255595 -4.7326422 2.8655379 7
-0.250967 -4.727438 3.023277 7
-0.24798501 -4.7210269 3.1798201 7
-0.249143 -4.7209868 3.3357611 7
-0.249624 -4.7128148 3.4914911 7
-0.24438401 -4.681478 3.644886 7
-0.248264 -4.6713901 3.8002911 7
-0.246222 -4.5647068 4.2540908 7
-0.236642 -4.492115 4.3936062 7
-0.236422 -4.4904861 2.4386511 7
-0.23755001 -4.5197201 2.5857811 7
-0.242394 -4.5538769 2.7323411 7
-0.24136101 -4.5652289 2.8823371 7
-0.23838501 -4.5650272 3.0327079 7
-0.235232 -4.5584149 3.1824319 7
-0.236394 -4.558506 3.331553 7
-0.234908 -4.5450792 3.4800999 7
-0.23137499 -4.5199661 3.6270831 7
-0.233456 -4.5053201 3.7749 7
0.038465999 1.07353 -12.029444 7
-0.25367701 4.9208822 -9.541811 7
-0.0059349998 1.095325 9.8271875 7
-0.035011999 1.078514 8.8195877 7
-0.017949 1.072772 8.4177237 7
0.00272 1.067529 8.0398836 7
0.012423 1.11028 7.7421608 7
-0.019427 1.10179 7.4589891 7
-0.033716001 1.280001 7.4856381 7
-0.175073 -3.992367 -19.456316 7
-0.13574301 5.016366 -18.08201 7
0.005235 1.595974 -14.33775 7
-0.321807 -4.2303171 -14.892785 7
-0.27783501 4.9506822 -13.841595 7
-0.037245002 -0.675726 -8.716671 7
-0.084551997 -1.087467 -9.4050684 7
-0.284742 -4.3266048 -11.904996 7
-0.185792 4.8471942 -10.072078 7
-0.035018001 -1.125877 -7.5968561 7
-0.25709301 -4.3569832 -9.8053694 7
-0.014296 -1.177323 -6.5459251 7
-0.231638 -4.3231521 -8.1974869 7
-0.209768 -4.49331 -7.8298812 7
-0.17981599 4.7216249 -6.2250371 7
-0.070229001 -1.465623 -5.909255 7
-0.267205 -4.4070959 -6.642797 7
-0.029397 -1.061306 -5.1912179 7
-0.033787001 -1.243154 -5.1866961 7
-0.050338998 -1.461467 -5.2725768 7
-0.238905 -4.480309 -5.4839611 7
-0.035852998 -1.459214 -4.7756772 7
-0.23087101 -4.4059 -4.7484841 7
-0.33231401 -6.122314 -3.982192 7
-0.31456599 -6.2758932 -3.437228 7
-0.016363 -1.294818 -4.3670349 7
-0.027891001 -1.466285 -4.3933592 7
-0.22013099 -4.4342499 -3.9239991 7
-0.037558001 -1.295267 -4.0143309 7
-0.053746 -1.46316 -4.0545292 7
-0.25116199 -4.5252872 -2.797688 7
-0.252464 -4.6225271 -2.6168611 7
-0.027784999 -1.302195 -3.734936 7
-0.037246 -1.439844 -3.732547 7
-0.040692002 -1.468079 -3.5412719 7
-0.033783 -1.532735 -1.582217 7
-0.040874001 -1.575634 -1.523746 7
-0.039264999 -1.588986 -1.457243 7
-0.030505 -1.468591 -1.5640039 7
-0.021755001 -1.462023 -1.496829 7
-0.014818 -1.457875 -1.43198 7
-0.025862999 -1.50611 -1.376212 7
-0.025812 -1.520606 -1.297519 7
-0.034988001 -1.5580519 -1.235402 7
-0.031665001 -1.553906 -1.170036 7
-0.024823001 -1.535936 -1.105531 7
-0.028639 -1.548719 -1.040094 7
-0.020079 -1.519901 -0.97803599 7
-0.025703 -1.532896 -0.91115898 7
-0.02427 -1.521022 -0.84733599 7
-0.0087440005 -1.3351361 -1.587629 7
-0.009145 -1.356676 -1.5325249 7
-0.018813999 -1.40292 -1.482693 7
-0.015461 -1.409234 -1.422423 7
-0.028813999 -1.462538 -1.369487 7
-0.025447 -1.464041 -1.30738 7
-0.023665 -1.46951 -1.23051 7
-0.024001 -1.476313 -1.168961 7
-0.018883999 -1.464022 -1.107527 7
-0.026581001 -1.48799 -1.044274 7
-0.016012 -1.453981 -0.98539102 7
-0.018271999 -1.456269 -0.92302698 7
-0.0059890002 -1.412195 -0.86903602 7
0.002575 -1.29565 -1.457342 7
-0.013831 -1.3124911 -1.40347 7
-0.024208 -1.353801 -1.352933 7
-0.020808 -1.354802 -1.295406 7
-0.027222 -1.380936 -1.239854 7
-0.021593001 -1.371938 -1.167367 7
-0.022138 -1.376258 -1.109764 7
-0.022710999 -1.378244 -1.0518301 7
-0.019406 -1.366834 -0.99495 7
-0.019983999 -1.363981 -0.93711901 7
-0.010961 -1.3317519 -0.884727 7
-0.013524 -1.329693 -0.82672501 7
-0.020267 -1.299763 -1.3447371 7
-0.022896999 -1.3168629 -1.291177 7
