# .PCD v0.7 - Point Cloud Data file format
VERSION 0.7
FIELDS x y z intensity
SIZE 4 4 4 4
TYPE F F F F
COUNT 1 1 1 1
WIDTH 997
HEIGHT 1
VIEWPOINT 0 0 0 1 0 0 0
POINTS 997
DATA ascii
-0.34971201 -3.544739 67.923828 7
-0.40154999 -3.4567261 69.299805 7
-0.47118801 -3.38501 71.142578 7
-0.24281301 -0.51544201 65.323242 7
-0.297894 -0.372192 66.780273 7
-0.29322401 -0.216919 66.663086 7
-0.248299 -0.90924102 -64.226562 7
-0.34783199 -3.7744751 61.533203 7
-0.388924 -3.6911621 62.523438 7
-0.44254699 -3.6204829 63.811523 7
-0.52048898 -3.57605 65.676758 7
-0.271328 -0.89520299 59.927734 7
-0.30718201 -0.76763898 60.790039 7
-0.30695301 -0.62719703 60.791016 7
-0.28744501 1.482788 60.385742 7
-0.26346201 1.6071171 59.816406 7
-0.249035 1.735352 59.472656 7
-0.303516 4.7338872 60.730469 7
-0.237881 2.825012 -63.958984 7
-0.31372499 2.7532351 -66.016602 7
-0.265057 2.5421751 -64.702148 7
-0.32947201 2.4476931 -66.451172 7
-0.36141199 -3.871948 56.771484 7
-0.390995 -3.7844851 57.428711 7
-0.43050399 -3.707947 58.301758 7
-0.498974 -3.6669919 59.805664 7
-0.28590399 -0.94592297 55.34668 7
-0.286522 -0.81823701 55.366211 7
-0.235989 -0.67645299 54.268555 7
-0.27762601 1.862854 55.238281 7
-0.32085401 4.8859859 56.109375 7
-0.25661099 4.8872681 54.700195 7
-0.314888 2.934448 -59.675781 7
-0.224953 2.6886599 -57.474609 7
-0.29124099 2.6185911 -59.105469 7
-0.33514401 2.518616 -60.186523 7
-0.19317199 -0.354431 -51.243164 7
-0.148544 -0.83911097 -50.237305 7
-0.38888901 -4.0480962 -55.578125 7
-0.33103201 -4.0881958 -54.286133 7
-0.252556 -4.087585 -52.537109 7
-0.42344701 -3.9989619 53.31543 7
-0.437031 -3.8964839 53.598633 7
-0.230057 1.445435 49.74707 7
-0.22403701 1.556213 49.626953 7
-0.23903701 1.681091 49.926758 7
-0.258995 1.810974 50.326172 7
-0.29906499 4.79071 51.03418 7
-0.25458899 4.8207402 50.137695 7
-0.217987 4.8623662 49.399414 7
-0.205212 3.0435181 -51.476562 7
-0.260712 2.9854131 -52.716797 7
-0.29782501 2.9000239 -53.547852 7
-0.244312 2.7094121 -52.362305 7
-0.27039301 2.609314 -52.946289 7
-0.34719801 2.5574951 -54.657227 7
-0.20596699 -0.347534 -47.686523 7
-0.180676 -0.57299799 -47.157227 7
-0.22516599 -0.70050001 -48.061523 7
-0.21595401 -0.81408697 -47.866211 7
-0.15730301 -0.90759301 -46.660156 7
-0.18664899 -1.033875 -47.253906 7
-0.137135 -1.124573 -46.233398 7
-0.34093899 -4.5114141 -50.086914 7
-0.30966601 -4.5750728 -49.43457 7
-0.27305999 1.582703 47.136719 7
-0.225151 1.658142 46.244141 7
-0.25167501 1.783752 46.737305 7
-0.199379 1.850952 45.763672 7
-0.312069 4.8034668 47.745117 7
-0.26676899 4.8244019 46.897461 7
-0.235874 4.8703609 46.31543 7
-0.201847 4.907104 45.675781 7
-0.2687 3.1230471 -48.632812 7
-0.30778101 3.0518799 -49.44043 7
-0.353127 2.9841919 -50.375977 7
-0.34902599 2.7020259 -50.615234 7
-0.369102 2.6052859 -51.070312 7
-0.160675 0.019104 -42.233398 7
-0.159805 -0.084716998 -42.21582 7
-0.208828 -0.95269799 -43.411133 7
-0.163609 -1.03833 -42.561523 7
-0.141872 -1.131409 -42.148438 7
-0.151768 -1.239319 -42.327148 7
-0.117493 -1.322693 -41.680664 7
-0.35235199 -4.4683232 -45.758789 7
-0.33122599 -4.5411992 -45.352539 7
-0.31008899 -4.611938 -44.946289 7
-0.29084 -4.6846309 -44.574219 7
-0.174843 1.685364 41.765625 7
-0.18425 1.788208 41.924805 7
-0.27055401 4.741272 43.260742 7
-0.24006701 4.7808232 42.733398 7
-0.195438 4.8856812 41.957031 7
-0.22296099 3.5386961 -43.303711 7
-0.24955399 3.470093 -43.807617 7
-0.283016 3.4086909 -44.44043 7
-0.31867999 3.3473511 -45.111328 7
-0.36775601 3.3000491 -46.035156 7
-0.177174 -1.155457 -39.399414 7
-0.15494899 -1.239807 -39.010742 7
-0.12966201 -1.320496 -38.569336 7
-0.151905 -1.428406 -38.945312 7
-0.128326 -1.507996 -38.532227 7
-0.36100399 -4.6507568 -42.212891 7
-0.33126101 -4.6977539 -41.691406 7
-0.31513199 -4.768311 -41.401367 7
-0.24342 -1.500977 39.904297 7
-0.21755999 -1.389221 39.498047 7
-0.23694199 -1.30957 39.811523 7
-0.15573099 1.552368 38.584961 7
-0.157288 1.729858 38.605469 7
-0.205036 4.8240361 39.186523 7
-0.204151 4.9121089 39.163086 7
-0.190929 3.7062991 -39.235352 7
-0.222435 3.6573491 -39.785156 7
-0.244469 3.5917361 -40.172852 7
-0.27598199 3.538147 -40.722656 7
-0.32171601 3.5014651 -41.518555 7
-0.10865 0.37493899 -38.282227 7
-0.13932399 0.28515601 -38.808594 7
-0.123558 0.189026 -38.53418 7
-0.151188 0.095764004 -39.008789 7
-0.14117099 0.00030499999 -38.833984 7
-0.17057399 -1.4078979 -35.888672 7
-0.14073899 -1.477051 -35.413086 7
-0.115307 -1.717957 -34.992188 7
-0.108425 -1.798218 -34.87793 7
-0.37058601 -4.7522578 -38.685547 7
-0.35037199 -4.8079829 -38.354492 7
-0.32123899 -4.8450322 -37.884766 7
-0.304737 -4.9046631 -37.611328 7
-0.221149 -1.537842 36.587891 7
-0.214233 -1.450439 36.492188 7
-0.223286 -1.37262 36.630859 7
-0.236729 -1.296387 36.833008 7
-0.172066 1.443054 35.944336 7
-0.14326499 1.506165 35.519531 7
-0.14379901 1.668396 35.523438 7
-0.245243 4.6096191 36.831055 7
-0.235954 4.6757808 36.686523 7
-0.21434 4.7172241 36.363281 7
-0.191544 4.7547002 36.023438 7
-0.177315 3.9050901 -35.561523 7
-0.191376 3.839844 -35.791016 7
-0.215031 3.7883301 -36.171875 7
-0.242386 3.7410891 -36.609375 7
-0.27380401 3.6977539 -37.112305 7
-0.30520999 3.6520391 -37.616211 7
-0.119675 0.619995 -34.8125 7
-0.114555 0.532471 -34.732422 7
-0.119415 0.44726601 -34.80957 7
-0.15417901 0.366272 -35.360352 7
-0.168091 -1.558594 -33.388672 7
-0.13653199 -1.618408 -32.917969 7
-0.13549399 -1.6984251 -32.896484 7
-0.151894 -1.79187 -33.130859 7
-0.125889 -1.852417 -32.742188 7
-0.207142 -1.43103 34.242188 7
-0.224033 -1.36261 34.478516 7
-0.22689401 -1.286011 34.522461 7
-0.17992 1.435303 33.931641 7
-0.14677399 1.71936 33.46875 7
-0.231556 4.536377 34.44043 7
-0.25893 4.6671138 34.806641 7
-0.235935 4.7018428 34.484375 7
-0.214211 4.7377319 34.177734 7
-0.196716 4.780273 33.929688 7
0.39134201 21.768677 14.704102 7
0.39027399 21.815125 14.663086 7
0.38960999 21.856262 14.617188 7
0.386482 21.927429 14.588867 7
0.38623801 21.963379 14.540039 7
0.38557401 22.004395 14.494141 7
0.387779 22.01001 14.427734 7
-0.194527 4.0071411 -33.326172 7
-0.21825799 3.963623 -33.682617 7
-0.240017 3.9150391 -34.011719 7
-0.265717 3.871094 -34.397461 7
-0.294193 3.829895 -34.825195 7
-0.286331 3.731384 -34.717773 7
-0.135452 0.73138398 -33 7
-0.153946 0.57372999 -33.270508 7
-0.138744 -1.649353 -30.388672 7
-0.16072799 -1.740417 -30.681641 7
-0.133045 -1.794495 -30.297852 7
-0.131466 -1.867676 -30.270508 7
-0.13089401 -2.016479 -30.249023 7
-1.590538 -47.304688 11.488281 7
-1.626736 -47.731079 11.699219 7
-1.6656801 -48.190979 11.918945 7
-1.629475 -47.709961 11.931641 7
-1.590202 -46.238281 15.240234 7
-1.545689 -45.657654 15.183594 7
-1.529461 -45.423889 15.230469 7
-1.506844 -45.111755 15.25293 7
-1.4810261 -44.760864 15.261719 7
-1.460228 -44.471497 15.287109 7
-0.174652 -1.5294189 31.505859 7
-0.191448 -1.468567 31.725586 7
-0.191792 -1.396912 31.735352 7
-0.205853 -1.332947 31.919922 7
-0.17052101 1.5446171 31.518555 7
-0.150337 1.602356 31.258789 7
-0.150681 1.67334 31.259766 7
-0.2234 4.4950562 31.975586 7
-0.23828501 4.5958252 32.15625 7
-0.223591 4.640564 31.959961 7
-0.208443 4.6836548 31.758789 7
-0.190575 4.7202148 31.523438 7
-0.177643 4.1298828 -30.438477 7
-0.195168 4.0839839 -30.685547 7
-0.21183801 4.035522 -30.920898 7
-0.232784 3.9929199 -31.213867 7
-0.26140201 3.9615481 -31.612305 7
-0.28789499 3.9246221 -31.980469 7
-0.107502 1.051941 -29.6875 7
-0.149979 0.76922601 -30.272461 7
-0.162029 -1.835632 -28.551758 7
-0.145145 -2.10199 -28.310547 7
-0.189518 -1.573975 29.797852 7
-0.17432401 -1.497009 29.621094 7
-0.187382 -1.438293 29.78125 7
-0.185818 -1.3703001 29.767578 7
-0.196445 -1.309082 29.898438 7
-0.170506 1.380005 29.638672 7
-0.176617 1.517822 29.708008 7
-0.162411 1.575439 29.536133 7
-0.150143 1.633545 29.386719 7
-0.232685 4.5692749 30.128906 7
-0.23157901 4.635437 30.106445 7
-0.213505 4.668457 29.882812 7
-0.198338 4.7059941 29.692383 7
-0.201618 4.7798462 29.722656 7
-0.262775 4.22052 -29.335938 7
-0.26969501 4.085144 -29.441406 7
-0.28343201 4.0341191 -29.624023 7
-0.124996 0.90863001 -28.191406 7
-0.125118 0.83886701 -28.193359 7
-0.15183599 -1.76239 -26.300781 7
-0.149624 -1.890991 -26.262695 7
-0.14247499 -2.014771 -26.165039 7
-0.180195 -1.5896 27.761719 7
-0.158684 -1.5133671 27.526367 7
-0.167484 -1.456848 27.629883 7
-0.168438 -1.395386 27.645508 7
-0.183483 -1.341736 27.817383 7
-0.148739 1.337402 27.479492 7
-0.127785 1.38678 27.243164 7
-0.119865 1.443176 27.15332 7
-0.151035 1.524353 27.499023 7
-0.13112999 1.572632 27.274414 7
-0.205791 4.5270391 27.835938 7
-0.207752 4.593811 27.848633 7
-0.19619399 4.6339722 27.710938 7
-0.18463901 4.6737061 27.574219 7
-0.17775699 4.7220459 27.487305 7
-0.18129 4.7912598 27.517578 7
-0.18191899 4.309082 -26.104492 7
-0.188335 4.2550049 -26.189453 7
-0.201645 4.212585 -26.356445 7
-0.21692701 4.172852 -26.543945 7
-0.23268899 4.1330571 -26.738281 7
-0.097313002 0.58844 -25.389648 7
-0.098334998 0.524719 -25.40332 7
-0.089515999 0.45886201 -25.298828 7
-0.077239998 0.39312699 -25.154297 7
-0.069393001 0.32830799 -25.061523 7
-0.076595001 -0.057190001 -23.731445 7
-0.070370004 -0.115906 -23.661133 7
-0.064663 -0.17456099 -23.597656 7
-0.063183002 -0.23327599 -23.579102 7
-0.058001999 -0.29132101 -23.520508 7
-0.15655901 -1.8922729 -24.503906 7
-0.13618501 -1.996399 -24.267578 7
-0.357651 -4.6586909 27.545898 7
-0.36204499 -4.6048579 27.602539 7
-0.374237 -4.5645752 27.740234 7
-0.36300701 -4.4825439 27.635742 7
-0.153183 -1.588196 25.814453 7
-0.148636 -1.527405 25.771484 7
-0.159695 -1.476562 25.892578 7
-0.155716 -1.416199 25.855469 7
-0.153404 -1.357056 25.835938 7
-0.13938899 -1.291504 25.693359 7
-0.092616998 -0.66784698 -22.25293 7
-0.084522001 -0.719482 -22.174805 7
-0.081242003 -0.77380401 -22.137695 7
-0.074000999 -0.82653803 -22.060547 7
-0.073536001 -0.88147002 -22.051758 7
-0.120087 -1.630188 -22.477539 7
-0.120193 -1.68634 -22.473633 7
-0.129913 -1.749817 -22.568359 7
-0.120987 -1.799011 -22.470703 7
-0.113182 -1.848755 -22.383789 7
-0.131378 -1.919739 -22.56543 7
-0.129906 -2.0310061 -22.538086 7
-0.171707 4.3152471 -22.388672 7
-0.181293 4.2757568 -22.494141 7
-0.190311 4.2347412 -22.59668 7
-0.10693 -1.312622 -20.938477 7
-0.108837 -1.366394 -20.952148 7
-0.113148 -1.421387 -20.989258 7
-0.110844 -1.472595 -20.962891 7
-0.108547 -1.523621 -20.935547 7
-0.108044 -1.575684 -20.926758 7
-0.149094 -1.710632 -21.314453 7
-0.13358299 -1.752197 -21.15918 7
-0.130684 -1.802979 -21.125 7
-0.149414 -1.870972 -21.300781 7
-0.82696903 -25.896545 11.693359 7
-0.81387699 -25.758484 11.708984 7
-0.14001501 -1.549927 -19.856445 7
-0.114628 -1.631714 -19.616211 7
-0.125595 -1.688904 -19.709961 7
-0.12569401 -1.738464 -19.705078 7
-0.123234 -1.786072 -19.677734 7
-0.12077 -1.833679 -19.650391 7
-0.13942 -1.898376 -19.81543 7
-0.13632201 -1.945618 -19.78125 7
-0.13002799 -1.989868 -19.717773 7
-0.161102 4.2861328 -19.365234 7
-0.168137 4.249207 -19.436523 7
-0.168144 4.1993408 -19.447266 7
-0.173264 4.1584468 -19.50293 7
-0.135544 -1.600525 -18.62207 7
-0.136314 -1.6478879 -18.623047 7
-0.130997 -1.691162 -18.572266 7
-0.129742 -1.737061 -18.557617 7
-0.127132 -1.781921 -18.529297 7
-0.150925 -1.847412 -18.728516 7
-0.14424101 -1.889343 -18.666016 7
-0.206852 4.460876 -18.503906 7
-0.20415901 4.4082642 -18.491211 7
-0.19404601 4.342041 -18.416992 7
-0.19540399 4.2971191 -18.438477 7
-0.19677 4.2521968 -18.458008 7
-0.206898 4.2224731 -18.553711 7
-0.226475 4.2089229 -18.728516 7
-0.123867 -1.6337889 -17.380859 7
-0.128262 -1.680908 -17.411133 7
-0.115437 -1.715454 -17.302734 7
-0.113369 -1.757812 -17.282227 7
-0.135708 -1.819214 -17.457031 7
-0.133656 -1.861755 -17.43457 7
-0.129436 -1.9024661 -17.395508 7
-0.127575 -1.629028 -16.37207 7
-0.121593 -1.66626 -16.321289 7
-0.11636 -1.703979 -16.277344 7
-0.116451 -1.745422 -16.272461 7
-0.130955 -1.798218 -16.37793 7
-0.135593 -1.843567 -16.408203 7
-0.130367 -1.881042 -16.363281 7
-0.16102999 4.3938599 -15.84375 7
-0.158016 4.3468628 -15.831055 7
-0.15651301 4.302856 -15.830078 7
-0.158024 4.2641602 -15.852539 7
-0.165585 4.2363892 -15.918945 7
-0.173164 4.1668091 -15.994141 7
-0.116024 -1.609619 -15.308594 7
-0.128139 -1.6574709 -15.391602 7
-0.112972 -1.6856689 -15.27832 7
-0.11385 -1.725403 -15.280273 7
-0.114742 -1.765137 -15.28125 7
-0.138889 -1.822937 -15.449219 7
-0.12693401 -1.852783 -15.358398 7
-0.127811 -1.8928829 -15.359375 7
-0.127094 -1.931702 -15.349609 7
-0.15922201 4.4195561 -14.797852 7
-0.144825 4.3538818 -14.707031 7
-0.14963201 4.3239751 -14.750977 7
-0.155231 4.2955322 -14.800781 7
-0.160046 4.2651982 -14.84375 7
-0.16723999 4.2394409 -14.90332 7
-0.177643 4.21875 -14.987305 7
-0.191254 4.2037349 -15.092773 7
-0.114117 -1.600891 -14.451172 7
-0.126858 -1.647034 -14.533203 7
-0.116802 -1.677063 -14.459961 7
-0.120258 -1.716797 -14.478516 7
-0.116962 -1.751404 -14.450195 7
-0.13055 -1.7991329 -14.538086 7
-0.134846 -1.839783 -14.563477 7
-0.134068 -1.876526 -14.553711 7
-0.133305 -1.913269 -14.542969 7
-0.33783299 -4.8381958 -15.310547 7
-0.34640899 -4.8939209 -15.353516 7
-0.34734699 -4.9347529 -15.348633 7
-0.33983201 -4.959106 -15.286133 7
-0.33739099 -4.9932861 -15.257812 7
-0.335789 -5.0291138 -15.235352 7
-0.33928299 -5.0750728 -15.245117 7
-0.438061 -6.7047119 -15.347656 7
-0.436474 -6.7396851 -15.321289 7
-0.44422501 -6.7987671 -15.353516 7
-0.081378996 1.261963 -13.913086 7
-0.085606001 1.227356 -13.945312 7
-0.088154003 1.1917109 -13.964844 7
-0.073859997 1.147522 -13.870117 7
-0.075545996 1.111755 -13.883789 7
-0.075576998 1.075073 -13.885742 7
-0.074753001 1.037903 -13.882812 7
-0.079825997 1.003418 -13.918945 7
-0.081524 0.96728498 -13.933594 7
-0.13003901 -1.637939 -13.758789 7
-0.113247 -1.6611331 -13.644531 7
-0.115978 -1.6982419 -13.658203 7
-0.11694 -1.734253 -13.65918 7
-0.13744 -1.785278 -13.787109 7
-0.135738 -1.819397 -13.771484 7
-0.132259 -1.852173 -13.744141 7
-0.13144299 -1.886963 -13.733398 7
-0.123524 -1.9156491 -13.676758 7
-0.340664 -4.9338989 -14.399414 7
-0.33897799 -4.9673462 -14.376953 7
-0.33640701 -4.999146 -14.348633 7
-0.33560601 -5.0341191 -14.331055 7
-0.348171 -5.096375 -14.396484 7
-0.43891901 -6.6680298 -14.399414 7
-0.43991899 -6.7073359 -14.388672 7
-0.083545998 1.268738 -13.146484 7
-0.080917001 1.232361 -13.130859 7
-0.072952002 1.1932369 -13.083008 7
-0.077399999 1.160706 -13.113281 7
-0.078308001 1.126343 -13.12207 7
-0.079216003 1.0919189 -13.129883 7
-0.079231001 1.0567631 -13.132812 7
-0.082794003 1.023499 -13.158203 7
-0.090786003 0.99212599 -13.211914 7
-0.111198 -1.613708 -12.916992 7
-0.117786 -1.651794 -12.952148 7
-0.112274 -1.681458 -12.915039 7
-0.113258 -1.715637 -12.916992 7
-0.106819 -1.744202 -12.87207 7
-0.136684 -1.800598 -13.049805 7
-0.132099 -1.83075 -13.017578 7
-0.122868 -1.857056 -12.955078 7
-0.066376001 1.266418 -12.327148 7
-0.082176 1.242065 -12.427734 7
-0.073836997 1.2043459 -12.378906 7
-0.073853001 1.171204 -12.381836 7
-0.072936997 1.137512 -12.378906 7
-0.076691002 1.072998 -12.40625 7
-0.077652 1.0068361 -12.417969 7
-0.085097998 0.976807 -12.46582 7
-0.112511 -1.630066 -12.212891 7
-0.095954999 -1.649841 -12.110352 7
-0.096023999 -1.681519 -12.106445 7
-0.105873 -1.72052 -12.160156 7
-0.121597 -1.764099 -12.248047 7
-0.114868 -1.822449 -12.198242 7
-0.11599 -1.8868411 -12.195312 7
-0.117035 -1.919556 -12.196289 7
-0.32363099 -4.834229 -12.682617 7
-0.328621 -4.87677 -12.698242 7
-0.32477599 -4.9021611 -12.665039 7
-0.322014 -4.9619751 -12.624023 7
-0.319244 -5.0218511 -12.583984 7
-0.32228899 -5.0606689 -12.588867 7
-0.33415201 -5.11731 -12.641602 7
-0.416733 -6.6741328 -12.473633 7
-0.14176901 4.3912349 -11.44043 7
-0.14371499 4.3330688 -11.47168 7
-0.149563 4.3129268 -11.514648 7
-0.145668 4.2747192 -11.501953 7
-0.15444601 4.2598271 -11.561523 7
-0.166142 4.2496948 -11.637695 7
-0.163219 4.1818848 -11.639648 7
-0.076514997 1.239929 -11.694336 7
-0.074577004 1.207458 -11.686523 7
-0.070685998 1.173767 -11.666016 7
-0.065819003 1.139832 -11.638672 7
-0.063888997 1.107483 -11.629883 7
-0.067824997 1.0465699 -11.658203 7
-0.075668 0.987122 -11.708984 7
-0.117607 -1.6212161 -11.630859 7
-0.103355 -1.641418 -11.546875 7
-0.105476 -1.6730959 -11.552734 7
-0.106552 -1.704163 -11.554688 7
-0.109695 -1.736755 -11.567383 7
-0.127132 -1.780579 -11.661133 7
-0.119026 -1.804749 -11.611328 7
-0.117035 -1.833557 -11.595703 7
-0.122223 -1.867981 -11.619141 7
-0.120247 -1.89679 -11.602539 7
-0.32270101 -4.8357539 -11.973633 7
-0.32791901 -4.8769531 -11.988281 7
-0.32903299 -4.9103389 -11.982422 7
-0.31885499 -4.9215088 -11.916992 7
-0.31996199 -4.9545898 -11.910156 7
-0.31799299 -4.98175 -11.887695 7
-0.31705499 -5.0109859 -11.871094 7
-0.319199 -5.0461431 -11.868164 7
-0.33057401 -5.1000981 -11.915039 7
-0.16900299 4.452209 -10.929688 7
-0.155735 4.3977051 -10.869141 7
-0.15369 4.3641362 -10.869141 7
-0.155727 4.338501 -10.889648 7
-0.15571199 4.30896 -10.900391 7
-0.153675 4.2755132 -10.899414 7
-0.161846 4.2608638 -10.952148 7
-0.17305399 4.2512212 -11.022461 7
-0.17101701 4.2176509 -11.021484 7
-0.158779 4.165894 -10.964844 7
-0.077141002 1.2753299 -11.092773 7
-0.077164002 1.245178 -11.09668 7
-0.080238 1.216797 -11.116211 7
-0.076172002 1.184509 -11.094727 7
-0.065978996 1.14917 -11.041016 7
-0.067001 1.119751 -11.048828 7
-0.069061004 1.090759 -11.063477 7
-0.068062 1.060181 -11.05957 7
-0.077262998 1.034302 -11.114258 7
-0.075232998 1.003296 -11.104492 7
-0.073211998 0.97228998 -11.094727 7
-0.105675 -1.62085 -10.932617 7
-0.097153001 -1.643433 -10.882812 7
-0.098288998 -1.6730959 -10.885742 7
-0.10157 -1.704224 -10.898438 7
-0.108078 -1.737976 -10.927734 7
-0.122093 -1.777405 -10.99707 7
-0.116783 -1.8021851 -10.963867 7
-0.1147 -1.829468 -10.949219 7
-0.114761 -1.858337 -10.944336 7
-0.113754 -1.88623 -10.93457 7
-0.316223 -4.8257451 -11.210938 7
-0.320618 -4.863647 -11.219727 7
-0.32070199 -4.893127 -11.208984 7
-0.30893701 -4.8994751 -11.138672 7
-0.31224799 -4.9350591 -11.142578 7
-0.31340799 -4.9667358 -11.135742 7
-0.31134 -4.9916992 -11.112305 7
-0.31895399 -5.0362549 -11.138672 7
-0.32011399 -5.067749 -11.131836 7
-0.32666799 -5.1101069 -11.151367 7
-0.077483997 1.27063 -10.473633 7
-0.073211998 1.239502 -10.455078 7
-0.070006996 1.209229 -10.44043 7
-0.064673997 1.177979 -10.413086 7
-0.062546 1.148438 -10.404297 7
-0.063629001 1.120544 -10.413086 7
-0.062569 1.091309 -10.410156 7
-0.063660003 1.063477 -10.418945 7
-0.067955002 1.036926 -10.444336 7
-0.06797 1.008423 -10.446289 7
-0.072265998 0.981628 -10.470703 7
-0.099547997 -1.60083 -10.361328 7
-0.105202 -1.632324 -10.385742 7
-0.091826998 -1.650146 -10.313477 7
-0.096367002 -1.6806639 -10.332031 7
-0.096427999 -1.708069 -10.327148 7
-0.103203 -1.740662 -10.357422 7
-0.115593 -1.777527 -10.415039 7
-0.120132 -1.808777 -10.43457 7
-0.11235 -1.830139 -10.390625 7
-0.115776 -1.860413 -10.402344 7
-0.112473 -1.885376 -10.380859 7
-0.31713101 -4.9257808 -10.541992 7
-0.31384301 -4.9467769 -10.512695 7
-0.31391901 -4.974731 -10.501953 7
-0.31400299 -5.002563 -10.489258 7
-0.318573 -5.0394902 -10.499023 7
-0.32202899 -5.0741582 -10.50293 7
-0.329979 -5.1178589 -10.527344 7
-0.072571002 1.2678829 -9.9140615 7
-0.068108 1.238098 -9.8945312 7
-0.069237001 1.211426 -9.9033203 7
-0.062546 1.180603 -9.8710938 7
-0.054737002 1.149292 -9.8339844 7
-0.059218999 1.12439 -9.859375 7
-0.058120999 1.096741 -9.8564453 7
-0.060364 1.070618 -9.8691406 7
-0.064856999 1.045593 -9.8945312 7
-0.061516002 0.98950201 -9.8828115 7
-0.064879999 0.96362299 -9.9023438 7
-0.104462 -1.61377 -9.8740234 7
-0.11042 -1.670593 -9.8945312 7
-0.102287 -1.6908571 -9.8505859 7
-0.108185 -1.7214971 -9.875 7
-0.12578601 -1.76123 -9.9560547 7
-0.118828 -1.782288 -9.9179688 7
-0.114273 -1.831543 -9.8857422 7
-0.111992 -1.855835 -9.8691406 7
-0.117897 -1.887085 -9.8945312 7
-0.076157004 1.264465 -9.4335938 7
-0.068001002 1.233826 -9.3964844 7
-0.058688998 1.202759 -9.3535156 7
-0.058704 1.176941 -9.3554688 7
-0.059882998 1.1515501 -9.3642578 7
-0.059895001 1.12561 -9.3662109 7
-0.058735002 1.099121 -9.3632812 7
-0.063408002 1.075256 -9.3886719 7
-0.066917002 1.05072 -9.4082031 7
-0.065765001 1.024109 -9.4042969 7
-0.065780997 0.99810803 -9.40625 7
-0.063904002 0.97314501 -9.3974609 7
-0.102997 -1.619873 -9.3837891 7
-0.092097998 -1.636963 -9.328125 7
-0.097030997 -1.66571 -9.3466797 7
-0.100731 -1.693604 -9.3603516 7
-0.097136997 -1.71582 -9.3388672 7
-0.092326999 -1.737305 -9.3125 7
-0.110641 -1.776428 -9.3925781 7
-0.116791 -1.806396 -9.4160156 7
-0.111977 -1.8278199 -9.3886719 7
-0.11203 -1.853027 -9.3847656 7
-0.114532 -1.880066 -9.390625 7
-0.114578 -1.905212 -9.3867188 7
-0.392277 -6.412292 -8.9296885 7
-0.396038 -6.4456182 -8.9287109 7
-0.40590999 -6.4944458 -8.9511719 7
-0.405994 -6.5186772 -8.9355469 7
-0.41097599 -6.5551758 -8.9394531 7
-0.41717899 -6.5948491 -8.9482422 7
-0.417263 -6.6190801 -8.9316406 7
-0.40877199 -6.6213379 -8.8828115 7
-0.40762699 -6.6422729 -8.8623047 7
-0.402805 -6.653748 -8.828125 7
-0.40412501 -6.6807251 -8.8154297 7
-0.40053901 -6.6948848 -8.7851562 7
-0.40062299 -6.7186279 -8.7695312 7
-0.063141003 1.256714 -8.8955078 7
-0.063156001 1.231934 -8.8974609 7
-0.057101998 1.2038569 -8.8710938 7
-0.042521998 1.171265 -8.8056641 7
-0.063179001 1.157288 -8.9052734 7
-0.049830999 1.125549 -8.8457031 7
-0.055920001 1.103882 -8.8769531 7
-0.063216999 1.08252 -8.9130859 7
-0.063235998 1.057556 -8.9160156 7
-0.064461 1.033142 -8.9228516 7
-0.065688998 1.008667 -8.9316406 7
-0.047458999 0.97576898 -8.8486328 7
-0.077168003 -1.600769 -8.7832031 7
-0.082355 -1.6521 -8.7978516 7
-0.087559 -1.703369 -8.8125 7
-0.10289 -1.73877 -8.875 7
-0.092822999 -1.77887 -8.8212891 7
-0.092868999 -1.8026119 -8.8173828 7
-0.099335 -1.855347 -8.8359385 7
-0.113457 -1.914795 -8.8876953 7
-0.306629 -4.82196 -8.7880859 7
-0.300381 -4.8569951 -8.7382812 7
-0.29407099 -4.868042 -8.7001953 7
-0.29421601 -4.9154048 -8.6777344 7
-0.29811499 -4.9464722 -8.6806641 7
-0.30975699 -5.0166631 -8.703125 7
-0.30990201 -5.0638428 -8.6796885 7
-0.31637201 -5.1002808 -8.6914062 7
-0.38418999 -6.4224238 -8.2333984 7
-0.386913 -6.473877 -8.2119141 7
-0.39346701 -6.5349121 -8.2041016 7
-0.394833 -6.5606079 -8.1933594 7
-0.38985801 -6.5922852 -8.1435547 7
-0.38738599 -6.6079102 -8.1181641 7
-0.38754699 -6.6522832 -8.0849609 7
-0.38898799 -6.6997681 -8.0585938 7
-0.056194 1.2672729 -8.3857422 7
-0.05621 1.2199709 -8.3925781 7
-0.048602998 1.192261 -8.359375 7
-0.043536998 1.142395 -8.3427734 7
-0.042286001 1.1181639 -8.3398438 7
-0.042293999 1.094543 -8.3427734 7
-0.043575 1.07135 -8.3515615 7
-0.053761002 1.02887 -8.4013672 7
-0.049952999 1.003662 -8.3857422 7
-0.098128997 -1.618469 -8.4511719 7
-0.090244003 -1.6357419 -8.4130859 7
-0.090290003 -1.6585079 -8.4091797 7
-0.094318002 -1.684265 -8.421875 7
-0.091716997 -1.705261 -8.4072266 7
-0.111641 -1.743347 -8.4863281 7
-0.114342 -1.768311 -8.4931641 7
-0.1157 -1.79248 -8.4951172 7
-0.110458 -1.81134 -8.4677734 7
-0.111839 -1.8353879 -8.46875 7
-0.11586 -1.861511 -8.4814453 7
-0.119888 -1.887695 -8.4931641 7
-0.310085 -4.8137212 -8.2988281 7
-0.31413701 -4.8440552 -8.3037109 7
-0.31553999 -4.8692632 -8.2958984 7
-0.31029099 -4.8815918 -8.2646484 7
-0.30770499 -4.8988042 -8.2431641 7
-0.30778101 -4.9212651 -8.2314453 7
-0.30785799 -4.9437261 -8.21875 7
-0.305264 -4.960876 -8.1972656 7
-0.304005 -4.9806519 -8.1796885 7
-0.305408 -5.0057368 -8.1728516 7
-0.31212199 -5.0413818 -8.1865234 7
-0.318829 -5.077332 -8.2001953 7
-0.32555401 -5.1132808 -8.2119141 7
-0.412525 -6.6138921 -7.6660161 7
-0.407269 -6.62146 -7.6318359 7
-0.40601701 -6.6390381 -7.6113281 7
-0.399441 -6.6430659 -7.5722661 7
-0.40084499 -6.6672969 -7.561523 7
-0.40625399 -6.7019649 -7.563477 7
-0.142097 4.4346309 -7.4160161 7
-0.13151599 4.393311 -7.3847661 7
-0.132835 4.3745732 -7.4003911 7
-0.136787 4.3607178 -7.4257808 7
-0.1381 4.3418579 -7.4414058 7
-0.13808399 4.3204961 -7.452148 7
-0.140724 4.303833 -7.4716802 7
-0.14204399 4.2846069 -7.4882808 7
-0.148636 4.275269 -7.523438 7
-0.060626999 1.195496 -7.999023 7
-0.054028001 1.169373 -7.9736328 7
-0.054035001 1.146606 -7.976562 7
-0.051410999 1.12262 -7.967773 7
-0.054058 1.101135 -7.9814448 7
-0.056713 1.079834 -7.9951172 7
-0.29957199 -4.8076172 -7.7519531 7
-0.303799 -4.8369751 -7.7539058 7
-0.29695499 -4.844604 -7.7167969 7
-0.29563501 -4.8632202 -7.7011719 7
-0.29294199 -4.8789668 -7.6787109 7
-0.29300299 -4.900208 -7.6679692 7
-0.294453 -4.9241939 -7.6611328 7
-0.29589501 -4.9480591 -7.6542969 7
-0.30012101 -4.977478 -7.65625 7
-0.30434799 -5.0068359 -7.6601558 7
-0.30856699 -5.0362549 -7.6621089 7
-0.311405 -5.0629878 -7.6601558 7
-0.31146601 -5.084229 -7.648438 7
-0.31569299 -5.11377 -7.6503911 7
-0.39642701 -6.5759888 -7.0253911 7
-0.39372599 -6.588623 -7.000977 7
-0.39103299 -6.6011958 -6.9755859 7
-0.39110199 -6.620728 -6.960938 7
-0.39395499 -6.6474609 -6.954102 7
-0.39956301 -6.6811519 -6.9550781 7
-0.39548099 -6.6897578 -6.9257808 7
-0.299557 -4.8060908 -7.2988281 7
-0.29961801 -4.8265991 -7.2871089 7
-0.29825199 -4.8439941 -7.2714839 7
-0.30117401 -4.869873 -7.2695308 7
-0.298374 -4.8843989 -7.2480469 7
-0.29556701 -4.8988042 -7.226562 7
-0.29851201 -4.9246831 -7.2236328 7
-0.29570401 -4.9389038 -7.202148 7
-0.30151001 -4.9703979 -7.2099609 7
-0.29871699 -4.9848018 -7.188477 7
-0.30594999 -5.019104 -7.2011719 7
-0.31032899 -5.0483398 -7.204102 7
-0.31758499 -5.0827031 -7.2148442 7
-0.31763801 -5.1028442 -7.203125 7
-0.29681799 -4.8045039 -6.844727 7
-0.30880401 -4.8470459 -6.8720698 7
-0.295452 -4.8400269 -6.8164058 7
-0.294025 -4.8562622 -6.7998052 7
-0.300053 -4.8869629 -6.8066411 7
-0.30160901 -4.908936 -6.7998052 7
-0.29422399 -4.9134521 -6.764648 7
-0.297268 -4.938293 -6.7617192 7
-0.29284999 -4.9482422 -6.735352 7
-0.29887801 -4.9793091 -6.7441411 7
-0.303417 -5.0073848 -6.7460942 7
-0.30498099 -5.0291138 -6.7373052 7
-0.319958 -5.078186 -6.773438 7
-0.32151401 -5.1004639 -6.766602 7
-0.31709701 -5.110291 -6.7402339 7
-0.301319 -4.823853 -6.4462891 7
-0.29835099 -4.8543091 -6.4150391 7
-0.29070699 -4.8573608 -6.3779302 7
-0.290768 -4.8754268 -6.3662109 7
-0.28619799 -4.8842769 -6.3408198 7
-0.28940201 -4.9264531 -6.327148 7
-0.294094 -4.9536738 -6.329102 7
-0.28644201 -4.9562378 -6.2939448 7
-0.291134 -4.983398 -6.295898 7
-0.29274401 -5.004456 -6.289062 7
-0.303608 -5.044312 -6.3095698 7
-0.300587 -5.0560298 -6.2880859 7
-0.29601699 -5.0645142 -6.2617192 7
-0.30842999 -5.107605 -6.2880859 7
-0.390663 -6.5752559 -5.4394531 7
-0.38609299 -6.5793462 -5.4111328 7
-0.3908 -6.6069951 -5.407227 7
-0.384682 -6.6069341 -5.375977 7
-0.38320899 -6.6186519 -5.3564448 7
-0.38327801 -6.63446 -5.3398442 7
-0.38333899 -6.650085 -5.3251948 7
-0.38805401 -6.6776118 -5.3193359 7
-0.381935 -6.6772461 -5.2880859 7
-0.38663501 -6.704834 -5.2841802 7
-0.293919 -4.8094478 -5.9951172 7
-0.295582 -4.8297729 -5.9882808 7
-0.29082099 -4.837585 -5.9628911 7
-0.28928 -4.851624 -5.9472661 7
-0.28773901 -4.86554 -5.9306641 7
-0.28299701 -4.8731079 -5.905273 7
-0.28946301 -4.902832 -5.9121089 7
-0.28952399 -4.9196172 -5.8994141 7
-0.29118699 -4.9396362 -5.8925781 7
-0.28645301 -4.947021 -5.8662109 7
-0.28650701 -4.9641109 -5.8554692 7
-0.29297999 -4.993896 -5.8613281 7
-0.29783201 -5.0205078 -5.8642578 7
-0.30750701 -5.0569458 -5.8789058 7
-0.30757499 -5.073792 -5.8662109 7
-0.30763599 -5.0906372 -5.8535161 7
-0.302883 -5.0976558 -5.829102 7
-0.372513 -6.5936279 -4.7880859 7
-0.37739599 -6.6204829 -4.7832031 7
-0.37906599 -6.6391602 -4.7724609 7
-0.37913501 -6.653564 -4.7558589 7
-0.37919599 -6.6676641 -4.7402339 7
-0.37926501 -6.6820068 -4.7246089 7
-0.38253 -6.7045288 -4.7158198 7
-0.294384 -4.804688 -5.5957031 7
-0.30273801 -4.8370972 -5.6074219 7
-0.29282799 -4.8339229 -5.5683589 7
-0.28624001 -4.8370361 -5.539062 7
-0.27965501 -4.8401489 -5.5087891 7
-0.278061 -4.8527222 -5.4912109 7
-0.281441 -4.8753052 -5.4892578 7
-0.286484 -4.9012451 -5.4912109 7
-0.28986001 -4.9240112 -5.4892578 7
-0.27834299 -4.9325562 -5.4335942 7
-0.28005999 -4.9519038 -5.4267578 7
-0.290104 -4.9876709 -5.4404302 7
-0.296864 -5.0328369 -5.4345698 7
-0.308552 -5.0724492 -5.454102 7
-0.30866599 -5.104187 -5.4306641 7
-0.30208999 -5.1063838 -5.398438 7
-0.29882401 -5.1152339 -5.3779302 7
-0.290218 -4.8319702 -5.1669922 7
-0.290272 -4.8471069 -5.155273 7
-0.276573 -4.835144 -5.1064448 7
-0.27663401 -4.8502808 -5.0957031 7
-0.27668801 -4.865417 -5.0839839 7
-0.275024 -4.8770142 -5.0673828 7
-0.273361 -4.8887329 -5.0517578 7
-0.26996601 -4.896667 -5.03125 7
-0.27690101 -4.9254761 -5.0380859 7
-0.28040299 -4.9472051 -5.0341802 7
-0.27702299 -4.9551392 -5.0126948 7
-0.28395799 -4.9840088 -5.0195308 7
-0.292622 -5.0162349 -5.0292969 7
-0.28923801 -5.0240479 -5.007812 7
-0.285851 -5.0319209 -4.9873052 7
-0.29622999 -5.0678711 -5.0019531 7
-0.29629901 -5.0827641 -4.9892578 7
-0.28775001 -5.079834 -4.9550781 7
-0.29813799 -5.1158452 -4.96875 7
-0.115589 4.4651489 -4.4794922 7
-0.112171 4.4443359 -4.4794922 7
-0.10873 4.4234619 -4.4814448 7
-0.107014 4.4057622 -4.4873052 7
-0.106998 4.391418 -4.4980469 7
-0.108692 4.380127 -4.5136719 7
-0.106968 4.3626099 -4.5175781 7
-0.108654 4.336792 -4.5429692 7
-0.106937 4.3191528 -4.547852 7
-0.108631 4.3076782 -4.563477 7
-0.118893 4.3123779 -4.601562 7
-0.120586 4.3009028 -4.6162109 7
-0.127422 4.2988892 -4.6445308 7
-0.123989 4.2779541 -4.6445308 7
-0.123966 4.2484131 -4.6650391 7
-0.123951 4.233582 -4.6748052 7
-0.121136 4.2122798 -4.6748052 7
-0.124546 4.2035518 -4.695312 7
-0.12112 4.1824951 -4.695312 7
-0.121105 4.167603 -4.7050781 7
-0.37375599 -6.6167598 -3.188477 7
-0.36667299 -6.6090698 -3.160156 7
-0.366734 -6.6195068 -3.144531 7
-0.37034601 -6.6392822 -3.1347661 7
-0.37040699 -6.6497192 -3.1191411 7
-0.37046099 -6.6602168 -3.1025391 7
-0.36696199 -6.6612549 -3.0800779 7
-0.37415299 -6.6902471 -3.077148 7
-0.36885101 -6.686523 -3.0517581 7
-0.37605301 -6.7155151 -3.047852 7
-0.37252799 -6.7163701 -3.0263669 7
-0.113567 4.4758911 -4.1181641 7
-0.117085 4.4689941 -4.1376948 7
-0.111767 4.445312 -4.1347661 7
-0.106449 4.4216309 -4.1308589 7
-0.108204 4.4115601 -4.1455078 7
-0.109966 4.4013062 -4.1601558 7
-0.111721 4.3910518 -4.1757808 7
-0.111706 4.3774409 -4.1855469 7
-0.109913 4.3605351 -4.1923828 7
-0.109913 4.3467412 -4.202148 7
-0.109898 4.3331299 -4.210938 7
-0.109882 4.3192749 -4.2216802 7
-0.113415 4.3120732 -4.2412109 7
-0.118717 4.308228 -4.264648 7
-0.125782 4.3076782 -4.2919922 7
-0.13638701 4.313477 -4.3300781 7
-0.131069 4.2896729 -4.3261719 7
-0.111584 4.2397461 -4.2861328 7
-0.123959 4.2487178 -4.327148 7
-0.13103101 4.2477422 -4.3554692 7
-0.128078 4.226624 -4.3564448 7
-0.115681 4.190063 -4.3349609 7
-0.113895 4.172791 -4.3408198 7
-0.122738 4.160522 -4.382812 7
-0.172727 -1.782837 -10.344161 7
-0.36564901 -4.9642472 -11.267346 7
-0.074922003 -1.638963 -7.8113732 7
-0.317541 -4.9024692 -8.9989576 7
-0.407065 -6.618114 -8.8750753 7
-0.039898001 -1.556922 -6.375185 7
-0.29538101 -4.8913212 -7.401855 7
-0.037489001 -1.86297 -5.3797288 7
-0.26034901 -4.8219991 -5.9926729 7
-0.0084899999 -1.769598 -4.4378829 7
-0.078204997 -1.704794 -3.8046401 7
-0.26311299 -4.8065729 -3.603776 7
-0.401021 -6.5573902 -3.1378269 7
-0.037526 -1.633311 -3.0793819 7
-0.0094440002 -1.765965 -2.1195149 7
-0.000417 -1.716805 -1.772725 7
-0.029622 -1.630839 -1.173553 7
-0.038456999 -1.77325 -1.176185 7
-0.104999 4.2832651 -15.617906 7
-0.090512998 4.31987 -12.018908 7
0.052723002 1.072794 -11.797916 7
0.073431 1.060482 -9.3168869 7
-0.17206299 4.2854409 -7.4687819 7
-0.033937 1.048025 -7.627593 7
-0.042224001 4.3552542 -3.995738 7
-0.178122 1.027635 -12.661249 7
-0.140351 -1.868651 -10.167731 7
-0.340303 -5.0273428 -12.593914 7
-0.077830002 1.072139 -9.2910786 7
-0.103279 -1.821041 -8.3947554 7
-0.309203 -4.9804702 -10.314469 7
-0.037342001 1.128791 -7.615202 7
-0.040732998 -1.603503 -6.7750449 7
-0.28972101 -4.8557329 -8.7053032 7
-0.25687 -4.9699459 -8.2138128 7
-0.381724 -6.6753569 -8.9559164 7
-0.024288001 -1.79357 -5.8927398 7
-0.063971996 1.156339 -6.4501958 7
-0.32327399 -4.8801289 -6.9773979 7
-0.42266801 -6.6618609 -6.8287511 7
-0.025276 1.199926 -5.5333099 7
-0.033782002 1.031129 -5.64925 7
-0.061257999 -1.76098 -5.2739458 7
-0.287792 -4.9008541 -5.6955018 7
-0.346037 -6.563189 -4.7036748 7
-0.096150003 4.3752041 -3.7634981 7
-0.109182 4.334722 -3.992183 7
-0.114455 4.2258282 -4.1813121 7
-0.001633 1.200223 -4.9081488 7
-0.013632 1.066615 -5.0461378 7
-0.052586 -1.7474591 -4.8091359 7
-0.24173 -4.8980842 -4.3594971 7
-0.32738101 -6.5773172 -3.088582 7
-0.044286001 -1.694203 -4.4280891 7
-0.210288 -4.8152542 -3.2562611 7
-0.027486 1.073832 -4.5115962 7
-0.035918001 -1.6753269 -4.082921 7
-0.041368 -1.821618 -4.049583 7
-0.0066439998 1.237579 -4.0484681 7
-0.0041820002 1.1070679 -4.076869 7
-0.023048 -1.637154 -3.7558241 7
-0.033558 -1.78773 -3.7469571 7
-0.058977 -1.732425 -3.50368 7
-0.075005002 -1.8909709 -3.5052979 7
-0.055289 -1.718008 -3.289747 7
-0.0473 -1.7834181 -3.1898479 7
-0.029693 -1.628621 -3.0127079 7
-0.040858001 -1.748716 -2.9883449 7
-0.035941001 -1.811759 -2.9013929 7
-0.011967 -1.7136 -2.171638 7
-0.019933 -1.789642 -2.117615 7
-0.017130001 -1.823626 -2.0393529 7
-0.0029869999 -1.606815 -2.1078899 7
-0.0058129998 -1.660266 -2.047627 7
-0.0044590002 -1.6965179 -1.977314 7
-0.0087019997 -1.750623 -1.914585 7
-0.0087249996 -1.786684 -1.84271 7
-0.015749 -1.846858 -1.778295 7
-0.018536 -1.888427 -1.705294 7
0.00065200002 -1.6422549 -1.867185 7
-0.002412 -1.68687 -1.803907 7
-0.012477 -1.681935 -1.721881 7
-0.015755 -1.721179 -1.655797 7
-0.024414999 -1.851673 -1.272005 7
-0.023303 -1.8566999 -1.194405 7
-0.025233001 -1.870109 -1.116365 7
-0.018322 -1.846447 -1.039403 7
-0.015926 -1.836778 -0.96257299 7
-0.010307 -1.7330739 -1.191413 7
-0.0063 -1.723802 -1.119022 7
-0.0069889999 -1.728691 -1.0464081 7
-0.0092160003 -1.736178 -0.97274297 7
0.0040119998 -1.604179 -1.272558 7
-0.011948 -1.60458 -1.204837 7
-0.014488 -1.61853 -1.137473 7
-0.011081 -1.608754 -0.98542899 7
