# .PCD v0.7 - Point Cloud Data file format
VERSION 0.7
FIELDS x y z intensity
SIZE 4 4 4 4
TYPE F F F F
COUNT 1 1 1 1
WIDTH 981
HEIGHT 1
VIEWPOINT 0 0 0 1 0 0 0
POINTS 981
DATA ascii
1.049576 37.554077 14.072266 7
1.047943 37.64502 14.004883 7
1.0478359 37.685486 13.918945 7
-0.329128 -3.3612671 67.476562 7
-0.37273401 -3.2607419 68.635742 7
-0.45789301 -3.2050779 70.887695 7
-0.21703701 -0.36804199 64.708984 7
-0.250137 -0.221313 65.586914 7
-0.245941 -0.069091998 65.482422 7
-0.264328 -3.652405 59.628906 7
-0.322842 -3.5986331 61.033203 7
-0.36563101 -3.516602 62.063477 7
-0.42487299 -3.4515381 63.486328 7
-0.49613601 -3.3947749 65.194336 7
-0.24324 -0.74670398 59.326172 7
-0.235954 -0.60766602 59.158203 7
-0.27672201 -0.47876 60.137695 7
-0.273186 1.607849 60.102539 7
-0.222065 1.710632 58.881836 7
-0.236324 1.857849 59.222656 7
-0.194267 1.960266 58.21875 7
-0.288479 4.8408809 60.40332 7
-0.25064501 4.9049678 59.495117 7
0.84100002 31.601318 14.023438 7
-0.33552599 -3.7047729 56.27832 7
-0.37343201 -3.6287839 57.116211 7
-0.405159 -3.540344 57.820312 7
-0.46475601 -3.4854131 59.128906 7
-0.286385 -0.95361298 55.398438 7
-0.250622 -0.81384301 54.62207 7
-0.26464799 -0.69171101 54.93457 7
-0.22594801 -0.555969 54.09375 7
-0.203575 -0.42706299 53.610352 7
-0.175583 -0.299988 53.003906 7
-0.218906 1.936829 53.981445 7
-0.24894699 2.0875239 54.638672 7
-0.22869501 5.0751948 54.087891 7
-0.185829 5.1079102 53.144531 7
-0.29584101 2.809387 -60.083984 7
-0.34678999 2.717957 -61.358398 7
-0.33991599 2.412842 -61.201172 7
-0.14886101 -0.72460902 -50.955078 7
-0.43959001 -4.2122192 -55.851562 7
-0.358154 -4.2120361 -54.063477 7
-0.400574 -3.845154 52.94043 7
-0.209015 1.769714 49.366211 7
-0.17532 1.856873 48.69043 7
-0.19587301 1.986267 49.101562 7
-0.245949 4.9155269 49.986328 7
-0.20705 4.950439 49.201172 7
-0.153908 4.951355 48.131836 7
0.73432899 29.182861 10.727539 7
0.73117101 29.271606 10.679688 7
-0.241001 2.8753049 -53.024414 7
-0.29333901 2.805115 -54.210938 7
-0.22826 2.6026001 -52.750977 7
-0.283714 2.5306399 -54.007812 7
-0.326473 2.4403689 -54.977539 7
-0.249722 -0.589966 -47.967773 7
-0.22369 -0.69879198 -47.433594 7
-0.26275599 -0.94409198 -48.207031 7
-0.209213 -1.037903 -47.116211 7
-0.237286 -1.165894 -47.675781 7
-0.19560599 -1.259583 -46.825195 7
-0.43466601 -4.6245122 -51.295898 7
-0.38270599 -4.6539922 -50.236328 7
-0.358913 -4.7310181 -49.740234 7
-0.205009 1.849548 45.885742 7
-0.176624 1.9317631 45.355469 7
-0.26166901 4.9154658 46.797852 7
-0.223915 4.9458618 46.089844 7
-0.17989001 4.9595952 45.263672 7
-0.28856701 2.9442749 -49.654297 7
-0.37953201 2.578125 -50.694336 7
-0.41127399 2.4851069 -51.337891 7
-0.24065401 -1.067261 -43.488281 7
-0.201298 -1.1539921 -42.754883 7
-0.176834 -1.245056 -42.295898 7
-0.198338 -1.360413 -42.68457 7
-0.165939 -1.444275 -42.079102 7
-0.37794101 -4.575562 -45.641602 7
-0.37537 -4.681396 -45.578125 7
-0.35244 -4.7489009 -45.142578 7
-0.32887599 -4.8129268 -44.693359 7
-0.15832099 1.66925 41.506836 7
-0.137714 1.748901 41.152344 7
-0.15498701 1.856873 41.447266 7
-0.129261 1.930298 41.004883 7
-0.196732 4.883728 41.991211 7
-0.176487 4.9378052 41.636719 7
-0.15386599 4.985291 41.243164 7
-0.244286 3.286926 -44.240234 7
-0.27698901 3.220825 -44.867188 7
-0.312462 3.1556399 -45.544922 7
-0.38992301 3.1383669 -47.015625 7
-0.207478 -1.3566279 -39.479492 7
-0.167557 -1.42865 -38.791992 7
-0.18977401 -1.537781 -39.162109 7
-0.163929 -1.615479 -38.714844 7
-0.397984 -4.773438 -42.333984 7
-0.37242901 -4.8278809 -41.886719 7
-0.358917 -4.9035029 -41.642578 7
-0.38036001 -4.0831909 41.878906 7
-0.208084 -1.209534 39.387695 7
-0.20723 -1.119141 39.378906 7
-0.152115 1.634033 38.545898 7
-0.132153 1.707092 38.226562 7
-0.151878 1.809814 38.538086 7
-0.12639999 1.877136 38.130859 7
-0.205635 4.8205571 39.205078 7
-0.184227 4.866272 38.856445 7
-0.168331 4.9219971 38.595703 7
-0.147663 4.9663091 38.259766 7
-0.17649101 5.1165771 38.707031 7
-0.191177 3.6491699 -39.672852 7
-0.208233 3.5769651 -39.977539 7
-0.24304201 3.5289919 -40.59082 7
-0.26578501 3.460999 -40.99707 7
-0.315323 3.3249509 -41.875 7
-0.14475299 0.27667201 -38.503906 7
-0.172401 0.184692 -38.97168 7
-0.157906 0.088684 -38.720703 7
-0.184879 -0.0060419999 -39.176758 7
-0.148445 -1.645081 -35.163086 7
-0.178967 -1.753662 -35.631836 7
-0.162357 -1.827942 -35.365234 7
-0.142738 -1.898438 -35.051758 7
-0.34235799 -4.3195801 38.12207 7
-0.35782999 -4.2585449 38.358398 7
-0.372509 -4.195374 38.583008 7
-0.183769 -1.349854 36.081055 7
-0.21825799 -1.203064 36.595703 7
-0.15036801 1.588562 35.643555 7
-0.107449 1.798462 35.007812 7
-0.19499999 4.8405151 36.075195 7
-0.155964 4.8419189 35.49707 7
-0.188416 3.7830811 -36.098633 7
-0.212898 3.731873 -36.49707 7
-0.23883399 3.68103 -36.918945 7
-0.26660901 3.6309199 -37.371094 7
-0.291096 3.5740359 -37.767578 7
-0.322521 3.524719 -38.276367 7
-0.12887999 0.54180902 -35.308594 7
-0.12958901 0.36675999 -35.322266 7
-0.169479 0.284058 -35.959961 7
-0.189247 0.196716 -36.275391 7
-0.20098101 -1.653137 -33.551758 7
-0.178387 -1.718933 -33.21582 7
-0.154991 -1.782776 -32.866211 7
-0.184414 -1.886658 -33.288086 7
-0.157005 -1.9456789 -32.880859 7
-0.185013 -1.345764 33.962891 7
-0.201488 -1.277344 34.195312 7
-0.201382 -1.199707 34.198242 7
-0.147064 1.715698 33.485352 7
-0.208065 4.7203979 34.09668 7
-0.20371599 4.7892461 34.027344 7
-0.164551 4.8632808 33.474609 7
-0.16951001 4.9497681 33.533203 7
0.493435 22.123291 10.878906 7
0.49069199 22.182983 10.841797 7
0.48629799 22.264587 10.81543 7
0.48232999 22.340576 10.785156 7
0.48587799 22.341003 10.661133 7
0.484779 22.378845 10.614258 7
-0.24280199 3.9550779 -34.363281 7
-0.23689701 3.860657 -34.285156 7
-0.257633 3.8078001 -34.600586 7
-0.29244199 3.687988 -35.137695 7
-0.26498801 3.561157 -34.737305 7
-0.13211399 0.63854998 -32.666992 7
-0.14588501 0.561584 -32.868164 7
-0.182014 0.48840299 -33.393555 7
-0.152279 0.40118399 -32.956055 7
-0.18988401 -1.827576 -30.797852 7
-0.146622 -1.942993 -30.200195 7
-0.161713 -2.1051641 -30.387695 7
-0.16293301 -1.451172 31.386719 7
-0.173805 -1.386475 31.530273 7
-0.174629 -1.315552 31.544922 7
-0.187782 -1.251282 31.716797 7
-0.121574 1.509827 30.911133 7
-0.129684 1.585327 31.011719 7
-0.128677 1.654968 30.998047 7
-0.11763 1.716675 30.854492 7
-0.180923 4.555481 31.430664 7
-0.187061 4.7102661 31.489258 7
-0.178307 4.7640381 31.369141 7
-0.161369 4.8005371 31.143555 7
-0.169899 4.888855 31.242188 7
0.38567701 19.882629 14.206055 7
0.38579899 19.912903 14.15918 7
0.38459399 19.957642 14.121094 7
0.38382301 19.997559 14.081055 7
-0.207726 4.1437378 -31.092773 7
-0.194576 4.0438838 -30.922852 7
-0.216148 4.0027471 -31.227539 7
-0.23307 3.952637 -31.469727 7
-0.25591701 3.9111331 -31.790039 7
-0.28469801 3.8773191 -32.194336 7
-0.30034599 3.821167 -32.418945 7
-0.140141 0.92553699 -30.412109 7
-0.139717 0.84948701 -30.408203 7
-0.135056 0.772156 -30.345703 7
-0.15791699 0.70318598 -30.663086 7
-0.176964 -1.8364871 -28.507812 7
-0.18177 -1.910706 -28.5625 7
-0.164841 -1.9669189 -28.341797 7
-0.206646 -2.0731201 -28.862305 7
-0.169357 -2.110779 -28.384766 7
-0.346001 -4.392334 31.369141 7
-0.152321 -1.421509 29.37793 7
-0.154217 1.632629 29.444336 7
-0.21014801 4.6569209 29.841797 7
-0.1945 4.693542 29.647461 7
-0.178867 4.729248 29.453125 7
-0.266552 4.1113281 -29.629883 7
-0.27741599 4.0551758 -29.77832 7
-0.28374901 3.9910891 -29.869141 7
-0.29688299 3.9373169 -30.045898 7
-0.164299 -1.7624511 -26.246094 7
-0.178413 -1.838562 -26.40332 7
-0.14231101 -1.44165 27.367188 7
-0.15528899 -1.387756 27.515625 7
-0.154167 -1.3253779 27.507812 7
-0.16243701 -1.268127 27.603516 7
-0.16288801 -1.2062989 27.613281 7
-0.180134 4.6611938 27.52832 7
-0.14654499 4.7783198 27.12793 7
0.29159901 17.34668 14.341797 7
0.29068401 17.386536 14.308594 7
0.291821 17.407532 14.260742 7
0.292454 17.432983 14.214844 7
0.29307899 17.458496 14.170898 7
0.292171 17.497986 14.135742 7
0.290241 17.546875 14.108398 7
-0.200771 4.1776729 -26.529297 7
-0.234451 4.033813 -26.956055 7
-0.237358 3.970886 -27 7
-0.127689 0.60089099 -25.947266 7
-0.111042 0.53173798 -25.750977 7
-0.109081 0.46661401 -25.727539 7
-0.11153 0.4021 -25.757812 7
-0.103199 0.33599901 -25.65918 7
-0.096840002 0.27063 -25.583984 7
-0.084601998 0.205139 -25.439453 7
-0.088996999 0.141174 -25.492188 7
-0.096336 0.077393003 -25.578125 7
-0.088180996 -0.355896 -23.693359 7
-0.146175 -1.633118 -24.239258 7
-0.151981 -1.818298 -24.285156 7
-0.145741 -1.873657 -24.210938 7
-1.1349601 -33.208008 11.505859 7
-1.113323 -32.966675 11.517578 7
-0.35488901 -4.7185669 27.527344 7
-0.34088901 -4.631042 27.395508 7
-0.34472701 -4.5765381 27.447266 7
-0.35080001 -4.5257568 27.520508 7
-0.35575101 -4.4727168 27.583984 7
-0.158859 -1.592407 25.890625 7
-0.155457 -1.532166 25.859375 7
-0.14312699 -1.466675 25.734375 7
-0.15308399 -1.4150389 25.842773 7
-0.14910901 -1.354919 25.804688 7
-0.14848299 -1.296753 25.802734 7
-0.154156 4.5482788 25.575195 7
-0.157291 4.669373 25.587891 7
-0.151104 4.7142329 25.513672 7
-0.14879601 4.7667241 25.479492 7
-0.101715 -1.001099 -22.191406 7
-0.096744999 -1.054199 -22.136719 7
-0.100861 -1.11145 -22.173828 7
-0.10157 -1.167114 -22.176758 7
-0.097736001 -1.22052 -22.133789 7
-0.096752003 -1.275208 -22.119141 7
-0.153797 -2.041626 -22.628906 7
-0.156223 -2.1004031 -22.647461 7
-0.18386801 4.2511601 -22.657227 7
-0.184402 4.1947632 -22.672852 7
-0.225208 4.0914311 -23.121094 7
-0.238621 4.0554199 -23.268555 7
-0.136604 -1.4300539 -21.085938 7
-0.130096 -1.478699 -21.018555 7
-0.136879 -1.535828 -21.079102 7
-0.140038 -1.590698 -21.104492 7
-0.133522 -1.638855 -21.037109 7
-0.133652 -1.691895 -21.033203 7
-0.153053 -1.6521 -19.84668 7
-0.14160199 -1.693665 -19.737305 7
-0.137238 -1.739807 -19.692383 7
-0.143158 -1.793945 -19.740234 7
-0.143921 -1.8440551 -19.741211 7
-0.145348 -1.894897 -19.749023 7
-0.165783 4.2687988 -19.508789 7
-0.14262401 -1.6459351 -18.575195 7
-0.1693 -1.71228 -18.797852 7
-0.14627101 -1.74231 -18.59668 7
-0.147072 -1.789795 -18.597656 7
-0.136307 -1.828186 -18.5 7
-0.170467 -1.902405 -18.785156 7
-0.209984 4.3945918 -18.634766 7
-0.20256799 4.3331909 -18.583008 7
-0.22739799 4.3300171 -18.802734 7
-0.215286 4.2601929 -18.709961 7
-0.216599 4.214355 -18.731445 7
-0.22328199 4.177917 -18.797852 7
-0.235355 4.1503301 -18.910156 7
-0.13064601 -1.6322629 -17.34375 7
-0.13870201 -1.682007 -17.404297 7
-0.140266 -1.727417 -17.412109 7
-0.13388801 -1.766541 -17.355469 7
-0.128223 -1.80603 -17.304688 7
-0.153595 -1.8703001 -17.50293 7
-0.149376 -1.911011 -17.463867 7
-0.141113 -1.674377 -16.389648 7
-0.13512 -1.711731 -16.339844 7
-0.14766701 -1.8460079 -16.417969 7
-0.147774 -1.8878779 -16.414062 7
-0.55025101 -17.527161 11.276367 7
-0.540043 -17.437866 11.28125 7
-0.532978 -17.36908 11.296875 7
-0.52514303 -17.295105 11.30957 7
-0.187931 4.4641109 -16.106445 7
-0.183384 4.4137568 -16.083008 7
-0.15546399 4.320435 -15.882812 7
-0.154686 4.2775269 -15.887695 7
-0.16371199 4.2522578 -15.96582 7
-0.166702 4.216064 -15.99707 7
-0.168938 4.1784668 -16.024414 7
-0.182484 4.160645 -16.136719 7
-0.138096 -1.698181 -15.386719 7
-0.13679899 -1.8147579 -15.361328 7
-0.156258 -1.869629 -15.495117 7
-0.144272 -1.8994139 -15.404297 7
-0.354431 -4.8547359 -16.297852 7
-0.361839 -4.9103999 -16.335938 7
-0.36437601 -4.956604 -16.341797 7
-0.35964999 -4.98877 -16.295898 7
-0.355728 -5.0224609 -16.256836 7
-0.352615 -5.0571289 -16.220703 7
-0.357582 -5.108398 -16.243164 7
-0.18016399 4.4772339 -14.996094 7
-0.17934801 4.4363399 -15 7
-0.172932 4.3851929 -14.96582 7
-0.169724 4.3400269 -14.952148 7
-0.16571 4.2935181 -14.935547 7
-0.166473 4.2556758 -14.951172 7
-0.16645101 4.2166138 -14.960938 7
-0.178394 4.1984859 -15.056641 7
-0.19033401 4.1800542 -15.149414 7
-0.124012 -1.6026 -14.455078 7
-0.124111 -1.639648 -14.450195 7
-0.140324 -1.688477 -14.555664 7
-0.129391 -1.717896 -14.477539 7
-0.132038 -1.756714 -14.490234 7
-0.13383099 -1.79541 -14.49707 7
-0.15004 -1.845276 -14.601562 7
-0.146751 -1.880127 -14.574219 7
-0.146 -1.916748 -14.563477 7
-0.354904 -4.8924561 -15.34668 7
-0.35768899 -4.9761958 -15.339844 7
-0.35693401 -5.0137939 -15.323242 7
-0.3545 -5.0480351 -15.293945 7
-0.35461399 -5.0870361 -15.282227 7
-0.13346501 -1.635132 -13.722656 7
-0.136242 -1.672546 -13.736328 7
-0.1292 -1.702576 -13.685547 7
-0.130192 -1.738647 -13.686523 7
-0.124043 -1.769104 -13.641602 7
-0.144642 -1.820312 -13.769531 7
-0.147411 -1.858032 -13.783203 7
-0.14305501 -1.890076 -13.75 7
-0.140476 -1.923279 -13.726562 7
-0.35564399 -5.0143428 -14.396484 7
-0.353073 -5.045959 -14.368164 7
-0.35497299 -5.0866699 -14.367188 7
-0.451866 -6.7853389 -14.365234 7
-0.45915201 -6.8408198 -14.390625 7
-0.088490002 1.241577 -13.238281 7
-0.090251997 1.2073359 -13.251953 7
-0.088459 1.171265 -13.244141 7
-0.081394002 1.097473 -13.203125 7
-0.080494002 1.026794 -13.202148 7
-0.091076002 0.96099901 -13.275391 7
-0.119175 -1.6142581 -12.916016 7
-0.109917 -1.640991 -12.854492 7
-0.131504 -1.690186 -12.982422 7
-0.12318 -1.71759 -12.925781 7
-0.12887999 -1.755249 -12.956055 7
-0.114952 -1.7780761 -12.865234 7
-0.139347 -1.830505 -13.009766 7
-0.138493 -1.863525 -13 7
-0.131107 -1.891235 -12.949219 7
-0.16188 4.4462891 -12.345703 7
-0.16369601 4.416687 -12.368164 7
-0.146084 4.3508301 -12.272461 7
-0.14512999 4.31604 -12.277344 7
-0.14973401 4.291626 -12.31543 7
-0.148785 4.256958 -12.320312 7
-0.152458 4.230835 -12.351562 7
-0.15798999 4.2076421 -12.395508 7
-0.169075 4.1942139 -12.47168 7
-0.076195002 1.276611 -12.439453 7
-0.078041002 1.244324 -12.455078 7
-0.076180004 1.2099 -12.446289 7
-0.076149002 1.1433721 -12.451172 7
-0.076141 1.076782 -12.456055 7
-0.112465 -1.688477 -12.157227 7
-0.112541 -1.720276 -12.15332 7
-0.33454499 -4.839478 -12.697266 7
-0.337589 -4.8782959 -12.702148 7
-0.34851801 -4.9324951 -12.75 7
-0.341732 -4.9520259 -12.700195 7
-0.338871 -4.979126 -12.671875 7
-0.33700201 -5.0081182 -12.648438 7
-0.33610901 -5.039001 -12.630859 7
-0.334232 -5.0680542 -12.608398 7
-0.34023699 -5.112915 -12.628906 7
-0.167099 4.4527588 -11.611328 7
-0.14760999 4.3847051 -11.511719 7
-0.13979 4.3391719 -11.478516 7
-0.140743 4.309998 -11.494141 7
-0.14364199 4.2843022 -11.520508 7
-0.146534 4.2585449 -11.547852 7
-0.146511 4.2276001 -11.556641 7
-0.152325 4.2067871 -11.599609 7
-0.168846 4.2050171 -11.703125 7
-0.173691 4.1821899 -11.741211 7
-0.079842001 1.277954 -11.759766 7
-0.081779003 1.247437 -11.772461 7
-0.078841999 1.214294 -11.758789 7
-0.078841999 1.182556 -11.760742 7
-0.077858001 1.1503299 -11.757812 7
-0.080771998 1.119995 -11.777344 7
-0.065192997 1.080688 -11.688477 7
-0.070060998 1.051636 -11.71875 7
-0.069077 1.01947 -11.71582 7
-0.079773001 0.99261498 -11.782227 7
-0.115547 -1.615234 -11.578125 7
-0.124866 -1.6521 -11.625977 7
-0.112625 -1.673401 -11.551758 7
-0.114761 -1.705322 -11.55957 7
-0.114845 -1.7355959 -11.555664 7
-0.125195 -1.7738039 -11.607422 7
-0.139645 -1.81543 -11.683594 7
-0.13048901 -1.838684 -11.62793 7
-0.12954301 -1.868225 -11.617188 7
-0.13373899 -1.902222 -11.635742 7
-0.329014 -4.8017578 -11.977539 7
-0.332203 -4.8391719 -11.982422 7
-0.34363201 -4.8922729 -12.029297 7
-0.342686 -4.921814 -12.012695 7
-0.336597 -4.940979 -11.967773 7
-0.335659 -4.9702759 -11.952148 7
-0.336781 -5.0036011 -11.945312 7
-0.33378199 -5.028687 -11.916992 7
-0.330791 -5.0535278 -11.887695 7
-0.34118301 -5.1055908 -11.929688 7
-0.078293003 1.250244 -11.145508 7
-0.081336997 1.191345 -11.167969 7
-0.081321999 1.161072 -11.171875 7
-0.06707 1.123657 -11.09375 7
-0.06707 1.093628 -11.094727 7
-0.073158003 1.036011 -11.134766 7
-0.081284001 1.0093991 -11.183594 7
-0.112457 -1.621277 -10.931641 7
-0.114693 -1.6515501 -10.938477 7
-0.105064 -1.673462 -10.883789 7
-0.109451 -1.705322 -10.902344 7
-0.110611 -1.734863 -10.90332 7
-0.120392 -1.771118 -10.950195 7
-0.133389 -1.810059 -11.014648 7
-0.127014 -1.8338619 -10.975586 7
-0.123856 -1.8601069 -10.954102 7
-0.12501501 -1.8898931 -10.955078 7
-0.125092 -1.91864 -10.949219 7
-0.32912099 -4.9532471 -11.1875 7
-0.32921201 -4.9827271 -11.175781 7
-0.32929599 -5.0122681 -11.165039 7
-0.33047101 -5.0438838 -11.158203 7
-0.33163801 -5.0753779 -11.151367 7
-0.074234001 1.2728879 -10.495117 7
-0.072098002 1.242981 -10.486328 7
-0.077414997 1.217224 -10.517578 7
-0.074211001 1.186829 -10.50293 7
-0.066726997 1.15448 -10.46582 7
-0.063522004 1.124207 -10.451172 7
-0.061377998 1.094604 -10.441406 7
-0.064575002 1.0673831 -10.461914 7
-0.062431 1.037781 -10.452148 7
-0.072036996 1.013489 -10.506836 7
-0.067763999 0.98290998 -10.485352 7
-0.104668 -1.600037 -10.353516 7
-0.108109 -1.630005 -10.368164 7
-0.114937 -1.662231 -10.396484 7
-0.103767 -1.681458 -10.335938 7
-0.11396 -1.71637 -10.382812 7
-0.109535 -1.74054 -10.355469 7
-0.117477 -1.77417 -10.391602 7
-0.12654901 -1.808777 -10.432617 7
-0.125504 -1.8355711 -10.422852 7
-0.1222 -1.860474 -10.400391 7
-0.123405 -1.888916 -10.401367 7
-0.125732 -1.918335 -10.408203 7
-0.32826599 -4.9611211 -10.548828 7
-0.32835001 -4.9891362 -10.537109 7
-0.329548 -5.0194702 -10.530273 7
-0.330769 -5.049561 -10.523438 7
-0.333103 -5.0819702 -10.521484 7
-0.061935 1.183899 -9.9033203 7
-0.058577999 1.154846 -9.8896484 7
-0.060791001 1.128845 -9.9023438 7
-0.056332 1.099365 -9.8828115 7
-0.059661999 1.073669 -9.9023438 7
-0.059661999 1.046448 -9.9042969 7
-0.108231 -1.638306 -9.8574219 7
-0.105957 -1.662964 -9.8417969 7
-0.110718 -1.6928101 -9.8613281 7
-0.107269 -1.71637 -9.8388672 7
-0.124939 -1.756104 -9.9208984 7
-0.128609 -1.811584 -9.9277344 7
-0.127579 -1.863403 -9.9130859 7
-0.121788 -1.88501 -9.8808594 7
-0.13007399 -1.918213 -9.9160156 7
-0.332104 -5.0192261 -9.9404297 7
-0.33101299 -5.043396 -9.9238281 7
-0.336979 -5.081665 -9.9375 7
-0.34176999 -5.1177368 -9.9462891 7
-0.075599998 1.27002 -9.4589844 7
-0.072104998 1.24176 -9.4453115 7
-0.066276997 1.212402 -9.4189453 7
-0.069762997 1.188049 -9.4394531 7
-0.076729 1.165527 -9.4765615 7
-0.063919 1.132812 -9.4160156 7
-0.059264999 1.1044919 -9.3945312 7
-0.059257999 1.0784301 -9.3974609 7
-0.061584 1.053345 -9.4111328 7
-0.062737003 1.027771 -9.4199219 7
-0.076691002 1.007751 -9.4912109 7
-0.068542004 0.97796601 -9.453125 7
-0.099968001 -1.6135859 -9.3417969 7
-0.10614 -1.643066 -9.3662109 7
-0.101318 -1.6646121 -9.3398438 7
-0.106277 -1.6932369 -9.3583984 7
-0.102676 -1.7155761 -9.3369141 7
-0.100296 -1.738831 -9.3212891 7
-0.108925 -1.770447 -9.3564453 7
-0.126114 -1.808899 -9.4306641 7
-0.112732 -1.823547 -9.3652344 7
-0.117691 -1.8525389 -9.3828115 7
-0.116531 -1.8766479 -9.3730469 7
-0.1166 -1.901855 -9.3681641 7
-0.32751799 -4.8771362 -9.4150391 7
-0.32392099 -4.8951421 -9.3867188 7
-0.31786299 -4.9083252 -9.3496094 7
-0.327755 -4.9525762 -9.3779297 7
-0.32415 -4.97052 -9.3505859 7
-0.321785 -4.9908452 -9.328125 7
-0.32062501 -5.0134282 -9.3115234 7
-0.321922 -5.0409551 -9.3046885 7
-0.32812899 -5.0783691 -9.3183594 7
-0.062546 1.260071 -8.9208984 7
-0.061324999 1.234497 -8.9179688 7
-0.051624 1.204224 -8.875 7
-0.058894999 1.183228 -8.9111328 7
-0.060100999 1.1589971 -8.9199219 7
-0.052776001 1.130066 -8.8876953 7
-0.063683003 1.1105959 -8.9423828 7
-0.058825999 1.083313 -8.921875 7
-0.056393001 1.057068 -8.9130859 7
-0.064879999 1.036011 -8.9550781 7
-0.047885999 1.0033571 -8.8769531 7
-0.053950999 0.98107898 -8.9082031 7
-0.083691001 -1.6253051 -8.7832031 7
-0.086375996 -1.674561 -8.7861328 7
-0.088992998 -1.700256 -8.7929688 7
-0.10955 -1.763428 -8.875 7
-0.108337 -1.786316 -8.8652344 7
-0.103363 -1.8302 -8.8339844 7
-0.1035 -1.8777471 -8.8242188 7
-0.120163 -1.915283 -8.8925781 7
-0.31214899 -4.820435 -8.7851562 7
-0.314789 -4.8491211 -8.7841797 7
-0.31871 -4.8804321 -8.7871094 7
-0.31237799 -4.891541 -8.75 7
-0.30860099 -4.9075928 -8.7226562 7
-0.30611399 -4.926208 -8.7001953 7
-0.30874601 -4.9547729 -8.6992188 7
-0.30882999 -4.978333 -8.6865234 7
-0.308891 -5.0019531 -8.6757812 7
-0.31281999 -5.0332031 -8.6777344 7
-0.32698801 -5.0852051 -8.7216797 7
-0.056315999 1.270569 -8.4121094 7
-0.056309 1.247009 -8.4140615 7
-0.052501999 1.22113 -8.4003906 7
-0.05122 1.196716 -8.3964844 7
-0.049938001 1.172302 -8.3945312 7
-0.046139002 1.14679 -8.3798828 7
-0.039790999 1.119751 -8.3544922 7
-0.042323999 1.097595 -8.3671885 7
-0.042309001 1.073853 -8.3701172 7
-0.046108 1.051941 -8.3896484 7
-0.046101 1.028198 -8.3916016 7
-0.054965999 1.008545 -8.4335938 7
-0.049892001 0.98248303 -8.4140615 7
-0.103027 -1.618103 -8.4492188 7
-0.093791999 -1.634338 -8.4052734 7
-0.093852997 -1.657227 -8.4013672 7
-0.095248997 -1.681152 -8.4033203 7
-0.099299997 -1.7069089 -8.4160156 7
-0.100689 -1.730774 -8.4169922 7
-0.112709 -1.762695 -8.4638672 7
-0.12207 -1.792969 -8.4990234 7
-0.116814 -1.811707 -8.4716797 7
-0.112892 -1.831726 -8.4511719 7
-0.118271 -1.858826 -8.46875 7
-0.119667 -1.882874 -8.46875 7
-0.12902801 -1.913574 -8.5039062 7
-0.31520101 -4.8117681 -8.296875 7
-0.32326499 -4.849915 -8.3164062 7
-0.326004 -4.8777471 -8.3144531 7
-0.32607999 -4.9003911 -8.3027344 7
-0.31682599 -4.9047241 -8.2548828 7
-0.31823 -4.929749 -8.2480469 7
-0.31563601 -4.947021 -8.2255859 7
-0.31569701 -4.969543 -8.2148438 7
-0.31577301 -4.9920039 -8.203125 7
-0.317177 -5.0170288 -8.1962891 7
-0.31991601 -5.0449219 -8.1943359 7
-0.326653 -5.0805659 -8.2060547 7
-0.334721 -5.1192632 -8.2246094 7
-0.42458299 -6.6489258 -7.671875 7
-0.41396299 -6.6428828 -7.6191411 7
-0.420715 -6.6810298 -7.625977 7
-0.42079201 -6.7020869 -7.610352 7
-0.051922001 1.148315 -7.9902339 7
-0.053226002 1.126343 -7.9980469 7
-0.051906999 1.102966 -7.9951172 7
-0.31689501 -4.808105 -7.804688 7
-0.31558201 -4.8268428 -7.7880859 7
-0.314262 -4.8456421 -7.7714839 7
-0.31432301 -4.867065 -7.7607422 7
-0.30744901 -4.8748779 -7.7236328 7
-0.308907 -4.8988042 -7.717773 7
-0.30480999 -4.9117432 -7.6904302 7
-0.309044 -4.9411621 -7.6933589 7
-0.31467399 -4.9733281 -7.7011719 7
-0.31335399 -4.9918208 -7.6835942 7
-0.30925 -5.0047002 -7.657227 7
-0.32319599 -5.0537109 -7.6943359 7
-0.326042 -5.0805659 -7.6923828 7
-0.32889599 -5.1073608 -7.6894531 7
-0.40706599 -6.606812 -7.0273442 7
-0.405754 -6.6228032 -7.0058589 7
-0.409996 -6.6530151 -7.0029302 7
-0.40728 -6.6655879 -6.9785161 7
-0.40735599 -6.684998 -6.9628911 7
-0.410202 -6.7116089 -6.9560552 7
-0.30535901 -4.8067632 -7.3027339 7
-0.309746 -4.8353882 -7.3056641 7
-0.31413299 -4.8641968 -7.3085942 7
-0.31275901 -4.8816528 -7.2919922 7
-0.30563399 -4.8876338 -7.2548828 7
-0.305695 -4.9077148 -7.2431641 7
-0.30431399 -4.9250488 -7.226562 7
-0.31013501 -4.956543 -7.234375 7
-0.31164601 -4.9796748 -7.2275391 7
-0.31027201 -4.9968262 -7.210938 7
-0.30889899 -5.013855 -7.1933589 7
-0.31616199 -5.0483398 -7.2060552 7
-0.321991 -5.0802002 -7.2128911 7
-0.322052 -5.1002808 -7.2011719 7
-0.31779501 -5.1116328 -7.1748052 7
-0.32057199 -4.8397832 -6.905273 7
-0.31913799 -4.8562012 -6.8886719 7
-0.30874601 -4.8551641 -6.842773 7
-0.31329301 -4.8829961 -6.8457031 7
-0.31037101 -4.8963008 -6.8242192 7
-0.304443 -4.903625 -6.7939448 7
-0.301521 -4.916748 -6.7714839 7
-0.306068 -4.9447021 -6.7753911 7
-0.310608 -4.9726558 -6.7773442 7
-0.304703 -4.9796748 -6.7451172 7
-0.30625901 -5.001709 -6.7382808 7
-0.324265 -5.0567021 -6.7832031 7
-0.32881901 -5.0848999 -6.7861328 7
-0.31990799 -5.0855708 -6.7460942 7
-0.32146499 -5.107666 -6.7382808 7
-0.308128 -4.8269649 -6.453125 7
-0.308189 -4.8453979 -6.4414058 7
-0.30670199 -4.8607178 -6.4257808 7
-0.29748201 -4.8607178 -6.3857422 7
-0.29599401 -4.8757319 -6.3691411 7
-0.30070099 -4.9029541 -6.3720698 7
-0.302311 -4.9242549 -6.3652339 7
-0.30545801 -4.9483032 -6.3623052 7
-0.30243301 -4.960144 -6.3408198 7
-0.30094501 -4.9751592 -6.3242192 7
-0.30099899 -4.993042 -6.3125 7
-0.305702 -5.0203252 -6.3144531 7
-0.31195101 -5.0509028 -6.3212891 7
-0.31974801 -5.0845342 -6.3320308 7
-0.313622 -5.0899048 -6.3007808 7
-0.30372599 -4.8018188 -6.023438 7
-0.313416 -4.8378911 -6.0400391 7
-0.29903001 -4.8270259 -5.9863281 7
-0.30069399 -4.8473511 -5.9794922 7
-0.29914501 -4.8613892 -5.9638672 7
-0.295986 -4.8720698 -5.9423828 7
-0.29444501 -4.8859248 -5.9257808 7
-0.294498 -4.9028931 -5.914062 7
-0.30258599 -4.935791 -5.9257808 7
-0.294613 -4.9367681 -5.890625 7
-0.29466599 -4.9538569 -5.8789058 7
-0.29152301 -4.964294 -5.8564448 7
-0.29960999 -4.997375 -5.8681641 7
-0.30930299 -5.0336909 -5.8837891 7
-0.31096601 -5.053894 -5.8769531 7
-0.317444 -5.0838008 -5.882812 7
-0.32071701 -5.1072388 -5.8798828 7
-0.31756601 -5.1176152 -5.858398 7
-0.117683 4.4703979 -5.2236328 7
-0.098568 4.4171138 -5.1777339 7
-0.096928 4.3821411 -5.1933589 7
-0.095287003 4.3469238 -5.2089839 7
-0.098415002 4.3206792 -5.2392578 7
-0.103168 4.313477 -5.2636719 7
-0.114288 4.3182979 -5.3066411 7
-0.117416 4.2913818 -5.335938 7
-0.128517 4.2791748 -5.389648 7
-0.12368 4.2373662 -5.3964839 7
-0.122055 4.201355 -5.4091802 7
-0.120415 4.1652832 -5.4248052 7
-0.30106699 -4.808167 -5.6025391 7
-0.29779401 -4.8180542 -5.5820308 7
-0.29619199 -4.830811 -5.5654302 7
-0.29291201 -4.8404541 -5.5449219 7
-0.28963101 -4.8501592 -5.5244141 7
-0.288021 -4.862793 -5.507812 7
-0.289745 -4.8822021 -5.500977 7
-0.29479599 -4.9081421 -5.5029302 7
-0.29818299 -4.9307251 -5.5 7
-0.286587 -4.9235229 -5.4560552 7
-0.29164499 -4.9494019 -5.4580078 7
-0.28670099 -4.9553828 -5.4326172 7
-0.29007301 -4.9777832 -5.429688 7
-0.291798 -4.9970088 -5.422852 7
-0.30019 -5.0296631 -5.4326172 7
-0.313568 -5.0725708 -5.4560552 7
-0.31195799 -5.085083 -5.4394531 7
-0.308689 -5.0941768 -5.4179692 7
-0.31206501 -5.1168208 -5.4150391 7
-0.30212799 -5.112061 -5.3769531 7
-0.108822 4.449707 -4.828125 7
-0.093944997 4.4057012 -4.796875 7
-0.093929 4.3907471 -4.8066411 7
-0.097202003 4.381897 -4.827148 7
-0.098826997 4.369873 -4.8417969 7
-0.098797001 4.3546748 -4.851562 7
-0.10043 4.3425288 -4.8662109 7
-0.10371 4.3334961 -4.8857422 7
-0.100384 4.3119512 -4.8867192 7
-0.098705001 4.2936401 -4.8925781 7
-0.101986 4.2844238 -4.9111328 7
-0.106915 4.2781978 -4.9345698 7
-0.11515 4.2780762 -4.96875 7
-0.123383 4.277832 -5.0029302 7
-0.121704 4.2591548 -5.007812 7
-0.12993599 4.258728 -5.0410161 7
-0.128258 4.2401118 -5.045898 7
-0.110088 4.1912842 -5.0039058 7
-0.115341 4.1842651 -5.0273442 7
-0.115318 4.1685791 -5.0380859 7
-0.28970701 -4.8066411 -5.1669922 7
-0.29148501 -4.8250728 -5.1591802 7
-0.298435 -4.8538818 -5.1660161 7
-0.28468701 -4.8421021 -5.1181641 7
-0.28474 -4.8572388 -5.1074219 7
-0.27962101 -4.8621831 -5.0820308 7
-0.27795801 -4.8739009 -5.0654302 7
-0.28145999 -4.8955688 -5.0625 7
-0.28151301 -4.910583 -5.0517578 7
-0.28156701 -4.9254761 -5.039062 7
-0.28506899 -4.9473271 -5.0361328 7
-0.28856301 -4.9691768 -5.0332031 7
-0.29897699 -5.0048828 -5.047852 7
-0.299023 -5.0197749 -5.0351558 7
-0.30253199 -5.041687 -5.032227 7
-0.304317 -5.0601811 -5.0244141 7
-0.30953601 -5.0856929 -5.0253911 7
-0.306133 -5.0934448 -5.0048828 7
-0.30279899 -5.1160889 -4.9726558 7
-0.38054299 -6.5402832 -3.832031 7
-0.387508 -6.5700068 -3.8300779 7
-0.38410601 -6.5733638 -3.808594 7
-0.38415101 -6.5855098 -3.7919919 7
-0.380741 -6.588501 -3.769531 7
-0.37561801 -6.5871582 -3.7431641 7
-0.377399 -6.603394 -3.730469 7
-0.38090101 -6.624146 -3.722656 7
-0.38096201 -6.6359859 -3.7060549 7
-0.38273999 -6.6522832 -3.6943359 7
-0.384518 -6.6685791 -3.6806641 7
-0.38283899 -6.6758418 -3.6630859 7
-0.386356 -6.6965942 -3.6533201 7
-0.379498 -6.690125 -3.6220701 7
-0.108982 4.4702148 -4.453125 7
-0.098705001 4.4360352 -4.4355469 7
-0.093539998 4.4118042 -4.4326172 7
-0.103771 4.41748 -4.469727 7
-0.098621003 4.393188 -4.4667969 7
-0.096888997 4.3754878 -4.4726558 7
-0.098582998 4.3643188 -4.4882808 7
-0.096836001 4.3467412 -4.4941411 7
-0.098530002 4.3355098 -4.507812 7
-0.096790001 4.3180542 -4.5126948 7
-0.091640003 4.2939448 -4.5097661 7
-0.10017 4.2956538 -4.5419922 7
-0.1087 4.2969971 -4.5761719 7
-0.120628 4.304749 -4.6181641 7
-0.118904 4.2870479 -4.6230469 7
-0.118889 4.2721558 -4.632812 7
-0.11544 4.2512212 -4.6337891 7
-0.120544 4.2459111 -4.657227 7
-0.110264 4.2122192 -4.639648 7
-0.117073 4.2099609 -4.6679692 7
-0.110218 4.1826782 -4.6601558 7
-0.11533 4.1772461 -4.6826172 7
-0.117348 4.1651001 -4.6972661 7
-0.289204 -4.8188481 -4.782227 7
-0.29639101 -4.84729 -4.7880859 7
-0.291096 -4.8508911 -4.7626948 7
-0.28579301 -4.8547359 -4.7392578 7
-0.287624 -4.872498 -4.7314448 7
-0.28054401 -4.8725591 -4.702148 7
-0.28772399 -4.9009399 -4.7080078 7
-0.29134801 -4.9221802 -4.7050781 7
-0.28783 -4.9291382 -4.6855469 7
-0.28610599 -4.9395142 -4.6679692 7
-0.289722 -4.9607539 -4.6650391 7
-0.29512399 -4.9857178 -4.6650391 7
-0.28803599 -4.985352 -4.6367192 7
-0.289875 -5.0029912 -4.6298828 7
-0.291706 -5.0204468 -4.6210942 7
-0.29175201 -5.0344849 -4.610352 7
-0.302517 -5.0700068 -4.6210942 7
-0.302578 -5.0839229 -4.609375 7
-0.297268 -5.0870972 -4.585938 7
-0.29731399 -5.100769 -4.5732422 7
-0.379917 -6.6219478 -3.1923831 7
-0.385326 -6.6464229 -3.186523 7
-0.37823501 -6.6384888 -3.1582029 7
-0.378281 -6.6489868 -3.1425779 7
-0.37653399 -6.6546631 -3.1230471 7
-0.380173 -6.674561 -3.113281 7
-0.380211 -6.6847529 -3.0966799 7
-0.38562399 -6.70929 -3.0908201 7
-0.382099 -6.7103271 -3.0683589 7
-0.37857801 -6.7111821 -3.045898 7
-0.103374 4.4590449 -4.09375 7
-0.098041996 4.4353032 -4.0908198 7
-0.092716001 4.4116821 -4.0869141 7
-0.094456002 4.4016109 -4.101562 7
-0.094425 4.3882451 -4.1123052 7
-0.096171997 4.3781128 -4.1269531 7
-0.10146 4.3745122 -4.1513672 7
-0.099674001 4.357605 -4.157227 7
-0.099651001 4.3439941 -4.1669922 7
-0.101391 4.3338008 -4.1806641 7
-0.103138 4.3234859 -4.1962891 7
-0.103107 4.3097529 -4.2060552 7
-0.103092 4.2962041 -4.2158198 7
-0.110142 4.2956538 -4.2441411 7
-0.118958 4.2983398 -4.2773442 7
-0.127785 4.3010249 -4.3085942 7
-0.113613 4.2606812 -4.282227 7
-0.120667 4.2598271 -4.3105469 7
-0.108257 4.223022 -4.2900391 7
-0.113537 4.2189331 -4.3125 7
-0.113514 4.204895 -4.3222661 7
-0.113491 4.190918 -4.3330078 7
-0.118782 4.186646 -4.3554692 7
-0.113789 4.1625981 -4.351562 7
-0.151489 -1.905948 -10.047878 7
-0.122923 -1.785965 -8.2788649 7
-0.303803 -4.9785399 -8.7995367 7
-0.020333 -1.644022 -6.163342 7
-0.272791 -4.923718 -7.150456 7
-0.255788 -4.896688 -5.900784 7
-0.0070389998 -1.847192 -4.4039998 7
-0.31683099 -5.033998 -4.583159 7
-0.057879999 -1.7628371 -3.6505809 7
-0.268033 -4.8876042 -3.580513 7
-0.371802 -6.4980888 -2.937217 7
-0.034949001 -1.6967191 -3.047107 7
-0.24788301 -4.8222842 -2.8569911 7
-0.0033780001 -1.633473 -2.4678531 7
-0.24497101 -5.012785 -2.107748 7
0.007863 -1.7109571 -1.730307 7
-0.036626998 -1.66734 -1.431095 7
-0.053897999 -1.872752 -1.457297 7
-0.23623 -4.8316202 -0.39866799 7
-0.20846801 -4.7907281 0.135515 7
-0.019160001 -1.766434 -0.87944698 7
-0.011836 -1.727257 -0.66720402 7
-0.025998 -1.899173 -0.67385101 7
-0.110046 4.2328691 -12.409018 7
-0.056527998 4.2505298 -5.1089711 7
-0.059765 4.2729068 -4.2256279 7
0.059463002 1.203647 -4.7467008 7
-0.33948499 4.1556711 -15.17233 7
-0.111759 -1.780244 -9.7413349 7
-0.098541997 1.0241899 -9.610631 7
-0.056003999 -1.669282 -7.7914219 7
-0.30889401 -4.978477 -10.310803 7
-0.044323999 1.075359 -7.7143111 7
-0.027515 -1.619936 -6.614975 7
-0.28931201 -4.9385462 -8.6599493 7
-0.012553 -1.6005599 -5.8212252 7
-0.037027001 -1.892732 -6.0005822 7
-0.060892001 1.093897 -6.429049 7
-0.35602301 -4.8716192 -7.3532491 7
-0.32901201 -4.983305 -6.9754262 7
-0.12089 4.3223119 -4.9153781 7
-0.128939 4.194231 -5.124866 7
-0.030032 1.164629 -5.58637 7
-0.054278001 -1.605538 -5.2634749 7
-0.069981001 -1.835367 -5.3263192 7
-0.31057 -4.880476 -5.9705768 7
-0.286863 -4.9487038 -5.6443372 7
-0.109051 4.2973609 -4.0325179 7
-0.0054560001 1.169752 -4.949646 7
-0.015344 1.028988 -5.0695162 7
-0.039696999 -1.391866 -4.8291402 7
-0.052662 -1.5885 -4.8696651 7
-0.066142 -1.793314 -4.9050241 7
-0.25668499 -4.8760271 -4.568727 7
-0.240748 -4.9315429 -4.308064 7
-0.32603201 -6.5970502 -3.019526 7
-0.055353999 -1.767345 -4.4833641 7
-0.22238199 -4.7801738 -3.4840939 7
-0.217732 -4.8684158 -3.27946 7
-0.026106 1.177199 -4.4711132 7
-0.033530999 1.0508879 -4.5627179 7
-0.052088998 -1.7623971 -4.1614461 7
-0.041591 -1.699486 -3.854846 7
-0.041042998 -1.814623 -3.7859471 7
-0.25206399 -4.828125 -2.08881 7
-0.051956002 -1.632012 -3.5199831 7
-0.061944999 -1.768198 -3.5002339 7
-0.069670998 -1.897987 -3.463968 7
-0.054065999 -1.737443 -3.2680869 7
-0.044950999 -1.797713 -3.1632309 7
-0.050964002 -1.90843 -3.1147611 7
-0.029595001 -1.709702 -2.9474421 7
-0.0029819999 -1.636932 -2.5149519 7
-0.0053030001 -1.706122 -2.455374 7
-0.023638999 -1.7458431 -2.372864 7
-0.036460001 -1.848291 -2.3322041 7
-0.038771 -1.910851 -2.262187 7
-0.0049029998 -1.601727 -2.2719181 7
-0.025292 -1.723893 -2.252542 7
-0.012566 -1.774263 -1.9028291 7
-0.012552 -1.809773 -1.8298939 7
-0.019505 -1.869328 -1.764123 7
0.002135 -1.636997 -1.864905 7
-0.023993 -1.6996419 -1.788053 7
-0.01546 -1.692467 -1.725431 7
-0.01684 -1.731565 -1.6391881 7
-0.021606 -1.773167 -1.571545 7
-0.023352001 -1.801129 -1.499174 7
-0.028123001 -1.8375289 -1.426893 7
-0.022429001 -1.831763 -1.348042 7
-0.021313 -1.856758 -0.940817 7
-0.017111 -1.656502 -1.63661 7
-0.011241 -1.659731 -1.562934 7
-0.014412 -1.696411 -1.4787951 7
-0.007063 -1.687382 -1.404312 7
-0.0028919999 -1.686504 -1.332372 7
-0.025429999 -1.723244 -0.95548201 7
-0.012025 -1.671466 -0.89020902 7
