# .PCD v0.7 - Point Cloud Data file format
VERSION 0.7
FIELDS x y z intensity
SIZE 4 4 4 4
TYPE F F F F
COUNT 1 1 1 1
WIDTH 929
HEIGHT 1
VIEWPOINT 0 0 0 1 0 0 0
POINTS 929
DATA ascii
1.7134089 50.580872 8.7060547 7
1.476524 44.078552 12.43457 7
1.477356 44.075745 12.323242 7
1.477264 44.129639 12.225586 7
1.366936 42.029175 12.450195 7
1.368286 42.00415 12.338867 7
1.365891 42.171387 12.276367 7
1.366585 42.17981 12.170898 7
1.286926 40.440369 12.453125 7
1.288528 40.409607 12.342773 7
1.285736 40.576477 12.28418 7
1.285583 40.624695 12.193359 7
1.194328 38.783203 12.389648 7
1.193939 38.837158 12.305664 7
-0.093353003 1.3052371 74.511719 7
-0.093849003 1.478943 74.532227 7
-0.097434998 1.6550291 74.652344 7
1.121063 37.114502 12.408203 7
1.120911 37.156982 12.324219 7
1.119774 37.23291 12.25 7
1.118004 37.331482 12.183594 7
-0.105682 -2.431824 68.00293 7
-0.165848 -2.333801 69.763672 7
-0.240486 -2.241272 71.944336 7
-0.044403002 0.706604 66.367188 7
-0.048629999 0.86218297 66.494141 7
-0.093216002 1.036865 67.798828 7
-0.057983 2.2510381 66.644531 7
-0.159454 -2.6929319 63.107422 7
-0.197502 -2.5883181 64.119141 7
-0.27439901 -2.5187991 66.155273 7
-0.079819001 0.224426 61.15625 7
-0.064788997 0.36364701 60.763672 7
-0.115219 0.51001 61.974609 7
-0.057654999 2.3175659 60.481445 7
-0.064331003 2.46521 60.658203 7
-0.018639 2.5527949 59.453125 7
-0.080275998 5.5988159 60.994141 7
-0.167786 -2.9746699 57.423828 7
-0.21109 -2.894592 58.464844 7
-0.253876 -2.80896 59.493164 7
-0.078377001 -0.30676299 55.439453 7
-0.109108 -0.181274 56.176758 7
-0.097678997 -0.051208001 55.908203 7
-0.14015201 0.079346001 56.926758 7
-0.068732999 2.501343 55.238281 7
-0.078354001 2.640259 55.467773 7
-0.046195999 2.720459 54.602539 7
-0.12853201 5.5698242 56.458984 7
-0.097755 5.6248779 55.71875 7
-0.065261997 5.6721802 54.936523 7
-0.026665 5.7000122 54.011719 7
-0.27950999 -2.984802 55.161133 7
-0.30187199 -2.8834231 55.65918 7
-0.070183001 2.5170901 50.671875 7
-0.097023003 2.665283 51.255859 7
-0.048454002 2.7242429 50.192383 7
-0.099335 5.627502 51.166016 7
-0.067123003 5.6647339 50.455078 7
-0.040511999 5.7130132 49.866211 7
-0.45732099 1.8959351 -63.170898 7
-0.53465301 1.798584 -65.045898 7
-0.468178 1.60144 -63.430664 7
-0.52838898 1.481079 -64.902344 7
-0.101631 2.238831 47.22168 7
-0.085312001 2.4386599 46.890625 7
-0.043761998 2.500061 46.055664 7
-0.131172 5.4473271 47.580078 7
-0.054786999 5.4798579 46.039062 7
-0.024894999 5.5115361 45.43457 7
0.80020899 28.920959 9.1796885 7
0.79477698 29.057861 9.1425781 7
-0.35667399 2.1143799 -55.391602 7
-0.33120701 1.959412 -54.816406 7
-0.424698 1.754395 -56.907227 7
-0.49439201 1.658813 -58.46582 7
-0.36247301 -1.418945 -50.717773 7
-0.32349399 -1.51825 -49.918945 7
-0.33325201 -1.645752 -50.114258 7
-0.30143699 -1.744812 -49.459961 7
-0.579292 -4.8726201 -54.9375 7
-0.51195502 -4.8833618 -53.556641 7
-0.48503101 -4.9630132 -52.998047 7
-0.53781098 -5.1922002 -54.056641 7
-0.50286901 -5.2547002 -53.333984 7
-0.44268799 -5.263062 -52.098633 7
-0.062187001 2.233398 43.186523 7
-0.026550001 2.295471 42.521484 7
-0.056869999 2.425842 43.083008 7
-0.016212 2.478821 42.323242 7
-0.116837 5.432312 44.017578 7
-0.077797003 5.4397578 43.286133 7
-0.050987002 5.4736938 42.780273 7
0.74412501 27.723267 9.2236328 7
-0.419945 2.323792 -51.861328 7
-0.46034199 2.2320559 -52.689453 7
-0.51764703 2.1498411 -53.863281 7
-0.44597599 1.965942 -52.407227 7
-0.486954 1.867493 -53.24707 7
-0.54856098 1.7785029 -54.507812 7
-0.315689 -0.83148199 -45.307617 7
-0.31005099 -0.93951398 -45.199219 7
-0.35086799 -1.066895 -45.958008 7
-0.36409 -1.63385 -46.1875 7
-0.314468 -1.7119139 -45.257812 7
-0.33300799 -1.835632 -45.598633 7
-0.30349001 -1.923767 -45.044922 7
-0.55401599 -5.247375 -49.464844 7
-0.50629401 -5.2736211 -48.567383 7
-0.48024699 -5.339294 -48.073242 7
-0.456406 -5.407104 -47.617188 7
-0.046264999 2.3123169 39.538086 7
-0.091057003 5.3078609 40.098633 7
-0.073509 5.3582149 39.790039 7
-0.044234999 5.468811 39.271484 7
-0.321289 2.7615969 -45.589844 7
-0.37609899 2.707581 -46.623047 7
-0.41449001 2.631958 -47.34668 7
-0.44606799 2.5463259 -47.943359 7
-0.48944101 2.468811 -48.760742 7
-0.528175 2.3834231 -49.490234 7
-0.259262 -0.351257 -40.758789 7
-0.27932701 -0.45452899 -41.103516 7
-0.26639599 -0.55175799 -40.879883 7
-0.32492101 -0.66717499 -41.883789 7
-0.337219 -1.798645 -42.05957 7
-0.29402199 -1.86853 -41.313477 7
-0.267838 -1.948303 -40.858398 7
-0.289619 -2.0662229 -41.227539 7
-0.269218 -2.148926 -40.87207 7
-0.094443999 -0.806274 37.619141 7
-0.109329 -0.63885498 37.863281 7
-0.052017 2.0684199 36.914062 7
-0.055443 2.2402949 36.961914 7
-0.096648999 5.1973271 37.395508 7
-0.099426001 5.2893071 37.428711 7
-0.072509997 5.3114009 36.995117 7
-0.058052 5.3614502 36.756836 7
-0.048363 5.421936 36.59375 7
-0.293457 3.029846 -41.412109 7
-0.327957 2.968384 -42.014648 7
-0.36246499 2.9042361 -42.616211 7
-0.393951 2.8338621 -43.165039 7
-0.46037301 2.797852 -44.321289 7
-0.498604 2.7276609 -44.987305 7
-0.213707 0.059142999 -36.500977 7
-0.22129799 -0.031067001 -36.617188 7
-0.25598899 -0.215271 -37.160156 7
-0.28491199 -0.310669 -37.614258 7
-0.316544 -1.9156491 -38.123047 7
-0.271301 -1.972473 -37.40625 7
-0.242744 -2.039917 -36.953125 7
-0.27316999 -2.1569209 -37.424805 7
-0.23831201 -2.2164919 -36.87207 7
-0.101227 -0.90325898 34.90918 7
-0.101135 -0.824036 34.911133 7
-0.122574 -0.75170898 35.228516 7
-0.029944999 2.0444341 33.833984 7
-0.033806 2.1251221 33.887695 7
-0.032898001 2.201355 33.871094 7
-0.102966 5.2037349 34.644531 7
-0.087334 5.2466431 34.407227 7
-0.068908997 5.282104 34.130859 7
-0.054862998 5.326416 33.916016 7
-0.26866901 3.301331 -37.371094 7
-0.29343399 3.2410891 -37.768555 7
-0.32076299 3.182312 -38.208008 7
-0.35139501 3.1255491 -38.699219 7
-0.41023999 3.1001589 -39.638672 7
-0.32949799 2.908447 -38.359375 7
-0.29217499 -2.1152949 -35.15918 7
-0.26641101 -2.3490601 -34.764648 7
-0.240623 -2.4086299 -34.380859 7
-0.106339 -0.92571998 32.919922 7
-0.108803 -0.85186797 32.958008 7
-0.119759 -0.780945 33.112305 7
-0.091643997 -0.69720501 32.728516 7
-0.04995 1.934998 32.121094 7
-0.040511999 1.999207 31.987305 7
-0.062881 2.092468 32.291992 7
-0.043678001 2.1472781 32.024414 7
-0.03466 2.210815 31.897461 7
-0.11174 5.1239619 32.693359 7
-0.099335 5.1702271 32.514648 7
-0.085235998 5.211792 32.311523 7
-0.068168998 5.245605 32.070312 7
-0.074378997 5.3331909 32.144531 7
0.547997 22.193176 9.5908203 7
0.54658502 22.234131 9.5458984 7
0.55244398 22.176331 9.4667969 7
0.55506903 22.162048 9.4023438 7
0.55122399 22.235718 9.3691406 7
0.54737902 22.309387 9.3359385 7
0.53908497 22.443665 9.3232422 7
-0.287476 3.4567261 -35.043945 7
-0.31395 3.405762 -35.442383 7
-0.33612099 3.347168 -35.776367 7
-0.362221 3.2921751 -36.166992 7
-0.405563 3.256958 -36.81543 7
-0.217453 0.29174799 -34.126953 7
-0.246033 0.210327 -34.547852 7
-0.224594 0.124756 -34.232422 7
-0.25713301 0.04126 -34.710938 7
-0.28373 -0.044495001 -35.102539 7
-0.27331501 -2.1812739 -32.174805 7
-0.266045 -2.332397 -32.064453 7
-0.233475 -2.4567871 -31.610352 7
-0.077964999 -1.053284 30.333984 7
-0.088317998 -0.92071497 30.472656 7
-0.107414 -0.85913098 30.719727 7
-0.084030002 5.117249 30.076172 7
-0.070251003 5.1539311 29.892578 7
0.454346 20.020569 12.757812 7
0.45455199 20.04718 12.710938 7
0.45342299 20.088928 12.670898 7
0.45229301 20.130798 12.632812 7
0.449844 20.187805 12.601562 7
0.45311001 20.177979 12.533203 7
0.50748402 20.91748 9.5673828 7
0.512474 20.876587 9.4941406 7
0.51876801 20.819092 9.4169922 7
0.51546502 20.881653 9.3837891 7
0.51215398 20.943848 9.3505859 7
0.50579101 21.044434 9.3310547 7
0.49943501 21.145203 9.3125 7
-0.25961301 3.713623 -31.851562 7
-0.287552 3.5949709 -32.246094 7
-0.30511501 3.5396121 -32.492188 7
-0.32649201 3.48822 -32.791992 7
-0.35974899 3.451721 -33.25293 7
-0.37606001 3.3905029 -33.482422 7
-0.18692 0.59014899 -30.941406 7
-0.214745 0.51892102 -31.323242 7
-0.215591 0.362854 -31.330078 7
-0.243439 0.28826901 -31.710938 7
-0.26830301 -2.2506101 -29.873047 7
-0.24169201 -2.2988279 -29.529297 7
-0.28440899 -2.413635 -30.06543 7
-0.25915501 -2.46228 -29.739258 7
-0.25641599 -2.5327761 -29.698242 7
-0.101143 -1.25885 28.789062 7
-0.080971003 -1.0550539 28.558594 7
-0.092087001 -0.99566698 28.695312 7
-0.104057 -0.87207001 28.817383 7
-0.076324001 1.962891 28.480469 7
-0.039657999 2.057251 28.035156 7
-0.117836 4.9949341 28.665039 7
-0.111404 5.0454712 28.578125 7
-0.074157998 5.1544189 28.107422 7
0.40692899 18.875549 12.898438 7
-0.35033399 3.750854 -30.75293 7
-0.358215 3.685364 -30.861328 7
-0.36339599 3.615356 -30.933594 7
-0.227318 0.61718798 -29.435547 7
-0.227303 0.47204599 -29.438477 7
-0.209846 0.39648399 -29.217773 7
-0.17504901 0.044066999 -26.421875 7
-0.221008 -2.2514651 -27.082031 7
-0.261536 -2.3575439 -27.552734 7
-0.245735 -2.4099121 -27.360352 7
-0.23092701 -2.4624021 -27.180664 7
-1.462509 -40.240784 10.798828 7
-1.434967 -39.911926 10.822266 7
-1.402786 -39.531799 10.831055 7
-0.092887998 -1.1680911 26.842773 7
-0.082909003 -1.102844 26.734375 7
-0.086502001 -1.0446171 26.77832 7
-0.082787 -0.98303199 26.739258 7
-0.032416999 1.678467 26.161133 7
-0.032242 1.795837 26.15332 7
-0.023293 1.846863 26.049805 7
-0.035629001 1.9746701 26.180664 7
-0.025635 2.024231 26.06543 7
-0.103477 4.9880371 26.59375 7
-0.068801999 5.0892329 26.181641 7
-0.27507001 3.858948 -27.476562 7
-0.27913699 3.795959 -27.532227 7
-0.29297599 3.7477419 -27.703125 7
-0.32295999 3.7224729 -28.06543 7
-0.29280099 3.608093 -27.714844 7
-0.17879499 0.110596 -26.46875 7
-0.231949 -2.111084 -25.328125 7
-0.080971003 -1.14502 25.115234 7
-0.085358001 -1.091125 25.164062 7
-0.081955001 -1.033325 25.131836 7
-0.088019997 -0.97967499 25.198242 7
-0.039886001 1.6331789 24.679688 7
-0.054276001 1.698975 24.827148 7
-0.037505999 1.741455 24.648438 7
-0.030746 1.791016 24.574219 7
-0.048462 1.860779 24.756836 7
-0.037804 1.907104 24.642578 7
-0.087807 4.8078609 24.816406 7
-0.099358 4.8882451 24.924805 7
-0.098686002 4.942688 24.907227 7
-0.087479003 4.9741211 24.78125 7
-0.084037997 5.0219731 24.736328 7
-0.077826999 5.0636601 24.662109 7
0.31929001 16.598877 12.793945 7
0.31945801 16.625549 12.754883 7
-0.230133 3.915405 -24.992188 7
-0.231842 3.8548579 -25.019531 7
-0.16847999 -1.4645391 -22.996094 7
-0.166794 -1.520813 -22.974609 7
-0.16906001 -1.579529 -22.994141 7
-0.99679601 -28.948242 13.799805 7
-0.98931903 -28.849121 13.838867 7
-0.977135 -28.70752 13.857422 7
-0.97082502 -28.619141 13.899414 7
-0.96392798 -28.525085 13.939453 7
-0.27679399 3.9100339 -23.712891 7
-0.277473 3.8508911 -23.727539 7
-0.291031 3.811584 -23.875 7
-0.189217 -1.604736 -21.722656 7
-0.201836 -1.667908 -21.84082 7
-0.21206699 -1.730042 -21.935547 7
-0.203659 -1.778564 -21.850586 7
-0.193459 -1.825439 -21.748047 7
-0.19526701 -1.8812259 -21.760742 7
-0.211502 -1.948792 -21.912109 7
-0.20791601 -2.0552981 -21.867188 7
-0.20252199 -2.1051641 -21.810547 7
-0.22538801 -2.235657 -22.020508 7
-0.43373099 -5.158936 -23.597656 7
-0.44464099 -5.3574219 -23.662109 7
-0.43626401 -5.3989868 -23.571289 7
-0.213623 -1.934692 -20.506836 7
-0.195076 -1.97052 -20.332031 7
-0.193169 -2.019897 -20.310547 7
-0.195099 -2.072571 -20.322266 7
-0.21750601 -2.143677 -20.520508 7
-0.20536 -2.1842649 -20.405273 7
-0.202812 -2.232971 -20.376953 7
-0.863747 -25.20166 10.455078 7
-0.84867102 -25.054199 10.46875 7
-0.82896399 -24.868469 10.469727 7
-0.81588697 -24.737793 10.487305 7
-0.80874598 -24.656006 10.524414 7
-0.224976 4.097168 -20.125977 7
-0.21746799 4.032959 -20.066406 7
-0.223915 3.9920039 -20.132812 7
-0.230988 3.9519041 -20.205078 7
-0.24948099 3.9299929 -20.380859 7
-0.26924101 3.909241 -20.566406 7
-0.264267 3.8487549 -20.530273 7
-0.21972699 -1.975891 -19.328125 7
-0.19197799 -2.0011599 -19.085938 7
-0.191315 -2.0487061 -19.075195 7
-0.188614 -2.094238 -19.046875 7
-0.218422 -2.16925 -19.296875 7
-0.20624501 -2.2064209 -19.186523 7
-0.19339 -2.2425539 -19.071289 7
-0.41893801 -5.3173218 -20.461914 7
-0.42099801 -5.3729858 -20.46582 7
-0.418327 -5.4188838 -20.430664 7
-0.192764 -1.933044 -17.928711 7
-0.17842101 -1.966309 -17.808594 7
-0.17270701 -2.0515139 -17.75293 7
-0.20285 -2.123291 -17.990234 7
-0.192093 -2.1589971 -17.897461 7
-0.191383 -2.2036741 -17.887695 7
-0.41076699 -5.1444092 -19.130859 7
-0.420151 -5.259644 -19.178711 7
-0.41014099 -5.2874761 -19.086914 7
-0.409538 -5.3806152 -19.050781 7
-0.190468 4.134521 -17.342773 7
-0.182014 4.0748901 -17.28418 7
-0.189926 4.0435181 -17.356445 7
-0.189308 3.997498 -17.359375 7
-0.195793 3.963196 -17.419922 7
-0.20796999 3.937927 -17.525391 7
-0.21232601 3.8995359 -17.569336 7
-0.206726 3.8449099 -17.533203 7
-0.17973299 -1.943604 -16.758789 7
-0.18202201 -1.987915 -16.770508 7
-0.18355601 -2.0319819 -16.77832 7
-0.201775 -2.090637 -16.911133 7
-0.194199 -2.12677 -16.848633 7
-0.195724 -2.1708369 -16.854492 7
-0.19574 -2.2137451 -16.848633 7
-0.42165399 -5.152771 -18.008789 7
-0.42700201 -5.2089839 -18.035156 7
-0.41867799 -5.237854 -17.960938 7
-0.41567999 -5.2771611 -17.925781 7
-0.413445 -5.3178711 -17.896484 7
-0.41726699 -5.3709111 -17.911133 7
-0.58457202 -18.483337 10.307617 7
-0.56904602 -18.357727 10.299805 7
-0.56374401 -18.278625 10.368164 7
-0.19135299 4.119019 -16.250977 7
-0.19519 4.0831909 -16.288086 7
-0.199783 4.0483398 -16.332031 7
-0.206635 4.0172119 -16.392578 7
-0.221008 3.9984131 -16.508789 7
-0.225609 3.9630129 -16.551758 7
-0.203125 3.8831789 -16.391602 7
-0.175873 -1.873474 -15.735352 7
-0.172676 -1.911072 -15.708008 7
-0.17027301 -1.949036 -15.68457 7
-0.193573 -2.0492549 -15.842773 7
-0.190369 -2.086792 -15.814453 7
-0.187172 -2.1243899 -15.787109 7
-0.17996199 -2.157959 -15.729492 7
-0.200836 -2.2176509 -15.874023 7
-0.42047101 -5.1679692 -16.860352 7
-0.41639701 -5.2009282 -16.8125 7
-0.407585 -5.2258911 -16.739258 7
-0.40280899 -5.258667 -16.694336 7
-0.40605199 -5.3076172 -16.704102 7
-0.414116 -5.3669429 -16.74707 7
-0.42859599 -5.4395142 -16.833984 7
-0.51097101 -6.9597778 -16.927734 7
-0.50940698 -6.9985962 -16.898438 7
-0.104424 0.931274 -14.984375 7
-0.11171 0.89489698 -15.037109 7
-0.164253 -1.921082 -14.780273 7
-0.163422 -1.958313 -14.770508 7
-0.17356101 -2.004822 -14.833984 7
-0.18370099 -2.051636 -14.898438 7
-0.181183 -2.0874021 -14.875 7
-0.177811 -2.1226201 -14.84668 7
-0.181198 -2.163635 -14.865234 7
-0.19809 -2.2176509 -14.974609 7
-0.41048399 -5.1287842 -15.801758 7
-0.41558799 -5.1792598 -15.821289 7
-0.40463299 -5.1975708 -15.737305 7
-0.40467101 -5.2376709 -15.725586 7
-0.402161 -5.272644 -15.696289 7
-0.406425 -5.3214111 -15.710938 7
-0.416603 -5.38269 -15.763672 7
-0.423401 -5.4368901 -15.794922 7
-0.50055701 -6.7449951 -15.87793 7
-0.52172899 -6.8389888 -15.99707 7
-0.51924098 -6.87323 -15.963867 7
-0.51337397 -6.8989868 -15.910156 7
-0.51003999 -6.9307251 -15.871094 7
-0.513466 -6.980103 -15.875977 7
-0.50929302 -7.009644 -15.833008 7
-0.102692 0.95904499 -14.125977 7
-0.109497 0.92449999 -14.174805 7
-0.107071 0.88604701 -14.15918 7
-0.108002 0.84906 -14.166016 7
-0.109779 0.812195 -14.179688 7
-0.114075 0.77630597 -14.210938 7
-0.110809 0.73754901 -14.189453 7
-0.109238 0.69958502 -14.178711 7
-0.111008 0.66265899 -14.192383 7
-0.15159599 -1.922729 -13.886719 7
-0.16847999 -1.972595 -13.990234 7
-0.17382801 -2.0491941 -14.014648 7
-0.174721 -2.08606 -14.014648 7
-0.169411 -2.1174321 -13.975586 7
-0.40864599 -5.1358032 -14.855469 7
-0.401566 -5.1596069 -14.798828 7
-0.397156 -5.1885991 -14.758789 7
-0.393639 -5.2191768 -14.723633 7
-0.39544699 -5.2606201 -14.722656 7
-0.397255 -5.302063 -14.72168 7
-0.413284 -5.3730469 -14.807617 7
-0.413322 -5.4109502 -14.794922 7
-0.50691199 -6.7678828 -14.919922 7
-0.51318401 -6.8218989 -14.94043 7
-0.51233703 -6.8577271 -14.918945 7
-0.50527197 -6.8778081 -14.859375 7
-0.50531799 -6.9159551 -14.842773 7
-0.50537097 -6.953979 -14.826172 7
-0.50006098 -6.9781489 -14.777344 7
-0.50722498 -7.034729 -14.804688 7
-0.169159 4.147522 -13.289062 7
-0.1745 4.121521 -13.331055 7
-0.17896999 4.0935669 -13.370117 7
-0.18342599 4.0657349 -13.407227 7
-0.196693 4.0527949 -13.5 7
-0.208214 4.036377 -13.583008 7
-0.19770101 3.9827271 -13.524414 7
-0.181908 3.920593 -13.432617 7
-0.181969 3.8848269 -13.441406 7
-0.17675 3.8405759 -13.417969 7
-0.102386 0.94500703 -13.332031 7
-0.106003 0.91101098 -13.356445 7
-0.106087 0.87554902 -13.358398 7
-0.107063 0.840271 -13.367188 7
-0.115982 0.80792201 -13.426758 7
-0.113426 0.77136201 -13.411133 7
-0.111748 0.73522902 -13.400391 7
-0.105659 0.69787598 -13.361328 7
-0.110153 0.66357398 -13.392578 7
-0.490547 -6.7659302 -13.893555 7
-0.50737 -6.8444819 -13.972656 7
-0.49623099 -6.8520508 -13.893555 7
-0.49068499 -6.8733521 -13.844727 7
-0.49259201 -6.914001 -13.839844 7
-0.48984501 -6.9423218 -13.807617 7
-0.497345 -6.997314 -13.831055 7
-0.105156 0.93615699 -12.630859 7
-0.103386 0.90161097 -12.620117 7
-0.099762 0.86645502 -12.599609 7
-0.106331 0.83520502 -12.641602 7
-0.15757 -2.003479 -12.451172 7
-0.160515 -2.0385129 -12.463867 7
-0.15856899 -2.069092 -12.447266 7
-0.086577997 1.00885 -11.805664 7
-0.090553001 0.97882098 -11.831055 7
-0.089661002 0.94647199 -11.828125 7
-0.090714 0.91497803 -11.835938 7
-0.15748601 -2.006104 -11.824219 7
-0.160576 -2.039917 -11.836914 7
-0.155479 -2.0662229 -11.802734 7
-0.122696 -1.619446 -11.047852 7
-0.12912799 -1.653015 -11.078125 7
-0.135582 -1.68689 -11.109375 7
-0.13237 -1.7138669 -11.087891 7
-0.145264 -1.752563 -11.151367 7
-0.131317 -1.77124 -11.074219 7
-0.132416 -1.8302 -11.069336 7
-0.13564301 -1.861816 -11.082031 7
-0.139946 -1.894592 -11.100586 7
-0.159271 -1.9397579 -11.199219 7
-0.147476 -1.95929 -11.130859 7
-0.153923 -1.994141 -11.160156 7
-0.150719 -2.0205081 -11.137695 7
-0.16037799 -2.058228 -11.183594 7
-0.165787 -2.1513669 -11.198242 7
-0.47420499 -6.921814 -11.189453 7
-0.083015002 1.116943 -10.547852 7
-0.080092996 1.000244 -10.540039 7
-0.074813999 0.96917701 -10.512695 7
-0.126205 -1.634338 -10.518555 7
-0.120613 -1.6578979 -10.485352 7
-0.128464 -1.691345 -10.520508 7
-0.129593 -1.720032 -10.522461 7
-0.138565 -1.754761 -10.564453 7
-0.127373 -1.774048 -10.501953 7
-0.13074499 -1.804443 -10.515625 7
-0.130753 -1.832214 -10.510742 7
-0.135254 -1.863647 -10.52832 7
-0.150932 -1.904175 -10.603516 7
-0.143143 -2.00946 -10.544922 7
-0.35060099 -4.8179932 -10.824219 7
-0.35287499 -4.8509521 -10.823242 7
-0.35626999 -4.8859248 -10.827148 7
-0.35405701 -4.9101558 -10.805664 7
-0.36306801 -4.9561162 -10.835938 7
-0.37093401 -5.0002441 -10.862305 7
-0.37096399 -5.028687 -10.849609 7
-0.36091599 -5.037354 -10.789062 7
-0.362068 -5.0681152 -10.782227 7
-0.35873401 -5.0898442 -10.754883 7
-0.47281599 -6.756958 -10.55957 7
-0.47172499 -6.782104 -10.538086 7
-0.461678 -6.7841191 -10.477539 7
-0.45947301 -6.8059692 -10.450195 7
-0.460648 -6.8364258 -10.438477 7
-0.461815 -6.867065 -10.427734 7
-0.46746099 -6.9094849 -10.435547 7
-0.47649401 -6.9606929 -10.458984 7
-0.48887599 -7.020752 -10.49707 7
-0.125259 -1.61615 -10.000977 7
-0.12294 -1.641052 -9.9853516 7
-0.12645 -1.670288 -9.9990234 7
-0.133469 -1.701782 -10.027344 7
-0.135811 -1.730225 -10.035156 7
-0.13465101 -1.756042 -10.026367 7
-0.128815 -1.778198 -9.9931641 7
-0.127655 -1.803772 -9.9824219 7
-0.128838 -1.8312989 -9.984375 7
-0.13469701 -1.862671 -10.007812 7
-0.155746 -1.906311 -10.104492 7
-0.35962701 -5.0875239 -10.147461 7
-0.35732299 -5.1098018 -10.124023 7
-0.46112099 -6.7260132 -9.828125 7
-0.45764899 -6.7432251 -9.796875 7
-0.45769501 -6.7692871 -9.78125 7
-0.45539901 -6.7894292 -9.7548828 7
-0.45544401 -6.8154912 -9.7392578 7
-0.45431501 -6.838562 -9.7177734 7
-0.45904499 -6.876709 -9.7207031 7
-0.47079501 -6.933228 -9.7529297 7
-0.47903401 -6.9805908 -9.7685547 7
-0.48610699 -7.025269 -9.7822266 7
-0.084464997 1.2597049 -9.4980469 7
-0.085693002 1.233948 -9.5068359 7
-0.090415999 1.210083 -9.53125 7
-0.085822999 1.181213 -9.5117188 7
-0.085883997 1.154846 -9.5136719 7
-0.083618 1.1272579 -9.5048828 7
-0.086006001 1.1021121 -9.5195312 7
-0.077927001 1.0718991 -9.4814453 7
-0.069839001 1.04187 -9.4433594 7
-0.073386997 1.01709 -9.4638672 7
-0.072288997 0.99054003 -9.4599609 7
-0.073517002 0.964661 -9.4677734 7
-0.350418 -4.9326172 -9.5888672 7
-0.356583 -4.995728 -9.5898438 7
-0.35054001 -5.0350952 -9.5410156 7
-0.35302001 -5.0654302 -9.5390615 7
-0.34817499 -5.0811162 -9.5058594 7
-0.09465 -1.62616 -8.8818359 7
-0.097205997 -1.651917 -8.8886719 7
-0.107399 -1.6832891 -8.9296885 7
-0.106125 -1.70636 -8.9208984 7
-0.095963001 -1.722717 -8.8710938 7
-0.095969997 -1.7466429 -8.8662109 7
-0.098517999 -1.772339 -8.8740234 7
-0.099799998 -1.797424 -8.875 7
-0.115089 -1.833618 -8.9384766 7
-0.124001 -1.864929 -8.9736328 7
-0.117653 -1.88385 -8.9414062 7
-0.112572 -1.903564 -8.9121094 7
-0.339439 -4.908875 -8.9570312 7
-0.343292 -4.9404302 -8.9599609 7
-0.34460399 -4.9671021 -8.953125 7
-0.34336099 -4.98877 -8.9365234 7
-0.335747 -4.9977422 -8.8945312 7
-0.33833301 -5.026855 -8.8925781 7
-0.34091899 -5.0558472 -8.890625 7
-0.33967599 -5.077271 -8.8720703 7
-0.343521 -5.1090088 -8.8759766 7
-0.075820997 1.268066 -8.4970703 7
-0.073348999 1.242676 -8.4882812 7
-0.072127998 1.218201 -8.484375 7
-0.074715003 1.195618 -8.4980469 7
-0.070969 1.169556 -8.484375 7
-0.065955997 1.142944 -8.4638672 7
-0.064750999 1.118469 -8.4609385 7
-0.058463998 1.0914921 -8.4355469 7
-0.052193001 1.064819 -8.4082031 7
-0.048447002 1.039246 -8.3935547 7
-0.052292001 1.017334 -8.4130859 7
-0.053619001 0.99401897 -8.421875 7
-0.053672999 0.97009301 -8.4238281 7
-0.107002 -1.614197 -8.5136719 7
-0.114952 -1.642944 -8.5439453 7
-0.11496 -1.666199 -8.5400391 7
-0.117622 -1.691162 -8.5478516 7
-0.112335 -1.71051 -8.5205078 7
-0.107056 -1.7294919 -8.4931641 7
-0.11235 -1.756531 -8.5117188 7
-0.112366 -1.7794189 -8.5068359 7
-0.117668 -1.806702 -8.5253906 7
-0.130913 -1.840332 -8.5771484 7
-0.140182 -1.871033 -8.6123047 7
-0.13358299 -1.8887939 -8.578125 7
-0.134918 -1.91333 -8.5800781 7
-0.138901 -1.939819 -8.5917969 7
-0.142891 -1.9664921 -8.6035156 7
-0.145546 -1.992065 -8.6103516 7
-0.339066 -4.8235469 -8.4814453 7
-0.33778399 -4.8440552 -8.4648438 7
-0.34576401 -4.8823242 -8.4833984 7
-0.34579501 -4.905396 -8.4726562 7
-0.35244799 -4.9412231 -8.4853516 7
-0.35381299 -4.9667358 -8.4785156 7
-0.34854099 -4.9795532 -8.4462891 7
-0.34591699 -4.9972529 -8.4238281 7
-0.34727499 -5.0227051 -8.4169922 7
-0.34333 -5.0376592 -8.390625 7
-0.34336901 -5.0604858 -8.3779297 7
-0.34207901 -5.0805049 -8.3603516 7
-0.34873199 -5.1165161 -8.3730469 7
-0.332726 -4.8074951 -7.952148 7
-0.33414501 -4.8318481 -7.9462891 7
-0.34106401 -4.8667598 -7.9589839 7
-0.33695999 -4.8805542 -7.9326172 7
-0.33422899 -4.8969731 -7.9111328 7
-0.33702099 -4.9240112 -7.9091802 7
-0.33843201 -4.9484859 -7.9023442 7
-0.33984399 -4.9727778 -7.8955078 7
-0.332977 -4.980896 -7.859375 7
-0.33300799 -5.0022578 -7.8466802 7
-0.33579999 -5.0292969 -7.844727 7
-0.33583099 -5.0507808 -7.8320308 7
-0.334488 -5.0695801 -7.8154302 7
-0.33313799 -5.0881348 -7.797852 7
-0.331375 -4.8484502 -7.4667969 7
-0.331444 -4.8895869 -7.4414058 7
-0.33436599 -4.9364009 -7.4287109 7
-0.325836 -4.9603882 -7.375 7
-0.328758 -5.0068359 -7.3613281 7
-0.33313 -5.0562739 -7.351562 7
-0.337486 -5.1055298 -7.3417969 7
-0.132172 4.447021 -6.516602 7
-0.122253 4.3895259 -6.5029302 7
-0.109489 4.3269649 -6.4785161 7
-0.110939 4.2913208 -6.5039058 7
-0.108124 4.2476811 -6.5126948 7
-0.126633 4.2432251 -6.5986328 7
-0.128067 4.2263789 -6.6132808 7
-0.126663 4.2042241 -6.6181641 7
-0.12669399 4.1653442 -6.6376948 7
-0.31963301 -4.8120732 -6.9863281 7
-0.325607 -4.842896 -6.9941411 7
-0.333069 -4.8769531 -7.0068359 7
-0.33161199 -4.8935552 -6.9902339 7
-0.33016199 -4.9100342 -6.9736328 7
-0.33614299 -4.9412842 -6.9804692 7
-0.33319101 -4.954895 -6.9599609 7
-0.32578999 -4.9595342 -6.922852 7
-0.324341 -4.9759521 -6.90625 7
-0.32288399 -4.992249 -6.890625 7
-0.33480799 -5.0352778 -6.9160161 7
-0.331871 -5.048645 -6.8945308 7
-0.322983 -5.0499272 -6.8535161 7
-0.33640301 -5.096313 -6.8847661 7
-0.42253101 -6.66571 -6.078125 7
-0.41810599 -6.6715698 -6.0488281 7
-0.42559099 -6.7079468 -6.0537109 7
-0.42117301 -6.7138672 -6.0253911 7
-0.142242 4.4725342 -6.1337891 7
-0.12455 4.4202271 -6.0839839 7
-0.112747 4.3615112 -6.0654302 7
-0.114235 4.3460689 -6.0800781 7
-0.112801 4.3068848 -6.0957031 7
-0.118706 4.2998052 -6.125977 7
-0.115768 4.276001 -6.125 7
-0.109894 4.2284551 -6.125 7
-0.115799 4.2210078 -6.15625 7
-0.129105 4.2269902 -6.210938 7
-0.139465 4.2088008 -6.265625 7
-0.13209499 4.1768799 -6.25 7
-0.13654301 4.1660771 -6.2744141 7
-0.32047999 -4.8079829 -6.5839839 7
-0.31743601 -4.8205571 -6.563477 7
-0.314392 -4.8331909 -6.5410161 7
-0.31442299 -4.851685 -6.530273 7
-0.326767 -4.894043 -6.5566411 7
-0.32372299 -4.9063721 -6.5361328 7
-0.31913 -4.915833 -6.5087891 7
-0.32070199 -4.9373169 -6.5019531 7
-0.31304201 -4.9403691 -6.4667969 7
-0.316154 -4.9647832 -6.4638672 7
-0.32080099 -4.992188 -6.4658198 7
-0.31929001 -5.0074458 -6.4501948 7
-0.311638 -5.0100098 -6.4130859 7
-0.314751 -5.0343628 -6.4111328 7
-0.31785601 -5.0587769 -6.4082031 7
-0.331734 -5.1051641 -6.438477 7
-0.128197 4.4780269 -5.6904302 7
-0.12056 4.4459229 -5.6777339 7
-0.11599 4.4198608 -5.6738281 7
-0.106834 4.3853149 -5.6542969 7
-0.100731 4.3563838 -5.6455078 7
-0.097686999 4.3334351 -5.6455078 7
-0.097694002 4.3161011 -5.65625 7
-0.100769 4.304688 -5.6757808 7
-0.103828 4.2932739 -5.695312 7
-0.103836 4.276001 -5.7060552 7
-0.103851 4.258667 -5.7158198 7
-0.105385 4.2442632 -5.7294922 7
-0.106926 4.2296138 -5.7441411 7
-0.108459 4.2150269 -5.7597661 7
-0.117638 4.214355 -5.7988281 7
-0.126808 4.213562 -5.8378911 7
-0.131401 4.2042241 -5.8632808 7
-0.12988999 4.1838989 -5.867188 7
-0.30930299 -4.8077388 -6.1064448 7
-0.30614501 -4.8188481 -6.0849609 7
-0.314163 -4.8517461 -6.0966802 7
-0.312592 -4.8659668 -6.079102 7
-0.317413 -4.8927612 -6.0830078 7
-0.32063299 -4.9164429 -6.0800781 7
-0.31747401 -4.9273682 -6.0585942 7
-0.30792201 -4.9258418 -6.0195308 7
-0.31275201 -4.9525151 -6.0214839 7
-0.31278199 -4.969604 -6.0087891 7
-0.31760401 -4.9963989 -6.0107422 7
-0.316048 -5.010437 -5.9941411 7
-0.31128699 -5.0180659 -5.96875 7
-0.31610101 -5.0448608 -5.9707031 7
-0.32413501 -5.078186 -5.9814448 7
-0.32096899 -5.088623 -5.9599609 7
-0.327393 -5.1187739 -5.9648442 7
-0.12660199 4.4776001 -5.2851558 7
-0.120262 4.4490361 -5.2773442 7
-0.10759 4.4081421 -5.249023 7
-0.096488997 4.370667 -5.226562 7
-0.090140998 4.3422852 -5.217773 7
-0.091735996 4.3292851 -5.2324219 7
-0.098099001 4.3251948 -5.2617192 7
-0.096519001 4.3060298 -5.266602 7
-0.096519001 4.2897339 -5.2763672 7
-0.098113999 4.2764282 -5.2919922 7
-0.098122001 4.2599492 -5.3017578 7
-0.101303 4.2495122 -5.3212891 7
-0.098136999 4.2272949 -5.3212891 7
-0.104492 4.2226558 -5.3505859 7
-0.117188 4.2294922 -5.3994141 7
-0.126709 4.2304082 -5.4375 7
-0.120377 4.202209 -5.4287109 7
-0.115616 4.1768188 -5.4238281 7
-0.30230701 -4.807312 -5.6689448 7
-0.31228599 -4.8430181 -5.6855469 7
-0.31562001 -4.8657842 -5.6826172 7
-0.317307 -4.8855591 -5.6757808 7
-0.30741099 -4.88269 -5.6367192 7
-0.30743399 -4.8988652 -5.625977 7
-0.304153 -4.9084468 -5.6035161 7
-0.30915099 -4.9345698 -5.6054692 7
-0.30587 -4.9442139 -5.5849609 7
-0.30590799 -4.9604492 -5.5732422 7
-0.30593899 -4.976501 -5.561523 7
-0.30431399 -4.9893188 -5.5449219 7
-0.30103299 -4.9986572 -5.523438 7
-0.307693 -5.0281978 -5.5292969 7
-0.31103501 -5.0509639 -5.5263672 7
-0.32431799 -5.0939331 -5.5507808 7
-0.327667 -5.1166992 -5.546875 7
-0.31941199 -5.1159058 -5.5126948 7
-0.405617 -6.6166382 -4.4755859 7
-0.40897399 -6.6386719 -4.467773 7
-0.40570799 -6.6436772 -4.4433589 7
-0.40741 -6.661499 -4.4316411 7
-0.405792 -6.6708369 -4.4121089 7
-0.39919299 -6.6671748 -4.382812 7
-0.40421301 -6.6934199 -4.3769531 7
-0.40094 -6.697998 -4.3535161 7
-0.39601099 -6.6983638 -4.3261719 7
-0.30198699 -4.8132319 -5.2714839 7
-0.30544299 -4.8353271 -5.2685552 7
-0.30891401 -4.8574829 -5.266602 7
-0.31066099 -4.8761601 -5.2587891 7
-0.307266 -4.8848271 -5.2373052 7
-0.30385599 -4.89325 -5.2167969 7
-0.30217701 -4.905396 -5.2011719 7
-0.29877499 -4.9138179 -5.1806641 7
-0.29709601 -4.9257808 -5.164062 7
-0.30055201 -4.9476929 -5.1611328 7
-0.30402401 -4.9698491 -5.1582031 7
-0.30405399 -4.9848628 -5.1455078 7
-0.304077 -4.999939 -5.1337891 7
-0.304115 -5.0152588 -5.1220698 7
-0.30929601 -5.0405879 -5.1230469 7
-0.31619301 -5.0698242 -5.1289058 7
-0.31450701 -5.0812988 -5.1113281 7
-0.31454501 -5.0964971 -5.0996089 7
-0.31457499 -5.1113892 -5.0878911 7
-0.39764401 -6.744873 -3.738281 7
-0.401131 -6.765625 -3.7285161 7
-0.39949799 -6.78479 -3.6933589 7
-0.399544 -6.7966309 -3.6767581 7
-0.40306899 -6.828979 -3.6503911 7
-0.41296399 -6.8746338 -3.6347661 7
-0.41645101 -6.8956299 -3.625 7
-0.419983 -6.9276118 -3.5966799 7
-0.41658801 -6.9299932 -3.574219 7
-0.41841099 -6.957458 -3.5449221 7
-0.297234 -4.804626 -4.882812 7
-0.29904899 -4.8225098 -4.875977 7
-0.29906499 -4.8369751 -4.8642578 7
-0.30087301 -4.85498 -4.8574219 7
-0.30622101 -4.8798218 -4.858398 7
-0.29738599 -4.8769531 -4.8261719 7
-0.29919401 -4.8947139 -4.8173828 7
-0.299225 -4.9091802 -4.8056641 7
-0.299263 -4.9234619 -4.7939448 7
-0.304611 -4.9484859 -4.7949219 7
-0.301094 -4.955688 -4.7744141 7
-0.299355 -4.9664311 -4.7587891 7
-0.29938501 -4.9804692 -4.7451172 7
-0.30297101 -5.0018311 -4.742188 7
-0.30477899 -5.0196528 -4.734375 7
-0.30480999 -5.033936 -4.7236328 7
-0.301285 -5.0410161 -4.703125 7
-0.31019601 -5.0731201 -4.7119141 7
-0.312004 -5.0907588 -4.704102 7
-0.31203499 -5.104919 -4.6914058 7
-0.31206501 -5.118958 -4.679688 7
-0.102435 -1.980293 -13.740535 7
-0.174978 -1.784318 -10.37072 7
-0.42360401 -5.1340308 -11.892837 7
-0.13901301 -1.676299 -8.4837294 7
-0.36402199 -5.0414758 -9.4379044 7
-0.33854899 -5.0222869 -7.7625008 7
-0.050064001 -1.873337 -5.4864311 7
-0.29700401 -4.9342999 -6.2658882 7
-0.034809999 -1.789444 -4.642653 7
-0.27570501 -4.8932571 -5.1532211 7
-0.34638101 -6.6721492 -4.3206792 7
-0.060414001 -1.693354 -3.686008 7
-0.327941 -5.0039411 -3.961226 7
-0.288692 -4.887639 -3.1095281 7
-0.0074280002 -1.7217571 -1.808645 7
-0.070334002 4.3085151 -9.3945026 7
-0.123791 4.2049842 -5.8306141 7
-0.0052299998 1.037123 -5.3642631 7
0.012928 1.0331351 -4.4874029 7
-0.206167 -1.959921 -13.111951 7
-0.192673 -2.0304279 -10.948004 7
-0.46301001 -5.210701 -14.503935 7
-0.087380998 1.091038 -9.4344931 7
-0.09804 -1.727743 -8.3415232 7
-0.059528001 -1.663216 -6.9843302 7
-0.36886701 -4.9854798 -9.6719465 7
-0.053367 -1.6832319 -6.2352428 7
-0.30359599 -5.000596 -7.658216 7
-0.134746 4.3352528 -5.9091272 7
-0.157607 4.2663598 -6.2469091 7
-0.043393999 1.244361 -5.695446 7
-0.025498999 1.013971 -5.5744648 7
-0.090042002 -1.669075 -5.561893 7
-0.108399 -1.919024 -5.6436129 7
-0.35868001 -4.8777699 -6.5006819 7
-0.332156 -4.957942 -6.150692 7
-0.434212 -6.600934 -5.8818812 7
-0.012595 1.228479 -4.9965048 7
-0.0087259999 1.05566 -5.0061731 7
-0.079586998 -1.629136 -5.078054 7
-0.090790004 -1.8341219 -5.0960779 7
-0.29354599 -4.8971858 -4.981029 7
-0.29012901 -5.0576181 -4.7754579 7
-0.392434 -6.9775 -3.528049 7
-0.065677002 -1.616459 -4.6275692 7
-0.074685998 -1.795531 -4.623847 7
-0.26025501 -4.8741689 -3.854564 7
-0.25321701 -4.9621229 -3.6374331 7
-0.037567999 1.276903 -4.5257978 7
-0.023403 1.0649101 -4.483707 7
-0.038438998 -1.6837749 -4.0976849 7
-0.048951998 -1.848953 -4.093019 7
-0.024168 -1.6123379 -3.77705 7
-0.041951001 -1.788785 -3.8076291 7
-0.031021999 -1.74457 -3.5207601 7
-0.027844001 -1.858945 -1.870524 7
-0.030487999 -1.9036 -1.7974451 7
-0.00954 -1.704336 -1.83123 7
-0.012514 -1.747466 -1.764841 7
-0.0052829999 -1.7501121 -1.684568 7
-0.021182001 -1.636764 -1.725467 7
-0.019876 -1.659627 -1.656448 7
