# .PCD v0.7 - Point Cloud Data file format
VERSION 0.7
FIELDS x y z intensity
SIZE 4 4 4 4
TYPE F F F F
COUNT 1 1 1 1
WIDTH 880
HEIGHT 1
VIEWPOINT 0 0 0 1 0 0 0
POINTS 880
DATA ascii
1.96978 59.975891 11.081055 7
1.344955 43.677673 11.476562 7
1.339958 43.980896 11.435547 7
1.338791 44.084106 11.348633 7
1.166939 40.205505 11.786133 7
1.165146 40.350281 11.620117 7
-0.103783 -1.630249 74.712891 7
-0.019791 1.601746 72.223633 7
-0.0064539998 1.758728 71.798828 7
-0.053543001 2.137573 73.316406 7
-0.072144002 5.7695918 73.882812 7
1.0896 38.580261 11.772461 7
1.087204 38.700623 11.706055 7
1.084969 38.815186 11.637695 7
1.086899 38.782349 11.53125 7
-0.047164999 -2.2038569 66.171875 7
-0.100777 -2.099915 67.738281 7
-0.149353 -1.984253 69.160156 7
0.016899001 0.84179699 64.451172 7
-0.018509001 1.007629 65.486328 7
-0.013885 1.157104 65.355469 7
-0.022315999 2.3790891 65.614258 7
0.0094299996 2.4949951 64.69043 7
0.018279999 2.6342771 64.433594 7
1.022697 36.364075 11.822266 7
1.021751 36.42804 11.749023 7
1.021881 36.457886 11.664062 7
1.054588 36.494141 8.3964844 7
-0.056449998 -2.423218 60.283203 7
-0.102333 -2.3308721 61.5 7
-0.14064801 -2.2251589 62.517578 7
-0.199432 -2.133301 64.072266 7
-0.003609 0.49578899 59.036133 7
-0.038527999 0.64233398 59.958984 7
-0.036354002 0.780334 59.905273 7
-0.019043 2.694885 59.510742 7
-0.000443 2.8087161 59.020508 7
0.0057219998 2.937073 58.855469 7
0.041152999 3.023376 57.918945 7
-0.026404999 6.0238042 59.587891 7
-0.117378 -2.640137 56.145508 7
-0.15482301 -2.5513921 57.044922 7
-0.187828 -2.454041 57.839844 7
-0.25154099 -2.382751 59.366211 7
-0.045035999 0.081969999 54.561523 7
-0.041191 0.20770299 54.474609 7
-0.072921999 0.33825701 55.235352 7
-0.044539999 2.8544919 54.56543 7
-0.001747 2.9233401 53.541992 7
-0.022141 3.0755 54.025391 7
-0.082641996 5.978394 55.375 7
-0.050186001 6.0192261 54.59375 7
-0.017502001 6.0557251 53.805664 7
-0.26605999 -2.7043459 54.790039 7
-0.028441999 2.8171999 49.782227 7
-0.020546 2.921387 49.607422 7
-0.080688 5.8192749 50.767578 7
-0.052772999 5.8631592 50.149414 7
-0.019569 6.0047612 49.407227 7
0.81065398 30.781555 11.918945 7
-0.52172101 1.571167 -63.890625 7
-0.59053802 1.452759 -65.548828 7
-0.50452399 1.254639 -63.481445 7
-0.593018 1.137512 -65.613281 7
-0.02079 2.5802 45.52832 7
-0.049812 2.7202761 46.105469 7
-0.019035 2.787354 45.486328 7
-0.079079002 5.7590332 46.536133 7
-0.044853002 5.7775269 45.84375 7
-0.019943001 5.8174438 45.335938 7
0.74149299 29.134827 11.962891 7
0.74176002 29.159363 11.893555 7
0.73956299 29.233582 11.841797 7
0.77609301 29.637207 8.6357422 7
0.77364302 29.710999 8.5810547 7
-0.50060999 1.7140501 -58.689453 7
-0.55827302 1.604919 -59.980469 7
-0.47849301 1.416016 -58.183594 7
-0.548401 1.307922 -59.74707 7
-0.63761097 1.200745 -61.744141 7
-0.604568 -5.160522 -54.779297 7
-0.54896498 -5.1873169 -53.648438 7
-0.627617 -5.4703979 -55.213867 7
-0.57230401 -5.4934082 -54.088867 7
-0.54135102 -5.5610962 -53.452148 7
-0.473557 -5.5487061 -52.078125 7
-0.035851002 2.502625 42.708008 7
-0.0037 2.562866 42.106445 7
-0.029297 2.6904299 42.579102 7
0.0085070003 2.7406011 41.874023 7
-0.093810998 5.680542 43.578125 7
-0.067962997 5.7151489 43.088867 7
-0.040550001 5.7434082 42.571289 7
-0.014084 5.7718511 42.072266 7
0.68331099 27.828979 12.110352 7
0.68267798 27.8703 12.050781 7
0.68492103 27.887146 11.90625 7
0.68105298 27.988525 11.869141 7
0.72057301 28.404785 8.6357422 7
0.71701801 28.495422 8.5869141 7
0.707039 28.710632 8.5673828 7
0.69939399 28.880737 8.5371094 7
0.69642597 28.959778 8.4833984 7
0.70779401 28.760193 8.3652344 7
-0.46285999 2.0501709 -52.173828 7
-0.50633198 1.955139 -53.054688 7
-0.55849499 1.861938 -54.111328 7
-0.49362901 1.690125 -52.805664 7
-0.545219 1.592163 -53.849609 7
-0.33757001 -0.96929902 -45.236328 7
-0.33981299 -1.080322 -45.275391 7
-0.370628 -1.2049561 -45.839844 7
-0.34897599 -1.967773 -45.408203 7
-0.362968 -2.0896609 -45.661133 7
-0.33573201 -2.177002 -45.15332 7
0.0030439999 2.444519 38.685547 7
-0.059363998 5.5995479 39.537109 7
-0.020927001 5.6818242 38.863281 7
-0.40321401 2.431824 -47.196289 7
-0.44438899 2.3526609 -47.973633 7
-0.48617601 2.2706299 -48.761719 7
-0.51963001 2.1781621 -49.390625 7
-0.56423199 2.091125 -50.231445 7
-0.28990901 -0.67730701 -40.885742 7
-0.31225601 -0.784302 -41.263672 7
-0.36964399 -2.0367429 -42.192383 7
-0.32401299 -2.101074 -41.410156 7
-0.30619001 -2.1862791 -41.101562 7
-0.32133499 -2.3005979 -41.353516 7
-0.066497996 -0.621948 37.132812 7
-0.068611003 -0.53784198 37.168945 7
-0.08213 -0.45599401 37.386719 7
0.00030499999 2.3509519 36.087891 7
-0.0043640002 2.4382319 36.158203 7
0.0064090001 2.5083621 35.983398 7
-0.062523 5.458374 36.831055 7
-0.029617 5.54425 36.291016 7
-0.32955199 2.801636 -42.099609 7
-0.35430899 2.7246699 -42.53125 7
-0.39752999 2.66449 -43.28418 7
-0.44209301 2.6021731 -44.05957 7
-0.482315 2.5318601 -44.760742 7
-0.530258 2.465271 -45.595703 7
-0.56109601 2.380249 -46.132812 7
-0.25061801 -0.183716 -37.111328 7
-0.26511401 -0.36926299 -37.331055 7
-0.312042 -0.47015399 -38.072266 7
-0.33579299 -2.216675 -38.0625 7
-0.29990399 -2.2766719 -37.49707 7
-0.26998901 -2.3396609 -37.025391 7
-0.30072001 -2.4607539 -37.498047 7
-0.270439 -2.52124 -37.019531 7
-0.052414 -0.72387701 34.158203 7
0.012093 2.2376101 33.206055 7
-0.022841999 2.35022 33.712891 7
-0.075080998 5.2988281 34.232422 7
-0.078925997 5.3860469 34.279297 7
-0.055755999 5.4083252 33.931641 7
-0.043304 5.4550781 33.740234 7
-0.034430999 5.5098882 33.600586 7
0.51399201 23.408447 11.96582 7
0.51458699 23.427856 11.907227 7
-0.32630199 3.0349121 -38.344727 7
-0.355095 2.9736331 -38.807617 7
-0.37876099 2.9042971 -39.188477 7
-0.40574601 2.8370969 -39.620117 7
-0.44737199 2.7832029 -40.286133 7
-0.47692099 2.7142329 -40.757812 7
-0.30078101 -0.152344 -35.064453 7
-0.317902 -2.313904 -35.225586 7
-0.28672001 -2.3703001 -34.765625 7
-0.298363 -2.4672239 -34.928711 7
-0.297203 -2.5514531 -34.904297 7
-0.27042401 -2.608521 -34.508789 7
-0.088073999 -0.91357398 32.62793 7
-0.062401 -0.75689697 32.282227 7
-0.077179 -0.68835402 32.488281 7
-0.086875997 -0.617432 32.624023 7
-0.015968001 2.193542 31.651367 7
-0.0064389999 2.3265989 31.513672 7
-0.086554997 5.2894292 32.329102 7
-0.091499001 5.3745122 32.384766 7
-0.060775999 5.4474492 31.946289 7
-0.047538999 5.4874272 31.755859 7
-0.34413099 3.2132571 -35.944336 7
-0.37571001 3.163269 -36.416016 7
-0.39749101 3.098999 -36.744141 7
-0.428673 3.044312 -37.209961 7
-0.45947999 2.986877 -37.672852 7
-0.263145 -0.065369003 -34.515625 7
-0.282776 0.079102002 -32.269531 7
-0.29633299 -2.4421389 -32.209961 7
-0.25714099 -2.7149661 -31.65625 7
-0.07254 -0.90954602 30.238281 7
-0.054657001 -0.83459502 30.013672 7
-0.061882 -0.76928699 30.108398 7
-0.062714003 -0.701599 30.12207 7
-0.027252 1.9890749 29.65918 7
-0.015305 2.0448611 29.50293 7
-0.012016 2.108459 29.458008 7
-0.031966999 2.1947019 29.708984 7
-0.0089870002 2.304565 29.407227 7
-0.087090001 5.1946411 30.116211 7
-0.088333003 5.2658691 30.121094 7
-0.072296001 5.2965088 29.90918 7
-0.062629998 5.341064 29.775391 7
-0.049309 5.3766479 29.59668 7
0.430969 20.711365 12.142578 7
0.429405 20.757263 12.103516 7
0.42784101 20.803162 12.06543 7
0.42539999 20.859436 12.032227 7
0.42603299 20.879211 11.980469 7
0.43061799 20.851807 11.905273 7
0.483551 21.492554 8.9316406 7
0.484604 21.499084 8.8769531 7
0.48304701 21.538574 8.8339844 7
0.48018599 21.594727 8.7958984 7
0.47426599 21.68927 8.7714844 7
-0.29927799 3.480408 -32.448242 7
-0.31388101 3.419373 -32.654297 7
-0.334824 3.365906 -32.947266 7
-0.35409501 3.3088989 -33.217773 7
-0.389458 3.27124 -33.708008 7
-0.419319 3.2244871 -34.123047 7
-0.220695 0.390259 -31.425781 7
-0.26255801 0.31732199 -32 7
-0.23728199 0.235107 -31.650391 7
-0.25578299 0.157471 -31.901367 7
-0.27870899 -2.6287839 -29.751953 7
-0.054290999 -0.84796101 28.214844 7
-0.065909997 -0.788513 28.357422 7
-0.0634 -0.72393799 28.330078 7
-0.070625 -0.66235399 28.418945 7
-0.031853002 1.92511 27.956055 7
-0.041969001 1.997009 28.074219 7
-0.025832999 2.0452881 27.876953 7
-0.017479001 2.0999761 27.773438 7
-0.038284 2.183044 28.019531 7
-0.021179 2.2289431 27.811523 7
-0.089340001 5.1253662 28.302734 7
-0.098930001 5.2111821 28.405273 7
-0.090568997 5.2557368 28.295898 7
-0.076874003 5.2876592 28.123047 7
-0.068976998 5.332581 28.018555 7
-0.072265998 5.403564 28.046875 7
0.44558701 20.475159 8.8125 7
-0.399086 3.5393071 -31.432617 7
-0.40291601 3.466125 -31.485352 7
-0.41762501 3.406677 -31.678711 7
-0.223579 0.37823501 -29.18457 7
-0.26796001 0.31170699 -29.746094 7
-0.21346299 0.16149899 -29.057617 7
-0.18649299 -0.31378201 -26.623047 7
-0.244728 -2.3419189 -27.164062 7
-0.23580199 -2.400208 -27.054688 7
-0.28160101 -2.5141599 -27.583984 7
-0.011322 1.954468 25.918945 7
-0.0070719998 2.008728 25.867188 7
-0.037200999 2.0953979 26.201172 7
-0.015228 2.1326289 25.951172 7
-0.0088879997 2.1845701 25.876953 7
-0.087952003 5.133667 26.399414 7
-0.080559 5.1760249 26.307617 7
-0.072136 5.2156978 26.204102 7
-0.063704997 5.2548218 26.099609 7
-0.053702999 5.289917 25.978516 7
-0.061919998 5.367981 26.057617 7
0.34478801 18.248962 12.285156 7
0.34446001 18.279419 12.245117 7
0.34261301 18.32489 12.212891 7
0.34429899 18.335083 12.161133 7
-0.306793 3.7250979 -27.896484 7
-0.31330901 3.664185 -27.981445 7
-0.32032001 3.6039431 -28.071289 7
-0.356819 3.513428 -28.516602 7
-0.25422701 -2.4473879 -25.376953 7
-0.445068 -5.6711431 -26.987305 7
-0.45523801 -5.7598271 -27.081055 7
-1.086098 -33.400085 10.296875 7
-1.092911 -33.446228 10.395508 7
-1.086472 -33.357422 10.456055 7
-1.061859 -33.082764 10.464844 7
-1.043312 -32.870117 10.490234 7
-1.021439 -32.623901 10.504883 7
-0.058701001 -0.963135 24.865234 7
-0.014191 1.9423831 24.399414 7
-0.011337 1.994141 24.365234 7
-0.027923999 2.0641479 24.53418 7
-0.017837999 2.109375 24.425781 7
-0.015533 2.1616819 24.398438 7
-0.026558001 2.227356 24.508789 7
-0.084999003 5.1355591 24.730469 7
-0.072692998 5.1629028 24.592773 7
-0.068138003 5.207458 24.535156 7
-0.064713001 5.254456 24.489258 7
-0.072913997 5.3286128 24.561523 7
-0.078354001 5.396606 24.605469 7
-0.279984 3.8270259 -25.585938 7
-0.266541 3.7418821 -25.443359 7
-0.26616701 3.677124 -25.445312 7
-0.187004 -1.883057 -23.014648 7
-0.189308 -1.942444 -23.033203 7
-0.21331801 -2.2518921 -23.251953 7
-0.45958701 -5.461792 -25.295898 7
-0.449402 -5.5030522 -25.179688 7
-0.43749201 -5.5404658 -25.046875 7
-0.43015301 -5.586792 -24.958984 7
-0.439293 -5.668396 -25.037109 7
-0.30855599 3.8001709 -24.080078 7
-0.31875601 3.7545171 -24.192383 7
-0.320023 3.694885 -24.212891 7
-0.307289 3.6151731 -24.087891 7
-0.229652 -1.965515 -21.959961 7
-0.224243 -2.016052 -21.90332 7
-0.20855699 -2.0571289 -21.748047 7
-0.22007 -2.1217649 -21.852539 7
-0.226128 -2.1817629 -21.904297 7
-0.22192401 -2.2325439 -21.858398 7
-0.210472 -2.2763669 -21.743164 7
-0.46260801 -5.4935908 -23.65918 7
-0.44936401 -5.5246582 -23.520508 7
-0.44094101 -5.565186 -23.427734 7
-0.44828799 -5.6975098 -23.467773 7
-0.754547 -24.506165 13.448242 7
-0.75028998 -24.440735 13.489258 7
-0.201195 -1.92627 -20.280273 7
-0.20764901 -1.982605 -20.333984 7
-0.226326 -2.049377 -20.49707 7
-0.20512401 -2.08252 -20.300781 7
-0.20449799 -2.132874 -20.291016 7
-0.213524 -2.191895 -20.366211 7
-0.225128 -2.253845 -20.463867 7
-0.21678901 -2.297241 -20.383789 7
-0.21295901 -2.344543 -20.34375 7
-0.42847401 -5.52771 -21.736328 7
-0.75043499 -24.273865 9.9335938 7
-0.75865197 -24.298645 10.070312 7
-0.751495 -24.217651 10.108398 7
-0.73970002 -24.098511 10.129883 7
-0.720604 -23.919067 10.128906 7
-0.70814502 -23.794495 10.147461 7
-0.71357697 -23.817261 10.219727 7
-0.63835102 -21.648132 13.211914 7
-0.63845801 -21.619934 13.263672 7
-0.62859303 -21.515259 13.271484 7
-0.63137102 -21.507263 13.334961 7
-0.61950701 -21.387329 13.335938 7
-0.61496699 -21.323364 13.366211 7
-0.60775799 -21.23938 13.383789 7
-0.59987599 -21.150146 13.400391 7
-0.25524101 3.9061279 -20.452148 7
-0.293091 3.75354 -20.827148 7
-0.1847 -1.948059 -18.930664 7
-0.20581099 -2.0136721 -19.105469 7
-0.21468399 -2.069397 -19.174805 7
-0.207222 -2.1110229 -19.105469 7
-0.20044699 -2.1529541 -19.042969 7
-0.218155 -2.2172849 -19.188477 7
-0.54409802 -19.129761 13.300781 7
-0.54138201 -19.081665 13.333984 7
-0.54006201 -19.043457 13.373047 7
-0.183792 -1.9267581 -17.768555 7
-0.183815 -1.971619 -17.762695 7
-0.2033 -2.0331421 -17.914062 7
-0.187462 -2.064697 -17.782227 7
-0.18605 -2.1083369 -17.765625 7
-0.19760101 -2.1638789 -17.853516 7
-0.206993 -2.217773 -17.922852 7
-0.20197301 -2.25824 -17.876953 7
-0.196228 -2.297852 -17.825195 7
-0.40933999 -5.1262212 -19.017578 7
-0.415878 -5.1872559 -19.054688 7
-0.43107599 -5.2658081 -19.161133 7
-0.43617201 -5.3244019 -19.1875 7
-0.428276 -5.3563838 -19.113281 7
-0.42255399 -5.3925171 -19.054688 7
-0.41682401 -5.4285278 -18.99707 7
-0.47241199 -17.078003 13.121094 7
-0.47769901 -17.083374 13.18457 7
-0.47332799 -17.026733 13.204102 7
-0.472 -16.960876 13.27832 7
-0.2351 4.0916138 -17.734375 7
-0.205345 3.995544 -17.505859 7
-0.21395101 3.964478 -17.583008 7
-0.223289 3.9343259 -17.665039 7
-0.22836301 3.896729 -17.713867 7
-0.236984 3.864502 -17.791992 7
-0.25415 3.8453979 -17.938477 7
-0.196404 -1.957947 -16.806641 7
-0.197952 -2.0018311 -16.8125 7
-0.18959001 -2.037354 -16.744141 7
-0.189613 -2.079834 -16.739258 7
-0.20868701 -2.1394651 -16.878906 7
-0.207947 -2.1815801 -16.867188 7
-0.207214 -2.223999 -16.856445 7
-0.202667 -2.2623899 -16.816406 7
-0.21945199 -2.321167 -16.936523 7
-0.220238 -2.3648679 -16.936523 7
-0.41734299 -5.1760859 -17.876953 7
-0.42958799 -5.2458501 -17.955078 7
-0.429634 -5.2913818 -17.942383 7
-0.423576 -5.3242192 -17.884766 7
-0.42056999 -5.3631592 -17.848633 7
-0.418327 -5.4035029 -17.819336 7
-0.53581202 -18.228149 9.921875 7
-0.53042603 -18.171021 9.9462891 7
-0.52190399 -18.092957 9.9628906 7
-0.51181799 -18.004395 9.9726562 7
-0.241592 4.1356812 -16.65332 7
-0.24327099 4.0515752 -16.68457 7
-0.242607 4.007019 -16.688477 7
-0.244949 3.9672849 -16.714844 7
-0.24578901 3.924988 -16.730469 7
-0.25489801 3.8961179 -16.806641 7
-0.18837699 -1.964417 -15.744141 7
-0.17468999 -1.9931639 -15.641602 7
-0.173904 -2.0322881 -15.630859 7
-0.185204 -2.0822141 -15.707031 7
-0.205376 -2.1403201 -15.844727 7
-0.192505 -2.168823 -15.748047 7
-0.191727 -2.208374 -15.736328 7
-0.40731001 -5.1272578 -16.686523 7
-0.41622201 -5.1875 -16.735352 7
-0.42432401 -5.2461548 -16.77832 7
-0.418724 -5.2772832 -16.726562 7
-0.41150701 -5.3051758 -16.664062 7
-0.40671501 -5.3373408 -16.617188 7
-0.40675399 -5.3797612 -16.604492 7
-0.41163599 -5.4319458 -16.625977 7
-0.527367 -6.9438481 -16.985352 7
-0.52822101 -6.9891362 -16.974609 7
-0.141449 0.959351 -15.258789 7
-0.136765 0.91766399 -15.225586 7
-0.12571 0.87322998 -15.147461 7
-0.128204 0.83453399 -15.166016 7
-0.12831099 0.79486102 -15.166992 7
-0.126831 0.75445598 -15.158203 7
-0.130127 0.71563703 -15.183594 7
-0.145386 0.68054199 -15.293945 7
-0.17797901 -1.932495 -14.810547 7
-0.169525 -1.963257 -14.74707 7
-0.16870899 -2.0006101 -14.737305 7
-0.169579 -2.039124 -14.738281 7
-0.193321 -2.0977781 -14.893555 7
-0.185715 -2.1290891 -14.837891 7
-0.185738 -2.167053 -14.832031 7
-0.178978 -2.1986079 -14.780273 7
-0.39907801 -5.1386108 -15.655273 7
-0.41267401 -5.20575 -15.731445 7
-0.41356701 -5.247498 -15.723633 7
-0.40173301 -5.2636108 -15.633789 7
-0.39923099 -5.2982788 -15.604492 7
-0.39756799 -5.3346558 -15.581055 7
-0.40184 -5.3831792 -15.595703 7
-0.40952301 -5.43927 -15.632812 7
-0.19180299 4.086731 -14.321289 7
-0.191872 4.0489502 -14.331055 7
-0.190277 4.0083008 -14.329102 7
-0.196198 3.9803469 -14.37793 7
-0.128372 0.94439697 -14.310547 7
-0.120079 0.90344203 -14.253906 7
-0.123535 0.86706501 -14.279297 7
-0.12615199 0.830383 -14.297852 7
-0.12793 0.79321301 -14.311523 7
-0.12803601 0.75537097 -14.313477 7
-0.137375 0.72064197 -14.37793 7
-0.124893 0.67895502 -14.292969 7
-0.13002799 0.64270002 -14.329102 7
-0.16423801 -1.933044 -13.911133 7
-0.16514599 -1.969604 -13.911133 7
-0.161606 -2.002563 -13.883789 7
-0.18657701 -2.0600591 -14.038086 7
-0.180351 -2.0905759 -13.994141 7
-0.18215901 -2.1283569 -14.000977 7
-0.180397 -2.1626589 -13.984375 7
-0.184875 -2.202637 -14.006836 7
-0.39739999 -5.138855 -14.709961 7
-0.407249 -5.1962891 -14.757812 7
-0.39836901 -5.216187 -14.691406 7
-0.398415 -5.2538452 -14.678711 7
-0.393112 -5.280273 -14.631836 7
-0.39403501 -5.3196411 -14.625 7
-0.39675099 -5.362915 -14.628906 7
-0.40839401 -5.4248662 -14.6875 7
-0.188004 4.1221309 -13.431641 7
-0.18895 4.0880132 -13.446289 7
-0.19606 4.0643921 -13.5 7
-0.203163 4.0405879 -13.554688 7
-0.204979 4.0075679 -13.575195 7
-0.216492 3.9906621 -13.657227 7
-0.233284 3.982178 -13.772461 7
-0.23864 3.9543459 -13.816406 7
-0.210526 3.8720701 -13.644531 7
-0.13223299 0.93273902 -13.533203 7
-0.132324 0.89697301 -13.53418 7
-0.115646 0.85479701 -13.425781 7
-0.126343 0.82287598 -13.49707 7
-0.12907401 0.78802502 -13.517578 7
-0.13888501 0.75518799 -13.582031 7
-0.123085 0.71429402 -13.479492 7
-0.126717 0.67968798 -13.503906 7
-0.12857801 0.64422601 -13.517578 7
-0.160873 -1.939697 -13.154297 7
-0.157166 -1.970825 -13.12793 7
-0.173988 -2.019104 -13.225586 7
-0.187096 -2.0648191 -13.301758 7
-0.174042 -2.0875239 -13.216797 7
-0.172188 -2.1200559 -13.199219 7
-0.170341 -2.152344 -13.181641 7
-0.18904901 -2.203918 -13.291016 7
-0.189072 -2.2385859 -13.286133 7
-0.38797 -5.166748 -13.806641 7
-0.380539 -5.1873169 -13.750977 7
-0.379639 -5.2206421 -13.732422 7
-0.36845401 -5.2329712 -13.654297 7
-0.38536099 -5.3387451 -13.727539 7
-0.38352999 -5.3702998 -13.704102 7
-0.391983 -5.4232788 -13.739258 7
-0.123405 0.954651 -12.748047 7
-0.110535 0.915344 -12.669922 7
-0.117203 0.85003698 -12.713867 7
-0.13875601 0.72820997 -13.160156 7
-0.14523301 -1.9281009 -12.342773 7
-0.154083 -1.967834 -12.389648 7
-0.16394 -2.04071 -12.435547 7
-0.163956 -2.072998 -12.430664 7
-0.162994 -2.1043701 -12.419922 7
-0.38185099 -5.1351318 -12.947266 7
-0.37305501 -5.1508179 -12.885742 7
-0.37505299 -5.188416 -12.884766 7
-0.371162 -5.213562 -12.849609 7
-0.375137 -5.2550659 -12.859375 7
-0.37713599 -5.2923579 -12.857422 7
-0.38996899 -5.3859248 -12.901367 7
-0.39196801 -5.4234009 -12.899414 7
-0.099358 0.92858899 -11.888672 7
-0.104309 0.89837599 -11.919922 7
-0.107391 0.83532703 -11.941406 7
-0.110489 0.77209502 -11.962891 7
-0.109604 0.73950201 -11.958008 7
-0.104828 0.70581102 -11.930664 7
-0.104904 0.67382801 -11.932617 7
-0.10791 0.64251697 -11.951172 7
-0.14798 -1.935913 -11.737305 7
-0.162361 -1.97876 -11.813477 7
-0.16239899 -2.040344 -11.802734 7
-0.164474 -2.0731201 -11.80957 7
-0.163467 -2.1029661 -11.797852 7
-0.166565 -2.136719 -11.810547 7
-0.37288699 -5.1747441 -12.15625 7
-0.37189499 -5.2044072 -12.139648 7
-0.369881 -5.231812 -12.116211 7
-0.37094101 -5.265564 -12.108398 7
-0.38124099 -5.3183589 -12.148438 7
-0.15184 -1.962097 -11.115234 7
-0.159401 -1.997864 -11.150391 7
-0.149727 -2.018677 -11.094727 7
-0.150833 -2.0488889 -11.094727 7
-0.15406799 -2.0808721 -11.107422 7
-0.159477 -2.114929 -11.129883 7
-0.157333 -2.1422119 -11.113281 7
-0.155205 -2.169312 -11.09668 7
-0.16383401 -2.206665 -11.136719 7
-0.164932 -2.2368159 -11.137695 7
-0.171082 4.1422119 -10.430664 7
-0.17325599 4.1174321 -10.452148 7
-0.172241 4.0869751 -10.455078 7
-0.17333201 4.0603032 -10.469727 7
-0.186165 4.0535889 -10.544922 7
-0.17791 3.8666379 -10.556641 7
-0.147026 -1.983582 -10.533203 7
-0.148186 -2.0405879 -10.530273 7
-0.14708699 -2.067322 -10.519531 7
-0.170975 4.1526489 -9.8369141 7
-0.176613 4.1082759 -9.8818359 7
-0.121765 -1.877625 -9.9082031 7
-0.35766599 -5.0500488 -10.12207 7
-0.352997 -5.0674438 -10.088867 7
-0.351868 -5.0918579 -10.070312 7
-0.349556 -5.1138921 -10.048828 7
-0.342926 -4.9371338 -9.5185547 7
-0.329521 -4.9362788 -9.4501953 7
-0.34422299 -4.990417 -9.5 7
-0.351585 -5.030457 -9.5195312 7
-0.351616 -5.0557861 -9.5068359 7
-0.34187299 -5.0618291 -9.453125 7
-0.340691 -5.0846558 -9.4355469 7
-0.34439099 -5.11731 -9.4394531 7
-0.093254 -1.600769 -8.8535156 7
-0.093268998 -1.6246949 -8.8505859 7
-0.098389 -1.652344 -8.8681641 7
-0.098403998 -1.676331 -8.8642578 7
-0.103531 -1.703735 -8.8818359 7
-0.111183 -1.733582 -8.9121094 7
-0.098449998 -1.7477421 -8.8515615 7
-0.095917001 -1.769714 -8.8369141 7
-0.098488003 -1.79541 -8.8427734 7
-0.102333 -1.8222049 -8.8544922 7
-0.110001 -1.852417 -8.8847656 7
-0.121498 -1.8857419 -8.9296885 7
-0.127892 -1.915222 -8.9541016 7
-0.11132 -1.925293 -8.8769531 7
-0.115166 -1.952332 -8.8886719 7
-0.116463 -1.977295 -8.8886719 7
-0.116478 -2.001282 -8.8837891 7
-0.12925699 -2.0366819 -8.9355469 7
-0.13565101 -2.066406 -8.9589844 7
-0.325836 -4.8044429 -8.9130859 7
-0.32714799 -4.8308721 -8.9072266 7
-0.33232099 -4.888855 -8.9042969 7
-0.32979599 -4.9078369 -8.8818359 7
-0.331146 -4.958252 -8.8632812 7
-0.33501399 -4.9896851 -8.8662109 7
-0.33248901 -5.008667 -8.8447266 7
-0.32742301 -5.0221558 -8.8115234 7
-0.327492 -5.0698848 -8.7880859 7
-0.33006999 -5.0987549 -8.7861328 7
-0.102455 -1.610535 -8.4707031 7
-0.103813 -1.657288 -8.46875 7
-0.105148 -1.681152 -8.4697266 7
-0.111809 -1.709229 -8.4931641 7
-0.115807 -1.735229 -8.5058594 7
-0.10257 -1.770996 -8.4414062 7
-0.11187 -1.801147 -8.4755859 7
-0.113228 -1.8479609 -8.4726562 7
-0.12651099 -1.881897 -8.5244141 7
-0.135818 -1.91272 -8.5585938 7
-0.33554101 -5.0609741 -8.3144531 7
-0.33424401 -5.0808721 -8.2978516 7
-0.33428201 -5.1035161 -8.2851562 7
-0.32270801 -4.8040161 -7.8847661 7
-0.32827801 -4.8363652 -7.8935552 7
-0.32415801 -4.849854 -7.867188 7
-0.32280701 -4.8687129 -7.8496089 7
-0.32283801 -4.8903809 -7.8378911 7
-0.32287601 -4.9116821 -7.8261719 7
-0.327057 -4.9414058 -7.829102 7
-0.32985699 -4.9683838 -7.827148 7
-0.327126 -4.984314 -7.8056641 7
-0.32576799 -5.0030522 -7.789062 7
-0.32303599 -5.0186772 -7.765625 7
-0.317543 -5.0289311 -7.734375 7
-0.32310501 -5.0613399 -7.7431641 7
-0.321762 -5.079895 -7.7246089 7
-0.32595101 -5.109375 -7.7275391 7
-0.31635299 -4.894897 -7.3486328 7
-0.322128 -4.9265141 -7.3564448 7
-0.319298 -4.9413452 -7.3339839 7
-0.32219699 -4.9671631 -7.3330078 7
-0.320793 -4.9846802 -7.3164058 7
-0.31509399 -4.9936519 -7.2841802 7
-0.31225601 -5.0079961 -7.2626948 7
-0.31516299 -5.033813 -7.2597661 7
-0.31662801 -5.0569458 -7.2529302 7
-0.31522399 -5.0741582 -7.2363281 7
-0.319565 -5.1028442 -7.2382808 7
-0.148094 4.4648442 -6.5820308 7
-0.152382 4.4343262 -6.617188 7
-0.14388999 4.3792109 -6.608398 7
-0.124039 4.3032231 -6.5585942 7
-0.128326 4.2722778 -6.59375 7
-0.131203 4.238708 -6.6230469 7
-0.13124099 4.1998291 -6.6425781 7
-0.13979299 4.1759028 -6.6933589 7
-0.30800599 -4.8032842 -6.9199219 7
-0.32144901 -4.8486328 -6.952148 7
-0.31403399 -4.8535161 -6.9169922 7
-0.31407201 -4.8728638 -6.9042969 7
-0.320061 -4.903748 -6.9121089 7
-0.32605001 -4.9347529 -6.9199219 7
-0.317139 -4.9363399 -6.8779302 7
-0.31270599 -4.9468379 -6.8525391 7
-0.31274399 -4.9659419 -6.8408198 7
-0.317238 -4.994019 -6.84375 7
-0.31430101 -5.0070801 -6.8212891 7
-0.30985999 -5.0170898 -6.7949219 7
-0.315842 -5.0482178 -6.8007808 7
-0.31885499 -5.0732422 -6.7998052 7
-0.30995899 -5.0741582 -6.757812 7
-0.31148499 -5.0961909 -6.750977 7
-0.158958 4.473938 -6.2070308 7
-0.15159599 4.4411621 -6.1933589 7
-0.150131 4.4199219 -6.1992192 7
-0.144234 4.3903809 -6.1894531 7
-0.133926 4.3525391 -6.1650391 7
-0.129509 4.3259282 -6.1591802 7
-0.120659 4.2911382 -6.139648 7
-0.132477 4.2945561 -6.1904302 7
-0.13249201 4.276062 -6.2001948 7
-0.12513 4.2440801 -6.1855469 7
-0.125137 4.225647 -6.195312 7
-0.126633 4.2097778 -6.210938 7
-0.13254499 4.202148 -6.2392578 7
-0.132561 4.1835332 -6.249023 7
-0.139946 4.1783452 -6.2841802 7
-0.15767699 4.1914058 -6.3535161 7
-0.15325899 4.1645508 -6.3486328 7
-0.303772 -4.952148 -6.3994141 7
-0.305374 -4.991333 -6.3798828 7
-0.308525 -5.0336299 -6.3642578 7
-0.30240601 -5.0392461 -6.3339839 7
-0.30551901 -5.0632319 -6.3310552 7
-0.31174499 -5.112 -6.3261719 7
-0.39825401 -6.6785278 -5.4130859 7
-0.402931 -6.7062988 -5.4091802 7
-0.139336 4.4706421 -5.7460942 7
-0.13934299 4.4534912 -5.7548828 7
-0.139359 4.4360352 -5.765625 7
-0.127159 4.3952641 -5.7373052 7
-0.119522 4.3634028 -5.7236328 7
-0.114952 4.3372798 -5.719727 7
-0.10733 4.305542 -5.7050781 7
-0.114983 4.3026118 -5.7382808 7
-0.113464 4.2824101 -5.7441411 7
-0.113472 4.2651372 -5.7539058 7
-0.119591 4.2588501 -5.7832031 7
-0.115021 4.2329102 -5.7792969 7
-0.113503 4.212646 -5.7832031 7
-0.118095 4.2036128 -5.8076172 7
-0.121162 4.1915278 -5.827148 7
-0.127281 4.1850591 -5.8574219 7
-0.133408 4.1784668 -5.8867192 7
-0.150215 4.190979 -5.9511719 7
-0.14411201 4.1619868 -5.9414058 7
-0.29289201 -4.804626 -6.0205078 7
-0.29772899 -4.8312988 -6.023438 7
-0.294563 -4.8421021 -6.000977 7
-0.29619601 -4.8623662 -5.9941411 7
-0.31063101 -4.907959 -6.0244141 7
-0.30586201 -4.915894 -5.999023 7
-0.301094 -4.9234619 -5.9736328 7
-0.30113199 -4.9404302 -5.9619141 7
-0.29956099 -4.9544072 -5.945312 7
-0.294792 -4.9616089 -5.9189448 7
-0.29802701 -4.9850459 -5.9160161 7
-0.30286399 -5.0117192 -5.9179692 7
-0.301292 -5.0255742 -5.9023442 7
-0.29812601 -5.0360718 -5.8808589 7
-0.29976699 -5.0559692 -5.8720698 7
-0.30940199 -5.0926509 -5.8876948 7
-0.135185 4.268127 -5.4511719 7
-0.135185 4.2513428 -5.4619141 7
-0.132027 4.2288208 -5.4619141 7
-0.127281 4.2036738 -5.4560552 7
-0.12571 4.184082 -5.460938 7
-0.132065 4.1786499 -5.4912109 7
-0.13523901 4.167542 -5.5107422 7
-0.29660001 -4.8392329 -5.6054692 7
-0.29829401 -4.8587651 -5.5986328 7
-0.30332899 -4.901001 -5.5898442 7
-0.305031 -4.9203491 -5.5810552 7
-0.29343399 -4.9135742 -5.5380859 7
-0.29180899 -4.9263921 -5.5214839 7
-0.28855899 -4.9516602 -5.4892578 7
-0.293571 -4.9776611 -5.4902339 7
-0.28865799 -4.9994512 -5.453125 7
-0.28869599 -5.0151982 -5.4414058 7
-0.290382 -5.0344849 -5.4335942 7
-0.30037701 -5.0706792 -5.4482422 7
-0.379089 -6.7346802 -4.1660161 7
-0.38245401 -6.7562871 -4.15625 7
-0.38582599 -6.777832 -4.1474609 7
-0.379219 -6.7730708 -4.117188 7
-0.38092801 -6.7902222 -4.1044922 7
-0.380959 -6.802917 -4.0888672 7
-0.38433099 -6.8243408 -4.078125 7
-0.38272101 -6.8326421 -4.0585942 7
-0.38608599 -6.8539429 -4.0498052 7
-0.38945001 -6.8754268 -4.039062 7
-0.38784 -6.883606 -4.0195308 7
-0.38954899 -6.9006348 -4.0068359 7
-0.39623299 -6.9307861 -4.0029302 7
-0.39960501 -6.952271 -3.9941411 7
-0.407967 -6.9872441 -3.9941411 7
-0.41466501 -7.0175781 -3.9902339 7
-0.41802999 -7.039124 -3.9814451 7
-0.40316001 -7.0231929 -3.9169919 7
-0.287155 -4.8245239 -5.186523 7
-0.287193 -4.8398442 -5.1748052 7
-0.29409799 -4.8686519 -5.1816411 7
-0.29928601 -4.8937988 -5.1816411 7
-0.30275699 -4.9159551 -5.1787109 7
-0.297638 -4.9208369 -5.1542969 7
-0.287361 -4.9155269 -5.1162109 7
-0.287384 -4.930603 -5.1035161 7
-0.287422 -4.9456182 -5.092773 7
-0.29432699 -4.9743652 -5.0966802 7
-0.29092401 -4.9824829 -5.0761719 7
-0.29095501 -4.9975591 -5.0654302 7
-0.296143 -5.0228882 -5.0664058 7
-0.29618099 -5.0377202 -5.0537109 7
-0.29791999 -5.0562129 -5.046875 7
-0.297966 -5.0710449 -5.0332031 7
-0.304878 -5.1001592 -5.039062 7
-0.294029 -4.835999 -4.8300781 7
-0.290512 -4.8433232 -4.8095698 7
-0.29054299 -4.857666 -4.7988281 7
-0.29768401 -4.8859859 -4.8037109 7
-0.29771399 -4.900208 -4.7919922 7
-0.29596701 -4.9110112 -4.7753911 7
-0.29422799 -4.921814 -4.7587891 7
-0.28892499 -4.9255371 -4.735352 7
-0.28896299 -4.9396362 -4.7226558 7
-0.28899401 -4.9537349 -4.710938 7
-0.29258001 -4.9750371 -4.7080078 7
-0.28549999 -4.974731 -4.6787109 7
-0.29619601 -5.0103149 -4.6923828 7
-0.29445601 -5.0209351 -4.6757808 7
-0.29626501 -5.0385132 -4.6679692 7
-0.296303 -5.0526118 -4.65625 7
-0.30167401 -5.0775151 -4.65625 7
-0.308815 -5.105957 -4.6601558 7
-0.29640201 -5.0944209 -4.6191411 7
-0.047284 -2.0962551 -12.804345 7
-0.055213999 -1.739207 -7.5707731 7
-0.044549 -1.659022 -6.3913202 7
-0.280662 -4.9746799 -6.0850158 7
0.001055 -1.840444 -4.341218 7
-0.32531199 -4.8292389 -4.796608 7
-0.31359699 -5.023993 -4.563623 7
-0.43899301 -6.912746 -3.992666 7
-0.053670999 -1.759841 -3.6225851 7
-0.28463501 -4.9390278 -3.6713829 7
-0.25668201 -4.8495178 -2.900754 7
-0.013346 -1.639647 -2.525821 7
-0.0055800001 -1.77224 -1.785201 7
-0.0011840001 -1.728135 -1.4963779 7
-0.068627 -1.884841 -1.52435 7
-0.162707 4.2275538 -6.2115431 7
-0.160751 0.88225597 -12.357335 7
-0.26159099 -1.898574 -12.0204 7
-0.140508 -1.611261 -8.9245691 7
-0.028684 1.042273 -7.5125022 7
-0.095064998 -1.842568 -7.3653541 7
-0.306788 -5.0531139 -8.8340559 7
-0.125195 4.1701431 -6.8220878 7
-0.064407997 -1.774722 -6.32897 7
-0.056354001 1.084438 -6.3834472 7
-0.33952999 -5.0493979 -7.0526209 7
-0.16082101 4.217557 -5.4963608 7
-0.093262002 -1.726303 -5.5725088 7
-0.321926 -4.9520259 -6.0411758 7
-0.011035 1.183655 -4.9947491 7
-0.0023129999 1.0010149 -4.963099 7
-0.066772997 -1.6318851 -4.9711189 7
-0.074247003 -1.82073 -4.9623551 7
-0.285411 -4.8904982 -4.8939009 7
-0.27144501 -4.975893 -4.6386442 7
-0.032074999 -1.6881239 -4.3341718 7
-0.040157001 -1.8551919 -4.3205109 7
-0.24989501 -4.8726082 -3.72173 7
-0.237093 -4.8826289 -3.534014 7
-0.037555002 1.204697 -4.548574 7
-0.023925999 1.0306 -4.496932 7
-0.018475 -1.647608 -3.9656291 7
-0.029850001 -1.811065 -3.9669139 7
-0.013855 -1.6062551 -3.706737 7
-0.027031999 -1.7642829 -3.712961 7
-0.019065 -1.756153 -2.4935069 7
-0.021168999 -1.824344 -2.428093 7
-0.0028289999 -1.6161031 -2.3863349 7
-0.036192 -1.708609 -2.3464489 7
-0.033241998 -1.751902 -2.2703741 7
-0.0175 -1.7926331 -1.9105721 7
-0.027143 -1.865185 -1.850558 7
-0.021406 -1.876676 -1.766518 7
-0.024034999 -1.917263 -1.691958 7
-0.010321 -1.681146 -1.88405 7
-0.013251 -1.726071 -1.818987 7
-0.000151 -1.709601 -1.73159 7
-0.022157 -1.7441469 -1.66248 7
-0.016255001 -1.747856 -1.584978 7
-0.023561001 -1.8019021 -1.499321 7
-0.023726 -1.821113 -1.424464 7
-0.020935001 -1.826136 -1.3474489 7
-0.017580001 -1.658119 -1.63708 7
-0.011569 -1.660877 -1.563215 7
-0.016542001 -1.69917 -1.497815 7
-0.014968 -1.7157 -1.408496 7
-0.0013530001 -1.680946 -1.3317879 7
