# .PCD v0.7 - Point Cloud Data file format
VERSION 0.7
FIELDS x y z intensity
SIZE 4 4 4 4
TYPE F F F F
COUNT 1 1 1 1
WIDTH 955
HEIGHT 1
VIEWPOINT 0 0 0 1 0 0 0
POINTS 955
DATA ascii
1.295807 46.11972 10.571289 7
1.215286 44.02417 10.819336 7
1.2121201 44.206543 10.748047 7
1.2117161 44.262634 10.650391 7
1.207535 44.490692 10.587891 7
1.122185 42.167969 11.144531 7
1.127411 41.996613 11.000977 7
1.124168 42.161621 10.933594 7
1.116959 42.252075 10.849609 7
1.115997 42.325653 10.760742 7
1.113884 42.444672 10.682617 7
1.115074 42.431946 10.575195 7
-0.024894999 -1.077942 72.510742 7
-0.073921002 -0.929901 74.098633 7
0.073692001 3.159271 69.470703 7
0.035408001 -1.687408 64.049805 7
-0.020377999 -1.579132 65.686523 7
-0.057091001 -1.450745 66.766602 7
-0.121872 -1.333588 68.665039 7
0.067932002 1.409088 63.235352 7
0.069701999 1.555176 63.166992 7
0.023856999 1.7386169 64.509766 7
0.049477 3.048737 63.769531 7
0.047095999 3.2002261 63.838867 7
0.96205097 38.498352 10.791016 7
0.96326399 38.491791 10.693359 7
-0.021179 -1.982391 59.591797 7
-0.063102998 -1.880005 60.707031 7
-0.115662 -1.780365 62.103516 7
0.030846 0.892456 58.333984 7
0.044303998 1.021057 57.981445 7
0.0082170004 1.17453 58.938477 7
0.060302999 3.410156 57.5625 7
0.89798701 35.978363 11.181641 7
0.896263 36.057648 11.111328 7
0.89311999 36.176636 11.052734 7
0.89463001 36.165131 10.958008 7
-0.046875 -2.3158569 54.65332 7
-0.079291999 -2.221741 55.435547 7
-0.109489 -2.121918 56.166992 7
-0.16734301 -2.042542 57.557617 7
0.0034709999 0.44986001 53.588867 7
0.012688 0.57095301 53.371094 7
0.041161001 0.80667102 52.694336 7
0.020515 3.269928 53.169922 7
0.042335998 3.60199 52.636719 7
-0.036704998 6.3822632 54.385742 7
-0.010185 6.4303589 53.743164 7
0.024582 6.573761 52.893555 7
-0.60368299 -2.7832949 -66.164062 7
0.025536001 3.207794 48.696289 7
0.01107 3.3421631 49.008789 7
0.050140001 3.393158 48.150391 7
-0.040183999 6.3106689 49.958008 7
-0.017921001 6.3618159 49.460938 7
0.017097 6.3729248 48.686523 7
0.76113099 32.136505 11.135742 7
0.75668299 32.265686 11.09082 7
-0.62612897 0.89468402 -66.716797 7
-0.643112 0.57644701 -67.135742 7
-0.001991 2.9803159 45.255859 7
0.032203998 3.0363159 44.567383 7
0.007065 3.1752009 45.067383 7
0.040961999 3.2277529 44.382812 7
-0.037955999 6.1989751 45.760742 7
-0.0081630005 6.2201228 45.15625 7
0.026253 6.224731 44.458984 7
-0.60214198 1.118011 -61.859375 7
-0.66030103 0.98825097 -63.181641 7
-0.57907897 0.81072998 -61.330078 7
-0.65828699 0.68072498 -63.133789 7
-0.749313 0.54443401 -65.206055 7
-0.46151 -2.210175 -52.358398 7
-0.460594 -2.336365 -52.335938 7
-0.397064 -2.403687 -51.043945 7
-0.64936101 -5.7603149 -55.942383 7
-0.58849299 -5.7687678 -54.699219 7
-0.54665399 -5.8120422 -53.842773 7
-0.60487401 -6.069366 -55.00293 7
-0.49497199 -6.0854802 -52.758789 7
-0.024909999 2.791229 42.571289 7
0.01313 2.8392329 41.859375 7
-0.01207 2.9690249 42.324219 7
0.018143 3.023895 41.757812 7
-0.089309998 5.9844971 43.551758 7
-0.062576003 6.0132141 43.045898 7
-0.040833 6.053009 42.632812 7
-0.0091169998 6.063477 42.03418 7
0.0094910003 6.1077881 41.679688 7
0.64187598 28.929993 11.458984 7
0.64212799 28.953522 11.389648 7
0.64472997 28.932526 11.306641 7
0.63967901 29.055298 11.272461 7
0.63502502 29.088989 11.207031 7
0.66787702 29.527313 7.9726558 7
0.66517597 29.59967 7.9150391 7
0.65897399 29.74057 7.8720698 7
-0.53153998 1.50824 -53.769531 7
-0.60009003 1.279205 -55.167969 7
-0.52727503 1.115936 -53.695312 7
-0.57828498 1.004303 -54.734375 7
-0.64458501 0.89276099 -56.081055 7
-0.38343799 -1.39859 -46.260742 7
-0.38274401 -1.510559 -46.245117 7
-0.409233 -1.639801 -46.732422 7
-0.38966399 -2.3032839 -46.34668 7
-0.40444899 -2.42981 -46.615234 7
-0.38166001 -2.5205989 -46.188477 7
-0.34370399 -2.5940249 -45.481445 7
0.043738998 2.7505801 38.05957 7
0.043343 2.9250181 38.057617 7
-0.050797001 5.8629761 39.430664 7
-0.029228 5.8962402 39.054688 7
-0.015137 5.9474788 38.803711 7
0.004379 5.9828801 38.459961 7
0.59165198 27.070496 11.459961 7
0.59221601 27.088379 11.393555 7
0.590828 27.13913 11.339844 7
0.59075201 27.167847 11.277344 7
0.59034699 27.202057 11.217773 7
-0.49490401 1.872772 -49.514648 7
-0.54275501 1.782959 -50.430664 7
-0.57897198 1.6817321 -51.125 7
-0.63173699 1.586792 -52.133789 7
-0.33844 -0.96127301 -41.861328 7
-0.328812 -1.0591739 -41.695312 7
-0.36639401 -1.178192 -42.335938 7
-0.417999 -1.307434 -43.214844 7
-0.41993001 -2.3609011 -43.209961 7
-0.37405401 -2.4225161 -42.421875 7
-0.33844799 -2.49054 -41.80957 7
-0.36200699 -2.61673 -42.206055 7
-0.32914001 -2.6842041 -41.638672 7
-0.025443999 -0.28036499 36.569336 7
-0.027534001 -0.19760101 36.604492 7
-0.044677999 -0.115112 36.879883 7
0.019485001 2.5819399 35.824219 7
0.035378002 2.6439509 35.567383 7
0.012047 2.7546999 35.93457 7
0.031608999 2.810883 35.620117 7
-0.062233001 5.8070979 36.845703 7
-0.035018999 5.8199768 36.405273 7
-0.021683 5.8677669 36.18457 7
-0.0083619999 5.9143982 35.962891 7
-0.031235 6.0592041 36.311523 7
-0.45634499 2.2514341 -44.792969 7
-0.49928299 2.1764221 -45.550781 7
-0.53358501 2.091217 -46.157227 7
-0.57120502 2.0053411 -46.823242 7
-0.62278003 1.925995 -47.733398 7
-0.31231701 -0.71841401 -38.513672 7
-0.34220901 -0.82309002 -38.991211 7
-0.383636 -2.516937 -38.945312 7
-0.337753 -2.5653379 -38.22168 7
-0.301552 -2.620331 -37.650391 7
-0.34066799 -2.755249 -38.255859 7
-0.31191999 -2.815979 -37.799805 7
-0.012482 -0.407837 33.648438 7
-0.028694 -0.333832 33.890625 7
-0.035758998 -0.25784299 33.995117 7
0.0024570001 2.4784851 33.399414 7
0.030106001 2.596863 32.985352 7
0.021095 2.6829219 33.112305 7
0.012596 2.8444209 33.228516 7
-0.060364 5.6633301 34.016602 7
-0.057838 5.734436 33.969727 7
-0.021484001 5.7938542 33.419922 7
-0.029259 5.890594 33.520508 7
-0.39959699 2.6025701 -39.898438 7
-0.43234301 2.53598 -40.429688 7
-0.46507999 2.467041 -40.960938 7
-0.50180799 2.398926 -41.555664 7
-0.539635 2.329071 -42.166992 7
-0.284271 -0.20535301 -34.928711 7
-0.29140499 -0.29168701 -35.03418 7
-0.30651101 -0.379852 -35.253906 7
-0.336777 -0.47189301 -35.696289 7
-0.30402401 -0.55203199 -35.216797 7
-0.35382101 -2.5855711 -35.868164 7
-0.32309699 -2.6409299 -35.413086 7
-0.29676101 -2.698761 -35.021484 7
-0.32144901 -2.812469 -35.376953 7
-0.294312 -2.867615 -34.974609 7
-0.05706 -0.61224401 32.272461 7
-0.027298 -0.53106701 31.859375 7
-0.040344 -0.46169999 32.041992 7
-0.038550999 -0.38882399 32.019531 7
0.0077740001 2.2463679 31.360352 7
0.002388 2.322876 31.430664 7
0.002075 2.39447 31.430664 7
0.014893 2.4512019 31.25 7
-0.0099640004 2.550873 31.588867 7
0.0096279997 2.5990601 31.31543 7
0.016525 2.661499 31.21582 7
-0.080757 5.5791631 32.25293 7
-0.070900001 5.6277771 32.107422 7
-0.054290999 5.658752 31.870117 7
-0.042319998 5.7007751 31.697266 7
0.437897 23.007935 11.482422 7
-0.39668301 2.8882749 -37.058594 7
-0.419678 2.821564 -37.40918 7
-0.44189501 2.7524409 -37.748047 7
-0.47422799 2.6920471 -38.237305 7
-0.51200098 2.634583 -38.80957 7
-0.325966 -0.21224999 -33.173828 7
-0.32562301 -2.690491 -32.706055 7
-0.30062899 -2.7432561 -32.362305 7
-0.27217901 -2.7902529 -31.970703 7
-0.28590399 -2.9641111 -32.144531 7
-1.236679 -42.455811 14.063477 7
-0.02169 -0.55654901 29.651367 7
-0.026627 -0.49087501 29.716797 7
-0.003822 2.3023989 29.388672 7
0.010391 2.353271 29.203125 7
0.015953001 2.4130549 29.12793 7
0.000137 2.4967959 29.325195 7
0.0066149998 2.55545 29.238281 7
-0.077339001 5.5219731 29.977539 7
-0.074478 5.5827332 29.930664 7
-0.057098001 5.6069341 29.699219 7
-0.04245 5.637177 29.50293 7
-0.038681 5.6942439 29.444336 7
0.436867 22.400879 8.2080078 7
0.43094599 22.495117 8.1787109 7
0.425468 22.58374 8.1474609 7
0.430641 22.553223 8.0214844 7
-0.35921499 3.1234441 -33.544922 7
-0.383255 3.0691221 -33.882812 7
-0.40476999 3.01001 -34.186523 7
-0.43511999 2.9595339 -34.613281 7
-0.468842 2.9108281 -35.085938 7
-0.49288201 2.849396 -35.424805 7
-0.25207499 -0.17337 -29.62207 7
-0.29948401 -2.6307981 -30.119141 7
-0.29855299 -2.703918 -30.101562 7
-0.276871 -2.7537539 -29.822266 7
-1.17981 -39.818146 10.541992 7
-0.182716 -3.774353 29.514648 7
-0.176819 -3.6986389 29.454102 7
-0.178215 -3.6344299 29.480469 7
-0.192757 -3.590179 29.662109 7
0.0042269998 2.2694089 27.530273 7
-0.026733 2.3643799 27.896484 7
-0.0096439999 2.408386 27.688477 7
0.0035629999 2.455811 27.526367 7
-0.01622 2.5406489 27.757812 7
-0.085120998 5.4429021 28.234375 7
-0.070327997 5.5341492 28.036133 7
-0.059067 5.5691829 27.891602 7
-0.062325001 5.640594 27.919922 7
-0.078162998 5.7436829 28.094727 7
-0.42939001 3.1594241 -32.073242 7
-0.45738199 3.112793 -32.44043 7
-0.47185501 3.0485229 -32.634766 7
-0.28999299 0.046204001 -30.102539 7
-0.26183301 -0.027434999 -29.745117 7
-0.234566 -0.29901099 -27.241211 7
-0.230125 -0.362701 -27.169922 7
-0.22065701 -0.42807001 -27.057617 7
-0.21516401 -0.493927 -26.993164 7
-0.21363799 -0.560211 -26.973633 7
-0.20666499 -0.62515301 -26.890625 7
-0.25251001 -2.601501 -27.323242 7
-0.29611999 -2.716644 -27.826172 7
-0.27230799 -2.758636 -27.541016 7
-0.26385501 -2.8169861 -27.436523 7
-0.030959999 -0.78259301 26.179688 7
-0.024117 -0.721771 26.105469 7
-0.027168 -0.66424602 26.141602 7
0.017859999 2.2194819 25.59668 7
-0.083099 5.3674321 26.331055 7
-0.339371 3.467468 -28.480469 7
-0.354965 3.417114 -28.674805 7
-0.36714199 3.361481 -28.827148 7
-0.39488199 3.325104 -29.166016 7
-0.37744901 3.2302251 -28.963867 7
-0.449898 -5.8769231 -27.109375 7
-0.458931 -5.964417 -27.193359 7
-0.025795 -0.78695703 24.5625 7
-0.029617 -0.73336798 24.605469 7
-0.026215 -0.67736799 24.572266 7
-0.01255 2.0535281 24.393555 7
-0.017829999 2.222198 24.4375 7
-0.06617 5.1549072 24.550781 7
-0.078231998 5.237793 24.664062 7
-0.083091997 5.3043518 24.703125 7
-0.069687001 5.328217 24.554688 7
-0.065140001 5.3720698 24.496094 7
-0.061156999 5.4173889 24.443359 7
-0.210655 -1.943329 -23.319336 7
-0.20553599 -1.99704 -23.261719 7
-0.21287499 -2.061249 -23.332031 7
-0.209442 -2.1743469 -23.286133 7
-0.20716099 -2.2302549 -23.258789 7
-0.23831899 -2.318176 -23.572266 7
-0.234322 -2.431458 -23.519531 7
-0.229202 -2.4847109 -23.461914 7
-0.24335501 -2.558136 -23.600586 7
-0.23992901 -2.6717529 -23.552734 7
-0.45513901 -5.7611079 -25.285156 7
-0.438705 -5.787354 -25.104492 7
-0.43303701 -5.8369141 -25.03418 7
-0.43360901 -5.9005132 -25.026367 7
-0.45572701 -6.013031 -25.233398 7
-0.34606901 3.712738 -24.599609 7
-0.341629 3.6444399 -24.561523 7
-0.344437 3.5864871 -24.598633 7
-0.24559 -2.1837461 -22.155273 7
-0.225067 -2.2750239 -21.947266 7
-0.237106 -2.341644 -22.057617 7
-0.235283 -2.394897 -22.035156 7
-0.22985099 -2.444489 -21.976562 7
-0.249725 -2.519989 -22.162109 7
-0.43705699 -5.4937129 -23.49707 7
-0.45454401 -5.5892029 -23.648438 7
-0.46480599 -5.670074 -23.732422 7
-0.45034799 -5.697845 -23.582031 7
-0.440712 -5.735321 -23.476562 7
-0.71714801 -25.67984 9.9736328 7
-0.70732099 -25.571198 10.003906 7
-0.69002497 -25.396179 10.011719 7
-0.671471 -25.21051 10.015625 7
-0.65977502 -25.085327 10.039062 7
-0.65182501 -24.993134 10.074219 7
-0.66021001 -25.029419 10.21582 7
-0.22787499 -2.242981 -20.546875 7
-0.222084 -2.2888789 -20.489258 7
-0.211815 -2.3301089 -20.390625 7
-0.205376 -2.3748779 -20.327148 7
-0.24385101 -2.4650271 -20.668945 7
-0.225235 -2.4975891 -20.495117 7
-0.220741 -2.54425 -20.449219 7
-0.416924 -5.4457698 -21.732422 7
-0.43489799 -5.538116 -21.876953 7
-0.44581601 -5.6159668 -21.959961 7
-0.42849699 -5.6334229 -21.793945 7
-0.422737 -5.675293 -21.729492 7
-0.41825899 -5.719666 -21.676758 7
-0.49628401 -20.296967 13.120117 7
-0.49042499 -20.223541 13.142578 7
-0.32332599 3.8339541 -21.173828 7
-0.30945599 3.759033 -21.056641 7
-0.29558599 3.6846621 -20.939453 7
-0.30822 3.6500239 -21.0625 7
-0.329124 3.572144 -21.269531 7
-0.34683201 3.5426941 -21.4375 7
-0.226395 -2.2111821 -19.310547 7
-0.21823899 -2.2522891 -19.235352 7
-0.207375 -2.290314 -19.137695 7
-0.227051 -2.3577271 -19.299805 7
-0.227036 -2.406311 -19.293945 7
-0.22566999 -2.4534609 -19.275391 7
-0.222267 -2.4984131 -19.241211 7
-0.21128801 -2.164001 -18.009766 7
-0.19688401 -2.241333 -17.883789 7
-0.203346 -2.2927859 -17.930664 7
-0.219879 -2.3544919 -18.057617 7
-0.213394 -2.393585 -18 7
-0.206192 -2.4316411 -17.936523 7
-0.21913099 -2.49054 -18.033203 7
-0.230637 -2.548218 -18.120117 7
-0.42856601 -5.4502869 -19.15918 7
-0.424988 -5.4909358 -19.118164 7
-0.41636699 -5.520752 -19.038086 7
-0.41565701 -5.566895 -19.017578 7
-0.415672 -5.6150508 -19.004883 7
-0.427917 -5.6896062 -19.086914 7
-0.435844 -5.755096 -19.134766 7
-0.24353001 3.8574519 -17.900391 7
-0.248512 3.8189089 -17.950195 7
-0.25987199 3.7901311 -18.049805 7
-0.26627299 3.753387 -18.109375 7
-0.27479601 3.719666 -18.1875 7
-0.29254201 3.6993101 -18.338867 7
-0.27767199 3.6300049 -18.227539 7
-0.268471 3.5696111 -18.162109 7
-0.212219 -2.259949 -16.932617 7
-0.216019 -2.306519 -16.956055 7
-0.211456 -2.3449709 -16.916016 7
-0.42308 -5.3656621 -17.932617 7
-0.42842099 -5.421967 -17.958008 7
-0.41703001 -5.4434199 -17.861328 7
-0.412498 -5.5241089 -17.801758 7
-0.411751 -5.5673518 -17.783203 7
-0.42546099 -5.642303 -17.870117 7
-0.51962298 -7.0962219 -18.135742 7
-0.52422303 -7.1542048 -18.151367 7
-0.51666999 -7.2254329 -18.0625 7
-0.50908703 -7.2507319 -17.992188 7
-0.508385 -7.339294 -17.950195 7
-0.43886599 -17.593414 9.6328115 7
-0.431923 -17.526337 9.6523438 7
-0.42029601 -17.428162 9.6572266 7
-0.411789 -17.350677 9.671875 7
-0.28912401 3.800323 -17.140625 7
-0.28989401 3.756927 -17.155273 7
-0.27790099 3.694489 -17.072266 7
-0.182327 -1.948517 -15.739258 7
-0.17990901 -1.986542 -15.716797 7
-0.18392199 -2.0300601 -15.741211 7
-0.195969 -2.0808411 -15.823242 7
-0.18149599 -2.1082461 -15.714844 7
-0.180672 -2.147614 -15.703125 7
-0.183075 -2.1898191 -15.714844 7
-0.40521199 -5.2901311 -16.679688 7
-0.41246 -5.347321 -16.71582 7
-0.413277 -5.3913879 -16.708984 7
-0.40766901 -5.4221501 -16.657227 7
-0.39804101 -5.4440308 -16.578125 7
-0.39724699 -5.4845581 -16.55957 7
-0.40289301 -5.5386958 -16.585938 7
-0.408539 -5.592804 -16.610352 7
-0.51134503 -7.0716548 -16.865234 7
-0.50654602 -7.101624 -16.81543 7
-0.498528 -7.1229248 -16.744141 7
-0.49131799 -7.1462712 -16.679688 7
-0.49134099 -7.188477 -16.662109 7
-0.49137899 -7.230957 -16.645508 7
-0.49221 -7.2753301 -16.633789 7
-0.166977 -1.950623 -14.766602 7
-0.16951001 -1.990509 -14.77832 7
-0.182182 -2.0393369 -14.859375 7
-0.171188 -2.06778 -14.780273 7
-0.17202801 -2.106323 -14.78125 7
-0.166107 -2.1389771 -14.735352 7
-0.193161 -2.201782 -14.914062 7
-0.19146 -2.238312 -14.897461 7
-0.49572 -7.071259 -15.675781 7
-0.48813599 -7.0909419 -15.609375 7
-0.48986101 -7.1352539 -15.603516 7
-0.487358 -7.168365 -15.571289 7
-0.48652601 -7.2058721 -15.548828 7
-0.49588001 -7.270813 -15.589844 7
-0.507774 -7.3431401 -15.647461 7
-0.22409099 3.972198 -14.606445 7
-0.225761 3.936523 -14.626953 7
-0.225777 3.8980711 -14.636719 7
-0.225777 3.8594971 -14.645508 7
-0.231636 3.8302 -14.694336 7
-0.155403 0.93740797 -14.560547 7
-0.155434 0.89901698 -14.563477 7
-0.157143 0.86145002 -14.575195 7
-0.154663 0.82214397 -14.55957 7
-0.15052 0.782471 -14.532227 7
-0.148872 0.74359101 -14.523438 7
-0.14640801 0.70452899 -14.507812 7
-0.147278 0.666565 -14.515625 7
-0.165535 -1.92453 -13.952148 7
-0.175308 -1.968689 -14.010742 7
-0.177963 -2.006958 -14.022461 7
-0.170845 -2.0367429 -13.970703 7
-0.170837 -2.0726321 -13.96582 7
-0.16639701 -2.104584 -13.932617 7
-0.19662499 -2.1681211 -14.12207 7
-0.186836 -2.195282 -14.053711 7
-0.184158 -2.2290339 -14.03125 7
-0.183258 -2.2641599 -14.019531 7
-0.192146 -2.3088679 -14.071289 7
-0.38018 -5.140533 -14.641602 7
-0.38463601 -5.1870422 -14.657227 7
-0.389099 -5.2337041 -14.671875 7
-0.39800999 -5.2896118 -14.713867 7
-0.39002201 -5.3105769 -14.652344 7
-0.38559699 -5.3389282 -14.611328 7
-0.383827 -5.3726501 -14.587891 7
-0.38029501 -5.4026179 -14.553711 7
-0.481758 -7.065063 -14.59375 7
-0.48356599 -7.1071782 -14.587891 7
-0.47647899 -7.1254268 -14.52832 7
-0.475624 -7.1604309 -14.505859 7
-0.491676 -7.2409358 -14.583008 7
-0.49882501 -7.297852 -14.608398 7
-0.503304 -7.3474731 -14.617188 7
-0.25192299 4.142487 -13.880859 7
-0.24489599 4.0940862 -13.845703 7
-0.21765099 4.0117798 -13.682617 7
-0.219414 3.9785459 -13.703125 7
-0.229965 3.959686 -13.779297 7
-0.23525199 3.931946 -13.821289 7
-0.239655 3.9021909 -13.859375 7
-0.246681 3.8768921 -13.913086 7
-0.26339701 3.8665769 -14.029297 7
-0.153145 0.959503 -13.723633 7
-0.153175 0.92343098 -13.724609 7
-0.151436 0.88626099 -13.714844 7
-0.150589 0.84964001 -13.711914 7
-0.145348 0.81149298 -13.678711 7
-0.142746 0.77438402 -13.664062 7
-0.144539 0.73877001 -13.676758 7
-0.144554 0.70269799 -13.677734 7
-0.154266 0.66909802 -13.743164 7
-0.164436 -1.967224 -13.202148 7
-0.171875 -2.007782 -13.244141 7
-0.161621 -2.03299 -13.175781 7
-0.161621 -2.067169 -13.170898 7
-0.15976 -2.0995481 -13.154297 7
-0.18306001 -2.154938 -13.292969 7
-0.18585999 -2.191864 -13.303711 7
-0.17839099 -2.219238 -13.25293 7
-0.373016 -5.2010188 -13.732422 7
-0.361855 -5.213501 -13.655273 7
-0.37585399 -5.2775269 -13.723633 7
-0.36933899 -5.299377 -13.672852 7
-0.37123099 -5.338531 -13.670898 7
-0.371254 -5.3736572 -13.658203 7
-0.366615 -5.399292 -13.619141 7
-0.36570701 -5.432373 -13.600586 7
-0.13100401 0.66973901 -13.121094 7
-0.152283 -1.925171 -12.412109 7
-0.16599301 -1.969147 -12.487305 7
-0.14835399 -1.986328 -12.378906 7
-0.154228 -2.0237119 -12.40918 7
-0.16108701 -2.0618899 -12.444336 7
-0.16401701 -2.1291201 -12.450195 7
-0.165001 -2.1950071 -12.446289 7
-0.167923 -2.230103 -12.458008 7
-0.364647 -5.3279719 -12.799805 7
-0.36467001 -5.3612671 -12.787109 7
-0.365677 -5.3965759 -12.779297 7
-0.134911 0.95959502 -12.142578 7
-0.134941 0.92706299 -12.144531 7
-0.123299 0.88998401 -12.077148 7
-0.12043 0.85641497 -12.0625 7
-0.119514 0.79128999 -12.05957 7
-0.12249 0.72744799 -12.081055 7
-0.12736499 0.69632 -12.110352 7
-0.12641899 0.66357398 -12.107422 7
-0.15870699 -1.936371 -11.824219 7
-0.14744601 -1.957703 -11.756836 7
-0.15051299 -1.9912111 -11.769531 7
-0.14949 -2.0209351 -11.758789 7
-0.16073599 -2.061676 -11.816406 7
-0.162788 -2.1251831 -11.817383 7
-0.163811 -2.1568911 -11.817383 7
-0.162788 -2.1868899 -11.806641 7
-0.36331201 -5.150116 -12.140625 7
-0.374603 -5.204865 -12.1875 7
-0.36847699 -5.2240911 -12.142578 7
-0.36441001 -5.2471008 -12.108398 7
-0.361343 -5.2722778 -12.079102 7
-0.36035201 -5.3015752 -12.061523 7
-0.357292 -5.3266301 -12.033203 7
-0.36244199 -5.368896 -12.047852 7
-0.37578601 -5.4286499 -12.103516 7
-0.126259 0.944336 -11.47168 7
-0.12426 0.91238397 -11.461914 7
-0.12934899 0.88345301 -11.492188 7
-0.121262 0.84954798 -11.447266 7
-0.116211 0.81671101 -11.420898 7
-0.116234 0.78585798 -11.422852 7
-0.122353 0.756836 -11.458984 7
-0.12542 0.726807 -11.478516 7
-0.121384 0.69464099 -11.457031 7
-0.122429 0.663849 -11.463867 7
-0.136528 -1.94162 -11.05957 7
-0.135452 -1.969635 -11.048828 7
-0.137596 -2.0006709 -11.054688 7
-0.150482 -2.0409851 -11.118164 7
-0.164444 -2.0826721 -11.1875 7
-0.151558 -2.100281 -11.114258 7
-0.151558 -2.1295781 -11.110352 7
-0.15370201 -2.160583 -11.115234 7
-0.156929 -2.19278 -11.126953 7
-0.166595 -2.2314451 -11.172852 7
-0.35336301 -5.1208501 -11.349609 7
-0.35338601 -5.1505742 -11.337891 7
-0.351257 -5.1758118 -11.313477 7
-0.34698501 -5.1966252 -11.280273 7
-0.34592399 -5.223999 -11.261719 7
-0.34595501 -5.2537541 -11.25 7
-0.34597 -5.2832642 -11.237305 7
-0.34814501 -5.3172612 -11.235352 7
-0.35784101 -5.3669128 -11.268555 7
-0.35678899 -5.3943791 -11.250977 7
-0.36326599 -5.4376831 -11.270508 7
-0.432365 -6.737823 -11.021484 7
-0.43455499 -6.772522 -11.014648 7
-0.444267 -6.8266602 -11.043945 7
-0.446457 -6.8613281 -11.038086 7
-0.45187399 -6.90451 -11.046875 7
-0.44329801 -6.9110718 -10.991211 7
-0.437958 -6.9255071 -10.948242 7
-0.434769 -6.9459229 -10.916992 7
-0.44017801 -6.9889832 -10.924805 7
-0.43913999 -7.0149231 -10.90332 7
-0.20092 4.1495061 -10.605469 7
-0.19558699 4.1113892 -10.586914 7
-0.19665501 4.0843511 -10.602539 7
-0.203041 4.0663762 -10.644531 7
-0.20410199 4.039185 -10.660156 7
-0.200905 4.0047002 -10.65332 7
-0.205154 3.9828191 -10.683594 7
-0.21580499 3.971405 -10.74707 7
-0.22750901 3.961395 -10.817383 7
-0.225372 3.9285581 -10.81543 7
-0.21260799 3.8782959 -10.758789 7
-0.20941199 3.8439331 -10.750977 7
-0.113609 0.950867 -10.759766 7
-0.111496 0.92074603 -10.750977 7
-0.105133 0.88894701 -10.71875 7
-0.104103 0.85916102 -10.714844 7
-0.104126 0.83016998 -10.716797 7
-0.10627 0.801727 -10.728516 7
-0.108429 0.77310199 -10.742188 7
-0.112709 0.74517798 -10.767578 7
-0.109543 0.71478301 -10.751953 7
-0.10743 0.68490601 -10.742188 7
-0.109581 0.65628099 -10.754883 7
-0.12793 -1.932373 -10.466797 7
-0.127937 -1.960266 -10.461914 7
-0.126808 -1.986694 -10.450195 7
-0.141388 -2.0271909 -10.519531 7
-0.140266 -2.081696 -10.503906 7
-0.141388 -2.1104741 -10.504883 7
-0.14587399 -2.142365 -10.522461 7
-0.14587399 -2.1702271 -10.516602 7
-0.35351601 -5.1489868 -10.685547 7
-0.34568 -5.1612239 -10.636719 7
-0.340096 -5.1777039 -10.59668 7
-0.34123999 -5.2078862 -10.589844 7
-0.336777 -5.2266541 -10.556641 7
-0.33904299 -5.2593079 -10.554688 7
-0.340195 -5.2895198 -10.547852 7
-0.34471101 -5.3268132 -10.555664 7
-0.35258499 -5.3713069 -10.578125 7
-0.35710099 -5.408875 -10.586914 7
-0.432724 -6.9104309 -10.212891 7
-0.429382 -6.9285579 -10.181641 7
-0.42941999 -6.955658 -10.166016 7
-0.42832899 -6.9796138 -10.144531 7
-0.43399 -7.0215759 -10.152344 7
-0.105637 0.93511999 -10.172852 7
-0.103439 0.90615797 -10.164062 7
-0.101242 0.87750202 -10.15332 7
-0.099030003 0.84884602 -10.144531 7
-0.099059999 0.820831 -10.147461 7
-0.101295 0.79388398 -10.15918 7
-0.109108 0.76870698 -10.201172 7
-0.111351 0.74130201 -10.214844 7
-0.101364 0.71002197 -10.165039 7
-0.108063 0.68408197 -10.201172 7
-0.099197 0.65359497 -10.15625 7
-0.12207 -1.950195 -9.9189453 7
-0.332802 -5.2615972 -9.9150391 7
-0.424454 -6.7458501 -9.5927734 7
-0.431564 -6.8154602 -9.5888672 7
-0.433945 -6.847198 -9.5830078 7
-0.43280801 -6.86972 -9.5615234 7
-0.43401301 -6.8982239 -9.5488281 7
-0.42935899 -6.9112549 -9.5136719 7
-0.437599 -6.9587402 -9.53125 7
-0.43061101 -6.9654241 -9.4853516 7
-0.43181601 -6.994019 -9.4736328 7
-0.101006 0.94424403 -9.6337891 7
-0.097548999 0.91604602 -9.6191406 7
-0.095238 0.88873303 -9.609375 7
-0.097580001 0.86291498 -9.6230469 7
-0.097603001 0.83633399 -9.6240234 7
-0.104584 0.812195 -9.6601562 7
-0.102287 0.78454602 -9.6513672 7
-0.109268 0.760162 -9.6875 7
-0.105804 0.73242199 -9.671875 7
-0.105835 0.70562702 -9.6738281 7
-0.105858 0.67904699 -9.6748047 7
-0.102394 0.65118402 -9.6582031 7
-0.089211002 0.952057 -9.0947266 7
-0.091643997 0.92770398 -9.1083984 7
-0.089249 0.90112299 -9.0996094 7
-0.094100997 0.87762499 -9.1240234 7
-0.094123997 0.85217297 -9.1259766 7
-0.094139002 0.82669097 -9.1279297 7
-0.107468 0.806122 -9.1914062 7
-0.080879003 0.771393 -9.0673828 7
-0.085739002 0.74765003 -9.0927734 7
-0.089377999 0.72332799 -9.1113281 7
-0.086983003 0.69711298 -9.1025391 7
-0.087006003 0.67175299 -9.1035156 7
-0.114677 -1.946014 -8.90625 7
-0.10704 -1.9870909 -8.8623047 7
-0.108307 -2.012054 -8.8632812 7
-0.113403 -2.064362 -8.8759766 7
-0.13124099 -2.128571 -8.9443359 7
-0.136337 -2.1573181 -8.9599609 7
-0.079773001 0.95223999 -8.5664062 7
-0.074730001 0.92614698 -8.5458984 7
-0.072219998 0.90103102 -8.5361328 7
-0.072227001 0.87701398 -8.5371094 7
-0.078598 0.831146 -8.5703115 7
-0.081138998 0.80801398 -8.5830078 7
-0.081169002 0.759583 -8.5878906 7
-0.079925999 0.73504603 -8.5830078 7
-0.076157004 0.70974702 -8.5673828 7
-0.078704998 0.68637103 -8.5800781 7
-0.124931 -1.943817 -8.5234385 7
-0.130234 -1.971405 -8.5410156 7
-0.12758601 -2.0152891 -8.5185547 7
-0.40822601 -6.7270808 -7.6132808 7
-0.410927 -6.755157 -7.6074219 7
-0.412292 -6.77951 -7.5957031 7
-0.41101101 -6.796936 -7.5751948 7
-0.40838599 -6.810822 -7.5498052 7
-0.40710399 -6.828094 -7.5292969 7
-0.40582299 -6.845367 -7.507812 7
-0.408508 -6.873199 -7.5 7
-0.411201 -6.9009399 -7.4931641 7
-0.41655701 -6.93576 -7.4941411 7
-0.41791499 -6.959991 -7.4824219 7
-0.41928899 -6.9842529 -7.4707031 7
-0.42464399 -7.019043 -7.4707031 7
-0.080688 0.93710297 -8.1503906 7
-0.084647998 0.91558802 -8.1689453 7
-0.082038999 0.89132702 -8.1591797 7
-0.082053997 0.86807299 -8.1621094 7
-0.089951001 0.847839 -8.1972656 7
-0.091286004 0.82501203 -8.2060547 7
-0.084732004 0.799438 -8.1796885 7
-0.090011999 0.77825898 -8.2021484 7
-0.088715002 0.754547 -8.1982422 7
-0.080833003 0.72857702 -8.1660156 7
-0.079535998 0.70498699 -8.1621094 7
-0.080871999 0.68225098 -8.1699219 7
-0.080894001 0.658997 -8.171875 7
-0.30135301 -5.053925 -7.6591802 7
-0.30414599 -5.08075 -7.65625 7
-0.304169 -5.1021118 -7.6455078 7
-0.292564 -4.8023381 -7.3085942 7
-0.298325 -4.8337102 -7.3173828 7
-0.29261801 -4.842773 -7.2851558 7
-0.29980499 -4.8771062 -7.2988281 7
-0.29409799 -4.8858638 -7.2675781 7
-0.29984999 -4.917572 -7.2753911 7
-0.305603 -4.9490662 -7.2832031 7
-0.302773 -4.9634089 -7.2607422 7
-0.30280301 -4.9836431 -7.249023 7
-0.302834 -5.00351 -7.2373052 7
-0.30571699 -5.02948 -7.235352 7
-0.29715699 -5.032135 -7.1933589 7
-0.295746 -5.0491028 -7.1757808 7
-0.29863 -5.0748291 -7.1738281 7
-0.29866001 -5.0948181 -7.1611328 7
-0.300125 -5.1177979 -7.155273 7
-0.168182 4.467834 -6.6650391 7
-0.17382801 4.4394531 -6.7050781 7
-0.166702 4.3867798 -6.7011719 7
-0.16099501 4.3369751 -6.7011719 7
-0.16098 4.3172002 -6.7119141 7
-0.146751 4.2714839 -6.670898 7
-0.15240499 4.2425842 -6.710938 7
-0.152374 4.2032471 -6.7304692 7
-0.15094 4.1613159 -6.7441411 7
-0.149506 4.138885 -6.75 7
-0.15659299 4.1315608 -6.7841802 7
-0.169357 4.1143489 -6.8496089 7
-0.16648901 4.0692749 -6.858398 7
-0.17216501 4.039062 -6.898438 7
-0.165047 4.0067439 -6.8818359 7
-0.29988101 -4.8401179 -6.875977 7
-0.28949001 -4.8390198 -6.8310552 7
-0.292496 -4.8641362 -6.829102 7
-0.30441999 -4.9064641 -6.8554692 7
-0.307419 -4.9315801 -6.8535161 7
-0.30149099 -4.9388728 -6.8232422 7
-0.29705 -4.9490051 -6.7949219 7
-0.30005601 -4.973907 -6.7929692 7
-0.31049299 -5.013855 -6.8154302 7
-0.303085 -5.0180359 -6.7792969 7
-0.29121399 -5.0128169 -6.7285161 7
-0.303139 -5.0559082 -6.7548828 7
-0.30316901 -5.0747991 -6.7431641 7
-0.297234 -5.0813599 -6.710938 7
-0.29577601 -5.0971069 -6.6943359 7
-0.292831 -5.1097722 -6.672852 7
-0.37598401 -6.7523799 -5.7441411 7
-0.38048601 -6.7805481 -5.7392578 7
-0.386482 -6.8129268 -5.7392578 7
-0.39099899 -6.8413391 -5.735352 7
-0.38656601 -6.8460078 -5.7070308 7
-0.38958699 -6.8704529 -5.6992192 7
-0.391121 -6.8909302 -5.6875 7
-0.40010101 -6.9312739 -5.6933589 7
-0.40461001 -6.9596858 -5.688477 7
-0.398689 -6.960022 -5.65625 7
-0.40916401 -7.004456 -5.6679692 7
-0.40473199 -7.0087891 -5.6386719 7
-0.40329 -7.0211792 -5.6191411 7
-0.27997601 -4.809845 -6.4013672 7
-0.28307301 -4.8338318 -6.3994141 7
-0.283104 -4.8518682 -6.3876948 7
-0.28929099 -4.8823848 -6.3955078 7
-0.28932199 -4.9005432 -6.3837891 7
-0.28626999 -4.9124451 -6.3632808 7
-0.290916 -4.9394531 -6.3642578 7
-0.29864499 -4.973053 -6.375977 7
-0.28942901 -4.97229 -6.335938 7
-0.28637701 -4.9842219 -6.3154302 7
-0.284859 -4.9988708 -6.2988281 7
-0.284897 -5.0169072 -6.2871089 7
-0.28800201 -5.0409241 -6.2841802 7
-0.28341699 -5.0492549 -6.257812 7
-0.286522 -5.0732732 -6.2548828 7
-0.28347 -5.0845952 -6.2324219 7
-0.28658301 -5.1086121 -6.2294922 7
-0.381989 -6.7278442 -5.2949219 7
-0.38357499 -6.747345 -5.2832031 7
-0.382072 -6.758728 -5.2626948 7
-0.383652 -6.7783508 -5.250977 7
-0.380615 -6.785553 -5.2255859 7
-0.37603 -6.7886348 -5.1982422 7
-0.37915799 -6.8121028 -5.1894531 7
-0.37766299 -6.8231511 -5.1699219 7
-0.37616 -6.8343201 -5.1503911 7
-0.37929499 -6.857666 -5.141602 7
-0.38549799 -6.8894649 -5.139648 7
-0.390167 -6.9170232 -5.1347661 7
-0.39328799 -6.9403691 -5.125977 7
-0.397957 -6.9680481 -5.1201172 7
-0.26859301 -4.803741 -5.9316411 7
-0.273415 -4.8302312 -5.9326172 7
-0.27664199 -4.8535161 -5.9316411 7
-0.278267 -4.8734741 -5.922852 7
-0.28150201 -4.8968511 -5.920898 7
-0.29113001 -4.9500122 -5.9257808 7
-0.28796399 -4.9604802 -5.905273 7
-0.28479001 -4.9710689 -5.8837891 7
-0.280029 -4.978302 -5.8574219 7
-0.278458 -4.9916081 -5.8408198 7
-0.280083 -5.0116882 -5.8330078 7
-0.28331801 -5.0349731 -5.8300781 7
-0.284958 -5.0717158 -5.811523 7
-0.28019699 -5.0787959 -5.7861328 7
-0.28342399 -5.1018682 -5.78125 7
-0.28345501 -5.1185608 -5.7695308 7
-0.36356401 -6.7304692 -4.6435552 7
-0.36201501 -6.7401729 -4.624023 7
-0.363655 -6.7583008 -4.6123052 7
-0.36209899 -6.7679138 -4.5917969 7
-0.360535 -6.7774658 -4.5712891 7
-0.36058 -6.7915039 -4.5566411 7
-0.363823 -6.8137512 -4.546875 7
-0.36867499 -6.840363 -4.5419922 7
-0.373512 -6.867065 -4.5361328 7
-0.36555499 -6.8591609 -4.5019531 7
-0.36079401 -6.8596802 -4.4736328 7
-0.36083999 -6.87323 -4.4570308 7
-0.36248001 -6.8913879 -4.445312 7
-0.36413601 -6.9091492 -4.4326172 7
-0.37216899 -6.9443359 -4.4326172 7
-0.36901101 -6.9490662 -4.4101558 7
-0.37386301 -6.9755549 -4.4033198 7
-0.372307 -6.9845281 -4.382812 7
-0.37555701 -7.0066528 -4.374023 7
-0.37560299 -7.0202031 -4.3574219 7
-0.27138501 -4.8022461 -5.5410161 7
-0.26477799 -4.8052669 -5.5117192 7
-0.27640501 -4.8439031 -5.53125 7
-0.276436 -4.8599849 -5.5195308 7
-0.27812201 -4.8795171 -5.5136719 7
-0.289749 -4.9185181 -5.5332031 7
-0.28977999 -4.9345698 -5.5214839 7
-0.28981 -4.950531 -5.5097661 7
-0.278229 -4.9430852 -5.4658198 7
-0.27825901 -4.9589229 -5.454102 7
-0.27829 -4.974762 -5.4423828 7
-0.27665699 -4.9874878 -5.4257808 7
-0.27668801 -5.0030818 -5.4130859 7
-0.27838099 -5.0222778 -5.40625 7
-0.28171501 -5.0447388 -5.4023442 7
-0.27510801 -5.0467529 -5.3730469 7
-0.271828 -5.055511 -5.351562 7
-0.28014401 -5.0883789 -5.3623052 7
-0.28679699 -5.1177979 -5.367188 7
-0.25955999 -4.8117981 -5.0957031 7
-0.26988199 -4.8470459 -5.110352 7
-0.25962099 -4.8418579 -5.0722661 7
-0.27166 -4.8805852 -5.0917969 7
-0.278557 -4.9093928 -5.0966802 7
-0.283737 -4.9346919 -5.0986328 7
-0.27518499 -4.932373 -5.0644531 7
-0.27006501 -4.9369512 -5.039062 7
-0.27008101 -4.9517822 -5.0283198 7
-0.27011099 -4.9667659 -5.016602 7
-0.27357501 -4.9885859 -5.0126948 7
-0.271889 -4.9997249 -4.9960942 7
-0.27020299 -5.0109859 -4.9794922 7
-0.27195001 -5.0293269 -4.9726558 7
-0.27197999 -5.0439448 -4.9599609 7
-0.28231001 -5.0800781 -4.9746089 7
-0.284058 -5.0982971 -4.9658198 7
-0.26742601 -4.8228149 -4.7451172 7
-0.26744801 -4.8369451 -4.733398 7
-0.27280399 -4.8617859 -4.734375 7
-0.269279 -4.868835 -4.7138672 7
-0.278175 -4.9006038 -4.7246089 7
-0.28708601 -4.932404 -4.733398 7
-0.280022 -4.932343 -4.7050781 7
-0.27649701 -4.9393921 -4.6845698 7
-0.26942399 -4.9390869 -4.65625 7
-0.269447 -4.9529719 -4.6435552 7
-0.27303299 -4.9741821 -4.640625 7
-0.280159 -5.002502 -4.6445308 7
-0.27486399 -5.0055852 -4.6201172 7
-0.274887 -5.0194702 -4.608398 7
-0.27492499 -5.0334778 -4.5966802 7
-0.27317801 -5.0437322 -4.5810552 7
-0.28208899 -5.0758061 -4.5898442 7
-0.28922299 -5.104248 -4.592773 7
-0.275047 -5.088531 -4.547852 7
-0.46770301 -18.02816 9.6042194 7
-0.329923 -5.1323318 -10.72291 7
-0.065053001 -1.8581491 -7.6384158 7
-0.0097620003 -1.73326 -6.0360441 7
-0.266453 -5.0035529 -7.0346222 7
0.029446 -1.641528 -4.8594909 7
-0.24091201 -4.9368939 -5.7326598 7
0.018603001 -1.902081 -4.1823339 7
-0.22373401 -4.887198 -4.697814 7
-0.028453 -1.81069 -3.436178 7
-0.253791 -4.957428 -2.788435 7
-0.22374199 -4.842073 -2.1093991 7
-0.35026899 -2.073751 -15.711683 7
-0.43991601 -5.3655901 -14.093277 7
-0.108731 -1.994266 -8.4346523 7
-0.386163 -5.250124 -11.312167 7
-0.43776599 -6.9960332 -11.318645 7
-0.090210997 0.79488599 -8.3472748 7
-0.050221 -1.7810709 -6.175293 7
-0.173305 4.1912842 -6.489511 7
-0.20115399 4.1166782 -6.872714 7
-0.320658 -4.9973969 -6.8694978 7
-0.058134001 0.93172002 -5.895864 7
-0.048163 0.71722299 -5.834321 7
-0.28098899 -4.9631391 -5.5634599 7
-0.046790998 1.2287951 -5.2950001 7
-0.029988 0.97479701 -5.207396 7
-0.057517 -1.6839941 -4.8750401 7
-0.061232001 -1.856969 -4.8375378 7
-0.26151201 -4.9512992 -4.5446401 7
-0.039069001 -1.606251 -4.424479 7
-0.050443999 -1.786422 -4.4357071 7
-0.048080999 -1.919474 -4.3527961 7
-0.061764002 1.2248909 -4.7238359 7
-0.052173998 1.052685 -4.7002792 7
-0.022802001 -1.693278 -3.9752719 7
-0.036681 -1.86737 -3.9885671 7
-0.037815001 1.219967 -4.2755742 7
-0.03613 1.082337 -4.307858 7
-0.018169001 -1.676847 -3.6988299 7
-0.028518001 -1.825868 -3.6868551 7
-0.0089520002 -1.616619 -3.4464369 7
-0.013258 -1.7320631 -3.403419 7
-0.013612 -1.831965 -3.3371551 7
-0.029598 -1.677623 -3.1522191 7
-0.035657 -1.786815 -3.109381 7
-0.045883998 -1.911355 -3.076987 7
-0.030014001 -1.731161 -2.932205 7
