# .PCD v0.7 - Point Cloud Data file format
VERSION 0.7
FIELDS x y z intensity
SIZE 4 4 4 4
TYPE F F F F
COUNT 1 1 1 1
WIDTH 846
HEIGHT 1
VIEWPOINT 0 0 0 1 0 0 0
POINTS 846
DATA ascii
2.0914309 61.313492 7.8173828 7
1.949432 58.544098 4.6201172 7
1.947174 59.218033 4.515625 7
1.672562 50.526932 8.5400391 7
1.67337 50.496811 8.4140615 7
1.55748 47.105621 8.7353516 7
1.455399 44.6577 8.9042969 7
1.45459 44.744354 8.8085938 7
1.454147 44.807846 8.7109385 7
0.60215801 0.443405 71.22168 7
0.56700099 0.62213099 72.77832 7
0.54061902 0.975815 73.951172 7
0.65820301 3.618973 68.776367 7
0.65916401 3.776413 68.733398 7
0.65327501 4.592392 68.976562 7
0.68559301 4.6523738 67.546875 7
1.351135 42.425583 9.25 7
1.35405 42.311325 9.1269531 7
1.351288 42.484909 9.0537109 7
1.350677 42.548721 8.9609385 7
1.354126 43.359482 5.5556641 7
0.54573101 -0.056717001 66.166016 7
0.50820899 0.098724 67.65332 7
0.43956 0.42945901 70.379883 7
0.61076403 3.0393679 63.630859 7
0.610443 3.187393 63.640625 7
0.57806402 3.403748 64.920898 7
0.60534698 4.5521088 64.185547 7
0.60636902 4.697998 64.139648 7
1.274963 40.73941 9.1503906 7
1.271652 40.918594 9.0839844 7
1.271957 40.936478 8.9882812 7
0.538315 -0.589737 59.485352 7
0.49578899 -0.46409601 60.991211 7
0.46005201 -0.33019999 62.254883 7
0.42864999 -0.18954501 63.367188 7
0.38929701 -0.043807998 64.761719 7
0.54391497 2.4277799 59.328125 7
0.54585302 2.5619509 59.257812 7
0.51751697 2.7459559 60.259766 7
0.51292402 4.4314728 60.375 7
0.536026 4.6461329 59.548828 7
0.57734698 4.6639562 58.084961 7
1.18602 39.1194 9.2177734 7
1.18454 39.235992 9.046875 7
1.18187 39.368622 8.9765615 7
0.457275 -0.70202601 56.541016 7
0.41540501 -0.58521998 57.882812 7
0.38195801 -0.460114 58.955078 7
0.33512899 -0.33254999 60.455078 7
0.47644001 2.1521609 56.232422 7
0.49478099 2.2575991 55.642578 7
0.45899999 2.4363251 56.788086 7
0.483704 4.5996699 55.925781 7
0.48655701 4.7210999 55.826172 7
0.50724798 4.791153 55.157227 7
0.46029699 7.8063512 56.431641 7
0.48442101 7.826004 55.648438 7
0.51399201 7.8166809 54.692383 7
0.382034 -1.028275 53.616211 7
0.36173999 -0.91505402 54.209961 7
0.33778399 -0.800583 54.908203 7
0.287384 -0.69239801 56.373047 7
0.42979401 1.646454 52.28125 7
0.449265 1.747177 51.71582 7
0.43989599 1.8766479 51.987305 7
0.463608 1.969299 51.298828 7
0.46226501 4.453568 51.24707 7
0.482941 4.5167999 50.641602 7
0.46814001 4.6739502 51.0625 7
0.44618201 7.6220398 51.658203 7
0.47393799 7.6179352 50.841797 7
1.05452 35.235901 9.5009766 7
1.054581 35.26033 9.4179688 7
1.05484 35.279129 9.3359385 7
1.069473 35.693314 6.0371089 7
1.062668 35.930573 5.9824219 7
1.055298 36.184937 5.9267578 7
1.061157 36.015198 5.8193359 7
0.470047 4.0246119 46.509766 7
0.44134501 4.2006068 47.258789 7
0.44778401 4.4016881 47.075195 7
0.38793901 7.349792 48.379883 7
0.43309 7.3825841 47.173828 7
0.98982197 33.271332 9.5546885 7
0.988846 33.324463 9.484375 7
0.98867798 33.354858 9.4091797 7
0.98646498 33.441711 9.3457031 7
0.39932299 3.8896029 43.782227 7
0.41833499 3.947556 43.324219 7
0.40000901 4.0889282 43.750977 7
0.426056 4.2276149 43.121094 7
0.351944 7.2051392 44.738281 7
0.37353501 7.221756 44.212891 7
0.39587399 7.233139 43.670898 7
0.406982 7.2881622 43.395508 7
0.354141 3.749542 41.311523 7
0.38801599 3.865936 40.561523 7
0.387054 3.960815 40.576172 7
0.40023801 4.02388 40.28125 7
0.32215899 6.9825592 41.670898 7
0.344955 6.9914699 41.164062 7
0.36160299 7.0217438 40.791016 7
0.37770101 7.0524139 40.428711 7
0.346802 3.6238861 38.008789 7
0.36062601 3.682724 37.727539 7
0.34521499 3.8006589 38.026367 7
0.36138901 3.8534551 37.699219 7
0.29582199 6.763535 38.786133 7
0.29971299 6.8382111 38.695312 7
0.33833301 6.8715358 37.904297 7
0.79251099 28.386108 9.8681641 7
0.790802 28.44519 9.8125 7
0.78936797 28.498474 9.7548828 7
0.78959697 28.51799 9.6875 7
0.78759801 28.582184 9.6318359 7
0.78431702 29.607178 6.3300781 7
0.78834498 29.537598 6.2470698 7
-1.121078 -0.65553302 -63.798828 7
-1.258514 -0.84326202 -66.498047 7
0.137787 -2.184998 39.272461 7
0.30140701 3.611511 36.311523 7
0.32974201 3.6387329 35.780273 7
0.258499 6.7286992 36.735352 7
0.27551299 6.7521362 36.408203 7
0.308319 6.7996521 35.780273 7
0.73696899 27.180725 9.8798828 7
0.73835802 27.178284 9.8095703 7
-1.138306 -7.0870972 -58.038086 7
-1.053772 -7.043045 -56.513672 7
-1.121231 -7.3292079 -57.696289 7
0.26014701 0.36438 34.255859 7
0.25816301 0.44265699 34.290039 7
0.259247 0.52006501 34.271484 7
0.252792 0.59980798 34.380859 7
0.31926 3.2954099 33.210938 7
0.32273901 3.3644409 33.144531 7
0.31634501 3.4515531 33.248047 7
0.326996 3.506943 33.05957 7
0.258057 6.5031891 33.853516 7
0.27346799 6.5276489 33.580078 7
0.286163 6.5600891 33.352539 7
0.28114301 6.6534581 33.421875 7
-0.88426203 -3.0518949 -49.748047 7
-0.866943 -3.394058 -49.432617 7
-0.83224499 -3.47403 -48.848633 7
-0.84777802 -3.6108091 -49.09668 7
-0.79446399 -3.664001 -48.201172 7
0.248215 0.26681501 32.103516 7
0.232834 0.41529801 32.347656 7
0.227005 0.49003601 32.44043 7
0.29586801 3.167938 31.301758 7
0.30401599 3.2245791 31.166992 7
0.28242499 3.332932 31.501953 7
0.294983 3.3818209 31.296875 7
0.28843701 3.464447 31.392578 7
-1.109024 0.231949 -53.672852 7
-0.71139503 -1.916031 -43.019531 7
-0.76802099 -2.0602419 -43.878906 7
-0.74630702 -2.1508939 -43.540039 7
-0.82946801 -2.4298861 -44.794922 7
-0.84005702 -3.4204409 -44.882812 7
-0.77590901 -3.454361 -43.896484 7
-0.72779799 -3.503082 -43.15332 7
-0.71173102 -3.587997 -42.900391 7
0.097992003 -2.7587891 31.779297 7
0.089644998 -2.6976011 31.907227 7
0.076491997 -2.642242 32.105469 7
0.076141 -2.569885 32.118164 7
0.204163 0.117615 30.385742 7
0.226578 0.18391401 30.057617 7
0.22023 0.25266999 30.150391 7
0.202057 6.2085881 29.918945 7
0.200165 6.2824402 29.933594 7
0.21453901 6.3040771 29.712891 7
0.228928 6.3246002 29.492188 7
0.2314 6.3831182 29.443359 7
-0.83621198 1.046326 -46.725586 7
-0.89175397 0.94914198 -47.616211 7
-0.97757 0.85640001 -48.991211 7
-1.025833 0.74789399 -49.764648 7
-1.08577 0.63816798 -50.724609 7
-0.67306501 -1.475983 -39.6875 7
-0.66868597 -1.666824 -39.616211 7
-0.71034199 -1.7894289 -40.207031 7
-0.76847798 -3.422394 -40.922852 7
-0.72618097 -3.5695651 -40.299805 7
-0.70828199 -3.6451571 -40.03418 7
-0.67123401 -3.6947169 -39.496094 7
-1.841354 -54.951042 11.643555 7
-1.786072 -54.169281 11.629883 7
0.20784 0.042647999 28.546875 7
0.20022599 0.107178 28.651367 7
0.201965 0.171417 28.62793 7
0.19949301 0.236267 28.664062 7
0.20251501 0.30036899 28.62207 7
0.245483 2.940201 27.964844 7
0.253189 2.991318 27.854492 7
0.244858 3.1299291 27.956055 7
0.25550801 3.175293 27.803711 7
0.17419399 6.158524 28.477539 7
0.18486001 6.1896362 28.320312 7
0.195969 6.219101 28.15918 7
0.207047 6.2474208 27.99707 7
0.196548 6.3439641 28.123047 7
0.55744898 22.764679 6.7871089 7
0.55436701 22.822723 6.7441411 7
-0.63197303 -1.356583 -37.124023 7
-0.666412 -1.465866 -37.592773 7
-0.71398902 -1.584564 -38.244141 7
-0.674088 -3.430542 -36.537109 7
-0.65608197 -3.497452 -36.289062 7
-0.61959797 -3.539948 -35.799805 7
-0.65620399 -3.6748199 -36.272461 7
-0.62411499 -3.720871 -35.839844 7
-1.525818 -46.862335 11.050781 7
-1.484802 -46.319069 11.053711 7
0.20611601 -0.075470001 26.679688 7
0.231262 2.8747711 26.236328 7
0.168091 6.110321 26.583984 7
0.18180799 6.1281891 26.400391 7
0.187805 6.1687322 26.311523 7
0.186966 6.2303309 26.307617 7
0.17523199 6.3264771 26.44043 7
0.52708399 21.347168 7.032227 7
0.53163099 21.30365 6.9667969 7
0.53309602 21.299576 6.9121089 7
0.52973902 21.357544 6.8730469 7
0.52554297 21.426956 6.8378911 7
-0.71322602 1.904541 -38.358398 7
-0.74708599 1.831207 -38.828125 7
-0.77294898 1.750595 -39.188477 7
-0.81190503 1.675858 -39.730469 7
-0.86268598 1.605026 -40.43457 7
-0.59400898 -0.67031902 -33.294922 7
-0.58279401 -0.74911499 -33.15332 7
-0.59553498 -0.83429003 -33.30957 7
-0.63365197 -0.92861903 -33.780273 7
-0.64979601 -3.4260099 -33.799805 7
-0.61225897 -3.462296 -33.328125 7
-0.60900903 -3.5398099 -33.279297 7
-0.60488898 -3.6972959 -33.208984 7
-1.257431 -40.497185 10.732422 7
0.16599999 6.0580139 24.938477 7
-0.51838702 -0.60885602 -29.994141 7
-0.53913897 -0.687805 -30.230469 7
-0.52503997 -0.75837702 -30.066406 7
-0.50740099 -0.82693499 -29.859375 7
-0.747208 -6.7731628 -31.895508 7
-0.96186799 -33.182266 13.49707 7
-0.952133 -33.049728 13.537109 7
-0.94186401 -32.911224 13.575195 7
-0.926422 -32.718414 13.591797 7
-0.92756701 -32.700134 13.673828 7
-0.92094398 -32.59996 13.723633 7
0.162231 -0.28244001 23.978516 7
0.174301 -0.227661 23.845703 7
0.17486601 -0.174408 23.84082 7
0.176468 -0.121445 23.824219 7
0.17285199 -0.068604 23.865234 7
0.16609199 -0.015503 23.94043 7
0.197327 2.6082461 23.509766 7
0.21197499 2.6408539 23.34082 7
0.214645 2.689285 23.306641 7
0.193878 2.77005 23.532227 7
0.20904499 2.8008881 23.358398 7
0.210648 2.8504331 23.333008 7
0.14137299 5.8265839 23.59082 7
0.145615 5.867065 23.532227 7
0.154007 5.8952641 23.428711 7
0.158768 5.9335942 23.363281 7
-0.70321703 2.541779 -32.806641 7
-0.71203601 2.46785 -32.916016 7
-0.72866797 2.399796 -33.120117 7
-0.741409 2.327698 -33.277344 7
-0.46610999 -1.3010859 -27.37793 7
-0.45805401 -1.364532 -27.287109 7
-0.44946301 -1.427277 -27.19043 7
-0.44087201 -1.48967 -27.09375 7
-0.435516 -1.553345 -27.032227 7
-0.51055902 -3.2432561 -27.688477 7
-0.556503 -3.368134 -28.172852 7
-0.53494298 -3.4104609 -27.931641 7
-0.55010998 -3.4990079 -28.085938 7
-0.76312298 -6.4416809 -29.907227 7
-0.76911902 -6.528748 -29.955078 7
-0.75456202 -6.5697632 -29.785156 7
-0.74488801 -6.6210942 -29.667969 7
-0.74008203 -6.6832428 -29.600586 7
-0.91452003 -31.436005 10.137695 7
-0.60165399 2.802139 -29.332031 7
-0.614227 2.7414401 -29.477539 7
-0.625763 2.6786959 -29.613281 7
-0.651932 2.629318 -29.908203 7
-0.48777801 -3.2657931 -25.587891 7
-0.54505903 3.032074 -26.676758 7
-0.53166199 2.950424 -26.544922 7
-0.53616297 2.8887179 -26.597656 7
-0.546799 2.8330541 -26.713867 7
-0.463074 -2.5695651 -23.84082 7
-0.46005201 -2.625885 -23.805664 7
-0.44664001 -2.671417 -23.671875 7
-0.45462 -2.7385709 -23.741211 7
-0.45771801 -2.800842 -23.762695 7
-0.44981399 -2.8514249 -23.680664 7
-0.47370899 -2.936722 -23.899414 7
-0.46763599 -2.989105 -23.833984 7
-0.46093801 -3.040695 -23.763672 7
-0.49281299 -3.137177 -24.056641 7
-0.48121601 -3.183167 -23.939453 7
-0.72489899 -6.305099 -25.703125 7
-0.72018403 -25.731873 9.6054688 7
-0.725281 -25.756332 9.6816406 7
-0.72226 -25.708923 9.7333984 7
-0.70117199 -25.480957 9.7929688 7
-0.59010297 3.026505 -25.384766 7
-0.60385102 2.912842 -25.533203 7
-0.59971601 2.844528 -25.498047 7
-0.428009 -2.6029971 -21.979492 7
-0.448883 -2.6790919 -22.158203 7
-0.44891399 -2.734421 -22.152344 7
-0.42875701 -2.768173 -21.96582 7
-0.42880201 -2.8230131 -21.958984 7
-0.44445801 -2.8952179 -22.09082 7
-0.44711301 -2.9533839 -22.107422 7
-0.44323701 -3.003998 -22.06543 7
-0.436111 -3.050812 -21.995117 7
-0.44982901 -3.1218109 -22.108398 7
-0.45832801 -3.187088 -22.174805 7
-0.68364 -6.1338038 -23.633789 7
-0.68890399 -6.2038879 -23.665039 7
-0.67524701 -6.2329249 -23.53125 7
-0.66420001 -6.2669978 -23.419922 7
-0.65641803 -6.3079219 -23.337891 7
-0.67144799 -6.3994451 -23.451172 7
-0.465942 -20.135101 12.733398 7
-0.460022 -20.062592 12.754883 7
-0.459427 -20.030426 12.798828 7
-0.46968099 3.2258451 -22.550781 7
-0.47856101 3.179352 -22.638672 7
-0.48999 3.1352839 -22.75 7
-0.49444601 3.082809 -22.797852 7
-0.51029998 3.042999 -22.949219 7
-0.50398302 2.977814 -22.898438 7
-0.504013 2.9198611 -22.905273 7
-0.40739399 -2.592972 -20.529297 7
-0.42188999 -2.710861 -20.636719 7
-0.415741 -2.7559969 -20.578125 7
-0.40544099 -2.7962949 -20.484375 7
-0.444702 -2.8908999 -20.806641 7
-0.40812701 -18.217514 12.583008 7
-0.39762899 -18.116776 12.580078 7
-0.399811 -18.105133 12.632812 7
-0.39985701 -18.078125 12.676758 7
-0.399216 -18.046387 12.71582 7
-0.383789 -17.911392 12.69043 7
-0.54058802 3.1311951 -21.799805 7
-0.37821999 -2.5635531 -19.046875 7
-0.38992301 -2.6234281 -19.132812 7
-0.38194299 -2.663177 -19.063477 7
-0.37468001 -2.703491 -19 7
-0.40386999 -2.782654 -19.223633 7
-0.39587399 -2.8221591 -19.152344 7
-0.39590499 -2.8703771 -19.145508 7
-0.61860698 -5.8061371 -20.330078 7
-0.62083399 -5.8618011 -20.333984 7
-0.636917 -5.946671 -20.442383 7
-0.62893701 -5.9806819 -20.366211 7
-0.62240601 -6.017807 -20.301758 7
-0.62025499 -6.0640111 -20.270508 7
-0.41729701 3.4107821 -19.365234 7
-0.40948501 3.3508761 -19.310547 7
-0.4095 3.3013611 -19.318359 7
-0.42089799 3.265991 -19.417969 7
-0.36949199 -2.5956271 -17.857422 7
-0.36721799 -2.6382599 -17.833984 7
-0.39267001 -2.7101901 -18.016602 7
-0.38423201 -2.7466581 -17.947266 7
-0.384262 -2.7919459 -17.941406 7
-0.38503999 -2.8380129 -17.938477 7
-0.61485302 -5.818985 -19.037109 7
-0.62104797 -5.8797612 -19.067383 7
-0.61184698 -5.9082489 -18.987305 7
-0.60649103 -5.9446559 -18.93457 7
-0.60420197 -5.9873052 -18.90332 7
-0.61041301 -6.0484471 -18.933594 7
-0.41548201 -17.513855 9.2626953 7
-0.40614301 -17.431717 9.2744141 7
-0.415878 3.5006101 -18.140625 7
-0.41210899 3.448853 -18.120117 7
-0.41363499 3.4043269 -18.139648 7
-0.41813701 3.3634491 -18.180664 7
-0.435471 3.338593 -18.320312 7
-0.45503199 3.3161471 -18.476562 7
-0.43624899 3.2449801 -18.341797 7
-0.344574 -2.387955 -16.645508 7
-0.352768 -2.480469 -16.691406 7
-0.37156701 -2.626617 -16.803711 7
-0.363464 -2.660965 -16.740234 7
-0.35942101 -2.6990509 -16.705078 7
-0.354568 -2.7362211 -16.664062 7
-0.37820399 -2.8044429 -16.824219 7
-0.37821999 -2.8470311 -16.817383 7
-0.59413099 -5.774353 -17.693359 7
-0.59335297 -5.8173981 -17.674805 7
-0.58280897 -5.8397059 -17.588867 7
-0.57955903 -5.8771672 -17.551758 7
-0.57634002 -5.914505 -17.514648 7
-0.58778399 -5.9836121 -17.578125 7
-0.59922802 -6.0529628 -17.641602 7
-0.68071002 -7.365448 -17.78125 7
-0.70191997 -7.4651031 -17.90332 7
-0.70602399 -7.5209498 -17.913086 7
-0.69386297 -7.5343022 -17.814453 7
-0.688187 -7.564178 -17.757812 7
-0.68170202 -7.5919189 -17.697266 7
-0.678482 -7.6279912 -17.658203 7
-0.33895901 -2.542969 -15.681641 7
-0.339035 -2.662689 -15.662109 7
-0.67146301 -7.4008331 -16.609375 7
-0.67407203 -7.4496918 -16.607422 7
-0.66810602 -7.4761658 -16.551758 7
-0.66813701 -7.5183721 -16.53418 7
-0.661331 -7.5420842 -16.473633 7
-0.66394001 -7.5906978 -16.470703 7
-0.680237 -7.6764069 -16.553711 7
-0.35525501 3.6359711 -15.571289 7
-0.35357699 3.592926 -15.568359 7
-0.35357699 3.552475 -15.575195 7
-0.35275301 3.5107119 -15.578125 7
-0.358612 3.4780729 -15.625977 7
-0.27860999 0.43293801 -15.491211 7
-0.28750601 0.392059 -15.544922 7
-0.28839099 0.35260001 -15.550781 7
-0.30509901 -2.2724609 -14.642578 7
-0.32760599 -2.331085 -14.78125 7
-0.313232 -2.355118 -14.683594 7
-0.31414801 -2.393631 -14.682617 7
-0.308792 -2.4260559 -14.642578 7
-0.324112 -2.478745 -14.734375 7
-0.33581501 -2.5281069 -14.801758 7
-0.32864401 -2.558548 -14.75 7
-0.543823 -5.7113948 -15.355469 7
-0.53845203 -5.7391968 -15.308594 7
-0.65385401 -7.3852692 -15.443359 7
-0.64846802 -7.4104609 -15.393555 7
-0.64579803 -7.442688 -15.361328 7
-0.64584398 -7.4819641 -15.34375 7
-0.64225799 -7.5114141 -15.302734 7
-0.65490699 -7.584198 -15.358398 7
-0.664841 -7.6501918 -15.398438 7
-0.38026401 3.8331759 -14.790039 7
-0.37498501 3.7866061 -14.765625 7
-0.36618 3.5415649 -14.759766 7
-0.38293499 3.5258789 -14.875977 7
-0.27996799 0.61428797 -14.543945 7
-0.28086901 0.576294 -14.549805 7
-0.280884 0.53799403 -14.550781 7
-0.27915999 0.499329 -14.540039 7
-0.276535 0.460632 -14.523438 7
-0.267746 0.42094401 -14.466797 7
-0.273056 0.38369799 -14.50293 7
-0.273956 0.34582499 -14.508789 7
-0.30983001 -2.275604 -13.914062 7
-0.29480001 -2.297699 -13.817383 7
-0.29482999 -2.333359 -13.8125 7
-0.29107699 -2.3651731 -13.783203 7
-0.309937 -2.4190371 -13.892578 7
-0.32313499 -2.46785 -13.966797 7
-0.310913 -2.491333 -13.884766 7
-0.31189001 -2.528152 -13.884766 7
-0.50502002 -5.4403229 -14.332031 7
-0.50787401 -5.4827728 -14.334961 7
-0.52210999 -5.6226039 -14.376953 7
-0.52496302 -5.6653142 -14.379883 7
-0.51838702 -5.688416 -14.328125 7
-0.51371801 -5.7153168 -14.288086 7
-0.51467901 -5.7539668 -14.279297 7
-0.25904801 0.63655102 -13.786133 7
-0.26565599 0.60279799 -13.827148 7
-0.27038601 0.56805402 -13.857422 7
-0.24501 0.52694702 -13.703125 7
-0.26196301 0.495132 -13.807617 7
-0.26010099 0.45929 -13.796875 7
-0.26011699 0.42381299 -13.797852 7
-0.256378 0.387741 -13.775391 7
-0.26580799 0.353668 -13.833008 7
-0.273727 -2.266953 -12.94043 7
-0.28066999 -2.3070979 -12.975586 7
-0.28070101 -2.340652 -12.969727 7
-0.30148301 -2.394196 -13.083008 7
-0.294586 -2.4211581 -13.037109 7
-0.291641 -2.4520869 -13.013672 7
-0.29165599 -2.485764 -13.008789 7
-0.30554199 -2.5335851 -13.082031 7
-0.52023298 -5.5171051 -13.533203 7
-0.51338202 -5.5726929 -13.46875 7
-0.50450099 -5.588943 -13.407227 7
-0.50550801 -5.6256561 -13.399414 7
-0.50253302 -5.6537781 -13.369141 7
-0.510544 -5.7398829 -13.384766 7
-0.23394801 0.613998 -12.725586 7
-0.23300201 0.57978803 -12.72168 7
-0.23497 0.546143 -12.734375 7
-0.23498499 0.51222199 -12.735352 7
-0.235992 0.478394 -12.742188 7
-0.242798 0.44587699 -12.782227 7
-0.24089099 0.41137701 -12.772461 7
-0.23799101 0.37693799 -12.755859 7
-0.24142499 0.34582499 -12.762695 7
-0.26586899 -2.2549291 -12.254883 7
-0.266922 -2.287689 -12.254883 7
-0.27832001 -2.330307 -12.3125 7
-0.290741 -2.3743131 -12.375 7
-0.27940401 -2.3952789 -12.305664 7
-0.281479 -2.4295809 -12.3125 7
-0.279434 -2.4593351 -12.293945 7
-0.290833 -2.502914 -12.351562 7
-0.28567499 -2.5297849 -12.316406 7
-0.507828 -5.480484 -12.726562 7
-0.50472999 -5.507019 -12.697266 7
-0.49649 -5.522995 -12.641602 7
-0.49444601 -5.5515442 -12.616211 7
-0.492401 -5.5798488 -12.591797 7
-0.49139401 -5.6105652 -12.574219 7
-0.49865699 -5.6583862 -12.597656 7
-0.50801098 -5.7109828 -12.632812 7
-0.29978901 3.8226011 -11.956055 7
-0.30079699 3.792068 -11.970703 7
-0.29977399 3.758255 -11.973633 7
-0.29977399 3.726089 -11.983398 7
-0.30586201 3.703064 -12.025391 7
-0.31401101 3.682739 -12.078125 7
-0.32415801 3.6650851 -12.142578 7
-0.31703201 3.6225131 -12.111328 7
-0.32313499 3.5987549 -12.15332 7
-0.321091 3.5631869 -12.150391 7
-0.31602499 3.523514 -12.130859 7
-0.23178101 0.62066698 -12.052734 7
-0.221634 0.585724 -11.996094 7
-0.227753 0.55508399 -12.03125 7
-0.223709 0.521698 -12.009766 7
-0.22575399 0.48999 -12.022461 7
-0.23291001 0.45904499 -12.064453 7
-0.229874 0.426193 -12.047852 7
-0.22988901 0.393906 -12.048828 7
-0.231934 0.36171001 -12.060547 7
-0.226868 0.32864401 -12.032227 7
-0.255768 -2.1376801 -11.555664 7
-0.250366 -2.163208 -11.522461 7
-0.247177 -2.250488 -11.488281 7
-0.46836901 -5.4481049 -11.733398 7
-0.46946701 -5.4811249 -11.726562 7
-0.46841401 -5.5093842 -11.708008 7
-0.46734601 -5.537766 -11.688477 7
-0.47062701 -5.5750728 -11.691406 7
-0.48258999 -5.6309361 -11.736328 7
-0.48152199 -5.6591949 -11.716797 7
-0.490219 -5.7084198 -11.745117 7
-0.48916599 -5.7368011 -11.725586 7
-0.57160902 -7.1470342 -11.494141 7
-0.56514001 -7.1602778 -11.447266 7
-0.56083697 -7.1789088 -11.410156 7
-0.56086701 -7.2087712 -11.393555 7
-0.56198102 -7.2416229 -11.381836 7
-0.55766302 -7.2600098 -11.344727 7
-0.56419402 -7.306931 -11.355469 7
-0.293167 3.958389 -11.166016 7
-0.28356901 3.9129641 -11.125 7
-0.28036499 3.87767 -11.118164 7
-0.28356901 3.8526609 -11.142578 7
-0.28674299 3.797318 -11.176758 7
-0.203217 0.61062598 -11.245117 7
-0.20323201 0.58013898 -11.246094 7
-0.206451 0.55032301 -11.264648 7
-0.207535 0.52027899 -11.271484 7
-0.21075401 0.49034101 -11.290039 7
-0.20863301 0.459396 -11.27832 7
-0.20652799 0.42845199 -11.268555 7
-0.20867901 0.39833099 -11.28125 7
-0.20657299 0.367493 -11.270508 7
-0.205521 0.33686799 -11.264648 7
-0.55847198 -7.0601039 -10.737305 7
-0.56189001 -7.097198 -10.735352 7
-0.56190503 -7.125473 -10.71875 7
-0.55288702 -7.1300659 -10.662109 7
-0.55178797 -7.1553502 -10.640625 7
-0.55409199 -7.1893458 -10.632812 7
-0.555237 -7.2204738 -10.620117 7
-0.55639601 -7.2513428 -10.607422 7
-0.56210297 -7.2945709 -10.615234 7
-0.57459998 -7.355835 -10.651367 7
-0.197708 0.61471599 -10.639648 7
-0.203308 0.55796802 -10.669922 7
-0.452393 -5.264359 -10.4375 7
-0.45953399 -5.333694 -10.442383 7
-0.452454 -5.3470001 -10.398438 7
-0.451309 -5.3719792 -10.380859 7
-0.45019501 -5.42453 -10.349609 7
-0.548325 -7.0551152 -9.984375 7
-0.55070502 -7.0877838 -9.9765615 7
-0.54483002 -7.0990138 -9.9355469 7
-0.54247999 -7.1192322 -9.9091797 7
-0.54370099 -7.1486511 -9.8964844 7
-0.54609698 -7.1813202 -9.8896484 7
-0.54492199 -7.204514 -9.8671885 7
-0.54849201 -7.2401428 -9.8642578 7
-0.550888 -7.2726588 -9.8564453 7
-0.56153899 -7.327332 -9.8828115 7
-0.42774999 -5.1551061 -9.7734385 7
-0.42041001 -5.1664581 -9.7304688 7
-0.432724 -5.2169948 -9.7685547 7
-0.42904699 -5.2354889 -9.7402344 7
-0.44505301 -5.2936711 -9.7949219 7
-0.44632 -5.322433 -9.7880859 7
-0.43896499 -5.333405 -9.7441406 7
-0.435303 -5.3518982 -9.7158203 7
-0.43038899 -5.3675232 -9.6826172 7
-0.43042001 -5.3933868 -9.6689453 7
-0.43289199 -5.4242859 -9.6660156 7
-0.17523199 -1.927597 -9.1054688 7
-0.182953 -1.958481 -9.1337891 7
-0.17910799 -1.97963 -9.1123047 7
-0.17271399 -1.9985811 -9.0791016 7
-0.175308 -2.0253301 -9.0859385 7
-0.175308 -2.049454 -9.0800781 7
-0.181778 -2.1040499 -9.0976562 7
-0.20359799 -2.148087 -9.1884766 7
-0.190796 -2.1855011 -9.1220703 7
-0.19337501 -2.212326 -9.1269531 7
-0.19468699 -2.2380071 -9.1279297 7
-0.411102 -5.1389012 -9.0947266 7
-0.40855399 -5.1583099 -9.0722656 7
-0.41113299 -5.1877289 -9.0703115 7
-0.41758701 -5.2250061 -9.0830078 7
-0.42274499 -5.259933 -9.0917969 7
-0.41892999 -5.276474 -9.0644531 7
-0.41122401 -5.2850189 -9.0205078 7
-0.413818 -5.3146672 -9.0175781 7
-0.412552 -5.3362122 -8.9990234 7
-0.41258201 -5.3605042 -8.9873047 7
-0.41130099 -5.381927 -8.9697266 7
-0.41775501 -5.4194641 -8.9814453 7
-0.162964 0.95202601 -8.9306641 7
-0.165512 0.92799401 -8.9453115 7
-0.16172799 0.90150499 -8.9296885 7
-0.161743 0.87638903 -8.9316406 7
-0.15794399 0.85026598 -8.9169922 7
-0.151627 0.82302898 -8.8896484 7
-0.14910901 0.797333 -8.8798828 7
-0.149124 0.77233899 -8.8818359 7
-0.149139 0.74749798 -8.8837891 7
-0.14915501 0.722763 -8.8847656 7
-0.14917 0.69778401 -8.8876953 7
-0.151703 0.67378199 -8.8994141 7
-0.158051 0.650711 -8.9287109 7
-0.178436 -1.922195 -8.6875 7
-0.18779001 -1.953247 -8.7216797 7
-0.19314601 -1.9812011 -8.7392578 7
-0.182495 -1.995804 -8.6904297 7
-0.186508 -2.0227201 -8.7021484 7
-0.20791601 -2.112045 -8.7763672 7
-0.407608 -5.134201 -8.5556641 7
-0.41297901 -5.1680298 -8.5634766 7
-0.42234799 -5.2099299 -8.5859385 7
-0.42637599 -5.2412262 -8.5888672 7
-0.42373699 -5.2590642 -8.5664062 7
-0.417068 -5.2686458 -8.5283203 7
-0.41307101 -5.283463 -8.5 7
-0.41177401 -5.3040471 -8.4833984 7
-0.411789 -5.3269811 -8.4707031 7
-0.41180399 -5.3499298 -8.4570312 7
-0.41183501 -5.372879 -8.4453115 7
-0.41452 -5.4013062 -8.4423828 7
-0.39575201 -5.139832 -7.9755859 7
-0.39854401 -5.1671448 -7.9716802 7
-0.39857501 -5.1890111 -7.9599609 7
-0.39720199 -5.20787 -7.9423828 7
-0.39027399 -5.2155151 -7.90625 7
-0.39028901 -5.2372441 -7.8935552 7
-0.391693 -5.2615809 -7.8857422 7
-0.39588901 -5.2917628 -7.8876948 7
-0.39173901 -5.3047638 -7.860352 7
-0.397324 -5.337708 -7.867188 7
-0.39594999 -5.3563228 -7.8486328 7
-0.40710399 -5.4010768 -7.875977 7
-0.41267401 -5.4342499 -7.8818359 7
-0.39196801 -5.1222382 -7.500977 7
-0.383331 -5.125412 -7.4580078 7
-0.38622999 -5.1517792 -7.4560552 7
-0.38481101 -5.1695399 -7.4394531 7
-0.37619001 -5.1725011 -7.3974609 7
-0.376221 -5.1930079 -7.3857422 7
-0.376221 -5.2133789 -7.3730469 7
-0.38056901 -5.2424469 -7.374023 7
-0.38346899 -5.2687988 -7.3710942 7
-0.399445 -5.383255 -7.374023 7
-0.221558 4.1491241 -7.0498052 7
-0.21585099 4.1188812 -7.039062 7
-0.38134801 -5.1379852 -6.9824219 7
-0.37687701 -5.148438 -6.9550781 7
-0.370895 -5.155777 -6.9238281 7
-0.370911 -5.1750488 -6.9111328 7
-0.37092599 -5.1943212 -6.898438 7
-0.379944 -5.231873 -6.9150391 7
-0.37547299 -5.2420812 -6.8886719 7
-0.370987 -5.2519069 -6.860352 7
-0.38150001 -5.2928009 -6.8818359 7
-0.38301101 -5.315063 -6.8730469 7
-0.383026 -5.3342128 -6.8613281 7
-0.383057 -5.3534851 -6.8486328 7
-0.392059 -5.3913879 -6.8642578 7
-0.39956701 -5.4263148 -6.875 7
-0.39208999 -5.42981 -6.8378911 7
-0.44780001 -6.7228551 -6.0654302 7
-0.45382699 -6.755569 -6.0673828 7
-0.46434 -6.7997742 -6.078125 7
-0.46585101 -6.8208618 -6.0654302 7
-0.45689401 -6.815033 -6.0263672 7
-0.45991501 -6.8399658 -6.016602 7
-0.45993 -6.857101 -6 7
-0.461456 -6.8782039 -5.9882808 7
-0.45848101 -6.8874359 -5.9638672 7
-0.452499 -6.888763 -5.9306641 7
-0.46301299 -6.9333339 -5.9423828 7
-0.46455401 -6.9543152 -5.9306641 7
-0.45558199 -6.9476171 -5.890625 7
-0.46160901 -6.9803309 -5.889648 7
-0.46463001 -7.005127 -5.8808589 7
-0.44793701 -6.8576512 -5.4345698 7
-0.44331399 -6.8613591 -5.40625 7
-0.443344 -6.8771672 -5.390625 7
-0.44491601 -6.8968959 -5.3769531 7
-0.440292 -6.9003601 -5.3486328 7
-0.44494599 -6.9282532 -5.34375 7
-0.44963101 -6.956131 -5.3388672 7
-0.452759 -6.9799652 -5.3300781 7
-0.45898399 -7.0120239 -5.328125 7
-0.46365401 -7.0397801 -5.3222661 7
-0.342926 -4.8104858 -6.179688 7
-0.347794 -4.8550868 -6.171875 7
-0.33978301 -4.8570099 -6.1357422 7
-0.35105899 -4.8962102 -6.1582031 7
-0.33982801 -4.891922 -6.1132808 7
-0.33824199 -4.906281 -6.0966802 7
-0.343079 -4.9330292 -6.0986328 7
-0.351105 -4.9659882 -6.110352 7
-0.352768 -5.0039978 -6.0908198 7
-0.34796101 -5.0117798 -6.0654302 7
-0.35281399 -5.038651 -6.0673828 7
-0.357651 -5.065659 -6.0683589 7
-0.354462 -5.0765228 -6.046875 7
-0.351273 -5.0872798 -6.0263672 7
-0.35287499 -5.1077118 -6.0185552 7
-0.163101 4.4560852 -4.6894531 7
-0.16478001 4.444519 -4.7050781 7
-0.164764 4.4295812 -4.7158198 7
-0.164749 4.4147639 -4.7255859 7
-0.16473401 4.3995671 -4.7363281 7
-0.162994 4.3817601 -4.7402339 7
-0.16126999 4.3634191 -4.7470698 7
-0.157837 4.3421941 -4.7480469 7
-0.154404 4.320755 -4.749023 7
-0.145859 4.2901311 -4.735352 7
-0.142426 4.268784 -4.7363281 7
-0.144104 4.256989 -4.750977 7
-0.14238 4.2389069 -4.7558589 7
-0.142349 4.2239838 -4.765625 7
-0.142334 4.2089229 -4.7753911 7
-0.14743 4.203033 -4.7998052 7
-0.157654 4.206284 -4.8378911 7
-0.15420499 4.1851039 -4.8369141 7
-0.162735 4.1851039 -4.8710942 7
-0.16270401 4.1697998 -4.8808589 7
-0.33270299 -5.0220342 -4.7949219 7
-0.334503 -5.0399928 -4.7871089 7
-0.339874 -5.0648799 -4.7861328 7
-0.33810401 -5.0755768 -4.7705078 7
-0.34169 -5.0970001 -4.766602 7
-0.33457899 -5.096817 -4.7373052 7
-0.33816499 -5.1181178 -4.733398 7
-0.14681999 4.1640468 -4.485352 7
-0.164444 4.1665192 -4.5517578 7
-0.35162899 -2.3956549 -14.548779 7
-0.146235 -1.922932 -8.4846716 7
-0.40671799 -5.4212198 -9.6895132 7
-0.12582301 -2.2387531 -6.9910388 7
-0.34176901 -5.2441492 -7.6562638 7
-0.055215999 -1.696498 -5.5820861 7
-0.054180998 -2.055788 -5.4659352 7
-0.30400601 -5.047874 -6.2579188 7
-0.108115 -1.618325 -4.6042161 7
-0.090535998 -1.859107 -3.8478971 7
-0.34536001 -4.9147801 -4.1624532 7
-0.061579999 -1.714361 -3.212363 7
-0.028764 -1.649197 -2.6154799 7
-0.051452 -1.908378 -2.6815529 7
-0.011777 -1.776944 -1.816862 7
-0.159998 3.7896659 -11.029312 7
-0.16446599 4.059598 -7.5327001 7
-0.51121402 3.3949189 -18.444992 7
-0.444401 -5.4887338 -12.052351 7
-0.1464 -2.084244 -7.9189839 7
-0.399248 -5.3647919 -9.8943367 7
-0.34530601 -5.3972101 -9.172636 7
-0.48749799 -7.196373 -10.120762 7
-0.229623 4.0203791 -7.263763 7
-0.262546 3.92219 -7.6963272 7
-0.172337 -1.986725 -6.7537141 7
-0.40555301 -5.2409439 -7.681119 7
-0.095899001 0.837906 -6.2632341 7
-0.108539 -1.62684 -5.738503 7
-0.107169 -1.817994 -5.6669269 7
-0.114487 -2.0371261 -5.6561661 7
-0.058230001 0.89428103 -5.4650512 7
-0.067233004 0.72413099 -5.5688338 7
-0.086420998 -1.734865 -5.0969958 7
-0.069913998 -1.704735 -4.6249409 7
-0.078819998 -1.884959 -4.6166692 7
-0.325046 -4.9079528 -4.5898571 7
-0.314821 -5.0080581 -4.3557739 7
-0.047377001 -1.7487431 -3.869477 7
-0.057689 -1.904295 -3.8548861 7
-0.070894003 -1.718713 -3.590523 7
-0.077592999 -1.847371 -3.552469 7
-0.056839 -1.675494 -3.328835 7
-0.072719 -1.8241791 -3.326694 7
-0.054441001 -1.644599 -3.1546249 7
-0.064396001 -1.765112 -3.1262579 7
-0.062753998 -1.845893 -3.049988 7
-0.047398999 -1.620077 -2.963773 7
-0.050693002 -1.710199 -2.9101701 7
-0.053907 -1.7986619 -2.852191 7
-0.039749 -1.645062 -2.739749 7
-0.050779 -1.752535 -2.706821 7
-0.055383001 -1.837762 -2.6494751 7
-0.081070997 -1.903356 -2.5738699 7
-0.054212999 -1.603843 -2.57425 7
-0.02751 -1.751225 -1.892715 7
-0.045871999 -1.775844 -1.8164361 7
-0.047385 -1.812809 -1.744897 7
-0.044002999 -1.836059 -1.647715 7
-0.032393999 -1.627552 -1.839862 7
-0.03097 -1.654816 -1.770979 7
-0.034260001 -1.695268 -1.706267 7
-0.023444001 -1.68458 -1.625676 7
