# .PCD v0.7 - Point Cloud Data file format
VERSION 0.7
FIELDS x y z intensity
SIZE 4 4 4 4
TYPE F F F F
COUNT 1 1 1 1
WIDTH 835
HEIGHT 1
VIEWPOINT 0 0 0 1 0 0 0
POINTS 835
DATA ascii
1.799194 52.268539 3.7910161 7
1.575211 45.744633 7.874023 7
1.5755 45.753735 7.765625 7
1.571472 46.14547 7.4863281 7
0.78112799 5.4553008 73.950195 7
0.78801 5.6007309 73.599609 7
0.764099 9.0308361 74.84668 7
1.476364 43.433342 7.9746089 7
1.4742889 43.587532 7.8925781 7
1.474686 43.590851 7.7880859 7
1.472702 43.738976 7.704102 7
0.62853998 1.429855 70.073242 7
0.59304798 1.6289411 71.649414 7
0.566055 1.825846 72.850586 7
0.53292799 2.2087801 74.333984 7
0.68762201 4.5156288 67.595703 7
0.66140699 4.7549801 68.759766 7
0.66516101 4.9032569 68.595703 7
1.368759 41.671707 8.3105469 7
1.372223 41.520157 8.1855469 7
1.373322 41.489605 8.0810547 7
1.369781 41.695946 8.0117188 7
0.53683501 1.040157 66.666992 7
0.51187098 1.2128299 67.665039 7
0.62458801 3.928019 63.486328 7
0.62634301 4.0710392 63.417969 7
0.58819598 4.3217978 64.939453 7
0.59303302 5.363379 64.75 7
0.62130702 5.416256 63.624023 7
1.297729 39.863388 8.21875 7
1.295349 39.994492 8.1435547 7
1.29155 40.189293 8.0791016 7
0.52159101 0.39236999 60.024414 7
0.484009 0.54308701 61.357422 7
0.452591 0.69761801 62.474609 7
0.413528 0.861103 63.860352 7
0.54498303 3.404089 59.30957 7
0.54724097 3.536634 59.231445 7
0.51657099 3.7427859 60.314453 7
0.53280598 5.3709621 59.731445 7
0.56228602 5.411407 58.6875 7
0.55398601 5.5762668 58.978516 7
0.53782701 8.6989212 59.541016 7
1.214493 38.093872 8.5566406 7
1.2151181 38.093372 8.4648438 7
1.214859 38.126858 8.3769531 7
1.210938 38.304352 8.3164062 7
0.45768699 0.092743002 56.773438 7
0.414505 0.22902299 58.165039 7
0.38374299 0.36978099 59.160156 7
0.33949301 0.51881802 60.586914 7
0.48193401 2.9389341 56.089844 7
0.49798599 3.0397551 55.574219 7
0.45605499 3.2471409 56.922852 7
0.481888 5.277225 56.063477 7
0.50790399 5.3245578 55.223633 7
0.49800101 5.4848251 55.538086 7
0.521088 5.5366249 54.791016 7
0.45813 8.5164909 56.639648 7
0.47938499 8.5423365 55.950195 7
0.50151098 8.559866 55.229492 7
1.141922 36.578171 8.5615234 7
1.143723 36.537277 8.4638672 7
1.142258 36.611202 8.3876953 7
1.135712 36.86306 8.3447266 7
1.146378 37.178417 4.9130859 7
1.146347 37.191887 4.8251948 7
0.382599 -0.148893 53.608398 7
0.35940599 -0.025645999 54.289062 7
0.32954401 0.101002 55.160156 7
0.440079 2.491348 52.029297 7
0.460648 2.5806601 51.433594 7
0.462479 2.696239 51.379883 7
0.48828101 2.7727449 50.631836 7
0.47416699 5.2799211 51.088867 7
0.49006701 5.4652181 50.616211 7
0.46112099 8.4170971 51.235352 7
0.48471099 8.4192181 50.540039 7
1.083527 34.540707 8.5820312 7
1.084427 34.534481 8.4960938 7
1.082214 34.625324 8.4287109 7
1.0802 34.710518 8.3603516 7
0.45072901 4.9526229 47.006836 7
0.43481401 5.1073761 47.418945 7
0.45756501 5.1489658 46.814453 7
0.40801999 8.0728226 47.875977 7
0.42897001 8.0872154 47.314453 7
0.443726 8.1276703 46.915039 7
0.46246299 8.1477776 46.413086 7
1.012924 32.779949 8.9541016 7
1.0153199 32.734665 8.8623047 7
1.017105 32.70607 8.7744141 7
1.0144041 32.803421 8.7158203 7
0.40766901 4.5962729 43.680664 7
0.42692599 4.645885 43.216797 7
0.41418499 4.7795792 43.512695 7
0.43685901 4.8171811 42.967773 7
0.354965 7.833508 44.647461 7
0.38172901 7.8205242 44.000977 7
0.405792 7.8161411 43.418945 7
0.42646801 7.8243518 42.916992 7
0.94783002 30.961735 8.9189453 7
0.94459498 31.064808 8.8671885 7
0.94654799 31.036413 8.7822266 7
0.94512898 31.093493 8.71875 7
0.37916601 4.5539799 40.751953 7
0.391891 4.6148968 40.46875 7
0.41340601 4.6511779 39.993164 7
0.33517501 7.628819 41.397461 7
0.355591 7.6392379 40.944336 7
0.38838199 7.68718 40.207031 7
0.884552 30.294373 5.7294922 7
0.886917 30.252014 5.6503911 7
0.89474499 30.081978 5.554688 7
0.89091498 30.184378 5.4970698 7
0.37422201 4.186666 37.507812 7
0.35112 4.3268991 37.962891 7
0.37428299 4.3579249 37.493164 7
0.30717501 7.358871 38.504883 7
0.32132 7.391449 38.213867 7
0.345016 7.3839989 37.732422 7
0.82815599 28.737247 5.7080078 7
0.83047497 28.700792 5.6337891 7
0.823502 28.860956 5.5878911 7
0.815979 29.032808 5.5429692 7
0.80821198 29.210308 5.4980469 7
0.28866601 1.1445349 36.666992 7
0.291962 1.225916 36.605469 7
0.28425601 1.3146549 36.749023 7
0.33892801 4.040731 35.623047 7
0.31152299 4.183054 36.124023 7
0.27735901 7.1058288 36.416016 7
0.26879901 7.2215519 36.55957 7
0.28363001 7.2486401 36.273438 7
0.302856 7.2576008 35.907227 7
0.32177699 7.2661209 35.546875 7
-1.078339 -0.98440701 -60.348633 7
-1.164871 -1.160086 -61.972656 7
-1.057083 -1.266964 -59.927734 7
-1.145782 -1.450188 -61.589844 7
-1.235458 -1.641764 -63.269531 7
0.25676 1.153318 34.319336 7
0.33172601 4.0323939 32.944336 7
0.268112 6.9497552 33.658203 7
0.266922 7.0308762 33.665039 7
0.29069501 7.0957222 33.238281 7
0.30036899 7.1349158 33.0625 7
-1.001877 -0.489443 -54.241211 7
-1.053589 -0.63063598 -55.133789 7
-1.023026 -0.75658202 -54.594727 7
-1.036804 -0.89250797 -54.827148 7
-1.103653 -1.046232 -55.981445 7
-0.894135 -3.879499 -52.069336 7
-0.883362 -3.9909649 -51.867188 7
-0.895477 -4.1323342 -52.060547 7
-0.877289 -4.2325668 -51.729492 7
-0.883362 -4.3658199 -51.818359 7
0.24176 0.78679502 32.217773 7
0.237091 0.86163503 32.291016 7
0.28190601 3.844044 31.481445 7
0.243652 6.821764 31.679688 7
0.241638 6.901154 31.698242 7
0.25349399 6.930891 31.500977 7
-0.98704499 0.294415 -47.277344 7
-1.030014 0.181456 -47.9375 7
-0.78826898 -2.989202 -45.96582 7
-0.78233302 -3.0942149 -45.859375 7
-0.890625 -3.4377041 -47.552734 7
-0.87042201 -4.0994568 -47.147461 7
-0.81445301 -4.1360302 -46.24707 7
-0.84086603 -4.2852778 -46.649414 7
-0.778992 -4.3079009 -45.655273 7
-0.73551899 -4.3532958 -44.953125 7
0.22934 0.59814298 30.010742 7
0.26193199 3.4521689 29.444336 7
0.26458699 3.5801771 29.393555 7
0.27386501 3.629066 29.251953 7
0.29029801 3.6632769 29.006836 7
0.26937899 3.7700181 29.304688 7
0.27665699 3.8216879 29.191406 7
0.230682 6.7360692 29.427734 7
0.243515 6.7580452 29.229492 7
0.244583 6.886786 29.185547 7
0.60911602 22.782707 9.3535156 7
0.60847503 22.812336 9.3037109 7
-0.75639302 0.80869299 -43.723633 7
-0.79176301 0.70987302 -44.269531 7
-0.827896 0.60868597 -44.826172 7
-0.88562 0.50851101 -45.71582 7
-0.93878198 0.403606 -46.53418 7
-0.68705702 -2.2876151 -41.384766 7
-0.75060999 -2.440912 -42.317383 7
-0.72021502 -2.5171721 -41.856445 7
-0.76571703 -2.6600399 -42.521484 7
-0.78704798 -4.0274558 -42.677734 7
-0.72981298 -4.0511112 -41.818359 7
-0.76988202 -4.2096272 -42.397461 7
-0.73117101 -4.2557702 -41.810547 7
-1.928467 -55.424187 12.038086 7
-1.8892061 -54.865669 12.06543 7
0.211334 0.498997 28.513672 7
0.20463599 0.56493199 28.604492 7
0.206238 0.62807798 28.609375 7
0.255447 3.4354291 27.799805 7
0.26089501 3.612978 27.706055 7
0.201187 6.4764309 28.09082 7
0.18486001 6.593636 28.296875 7
0.193436 6.6290112 28.166992 7
0.20539901 6.6522732 27.993164 7
0.214798 6.6836448 27.852539 7
0.220871 6.7261872 27.758789 7
0.57253999 22.735495 6 7
-0.76048303 0.96658897 -42.65625 7
-0.78741503 0.87039602 -43.056641 7
-0.83158898 0.77684402 -43.711914 7
-0.867935 0.67872 -44.250977 7
-0.93174702 0.58285898 -45.198242 7
-0.988083 0.48159 -46.03418 7
-1.029572 0.37454799 -46.649414 7
-0.59609997 -1.4490891 -35.490234 7
-0.70607001 -4.0000081 -38.214844 7
-0.68572998 -4.1563258 -37.911133 7
-0.67533898 -4.2329268 -37.755859 7
-0.65173298 -4.28895 -37.419922 7
-1.635147 -47.638748 11.477539 7
-1.576828 -46.884239 11.432617 7
-1.53772 -46.369499 11.436523 7
0.209106 0.35043001 26.629883 7
0.20053101 0.41188401 26.740234 7
0.20292699 0.47121799 26.709961 7
0.194351 0.533131 26.819336 7
0.19995099 0.59177798 26.749023 7
0.235962 3.2303431 26.179688 7
0.243378 3.276726 26.079102 7
0.21935999 3.3765509 26.37793 7
0.23632801 3.4058931 26.15625 7
0.24191301 3.4549179 26.079102 7
0.174026 6.4641209 26.458984 7
0.18594401 6.4849072 26.295898 7
0.195282 6.5728531 26.15332 7
0.188629 6.6538639 26.222656 7
0.55110198 21.202026 6.367188 7
0.55163598 21.207815 6.3164058 7
0.55436701 21.184944 6.2587891 7
0.55667102 21.167627 6.202148 7
0.55632001 21.184282 6.1533198 7
0.55029303 21.274923 6.1201172 7
0.54032898 21.417326 6.0986328 7
-0.653427 1.660864 -36.310547 7
-0.68624902 1.5894639 -36.750977 7
-0.71299702 1.512674 -37.110352 7
-0.75195301 1.440044 -37.633789 7
-0.786102 1.363041 -38.091797 7
-0.822891 1.284834 -38.585938 7
-0.623474 -1.3315049 -34.773438 7
-0.60502601 -1.406981 -34.53125 7
-0.632568 -1.506466 -34.87793 7
-0.671799 -3.9368589 -35.112305 7
-0.66883898 -4.0181122 -35.060547 7
-0.66084301 -4.0920281 -34.946289 7
-0.62069702 -4.2021408 -34.411133 7
0.171661 0.156506 25.529297 7
0.17324799 0.213524 25.512695 7
0.18504301 0.26914799 25.373047 7
0.178314 0.32693899 25.454102 7
0.179398 0.38334101 25.441406 7
0.182907 0.43937099 25.398438 7
0.191772 0.49404699 25.292969 7
0.15361001 6.3395748 25.082031 7
-0.71238703 1.704958 -36.003906 7
-0.744385 1.6345921 -36.416992 7
-0.78271502 1.5657409 -36.910156 7
-0.81608599 1.491871 -37.338867 7
-0.56364399 -0.98088598 -31.486328 7
-0.529037 -1.044716 -31.070312 7
-0.56256098 -1.135008 -31.462891 7
-0.53971899 -1.201984 -31.1875 7
-0.54187 -1.279388 -31.206055 7
-0.61381501 -3.815773 -31.780273 7
-0.80532801 -7.2029762 -33.416992 7
-0.79325902 -7.2546921 -33.256836 7
-0.78166199 -7.3070488 -33.102539 7
0.160477 0.044888999 23.99707 7
0.16684 0.098151997 23.927734 7
0.175827 0.15040199 23.828125 7
0.172272 0.20396399 23.869141 7
0.174988 0.256823 23.839844 7
0.174545 0.30993301 23.844727 7
0.158112 6.263763 23.325195 7
0.16653401 6.2897949 23.22168 7
0.17027301 6.3296571 23.166992 7
0.16832 6.3876572 23.174805 7
-0.57745397 2.316545 -30.405273 7
-0.59007299 2.2510829 -30.555664 7
-0.60223401 2.184258 -30.701172 7
-0.51013201 -1.319141 -28.682617 7
-0.504013 -1.3864419 -28.609375 7
-0.498932 -1.45406 -28.546875 7
-0.48863199 -1.5185339 -28.427734 7
-0.478836 -1.582651 -28.3125 7
-0.54377699 -3.682734 -28.783203 7
-0.59188801 -3.8195651 -29.299805 7
-0.76982099 -7.0921969 -30.62207 7
-1.017532 -32.278042 9.9824219 7
-1.051193 -32.594997 10.150391 7
-1.048569 -32.545998 10.219727 7
-1.015244 -32.187599 10.205078 7
-0.99195898 -31.930611 10.21582 7
-0.96084601 -31.595406 10.203125 7
0.15086401 0.041437 22.680664 7
0.15263399 0.091835 22.664062 7
0.156616 0.14163201 22.623047 7
0.15672299 0.19178601 22.623047 7
0.15681501 0.241791 22.62207 7
0.159134 0.29174 22.598633 7
0.20175201 2.8842349 22.029297 7
0.202957 2.931288 22.010742 7
0.20805401 2.972363 21.952148 7
0.20094299 3.0321219 22.020508 7
0.203262 3.0773599 21.990234 7
0.203934 3.125195 21.978516 7
0.212906 3.159441 21.878906 7
0.13537601 6.1300092 22.12207 7
0.14212 6.158895 22.040039 7
0.147202 6.1923051 21.974609 7
0.151199 6.2290168 21.921875 7
0.15298501 6.2726498 21.891602 7
0.14424101 6.3484268 21.96582 7
0.40766901 17.179974 9.8994141 7
0.40669301 17.210388 9.8632812 7
0.40681499 17.230242 9.8242188 7
0.409073 17.228775 9.7724609 7
0.410263 17.237772 9.7265615 7
-0.51501501 -3.539171 -26.519531 7
-0.51651001 -3.671911 -26.513672 7
-0.50994903 -3.727917 -26.43457 7
-0.760162 -6.8212471 -28.407227 7
-0.75531 -6.879509 -28.339844 7
-0.74142498 -6.915987 -28.181641 7
-0.735443 -6.9708862 -28.103516 7
-0.74511701 -26.054874 13.138672 7
-0.73568702 -25.941887 13.163086 7
-0.59391803 2.504164 -26.543945 7
-0.589432 2.4336259 -26.504883 7
-0.45500201 -3.1875739 -24.276367 7
-0.49766499 -3.3001709 -24.678711 7
-0.483459 -3.3431821 -24.530273 7
-0.47944599 -3.398905 -24.482422 7
-0.51254302 -3.502542 -24.791992 7
-0.734451 -6.7394218 -26.277344 7
-0.72564697 -6.7834382 -26.176758 7
-0.71324199 -6.8184552 -26.042969 7
-0.741669 -6.9499798 -26.290039 7
-0.74426299 -7.0207372 -26.295898 7
-0.752258 -25.744884 9.7607422 7
-0.74356103 -25.647633 9.7958984 7
-0.75945997 -25.765434 9.9033203 7
-0.48593101 2.8079491 -23.78418 7
-0.475052 2.7364581 -23.686523 7
-0.43808001 -2.918848 -22.560547 7
-0.431229 -2.9669631 -22.489258 7
-0.46197501 -3.0583611 -22.759766 7
-0.44700599 -3.15345 -22.605469 7
-0.45672601 -3.22139 -22.68457 7
-0.46023601 -3.338428 -22.697266 7
-0.462311 -3.3972549 -22.706055 7
-0.456085 -3.445528 -22.640625 7
-0.69500703 -6.4213772 -24.188477 7
-0.71246302 -6.5203719 -24.324219 7
-0.70756501 -6.569159 -24.263672 7
-0.693039 -6.595818 -24.120117 7
-0.68298298 -6.6316929 -24.012695 7
-0.683182 -6.691473 -23.99707 7
-0.69161999 -23.648254 9.3222656 7
-0.69676203 -23.609745 9.5615234 7
-0.68013 -23.453178 9.5683594 7
-0.54579198 -20.783939 12.597656 7
-0.53848302 -20.701111 12.616211 7
-0.53320301 -20.633621 12.642578 7
-0.52992201 -20.581177 12.677734 7
-0.52596998 -20.523933 12.709961 7
-0.495956 2.870281 -22.323242 7
-0.50250202 2.8204689 -22.388672 7
-0.52327001 2.7849879 -22.579102 7
-0.52334601 2.7277761 -22.586914 7
-0.47363299 2.6210771 -22.147461 7
-0.470474 2.561718 -22.124023 7
-0.422012 -2.890902 -21.067383 7
-0.428238 -2.950449 -21.112305 7
-0.445923 -3.0233691 -21.254883 7
-0.427856 -3.055222 -21.091797 7
-0.419907 -3.0983009 -21.015625 7
-0.45378101 -3.1916411 -21.294922 7
-0.43977401 -3.2276061 -21.166992 7
-0.43250999 -3.2713301 -21.095703 7
-0.44547999 -3.3401999 -21.197266 7
-0.40696701 -2.9076331 -19.636719 7
-0.39566001 -2.943722 -19.536133 7
-0.38795501 -2.9838181 -19.466797 7
-0.41957101 -3.069849 -19.711914 7
-0.40826401 -3.105597 -19.612305 7
-0.40911901 -3.1558089 -19.611328 7
-0.40425101 -3.1989419 -19.563477 7
-0.63270599 -6.1073151 -20.755859 7
-0.652237 -6.2016139 -20.892578 7
-0.65742499 -6.2648702 -20.916016 7
-0.64683503 -6.2934089 -20.817383 7
-0.64198297 -6.3342419 -20.762695 7
-0.63569599 -6.3717461 -20.698242 7
-0.385773 3.1784019 -18.74707 7
-0.39308199 3.1391561 -18.811523 7
-0.40618899 3.106564 -18.921875 7
-0.415649 3.0690751 -19.003906 7
-0.43092301 3.037998 -19.131836 7
-0.45344499 3.014847 -19.316406 7
-0.45712301 2.9693639 -19.353516 7
-0.37739599 -2.897022 -18.225586 7
-0.413086 -2.9839799 -18.488281 7
-0.39733899 -3.0122781 -18.361328 7
-0.39445499 -3.0548761 -18.331055 7
-0.40820301 -3.1174619 -18.426758 7
-0.41136199 -3.167624 -18.442383 7
-0.62777698 -6.0988851 -19.399414 7
-0.63323998 -6.1590819 -19.422852 7
-0.625229 -6.2382069 -19.333008 7
-0.62764001 -6.2916551 -19.333984 7
-0.63388097 -6.3542042 -19.363281 7
-0.47161901 -17.902607 9.0898438 7
-0.462219 -17.820168 9.1054688 7
-0.45597801 -17.759243 9.1289062 7
-0.44737199 -17.682377 9.1455078 7
-0.445862 -17.653282 9.1826172 7
-0.45147699 -17.671803 9.2412109 7
-0.34800699 -2.6203499 -16.955078 7
-0.347702 -2.7912409 -16.921875 7
-0.59826702 -6.1526222 -17.90332 7
-0.60163897 -6.2050271 -17.911133 7
-0.35292101 3.396374 -16.253906 7
-0.348923 3.3485739 -16.234375 7
-0.346558 3.303057 -16.224609 7
-0.355499 3.2725389 -16.293945 7
-0.34285 -2.6017361 -15.978516 7
-0.336243 -2.6354499 -15.926758 7
-0.333832 -2.6733251 -15.90332 7
-0.33226001 -2.7120841 -15.884766 7
-0.35426301 -2.7763159 -16.026367 7
-0.35438499 -2.8172131 -16.019531 7
-0.35199001 -2.8550889 -15.996094 7
-0.347031 -2.8899081 -15.954102 7
-0.57008398 -5.7812672 -16.755859 7
-0.57783502 -5.8399329 -16.791992 7
-0.58558702 -5.8986969 -16.827148 7
-0.59080499 -5.9523869 -16.84668 7
-0.58165002 -5.974915 -16.770508 7
-0.58009303 -6.0136971 -16.745117 7
-0.57769799 -6.0506458 -16.714844 7
-0.69653302 -7.6901398 -16.90918 7
-0.69247401 -7.7216868 -16.864258 7
-0.68838501 -7.7529411 -16.818359 7
-0.68768299 -7.793354 -16.793945 7
-0.69715899 -7.8615651 -16.834961 7
-0.70338398 -7.9633522 -16.833984 7
-0.35885599 3.517014 -15.339844 7
-0.33766201 3.447495 -15.207031 7
-0.33854699 3.4090121 -15.219727 7
-0.34794599 3.3817999 -15.290039 7
-0.34970099 3.3439901 -15.30957 7
-0.35485801 3.310627 -15.351562 7
-0.36851501 3.2880731 -15.449219 7
-0.38133201 3.2637861 -15.542969 7
-0.37882999 3.220154 -15.532227 7
-0.29820299 0.30442801 -15.929688 7
-0.29829401 0.26394701 -15.930664 7
-0.29502901 0.223103 -15.907227 7
-0.293457 0.18256199 -15.896484 7
-0.289352 0.141844 -15.868164 7
-0.29365501 0.101475 -15.897461 7
-0.29628 0.061168998 -15.915039 7
-0.30810499 0.02084 -15.995117 7
-0.32206699 -2.5670171 -14.961914 7
-0.32217401 -2.6050799 -14.955078 7
-0.31520101 -2.6358681 -14.904297 7
-0.34809899 -2.7092171 -15.108398 7
-0.34465 -2.74371 -15.078125 7
-0.33944699 -2.7763629 -15.037109 7
-0.33248901 -2.8070011 -14.985352 7
-0.35386699 -2.8694711 -15.115234 7
-0.57157898 -5.815702 -15.75 7
-0.57617199 -5.8652992 -15.763672 7
-0.57008398 -5.8922348 -15.710938 7
-0.56133997 -5.9132419 -15.642578 7
-0.55880702 -5.9472618 -15.612305 7
-0.55448902 -5.9771628 -15.570312 7
-0.55996698 -6.0285969 -15.587891 7
-0.30380201 -2.5677049 -14.050781 7
-0.30577099 -2.6055579 -14.054688 7
-0.32165501 -2.6585219 -14.145508 7
-0.31805399 -2.690752 -14.116211 7
-0.320023 -2.72912 -14.121094 7
-0.31549099 -2.760195 -14.085938 7
-0.32395899 -2.8058319 -14.130859 7
-0.330551 -2.849453 -14.163086 7
-0.54425001 -5.7780252 -14.660156 7
-0.55090302 -5.8293629 -14.683594 7
-0.54264802 -5.8490639 -14.621094 7
-0.539047 -5.87854 -14.585938 7
-0.53356898 -5.9036522 -14.539062 7
-0.529037 -5.930624 -14.49707 7
-0.53476 -5.9802208 -14.515625 7
-0.55633497 -6.0650501 -14.625 7
-0.29843101 -2.6060281 -13.228516 7
-0.299606 -2.6754701 -13.22168 7
-0.296783 -2.706362 -13.198242 7
-0.320328 -2.766428 -13.327148 7
-0.325302 -2.8062 -13.348633 7
-0.32150301 -2.8362081 -13.319336 7
-0.52278101 -5.768259 -13.636719 7
-0.52191198 -5.8010669 -13.617188 7
-0.519104 -5.8299642 -13.587891 7
-0.51725799 -5.8606362 -13.561523 7
-0.53013599 -5.9234748 -13.618164 7
-0.53318799 -5.96492 -13.619141 7
-0.537247 -6.0087428 -13.626953 7
-0.54069501 -6.0476952 -13.623047 7
-0.29626501 3.6883979 -12.460938 7
-0.29533401 3.6533389 -12.463867 7
-0.29536399 3.620234 -12.472656 7
-0.29344201 3.5839839 -12.469727 7
-0.22547901 0.44679099 -12.476562 7
-0.21864299 0.37885299 -12.438477 7
-0.218674 0.34575099 -12.438477 7
-0.26773101 -2.264256 -12.448242 7
-0.27090499 -2.299355 -12.459961 7
-0.270996 -2.3318291 -12.455078 7
-0.27619901 -2.3690619 -12.477539 7
-0.26812699 -2.3934901 -12.426758 7
-0.27128601 -2.4289551 -12.4375 7
-0.27035499 -2.4598811 -12.424805 7
-0.29495201 -2.517153 -12.554688 7
-0.29095501 -2.5454521 -12.525391 7
-0.28309599 -2.634407 -12.462891 7
-0.50715601 -5.7057042 -12.785156 7
-0.50727803 -5.7388148 -12.771484 7
-0.61183202 -7.3616519 -12.620117 7
-0.613998 -7.3996582 -12.612305 7
-0.61001599 -7.4214592 -12.574219 7
-0.61221302 -7.4598579 -12.567383 7
-0.61129802 -7.4896278 -12.543945 7
-0.607315 -7.5110278 -12.504883 7
-0.60641497 -7.5408249 -12.482422 7
-0.609604 -7.5815201 -12.478516 7
-0.62823498 -7.6644859 -12.551758 7
-0.312271 3.8350141 -11.844727 7
-0.28866601 3.767031 -11.725586 7
-0.27944899 3.7214451 -11.68457 7
-0.28154001 3.6930981 -11.704102 7
-0.286713 3.6693549 -11.740234 7
-0.29190099 3.64522 -11.777344 7
-0.296051 3.619648 -11.807617 7
-0.298141 3.590935 -11.827148 7
-0.30743399 3.5723529 -11.885742 7
-0.320847 3.559479 -11.966797 7
-0.32087699 3.5275249 -11.973633 7
-0.22462501 0.61830699 -11.838867 7
-0.223694 0.55424702 -11.835938 7
-0.218582 0.52135801 -11.808594 7
-0.209351 0.487703 -11.757812 7
-0.209396 0.45603901 -11.758789 7
-0.213562 0.42501801 -11.782227 7
-0.21359301 0.393381 -11.782227 7
-0.219818 0.362665 -11.818359 7
-0.24911501 -2.259691 -11.665039 7
-0.25562999 -2.2961881 -11.692383 7
-0.243927 -2.315531 -11.624023 7
-0.24617 -2.3479121 -11.629883 7
-0.24839801 -2.380419 -11.635742 7
-0.25705001 -2.4192941 -11.675781 7
-0.272156 -2.465055 -11.749023 7
-0.270096 -2.493269 -11.731445 7
-0.26376301 -2.517365 -11.69043 7
-0.26385501 -2.547981 -11.685547 7
-0.48176599 -5.4743729 -11.948242 7
-0.48295599 -5.5075798 -11.939453 7
-0.49275199 -5.55896 -11.974609 7
-0.487488 -5.5788879 -11.93457 7
-0.48329201 -5.6010151 -11.900391 7
-0.482483 -5.62709 -11.875977 7
-0.48153701 -5.6558971 -11.857422 7
-0.481644 -5.6866322 -11.842773 7
-0.48390201 -5.7220922 -11.84082 7
-0.57220501 -7.3585238 -11.500977 7
-0.57663 -7.4000702 -11.501953 7
-0.58105499 -7.4417691 -11.504883 7
-0.20710801 0.612679 -11.100586 7
-0.203918 0.58180201 -11.084961 7
-0.19854701 0.550497 -11.056641 7
-0.19967701 0.52075797 -11.064453 7
-0.19972201 0.490679 -11.06543 7
-0.19436599 0.459497 -11.038086 7
-0.194397 0.42969099 -11.038086 7
-0.197678 0.40041 -11.056641 7
-0.199875 0.37066799 -11.068359 7
-0.196686 0.34018901 -11.051758 7
-0.23745701 -2.264416 -11.018555 7
-0.22859199 -2.284946 -10.967773 7
-0.23204 -2.317085 -10.978516 7
-0.22764599 -2.3414841 -10.950195 7
-0.24227899 -2.384645 -11.018555 7
-0.25354001 -2.424644 -11.069336 7
-0.24916101 -2.449316 -11.041016 7
-0.248138 -2.4771919 -11.029297 7
-0.250458 -2.5083239 -11.03418 7
-0.25164801 -2.53845 -11.033203 7
-0.47590601 -5.5435328 -11.193359 7
-0.46814001 -5.5565701 -11.142578 7
-0.469376 -5.5882168 -11.134766 7
-0.46946701 -5.6173921 -11.12207 7
-0.46733099 -5.641777 -11.098633 7
-0.471939 -5.6804051 -11.105469 7
-0.48101801 -5.729136 -11.132812 7
-0.19302399 0.61254901 -10.472656 7
-0.181793 0.58122998 -10.416992 7
-0.182953 0.55283397 -10.423828 7
-0.184128 0.52470797 -10.430664 7
-0.200333 0.338379 -11.083008 7
-0.222321 -2.263449 -10.395508 7
-0.21656799 -2.28511 -10.360352 7
-0.235321 -2.3306389 -10.445312 7
-0.247086 -2.3696799 -10.496094 7
-0.236664 -2.386986 -10.439453 7
-0.24142499 -2.4191489 -10.456055 7
-0.24034099 -2.4455869 -10.445312 7
-0.255676 -2.516464 -10.504883 7
-0.259262 -2.5477469 -10.515625 7
-0.46926901 -5.4579959 -10.549805 7
-0.47171 -5.4906201 -10.546875 7
-0.46243301 -5.4991441 -10.492188 7
-0.46371499 -5.5293241 -10.484375 7
-0.46264601 -5.5544429 -10.46582 7
-0.46156299 -5.5795569 -10.446289 7
-0.45579499 -5.5945868 -10.407227 7
-0.46060199 -5.6323848 -10.415039 7
-0.46656799 -5.6723838 -10.427734 7
-0.47486901 -5.7176628 -10.450195 7
-0.47850001 -5.7528458 -10.451172 7
-0.45507801 -5.4612732 -9.859375 7
-0.453949 -5.4848042 -9.8408203 7
-0.44915801 -5.5008621 -9.8076172 7
-0.45414701 -5.537292 -9.8144531 7
-0.43835399 -5.5298772 -9.7363281 7
-0.44702101 -5.573925 -9.7578115 7
-0.45201099 -5.610477 -9.7646484 7
-0.460648 -5.654623 -9.7871094 7
-0.45341501 -5.6648898 -9.7431641 7
-0.46084601 -5.7069612 -9.7597656 7
-0.458496 -5.7275329 -9.7363281 7
-0.548141 -7.2549591 -9.265625 7
-0.54946899 -7.2828941 -9.2529297 7
-0.195023 -2.243078 -9.2402344 7
-0.191269 -2.2640669 -9.2167969 7
-0.52271998 -7.0512242 -8.5693359 7
-0.51770002 -7.0609512 -8.5332031 7
-0.51524401 -7.0772929 -8.5068359 7
-0.51534998 -7.1003718 -8.4902344 7
-0.51544201 -7.1233058 -8.4726562 7
-0.51683003 -7.1498032 -8.4609385 7
-0.516922 -7.1727328 -8.4433594 7
-0.52214098 -7.2090912 -8.4433594 7
-0.522232 -7.232048 -8.4277344 7
-0.53257799 -7.282341 -8.4462891 7
-0.539078 -7.3223839 -8.4521484 7
-0.54303002 -7.355957 -8.4482422 7
-0.13996901 0.73656797 -8.3076172 7
-0.140091 0.64258999 -8.3134766 7
-0.141449 0.61962497 -8.3193359 7
-0.404816 -5.300262 -7.9951172 7
-0.39938399 -5.3108392 -7.9628911 7
-0.39945999 -5.3325391 -7.9492192 7
-0.399643 -5.375843 -7.9238281 7
-0.40248099 -5.4032989 -7.920898 7
-0.405334 -5.430758 -7.9169922 7
-0.487656 -7.0471759 -7.139648 7
-0.49191299 -7.0779152 -7.1357422 7
-0.493393 -7.1014562 -7.1230469 7
-0.50456202 -7.1505809 -7.140625 7
-0.50882 -7.1816831 -7.1367192 7
-0.51446497 -7.2164421 -7.1367192 7
-0.51733398 -7.2436142 -7.1279302 7
-0.51881403 -7.2671552 -7.1152339 7
-0.518906 -7.2870331 -7.0986328 7
-0.52037001 -7.3101501 -7.0839839 7
-0.52186602 -7.333931 -7.0712891 7
-0.39399701 -5.1373959 -7.5644531 7
-0.39120501 -5.1523862 -7.5429692 7
-0.389862 -5.170454 -7.5263672 7
-0.39280701 -5.1966629 -7.5214839 7
-0.394333 -5.22049 -7.515625 7
-0.39296001 -5.238287 -7.4980469 7
-0.38587999 -5.24435 -7.460938 7
-0.38597101 -5.2648301 -7.4482422 7
-0.38604701 -5.2854581 -7.4355469 7
-0.38899201 -5.311789 -7.4316411 7
-0.38906899 -5.3322682 -7.4189448 7
-0.38772601 -5.3496971 -7.4013672 7
-0.389236 -5.373251 -7.3935552 7
-0.39363101 -5.4028049 -7.3955078 7
-0.400879 -5.4380679 -7.40625 7
-0.37907401 -5.1227131 -7.0380859 7
-0.388107 -5.16046 -7.054688 7
-0.38818401 -5.1801128 -7.0429692 7
-0.39271501 -5.2083912 -7.0439448 7
-0.39280701 -5.2280431 -7.032227 7
-0.38096601 -5.223352 -6.9814448 7
-0.38403299 -5.2488561 -6.9785161 7
-0.38857999 -5.2775269 -6.9794922 7
-0.38121 -5.281641 -6.9433589 7
-0.379807 -5.297852 -6.9257808 7
-0.37988299 -5.3171101 -6.9130859 7
-0.390396 -5.3581219 -6.9335942 7
-0.38450599 -5.3650379 -6.9013672 7
-0.39204401 -5.3999252 -6.9121089 7
-0.474197 -6.9183331 -6.0585942 7
-0.47877499 -6.9472051 -6.054688 7
-0.47139001 -6.9449201 -6.0175781 7
-0.461014 -6.934608 -5.9726558 7
-0.45813 -6.944025 -5.9482422 7
-0.462677 -6.9727478 -5.9423828 7
-0.47023001 -7.0092769 -5.9462891 7
-0.46285999 -7.0066452 -5.9101558 7
-0.46293601 -7.0234451 -5.8925781 7
-0.37879899 -5.1417332 -6.601562 7
-0.380402 -5.1634269 -6.592773 7
-0.378952 -5.1789341 -6.577148 7
-0.37284899 -5.184607 -6.5439448 7
-0.37138399 -5.1998391 -6.5273442 7
-0.36683699 -5.208858 -6.500977 7
-0.37153599 -5.2366729 -6.5029302 7
-0.370087 -5.2519069 -6.485352 7
-0.373245 -5.2765541 -6.4824219 7
-0.36868301 -5.285028 -6.4550781 7
-0.37029999 -5.3066268 -6.4472661 7
-0.381165 -5.3471198 -6.4667969 7
-0.393585 -5.3914151 -6.4912109 7
-0.39521801 -5.4128652 -6.483398 7
-0.38913 -5.4182 -6.452148 7
-0.39074701 -5.4396501 -6.4433589 7
-0.45573401 -6.9276428 -5.4326172 7
-0.46044901 -6.9558749 -5.4277339 7
-0.46516401 -6.9837379 -5.421875 7
-0.474518 -7.024014 -5.4287109 7
-0.469971 -7.027576 -5.4003911 7
-0.46696499 -7.0350151 -5.375977 7
-0.371521 -5.1341882 -6.1230469 7
-0.368393 -5.1450329 -6.101562 7
-0.36526501 -5.1560001 -6.0800781 7
-0.36054999 -5.1636791 -6.054688 7
-0.36221299 -5.1841512 -6.046875 7
-0.36709601 -5.2112312 -6.047852 7
-0.36395299 -5.221806 -6.0253911 7
-0.362427 -5.2356968 -6.0087891 7
-0.360901 -5.2495899 -5.992188 7
-0.36257899 -5.2699389 -5.983398 7
-0.369064 -5.3005538 -5.9902339 7
-0.372345 -5.3241959 -5.9863281 7
-0.37882999 -5.35466 -5.9912109 7
-0.38207999 -5.3783951 -5.9863281 7
-0.38217199 -5.3955779 -5.9736328 7
-0.38224801 -5.4126339 -5.9619141 7
-0.383926 -5.4329591 -5.952148 7
-0.35020399 -5.1303248 -5.1972661 7
-0.35026601 -5.1456761 -5.1845698 7
-0.35377499 -5.1679711 -5.1816411 7
-0.35212699 -5.179667 -5.1650391 7
-0.35047901 -5.1913619 -5.148438 7
-0.34881601 -5.2025151 -5.1298828 7
-0.359207 -5.2390628 -5.1435552 7
-0.357559 -5.2506351 -5.1269531 7
-0.34339899 -5.1024318 -4.797852 7
-0.34345999 -5.116684 -4.7861328 7
-0.13362101 4.1457729 -4.3945308 7
-0.135406 4.134706 -4.4101558 7
-0.142517 4.1332989 -4.436523 7
-0.149628 4.1316199 -4.4648442 7
-0.250916 -2.891221 -15.727658 7
-0.334683 -5.3256531 -7.5302401 7
-0.062987998 -1.792995 -5.622705 7
-0.29657701 -5.20542 -6.0809541 7
-0.041117001 -1.7123981 -4.7142849 7
-0.095912002 -1.642144 -3.9411891 7
-0.34099701 -5.0436902 -4.0332141 7
-0.077056997 -1.859066 -3.272536 7
-0.30164501 -4.9271049 -3.1744559 7
-0.058637999 -1.791639 -2.7572889 7
-0.036812 -1.729702 -2.283154 7
-0.230561 3.3877251 -14.995126 7
-0.523054 3.0650251 -18.702719 7
-0.306021 3.5854681 -12.37788 7
-0.172731 0.45385 -10.772303 7
-0.168174 -2.0083749 -8.1940613 7
-0.38894299 -5.494956 -9.6992455 7
-0.125328 -2.1647079 -6.8731041 7
-0.1023 0.81845897 -6.8973732 7
-0.404897 -5.386095 -7.581058 7
-0.071607001 0.90440702 -6.0264421 7
-0.37666899 -5.2351398 -6.4299998 7
-0.088996999 -1.657338 -5.1459651 7
-0.099445 -1.862734 -5.1575589 7
-0.33606601 -5.1226678 -5.2444019 7
-0.073422 -1.6400959 -4.6783462 7
-0.081616998 -1.818635 -4.6684818 7
-0.094393998 -2.0163341 -4.6797371 7
-0.29076099 -5.079473 -3.968272 7
-0.064801998 0.84598202 -4.8402061 7
-0.060649998 0.684398 -4.8393998 7
-0.065608002 -1.774825 -4.2568102 7
-0.058683001 -1.726338 -3.962441 7
-0.066298001 -1.874867 -3.935282 7
-0.044783998 -1.684586 -3.6524789 7
-0.052995 -1.822005 -3.6257679 7
-0.032403 -1.6443959 -3.3843379 7
-0.064600997 -1.724713 -3.344754 7
-0.071760997 -1.84491 -3.3051319 7
-0.048121002 -1.740415 -2.8677161 7
-0.056065001 -1.844263 -2.823436 7
-0.039877001 -1.609624 -2.7721381 7
-0.040874001 -1.684077 -2.710495 7
-0.048060998 -1.777889 -2.663882 7
-0.050145999 -1.8526731 -2.598063 7
-0.026389999 -1.621637 -2.530822 7
-0.036644999 -1.717958 -2.4926729 7
-0.025874 -1.739592 -2.3958471 7
-0.053399999 -1.809293 -2.3337779 7
-0.059886999 -1.886126 -2.273994 7
-0.036559001 -1.607988 -2.326787 7
-0.047835998 -1.697793 -2.2862599 7
