# .PCD v0.7 - Point Cloud Data file format
VERSION 0.7
FIELDS x y z intensity
SIZE 4 4 4 4
TYPE F F F F
COUNT 1 1 1 1
WIDTH 795
HEIGHT 1
VIEWPOINT 0 0 0 1 0 0 0
POINTS 795
DATA ascii
1.963284 58.741333 -5.6474609 7
1.690773 51.467407 -4.2626948 7
1.464619 45.878418 0.375 7
1.4615901 46.080322 0.26269501 7
1.460232 46.177002 0.15136699 7
1.457233 46.378296 0.035156 7
1.354954 43.972656 0.61914098 7
1.3546031 43.999756 0.515625 7
1.353886 44.044312 0.41210899 7
1.362282 43.719727 -2.5810549 7
1.368595 43.383667 -2.6533201 7
1.360352 43.822266 -2.7998049 7
1.368198 43.404297 -2.8613279 7
1.273228 42.402344 1.068359 7
1.180706 40.839111 1.543945 7
1.181187 40.827271 1.447266 7
1.182812 40.768433 1.3505861 7
1.0992579 39.447998 1.3818361 7
-0.244801 10.538208 71.563477 7
-0.31658599 11.021729 73.621094 7
-0.332436 17.825928 73.171875 7
-0.28165799 17.634888 71.694336 7
-0.240051 17.50293 70.478516 7
-0.24354599 17.737671 70.713867 7
1.040462 37.187256 2.0751951 7
1.039379 37.229736 1.9892581 7
1.064518 36.508911 -1.382812 7
1.057705 36.72937 -1.487305 7
-0.25035101 8.9512939 65.12793 7
-0.33062699 9.4025879 67.21582 7
-0.365284 9.690918 68.108398 7
-0.160244 11.680176 62.4375 7
-0.217117 12.112671 63.897461 7
-0.212387 12.237305 63.753906 7
-0.148708 13.06958 61.928711 7
0.97413599 35.210327 2.3818359 7
-0.304607 -8.9294434 -65.672852 7
-0.208344 -8.7335215 -63.053711 7
-0.29616499 -9.2108154 -65.380859 7
-0.35034201 -9.5712891 -66.801758 7
-0.22836301 7.4963379 58.592773 7
-0.28143299 7.7998052 59.838867 7
-0.33033401 8.0960693 60.986328 7
-0.386314 8.4212646 62.299805 7
-0.167458 10.216064 56.842773 7
-0.213062 10.548584 57.899414 7
-0.201305 10.630615 57.603516 7
-0.20731699 12.265747 57.505859 7
-0.17606699 12.237793 56.750977 7
-0.177967 12.379883 56.773438 7
-0.27822101 15.820679 58.677734 7
-0.23257799 15.661865 57.587891 7
-0.192764 15.536011 56.631836 7
-0.231598 -7.4216309 -57.691406 7
-0.28933299 -7.7401118 -59.071289 7
-0.215664 -7.6459961 -57.24707 7
-0.28508401 -8.008667 -58.912109 7
-0.33261499 -8.3065186 -60.040039 7
-0.309223 6.8249512 55.583984 7
-0.35384399 7.0776372 56.541016 7
-0.43557701 7.576416 58.293945 7
-0.17174099 9.1174316 52.31543 7
-0.22345699 9.4414062 53.416016 7
-0.247437 9.65979 53.917969 7
-0.20909899 11.739502 52.841797 7
-0.17725401 11.703979 52.134766 7
-0.184166 11.859497 52.260742 7
-0.144382 11.779663 51.384766 7
-0.24227899 14.996094 52.905273 7
-0.204166 14.881836 52.068359 7
-0.189602 14.911255 51.730469 7
-0.219685 -5.9602051 -52.040039 7
-0.26357999 -6.1964111 -52.991211 7
-0.29645899 -6.408813 -53.696289 7
-0.33328199 -6.6347661 -54.487305 7
-0.37272999 -6.8717041 -55.336914 7
-0.177444 -9.2613525 -50.396484 7
-0.18261699 -9.5233154 -50.449219 7
-0.226166 -9.8220205 -51.369141 7
-0.163132 -9.9219971 -49.901367 7
-0.11319 -9.9438477 -48.753906 7
-0.296101 5.768311 50.782227 7
-0.32154101 5.9455571 51.27832 7
-0.36010399 6.157104 52.036133 7
-0.41061401 6.4016109 53.032227 7
-0.229156 8.3421631 49.170898 7
-0.22192401 8.4304199 49.012695 7
-0.19752499 8.4569092 48.514648 7
-0.17953099 8.5041504 48.143555 7
-0.181145 10.949707 47.779297 7
-0.210522 11.197632 48.334961 7
-0.159454 11.068481 47.313477 7
-0.237049 14.159058 48.306641 7
-0.20962501 14.109741 47.748047 7
-0.167751 13.971558 46.90918 7
-0.129921 13.854126 46.151367 7
0.77156103 30.366943 3.3955081 7
0.79076397 30.116943 -0.029297 7
0.78441602 30.253296 -0.107422 7
0.78725398 30.191284 -0.175781 7
0.78737599 30.187134 -0.246094 7
0.78913099 30.148071 -0.31445301 7
-0.249706 -5.1914058 -48.561523 7
-0.29436499 -5.4055181 -49.455078 7
-0.327389 -5.5985112 -50.111328 7
-0.37862 -5.835938 -51.137695 7
-0.419052 -6.0531011 -51.943359 7
-0.163082 -8.1362305 -46.177734 7
-0.179077 -8.3034668 -46.475586 7
-0.195374 -8.4730225 -46.779297 7
-0.221127 -9.694458 -47.015625 7
-0.164028 -9.6842041 -45.811523 7
-0.214001 10.413086 45.145508 7
-0.161064 10.285156 44.161133 7
-0.203587 10.575073 44.915039 7
-0.151581 10.446045 43.947266 7
-0.239246 13.555664 44.904297 7
-0.203545 13.458618 44.237305 7
-0.16692001 13.352905 43.553711 7
0.73626298 28.906372 0.256836 7
0.73726302 28.885864 0.18945301 7
0.72745901 29.081177 0.112305 7
0.71588099 29.31189 0.033202998 7
-0.151939 -3.731323 -42.461914 7
-0.17993499 -3.8800049 -42.97168 7
-0.208878 -4.0325928 -43.496094 7
-0.236572 -4.1859131 -43.999023 7
-0.26833001 -4.348877 -44.577148 7
-0.307556 -4.527832 -45.293945 7
-0.11116 -6.769165 -41.15918 7
-0.11702 -6.985229 -41.224609 7
-0.141075 -7.158813 -41.646484 7
-0.176075 -7.3684082 -42.267578 7
-0.180676 -8.9046631 -41.982422 7
-0.141479 -8.8555908 -41.240234 7
-0.16528299 -9.046875 -41.648438 7
-0.138603 -9.0429688 -41.135742 7
-0.109615 9.4243164 39.734375 7
-0.104443 9.585083 39.611328 7
-0.20402899 12.754517 40.654297 7
-0.16388699 12.632202 39.96875 7
-0.146763 12.631104 39.661133 7
-0.127262 12.616211 39.316406 7
-0.141605 12.785767 39.524414 7
-0.163239 -2.976685 -39.325195 7
-0.186096 -3.1022949 -39.709961 7
-0.214687 -3.2373049 -40.191406 7
-0.230804 -3.3574221 -40.458008 7
-0.26751301 -3.508301 -41.079102 7
-0.29478499 -3.647583 -41.53418 7
-0.15316001 -6.35498 -38.59668 7
-0.168419 -8.4471436 -38.368164 7
-0.138805 -8.4318848 -37.845703 7
-0.160805 -8.6040039 -38.19043 7
-0.14170501 -8.6252441 -37.845703 7
-0.35562101 -12.17688 -40.579102 7
-0.33102801 -12.155151 -40.141602 7
-0.31122199 -12.154419 -39.78125 7
-0.098430999 8.8840332 36.830078 7
-0.121635 9.0594482 37.171875 7
-0.171425 12.015137 37.239258 7
-0.17378201 12.112671 37.25 7
-0.14771301 12.06311 36.828125 7
-0.128933 12.049683 36.517578 7
-0.12801699 12.129028 36.478516 7
-0.157589 -2.11377 -35.907227 7
-0.17842101 -2.220825 -36.228516 7
-0.19630399 -2.3262939 -36.50293 7
-0.21751 -2.4367681 -36.829102 7
-0.24569701 -2.5562739 -37.265625 7
-0.27980399 -2.6842041 -37.795898 7
-0.096306004 -5.016479 -34.515625 7
-0.125332 -5.165894 -34.956055 7
-0.109905 -5.3001709 -34.682617 7
-0.14707901 -5.4718022 -35.24707 7
-0.172539 -8.0162354 -35.067383 7
-0.15501 -8.0402832 -34.773438 7
-0.124115 -8.0168457 -34.274414 7
-0.157345 -8.2166748 -34.762695 7
-0.131653 -8.2094727 -34.344727 7
-0.357613 -11.624268 -36.980469 7
-0.33149299 -11.592651 -36.556641 7
-0.31057 -11.583008 -36.210938 7
-0.292999 -11.587769 -35.915039 7
-0.086581998 8.2231445 33.842773 7
-0.089394003 8.3875732 33.849609 7
-0.169514 11.467407 34.292969 7
-0.130836 11.433228 33.704102 7
-0.115063 11.508789 33.436523 7
-0.278038 -2.065552 -35.234375 7
-0.277863 -2.151123 -35.222656 7
-0.137455 -4.7611079 -32.762695 7
-0.102104 -4.766479 -32.229492 7
-0.12523299 -4.8944092 -32.554688 7
-0.081382997 -4.956543 -31.882812 7
-0.168285 -7.7818599 -32.53418 7
-0.151859 -7.8057861 -32.277344 7
-0.35846299 -11.18811 -34.371094 7
-0.323578 -11.197998 -33.823242 7
-0.184185 5.227417 33.647461 7
-0.19317999 5.4006348 33.748047 7
-0.092345998 7.880981 31.928711 7
-0.124264 8.0649414 32.339844 7
-0.097092003 8.0423584 31.958984 7
-0.16075499 10.928223 32.080078 7
-0.183735 11.109009 32.356445 7
-0.165043 11.094482 32.088867 7
-0.147614 11.084595 31.836914 7
-0.13145401 11.079834 31.602539 7
-0.13465901 11.167236 31.621094 7
-0.077168003 -5.08606 -29.246094 7
-0.073092997 -5.1479492 -29.175781 7
-0.057891998 -5.1843262 -28.957031 7
-0.044601001 -5.2939448 -28.74707 7
-0.03923 -5.3509521 -28.65918 7
-0.128517 -7.014648 -29.50293 7
-0.120579 -7.0622559 -29.37793 7
-0.152069 -7.2314448 -29.775391 7
-0.137711 -7.2587891 -29.56543 7
-0.353138 -10.647583 -31.537109 7
-0.34478399 -10.688354 -31.400391 7
-0.33213001 -10.710449 -31.208008 7
-0.31689501 -10.720093 -30.981445 7
-0.153263 4.598145 31.009766 7
-0.16633201 4.694458 31.166016 7
-0.163441 4.7591548 31.121094 7
-0.080338001 7.356689 29.573242 7
-0.118809 7.549561 30.036133 7
-0.092750996 7.5314941 29.696289 7
-0.078514002 7.5513921 29.504883 7
-0.1647 10.59082 29.816406 7
-0.119865 10.588013 29.207031 7
0.46143001 22.767212 4.764648 7
0.46591601 22.716797 4.703125 7
0.46297801 22.764648 4.6542969 7
0.45610401 22.864624 4.6132808 7
0.46147501 22.80249 4.5507808 7
0.46551901 22.757568 4.4902339 7
0.50330698 22.549438 1.578125 7
0.51123798 22.44458 1.525391 7
0.51307702 22.421021 1.47168 7
0.505795 22.520264 1.418945 7
0.49416 22.677612 1.365234 7
0.48903999 22.74707 1.310547 7
-0.154709 -0.699341 -28.737305 7
-0.173557 -0.77612299 -28.974609 7
-0.181477 -0.85009801 -29.070312 7
-0.196224 -0.92761201 -29.255859 7
-0.089527003 -5.6291499 -27.179688 7
-0.081473999 -5.6751709 -27.0625 7
-0.079375997 -5.736084 -27.019531 7
-0.12559099 -6.4598389 -27.443359 7
-0.14091501 -6.570435 -27.615234 7
-0.12756699 -6.6669922 -27.413086 7
-0.131634 -6.8123779 -27.424805 7
-0.36968601 -10.280029 -29.459961 7
-0.33561701 -10.283691 -28.996094 7
-0.33216101 -10.339722 -28.926758 7
-0.175137 4.2701421 29.429688 7
-0.16723301 4.3218989 29.328125 7
-0.17632701 4.4050288 29.425781 7
-0.17327499 4.4654541 29.380859 7
-0.125469 7.217041 28.319336 7
-0.100155 7.2010498 28.009766 7
-0.085014001 7.2159419 27.817383 7
-0.104237 7.34021 28.025391 7
-0.16877399 10.243042 27.97168 7
-0.129696 10.259277 27.462891 7
-0.11401 -5.9103999 -25.276367 7
-0.103321 -5.9448242 -25.137695 7
-0.097580001 -5.9916992 -25.055664 7
-0.114056 -6.0969238 -25.228516 7
-0.11079 -6.1497798 -25.173828 7
-0.103569 -6.1920171 -25.074219 7
-0.13486899 -6.339355 -25.416016 7
-0.125172 -6.3747559 -25.287109 7
-0.35710099 -9.7694092 -27.03125 7
-0.34244499 -9.7785645 -26.842773 7
-0.33125299 -9.8001709 -26.691406 7
-0.32204801 -9.8289785 -26.564453 7
-1.437584 -38.483643 13.294922 7
-1.3895611 -37.943481 13.224609 7
-1.375626 -36.591431 16.325195 7
-0.16331901 3.8461909 27.410156 7
-0.154842 3.893188 27.30957 7
-0.15002801 3.946533 27.249023 7
-0.15041 4.0083008 27.245117 7
-0.150814 4.0699458 27.241211 7
-0.157978 4.144165 27.3125 7
-0.10854 6.6257319 26.31543 7
-0.14291 9.6220703 25.820312 7
-0.147953 9.7012939 25.852539 7
-0.16075499 9.8127441 25.964844 7
-0.16113301 9.8730469 25.947266 7
-0.147533 9.8741465 25.78418 7
-0.136517 9.8850098 25.647461 7
-0.124989 9.8933105 25.504883 7
-0.127369 -5.780396 -23.603516 7
-0.104805 -5.7813721 -23.345703 7
-0.106033 -5.8422852 -23.34375 7
-0.13422 -5.9726558 -23.629883 7
-0.118542 -5.989624 -23.444336 7
-0.121349 -6.0550542 -23.458984 7
-0.35088301 -9.3438721 -25.004883 7
-0.34684801 -9.3898926 -24.938477 7
-0.328686 -9.4433594 -24.702148 7
-0.33100501 -9.5124512 -24.701172 7
-1.211548 -32.312744 15.65332 7
-0.16207901 3.5418701 25.767578 7
-0.13972101 3.5653081 25.529297 7
-0.147388 3.6342771 25.602539 7
-0.14449701 3.686646 25.564453 7
-0.14548101 3.7454829 25.567383 7
-0.146488 3.804688 25.571289 7
-0.111828 6.490356 24.708008 7
-0.146542 9.2955322 24.210938 7
-0.153034 9.3758535 24.25293 7
-0.165604 9.4812012 24.355469 7
-0.167686 9.5441895 24.355469 7
-0.15208399 9.5352783 24.182617 7
-0.145321 9.5616465 24.095703 7
-0.139668 9.592041 24.018555 7
0.34440199 19.519043 5.4912109 7
0.34300601 19.554688 5.4023442 7
0.34525701 19.541138 5.3525391 7
0.347523 19.527588 5.3027339 7
0.342785 19.588013 5.266602 7
0.340206 19.625366 5.2255859 7
0.34354001 19.599731 5.172852 7
-0.18934999 -0.118896 -25.138672 7
-0.200001 -0.18176299 -25.253906 7
-0.096352004 -5.4432368 -21.657227 7
-0.091972001 -5.4864502 -21.599609 7
-0.122654 -5.614624 -21.891602 7
-0.108131 -5.6331792 -21.731445 7
-0.108849 -5.6888428 -21.723633 7
-0.34038201 -9.0489502 -23.075195 7
-0.32525301 -9.0507812 -22.905273 7
-0.318073 -9.0808105 -22.8125 7
-0.31769899 -9.135376 -22.786133 7
-0.33491099 -9.2547607 -22.926758 7
-1.094978 -30.400391 11.577148 7
-1.113701 -30.522461 11.779297 7
-1.075748 -30.145264 11.730469 7
-0.125019 3.2224121 23.907227 7
-0.12905499 3.2810061 23.939453 7
-0.129528 3.3349609 23.938477 7
-0.127064 3.3848879 23.908203 7
-0.136425 3.452148 23.993164 7
-0.122097 3.483887 23.845703 7
-0.087315001 6.0275879 23.029297 7
-0.080715001 6.0611572 22.953125 7
-0.112457 6.197876 23.241211 7
-0.089924 6.1887212 23.015625 7
-0.084499002 6.224854 22.950195 7
-0.095592 6.306519 23.041016 7
-0.095477998 6.357666 23.027344 7
-0.14439 9.0194092 22.655273 7
-0.15248901 9.1014404 22.708984 7
-0.154129 9.1585693 22.704102 7
-0.154587 9.2110596 22.6875 7
-0.14210901 9.2121582 22.553711 7
-0.136105 9.2384033 22.478516 7
-0.13245 9.2740479 22.424805 7
0.307266 18.565674 5.6542969 7
0.30794501 18.569824 5.609375 7
0.30918899 18.568115 5.5644531 7
0.30940199 18.587158 5.4755859 7
-0.10997 0.71704102 -21.941406 7
-0.105492 0.66015601 -21.895508 7
-0.11293 0.60668898 -21.973633 7
-0.1147 0.55127001 -21.992188 7
-0.122128 0.49707001 -22.070312 7
-0.102325 -5.123291 -20.338867 7
-0.119904 -5.213623 -20.490234 7
-0.107437 -5.2359619 -20.359375 7
-0.106987 -5.285645 -20.34082 7
-0.13778301 -5.407959 -20.616211 7
-0.124115 -5.427002 -20.472656 7
-0.124268 -5.478394 -20.460938 7
-0.34977001 -8.6922607 -21.637695 7
-0.351753 -8.7524414 -21.632812 7
-0.342289 -8.7728271 -21.525391 7
-0.33765 -8.8096924 -21.460938 7
-0.334209 -8.8503418 -21.407227 7
-0.34224299 -8.9313955 -21.456055 7
-0.13540301 3.1451421 22.701172 7
-0.148476 3.213501 22.814453 7
-0.109032 5.7771001 21.969727 7
-0.097668 5.796875 21.855469 7
-0.085049003 5.8129878 21.731445 7
-0.112984 5.9821782 21.954102 7
-0.096607 5.987915 21.793945 7
-0.087748997 6.0126948 21.703125 7
-0.162498 8.987793 21.413086 7
-0.149277 8.9842529 21.280273 7
-0.14105199 8.9997559 21.19043 7
-0.13718399 9.0317383 21.136719 7
-0.13395301 9.06604 21.088867 7
-0.149422 9.1737061 21.200195 7
-0.153053 9.2353516 21.210938 7
-0.149818 9.2695312 21.163086 7
-0.059776001 -1.927734 -19.185547 7
-0.044727001 -2.0098879 -19.036133 7
-0.044209 -2.057251 -19.025391 7
-0.055163998 -2.115356 -19.119141 7
-0.055927001 -2.16394 -19.120117 7
-0.10984 -4.8770752 -19.070312 7
-0.100388 -4.9039311 -18.972656 7
-0.099884003 -4.950562 -18.955078 7
-0.113457 -5.0273442 -19.061523 7
-0.120644 -5.091064 -19.112305 7
-0.340168 -8.3833008 -20.051758 7
-0.34740099 -8.4573975 -20.091797 7
-0.33729199 -8.4729004 -19.983398 7
-0.334896 -8.5141602 -19.942383 7
-0.330578 -8.5487061 -19.883789 7
-0.33909199 -8.6273193 -19.933594 7
-0.84198397 -24.543701 10.652344 7
-0.13084801 2.726074 21.429688 7
-0.130749 2.7730711 21.422852 7
-0.128658 2.8182371 21.399414 7
-0.127224 2.8635249 21.380859 7
-0.080563001 5.507812 20.459961 7
-0.077793002 5.5463872 20.424805 7
-0.084651999 5.6573491 20.470703 7
-0.081225999 5.6937261 20.429688 7
-0.074482001 5.7215581 20.359375 7
-0.151619 8.6453857 20.037109 7
-0.14753 8.6748047 19.985352 7
-0.136154 8.6765137 19.876953 7
-0.044994 -1.798462 -17.914062 7
-0.110809 -4.6882319 -17.920898 7
-0.134918 -4.8736572 -18.083008 7
-0.120834 -4.8887939 -17.953125 7
-0.119621 -4.9311519 -17.929688 7
-0.114334 -4.9648442 -17.873047 7
-0.14697599 -5.0811772 -18.131836 7
-0.13560501 -5.1009521 -18.022461 7
-0.32719001 -8.0079346 -18.705078 7
-0.35521299 -8.1446533 -18.907227 7
-0.349949 -8.1740723 -18.84375 7
-0.352146 -8.2282705 -18.84082 7
-0.33888599 -8.2784424 -18.694336 7
-0.33700901 -8.3188477 -18.658203 7
-0.44857401 -10.021851 -18.875977 7
-0.44466799 -10.053711 -18.821289 7
-0.44073901 -10.085449 -18.766602 7
-0.44704801 -10.15625 -18.789062 7
-0.13189299 2.5717771 20.373047 7
-0.135315 2.6204829 20.395508 7
-0.138046 2.668335 20.413086 7
-0.133026 2.70752 20.366211 7
-0.138557 2.7587891 20.40625 7
-0.109623 2.7689209 20.165039 7
-0.118679 2.8243411 20.233398 7
-0.140423 1.5018311 -18.239258 7
-0.113312 1.437866 -18.009766 7
-0.112 1.390625 -18.001953 7
-0.12291 1.350952 -18.097656 7
-0.052784 -1.618896 -16.891602 7
-0.052173998 -1.661377 -16.881836 7
-0.048717 -1.70105 -16.848633 7
-0.052386999 -1.746704 -16.873047 7
-0.058216002 -1.794189 -16.916016 7
-0.061191998 -1.839355 -16.93457 7
-0.051998001 -1.874023 -16.854492 7
-0.05212 -1.916748 -16.849609 7
-0.089611001 -4.3822021 -16.661133 7
-0.108406 -4.4603271 -16.794922 7
-0.092022002 -4.4705811 -16.655273 7
-0.095020004 -4.5184331 -16.666992 7
-0.092274003 -4.5550542 -16.633789 7
-0.121819 -4.6568599 -16.853516 7
-0.109741 -4.6743159 -16.74707 7
-0.110596 -4.7183838 -16.741211 7
-0.118622 -4.776855 -16.791016 7
-0.43504 -9.625 -17.516602 7
-0.43970901 -9.7297363 -17.500977 7
-0.43698499 -9.7628174 -17.457031 7
-0.429214 -9.7772217 -17.376953 7
-0.43604699 -9.8898926 -17.376953 7
-0.139091 1.585938 -17.088867 7
-0.147038 1.547363 -17.15625 7
-0.155003 1.508301 -17.223633 7
-0.154331 1.463257 -17.22168 7
-0.154369 1.418579 -17.225586 7
-0.14362 1.36792 -17.140625 7
-0.056979999 -1.2874759 -15.947266 7
-0.058589999 -1.328735 -15.955078 7
-0.059452001 -1.369873 -15.958008 7
-0.051991001 -1.4050291 -15.895508 7
-0.044537 -1.440796 -15.833984 7
-0.045382999 -1.481567 -15.835938 7
-0.049267001 -1.5244139 -15.861328 7
-0.05164 -1.566406 -15.875 7
-0.089771003 -4.1774902 -15.663086 7
-0.100506 -4.237061 -15.732422 7
-0.093791999 -4.2641602 -15.670898 7
-0.093914002 -4.3040771 -15.661133 7
-0.091762997 -4.3392329 -15.632812 7
-0.114647 -4.4232178 -15.791016 7
-0.109455 -4.4528809 -15.741211 7
-0.332077 -7.728394 -16.306641 7
-0.325371 -7.748291 -16.240234 7
-0.32094601 -7.7755132 -16.19043 7
-0.318802 -7.8092041 -16.155273 7
-0.32123601 -7.857666 -16.15332 7
-0.32900199 -7.9226069 -16.186523 7
-0.33524299 -7.9830322 -16.209961 7
-0.58758199 -16.984253 12.529297 7
-0.099590003 -4.0777588 -14.768555 7
-0.087886997 -4.1688228 -14.654297 7
-0.11208 -4.250977 -14.8125 7
-0.101757 -4.2694092 -14.730469 7
-0.101078 -4.3052979 -14.713867 7
-0.096371002 -4.3338618 -14.669922 7
-0.117359 -4.411377 -14.804688 7
-0.120682 -4.4555659 -14.816406 7
-0.32517201 -7.4381099 -15.222656 7
-0.32611799 -7.4793701 -15.210938 7
-0.31900799 -7.4963379 -15.144531 7
-0.31430799 -7.5203862 -15.095703 7
-0.31364399 -7.556519 -15.072266 7
-0.31459001 -7.597168 -15.05957 7
-0.32278401 -7.6602778 -15.09375 7
-0.515751 -15.333496 12.135742 7
-0.51079202 -15.279297 12.152344 7
-0.041083999 -1.070557 -14.073242 7
-0.032761 -1.102295 -14.012695 7
-0.035362002 -1.139771 -14.027344 7
-0.035445999 -1.175781 -14.024414 7
-0.039749 -1.213745 -14.049805 7
-0.092464 -3.891113 -13.90332 7
-0.080757 -3.90625 -13.81543 7
-0.080025002 -3.9403081 -13.800781 7
-0.080971003 -3.9772949 -13.796875 7
-0.096279003 -4.0397949 -13.887695 7
-0.104816 -4.0908198 -13.935547 7
-0.097340003 -4.1126709 -13.873047 7
-0.099978998 -4.152832 -13.881836 7
-0.42324099 -9.0308838 -14.067383 7
-0.41744199 -9.0462646 -14.011719 7
-0.41503099 -9.0736084 -13.975586 7
-0.41687 -9.1156006 -13.963867 7
-0.419563 -9.1601562 -13.957031 7
-0.423103 -9.208252 -13.955078 7
-0.43090099 -9.2709961 -13.976562 7
-0.56222898 -16.485718 8.9707031 7
-0.556171 -16.43103 8.9912109 7
-0.102589 2.2062991 -13.904297 7
-0.111965 2.1418459 -13.976562 7
-0.114559 2.070435 -14.00293 7
-0.123047 2.040894 -14.06543 7
-0.139999 2.0189209 -14.185547 7
-0.12146 1.928955 -14.067383 7
-0.039963 -0.91662598 -13.318359 7
-0.039535999 -0.95141602 -13.304688 7
-0.090153001 -3.930542 -13.063477 7
-0.089374997 -3.9628911 -13.048828 7
-0.087707996 -3.9932859 -13.027344 7
-0.095790997 -4.0412598 -13.068359 7
-0.106663 -4.1280522 -13.117188 7
-0.320526 -7.076416 -13.399414 7
-0.319756 -7.108398 -13.37793 7
-0.312756 -7.1221919 -13.318359 7
-0.30753699 -7.1413569 -13.270508 7
-0.304104 -7.1654048 -13.233398 7
-0.30601099 -7.2047119 -13.226562 7
-0.32051799 -7.3148189 -13.274414 7
-0.40238601 -8.6486816 -13.104492 7
-0.42449999 -8.890625 -13.118164 7
-0.41928101 -8.9060059 -13.067383 7
-0.41764101 -8.9337158 -13.036133 7
-0.52143103 -15.342407 8.7099609 7
-0.52516198 -15.345825 8.7568359 7
-0.50961298 -15.240112 8.75 7
-0.50048101 -15.17041 8.7607422 7
-0.48859799 -15.085327 8.7636719 7
-0.065025002 -3.601562 -12.260742 7
-0.065132 -3.6334231 -12.251953 7
-0.069877997 -3.6730959 -12.271484 7
-0.056007002 -3.6816411 -12.178711 7
-0.083107002 -3.758667 -12.332031 7
-0.084137 -3.792114 -12.329102 7
-0.079581998 -3.8161621 -12.291992 7
-0.41349399 -8.6820068 -12.213867 7
-0.019378999 -0.66418499 -11.819336 7
-0.014584 -0.69335902 -11.789062 7
-0.014652 -0.72412097 -11.788086 7
-0.018634999 -0.75610399 -11.808594 7
-0.021629 -0.78796399 -11.823242 7
-0.031447999 -0.82226598 -11.878906 7
-0.028603001 -0.85205102 -11.859375 7
-0.02478 -0.88134801 -11.833984 7
-0.021926999 -0.91113299 -11.814453 7
-0.022011001 -0.94140601 -11.811523 7
-0.073174 -3.5878911 -11.594727 7
-0.066413999 -3.6074221 -11.547852 7
-0.067580998 -3.6690669 -11.536133 7
-0.073638998 -3.7392581 -11.551758 7
-0.084495999 -3.7874761 -11.603516 7
-0.084587 -3.8178711 -11.594727 7
-0.29800799 -6.7429199 -11.688477 7
-0.305004 -6.7922359 -11.708008 7
-0.298237 -6.8037109 -11.65625 7
-0.29639801 -6.8287349 -11.628906 7
-0.29651299 -6.8592529 -11.613281 7
-0.29465899 -6.8840332 -11.585938 7
-0.29674101 -6.9196782 -11.579102 7
-0.30176899 -6.9637451 -11.588867 7
-0.31072599 -7.0189209 -11.618164 7
-0.040332999 -3.3188479 -10.861328 7
-0.045620002 -3.3839109 -10.873047 7
-0.29246101 -6.7974849 -10.87207 7
-0.082153 2.8592529 -10.837891 7
-0.079108998 2.82605 -10.828125 7
-0.081177004 2.7993159 -10.845703 7
-0.085297003 2.7749021 -10.874023 7
-0.088394001 2.7492681 -10.897461 7
-0.090461999 2.7225339 -10.915039 7
-0.094581999 2.6977539 -10.943359 7
-0.107922 2.654053 -11.029297 7
-0.105923 2.5919189 -11.030273 7
-0.0077320002 -0.515625 -10.574219 7
-0.013142 -0.54455602 -10.601562 7
-0.01749 -0.57385302 -10.623047 7
-0.014347 -0.60095203 -10.604492 7
-0.039669 -3.2116699 -10.256836 7
-0.041903999 -3.242188 -10.260742 7
-0.041988 -3.2694089 -10.25293 7
-0.056026001 -3.3166499 -10.316406 7
-0.058254 -3.3475339 -10.319336 7
-0.059413999 -3.3762209 -10.316406 7
-0.054134 -3.3952639 -10.28125 7
-0.055286001 -3.4243159 -10.279297 7
-0.061817002 -3.4613039 -10.303711 7
-0.071556002 -3.50354 -10.344727 7
-0.28032699 -6.4111328 -10.24707 7
-0.28366899 -6.4464111 -10.246094 7
-0.288086 -6.4851069 -10.250977 7
-0.28926799 -6.5148931 -10.240234 7
-0.28183001 -6.5220952 -10.19043 7
-0.27978501 -6.543457 -10.165039 7
-0.27880901 -6.5673828 -10.143555 7
-0.27891499 -6.5942378 -10.128906 7
-0.285492 -6.6383061 -10.141602 7
-0.28559101 -6.6652832 -10.125977 7
-0.077591002 2.8795171 -10.176758 7
-0.074386999 2.847656 -10.166992 7
-0.074409001 2.8199461 -10.173828 7
-0.080879003 2.800415 -10.212891 7
-0.0063669998 -0.329712 -10.05957 7
-0.0075420002 -0.35644501 -10.064453 7
-0.0076029999 -0.383057 -10.063477 7
-0.0043139998 -0.40893599 -10.044922 7
-0.0099600004 -0.436768 -10.072266 7
-0.016727 -0.46484399 -10.106445 7
-0.014553 -0.49133301 -10.09375 7
-0.0135 -0.51733398 -10.085938 7
-0.011341 -0.54345697 -10.072266 7
-0.0091669997 -0.56958002 -10.05957 7
-0.010334 -0.59667999 -10.064453 7
-0.010403 -0.62304699 -10.0625 7
-0.012669 -0.011719 -9.1542969 7
-0.012699 -0.037230998 -9.1542969 7
-0.013897 -0.0625 -9.1591797 7
-0.0092430003 -0.087646 -9.1357422 7
-0.0057560001 -0.113037 -9.1181641 7
-0.0046120002 -0.138184 -9.1123047 7
-0.004642 -0.163574 -9.1113281 7
-0.0034980001 -0.188843 -9.1054688 7
-0.0035290001 -0.21435501 -9.1054688 7
-0.0035669999 -0.239136 -9.1035156 7
-0.0071069999 -0.26501501 -9.1210938 7
-0.0071370001 -0.29028299 -9.1201172 7
-0.0071680001 -0.315552 -9.1191406 7
-0.27722901 -6.368042 -8.9472656 7
-0.274979 -6.3858638 -8.9228516 7
-0.38075301 -8.0040283 -8.3369141 7
-0.39884901 -8.1496582 -8.3242188 7
-0.404827 -8.19104 -8.3271484 7
-0.01688 -0.153809 -9.1708984 7
-0.0072209998 -0.17749 -9.125 7
-0.003643 -0.20166001 -9.1074219 7
-0.0097620003 -0.226685 -9.1357422 7
-0.012257 -0.25109899 -9.1455078 7
-0.017170001 -0.276245 -9.1669922 7
-0.002659 -0.29882801 -9.0986328 7
-0.26979801 -6.1247559 -8.4599609 7
-0.26020399 -6.1456299 -8.3916016 7
-0.26641101 -6.1838379 -8.4003906 7
-0.26161599 -6.1942139 -8.3662109 7
-0.26180601 -6.2393799 -8.3369141 7
-0.268013 -6.2779541 -8.3466797 7
-0.28279099 -6.3382568 -8.3886719 7
-0.273193 -6.358398 -8.3203115 7
-0.37674701 -7.9237061 -7.672852 7
-0.38052401 -7.9559331 -7.6669922 7
-0.0092580002 -0.0067139999 -9.1386719 7
-0.0081059998 -0.03125 -9.1328115 7
-0.0033 -0.055542 -9.1103516 7
-0.015499 -0.079956003 -9.1660156 7
-0.011921 -0.104736 -9.1494141 7
-0.005901 -0.12853999 -9.1201172 7
-0.26876801 -6.059937 -7.3339839 7
-0.25705299 -5.761353 -6.953125 7
-0.264065 -5.7973628 -6.9628911 7
-0.26414099 -5.816772 -6.9492192 7
-0.268372 -5.8460689 -6.9492192 7
-0.26292801 -5.8518071 -6.9160161 7
-0.26301199 -5.8708501 -6.9013672 7
-0.257557 -5.8769531 -6.8691411 7
-0.257633 -5.8962402 -6.8564448 7
-0.26049399 -5.9221191 -6.8505859 7
-0.26334801 -5.9477539 -6.8457031 7
-0.26620099 -5.9736328 -6.8408198 7
-0.270439 -6.0029302 -6.8398442 7
-0.27190399 -6.0255132 -6.8300781 7
-0.27891499 -6.061523 -6.8388672 7
-0.26278299 -5.771606 -6.4912109 7
-0.25855601 -5.7796631 -6.4638672 7
-0.26159301 -5.8231201 -6.445312 7
-0.26023501 -5.837769 -6.4277339 7
-0.26319501 -5.8624272 -6.421875 7
-0.26327899 -5.8807368 -6.407227 7
-0.276443 -5.9663091 -6.40625 7
-0.27940401 -5.9914551 -6.4013672 7
-0.25859499 -5.6746831 -6.0683589 7
-0.25718299 -5.688477 -6.0507808 7
-0.26323301 -5.719604 -6.054688 7
-0.25734299 -5.7228999 -6.023438 7
-0.26040301 -5.7470698 -6.0185552 7
-0.245533 -5.4559331 -5.7529302 7
-0.25339901 -5.5064702 -5.749023 7
-0.25346801 -5.5228271 -5.735352 7
-0.259716 -5.5534668 -5.7402339 7
-0.261417 -5.5900879 -5.717773 7
-0.25994501 -5.6027832 -5.7001948 7
-0.25771701 -5.6107178 -5.6787109 7
-0.25632101 -5.6400151 -5.648438 7
-0.259563 -5.679688 -5.6289058 7
-0.25506201 -5.7010498 -5.5888672 7
-0.261318 -5.731812 -5.592773 7
-0.25223899 -5.4576421 -5.327148 7
-0.244305 -5.4550781 -5.2919922 7
-0.253986 -5.49231 -5.3056641 7
-0.25406301 -5.50769 -5.2919922 7
-0.25165901 -5.514648 -5.2714839 7
-0.25334501 -5.5336909 -5.2626948 7
-0.246998 -5.534668 -5.2324219 7
-0.245464 -5.5462651 -5.2148442 7
-0.25034699 -5.5723882 -5.2138672 7
-0.245609 -5.5765381 -5.1875 7
-0.252087 -5.6065669 -5.1914058 7
-0.248943 -5.614502 -5.1699219 7
-0.24902 -5.6296391 -5.15625 7
-0.25229999 -5.6521001 -5.1513672 7
-0.26359901 -5.693481 -5.1669922 7
-0.26527801 -5.7120361 -5.157227 7
-0.274975 -5.7497559 -5.1689448 7
-0.248165 -5.443481 -4.8847661 7
-0.24490701 -5.450439 -4.8642578 7
-0.24837901 -5.4864502 -4.844727 7
-0.25011101 -5.5048828 -4.8369141 7
-0.25183499 -5.5229492 -4.827148 7
-0.246922 -5.5262451 -4.8017578 7
-0.24451099 -5.3231201 -4.155273 7
-0.242805 -5.3319092 -4.1376948 7
-0.241089 -5.3408198 -4.1210942 7
-0.234024 -5.3375239 -4.092773 7
-0.23052201 -5.3424072 -4.0722661 7
-0.24128 -5.3787842 -4.0830078 7
-0.23421501 -5.3756099 -4.054688 7
-0.237839 -5.395752 -4.0488281 7
-0.234337 -5.4005132 -4.0283198 7
-0.23975401 -5.4248052 -4.0263672 7
-0.23624399 -5.4291992 -4.0058589 7
-0.34717 -9.0300245 -13.158233 7
0.00722 -2.3656819 -5.6605 7
-0.237835 -5.5122871 -5.2854939 7
-0.279515 -5.2770038 -4.0842652 7
-0.116269 2.1592021 -13.916844 7
-0.085019 3.4578149 -7.0275788 7
-0.037455998 -4.3796721 -15.384116 7
-0.075615004 -0.45784599 -10.852194 7
-0.26275301 2.12008 -14.091284 7
-0.015406 -2.640312 -6.9943008 7
-0.332587 -6.4909348 -9.9775085 7
-0.033155002 3.5108581 -6.87607 7
-0.050955001 3.3673241 -7.1965098 7
-0.0033760001 -2.474267 -6.066278 7
-0.34407499 -7.8332491 -7.5520792 7
0.012251 -2.2663131 -5.320962 7
-0.27316299 -5.596324 -5.820931 7
