# .PCD v0.7 - Point Cloud Data file format
VERSION 0.7
FIELDS x y z intensity
SIZE 4 4 4 4
TYPE F F F F
COUNT 1 1 1 1
WIDTH 882
HEIGHT 1
VIEWPOINT 0 0 0 1 0 0 0
POINTS 882
DATA ascii
1.990057 58.395508 -7.625977 7
1.71541 51.09314 -5.9775391 7
1.710459 51.642456 -6.1845698 7
1.4791811 46.131104 -1.518555 7
1.493776 45.290894 -4.5908198 7
1.378582 43.665283 -4.2763672 7
1.286242 42.592896 -0.57226598 7
1.2843421 42.693237 -0.77929699 7
-0.33095199 19.93457 73.157227 7
-0.26767299 19.600464 71.317383 7
1.0563999 37.156372 0.56347698 7
1.054111 37.235962 0.47460899 7
1.053776 37.250977 0.38671899 7
1.085459 36.201904 -2.5839839 7
1.076298 36.500122 -2.7050779 7
1.082994 36.274902 -2.765625 7
1.083529 36.25293 -2.8496089 7
-0.17904299 -11.708618 -69.844727 7
-0.25236899 -12.415405 -71.976562 7
-0.185555 -15.38208 -69.132812 7
-0.31781399 11.249756 67.106445 7
-0.38936201 11.732178 68.964844 7
-0.41255599 12 69.553711 7
-0.42717001 12.230713 69.916992 7
-0.455982 12.695923 70.628906 7
-0.236534 14.205444 64.501953 7
-0.28472501 14.626587 65.69043 7
0.98705298 35.254883 1.1181639 7
0.98822802 35.224365 1.035156 7
-0.17016201 -9.9732666 -62.02832 7
-0.237717 -10.412231 -63.813477 7
-0.150249 -10.182373 -61.432617 7
-0.231159 -10.687744 -63.572266 7
-0.29660401 -11.133667 -65.294922 7
-0.34875101 10.025024 61.580078 7
-0.38954201 10.332031 62.53125 7
-0.453419 10.737305 64.02832 7
-0.22455999 12.383667 58.228516 7
-0.271568 12.763184 59.313477 7
-0.25963601 12.838501 59.009766 7
-0.24970201 14.151733 58.527344 7
-0.26006299 14.349365 58.744141 7
-0.21110199 14.195923 57.569336 7
-0.316387 17.735596 59.358398 7
-0.28392801 17.642578 58.573242 7
-0.16537499 -8.4562988 -56.03418 7
-0.203346 -8.7293701 -56.932617 7
-0.24345 -9.0152588 -57.883789 7
-0.19313399 -8.9633789 -56.629883 7
-0.237766 -9.2701416 -57.689453 7
-0.30637699 -9.6755371 -59.332031 7
-0.153816 -11.993286 -54.938477 7
-0.147888 -12.09375 -54.761719 7
-0.14789601 -12.224609 -54.726562 7
-0.087448001 -12.034302 -53.240234 7
-0.31754699 8.5336914 55.90625 7
-0.372787 8.8543701 57.092773 7
-0.41102201 9.1209717 57.90918 7
-0.47604799 9.4870605 59.307617 7
-0.27326599 11.287231 54.509766 7
-0.26266101 11.364136 54.259766 7
-0.306633 11.696655 55.1875 7
-0.25664899 13.340332 53.762695 7
-0.26006699 13.484009 53.810547 7
-0.22964101 13.439697 53.132812 7
-0.188637 13.332397 52.229492 7
-0.245461 16.496216 52.771484 7
-0.151981 -7.032104 -50.482422 7
-0.20190801 -7.3068848 -51.567383 7
-0.24086 -7.5522461 -52.40625 7
-0.275372 -7.7874761 -53.145508 7
-0.31327799 -8.0374756 -53.961914 7
-0.350674 -8.2896729 -54.763672 7
-0.11842 -10.255371 -49.035156 7
-0.143307 -10.485352 -49.549805 7
-0.15377 -10.651733 -49.74707 7
-0.20123699 -10.989868 -50.750977 7
-0.156231 -11.259033 -49.645508 7
-0.16487101 -11.419922 -49.800781 7
-0.132542 -11.380127 -49.06543 7
-0.31344199 7.4616699 51.226562 7
-0.36427701 7.7337651 52.225586 7
-0.40523499 7.9805908 53.02832 7
-0.44417199 8.2253418 53.791016 7
-0.244884 9.8931885 49.50293 7
-0.294449 10.211914 50.463867 7
-0.273651 10.241821 50.035156 7
-0.25206801 12.664429 49.124023 7
-0.20848501 12.549316 48.246094 7
-0.231346 12.782104 48.668945 7
-0.182587 12.634766 47.691406 7
-0.29010001 15.838989 49.107422 7
-0.247173 15.676392 48.249023 7
-0.22356001 15.63501 47.762695 7
-0.156734 15.308716 46.447266 7
-0.150978 -5.8924561 -46.494141 7
-0.19702899 -6.2382808 -47.398438 7
-0.236393 -6.4577641 -48.18457 7
-0.282574 -6.6998291 -49.107422 7
-0.31911501 -6.9189448 -49.833008 7
-0.36531401 -7.169189 -50.754883 7
-0.094798997 -9.0095205 -44.700195 7
-0.12886 -9.2536621 -45.360352 7
-0.117958 -9.3186045 -45.115234 7
-0.179634 -9.6800537 -46.330078 7
-0.18837 -10.719482 -46.25 7
-0.13388801 -10.581787 -45.129883 7
-0.15832099 -10.802856 -45.587891 7
-0.119511 -10.730957 -44.782227 7
-0.45198101 7.2939448 50.27832 7
-0.467987 7.4544678 50.561523 7
-0.32960501 9.5897217 47.62207 7
-0.30193701 9.5926514 47.094727 7
-0.26476699 12.006104 45.914062 7
-0.202335 11.802979 44.756836 7
-0.233192 12.060303 45.291992 7
-0.28942499 15.107056 45.592773 7
-0.251335 14.978394 44.882812 7
-0.21852501 14.879028 44.267578 7
-0.19471 14.833008 43.8125 7
0.72236401 29.30249 2.441406 7
0.721075 29.333496 2.3720701 7
0.72269201 29.306274 2.3027339 7
0.74835598 28.83606 -0.975586 7
0.73777598 29.045532 -1.0625 7
0.73531199 29.091797 -1.1357419 7
0.744726 28.899048 -1.186523 7
0.74487901 28.892456 -1.2548831 7
-0.114223 -4.5921631 -41.698242 7
-0.13896599 -4.743896 -42.147461 7
-0.165565 -4.9017329 -42.629883 7
-0.190319 -5.0576172 -43.076172 7
-0.22316 -5.2332759 -43.672852 7
-0.258183 -5.416748 -44.311523 7
-0.072806999 -7.5614009 -40.379883 7
-0.077972002 -7.6766362 -40.453125 7
-0.068801999 -7.7427979 -40.262695 7
-0.092678003 -7.9234619 -40.680664 7
-0.13028 -8.1544189 -41.350586 7
-0.130383 -9.8432617 -40.929688 7
-0.088721998 -9.7625732 -40.142578 7
-0.117023 -9.982666 -40.631836 7
-0.081790999 -10.022705 -39.935547 7
-0.273819 -13.663208 -42.535156 7
-0.24481601 -13.704224 -41.946289 7
-0.18799201 10.787598 40.982422 7
-0.185524 10.964478 40.897461 7
-0.15723 10.926758 40.405273 7
-0.25004601 14.140381 41.19043 7
-0.219101 14.054443 40.65625 7
-0.19492 14.005859 40.232422 7
-0.17275999 13.966919 39.841797 7
-0.123901 -3.779541 -38.584961 7
-0.14562599 -3.909668 -38.948242 7
-0.17207301 -4.0499272 -39.392578 7
-0.199871 -4.1948242 -39.860352 7
-0.23273499 -4.3509521 -40.413086 7
-0.25986099 -4.4989009 -40.868164 7
-0.068783 -6.7771001 -37.116211 7
-0.083472997 -6.912231 -37.348633 7
-0.113033 -7.0942378 -37.832031 7
-0.120575 -9.3088379 -37.419922 7
-0.091983996 -9.2823486 -36.914062 7
-0.118225 -9.4801025 -37.330078 7
-0.097415999 -9.4840088 -36.955078 7
-0.33338201 -13.197876 -40.026367 7
-0.2827 -13.026001 -39.161133 7
-0.265255 -13.027222 -38.841797 7
-0.16349401 10.078735 37.725586 7
-0.135952 10.045654 37.279297 7
-0.133366 10.204712 37.197266 7
-0.225906 13.33606 37.854492 7
-0.19241001 13.322388 37.291992 7
-0.17039099 13.283813 36.931641 7
-0.15528899 13.282959 36.676758 7
-0.152363 -2.98877 -35.758789 7
-0.15617 -3.0809331 -35.810547 7
-0.171757 -3.1894529 -36.047852 7
-0.19211601 -3.3056641 -36.360352 7
-0.22057 -3.434814 -36.799805 7
-0.23946799 -3.552002 -37.087891 7
-0.063068002 -5.7877202 -33.904297 7
-0.078327 -5.9103999 -34.126953 7
-0.065571003 -5.9589839 -33.90918 7
-0.076778002 -6.0722661 -34.069336 7
-0.120777 -8.7869873 -34.125977 7
-0.097300999 -8.7788086 -33.741211 7
-0.106503 -8.9787598 -33.834961 7
-0.31088999 -12.432373 -36.089844 7
-0.28776899 -12.403076 -35.710938 7
-0.26388901 -12.36853 -35.321289 7
-0.26186001 -12.443604 -35.258789 7
-0.15866899 9.3579102 34.798828 7
-0.15335099 9.4160156 34.704102 7
-0.124722 9.3789062 34.27832 7
-0.15773 9.5924072 34.727539 7
-0.12711 9.5449219 34.272461 7
-0.11903 9.5892334 34.137695 7
-0.21211199 12.625122 34.673828 7
-0.19693799 12.623901 34.436523 7
-0.169949 12.558594 34.035156 7
-0.148472 12.521118 33.711914 7
-0.157337 12.646362 33.808594 7
-0.121738 -2.3405759 -32.888672 7
-0.129723 -2.429565 -33 7
-0.141266 -2.5228269 -33.162109 7
-0.078319997 -5.585815 -31.767578 7
-0.068595998 -5.638916 -31.609375 7
-0.074253 -5.7303472 -31.675781 7
-0.056251999 -5.761353 -31.398438 7
-0.124157 -8.4400635 -31.769531 7
-0.112446 -8.4743652 -31.580078 7
-0.331451 -12.026001 -33.792969 7
-0.31537601 -12.030396 -33.538086 7
-0.29295701 -12.003174 -33.196289 7
-0.27609599 -12.001221 -32.928711 7
-0.16059899 8.9262695 32.734375 7
-0.12868901 8.9519043 32.272461 7
-0.158829 9.1429443 32.654297 7
-0.117817 9.0552979 32.089844 7
-0.20906401 12.189453 32.455078 7
-0.171753 12.145386 31.920898 7
-0.154781 12.129883 31.675781 7
-0.095542997 -7.5802002 -28.961914 7
-0.087142996 -7.6230469 -28.831055 7
-0.108368 -7.8361821 -29.070312 7
-0.097838998 -7.8710942 -28.910156 7
-0.30656099 -11.253296 -30.769531 7
-0.317013 -11.37561 -30.875 7
-0.30047199 -11.374756 -30.631836 7
-0.28780401 -11.390381 -30.439453 7
-0.29910699 -11.517334 -30.555664 7
-0.138542 8.369873 30.210938 7
-0.119602 8.364502 29.951172 7
-0.118542 8.4283447 29.919922 7
-0.126518 8.5253906 30 7
-0.102818 8.5048828 29.688477 7
-0.19060101 11.587769 29.898438 7
-0.172363 11.56604 29.654297 7
-0.160004 11.572388 29.481445 7
-0.144474 11.562378 29.271484 7
-0.16642 11.738403 29.508789 7
0.47170299 22.866943 3.7919919 7
0.47401401 22.843384 3.7363279 7
0.46644601 22.958252 3.6386721 7
0.46917701 22.928223 3.5810549 7
0.51329601 22.514771 0.625 7
0.51599699 22.477539 0.57421899 7
0.52261001 22.387695 0.524414 7
0.51883298 22.437378 0.46875 7
0.51116002 22.539673 0.41015601 7
0.498734 22.706665 0.34960899 7
-0.14465 -1.332764 -28.552734 7
-0.153854 -1.408325 -28.666016 7
-0.16352101 -1.485229 -28.785156 7
-0.191425 -1.574829 -29.136719 7
-0.195629 -1.648926 -29.183594 7
-0.055969 -6.7414551 -26.504883 7
-0.052894998 -6.7972412 -26.448242 7
-0.057144001 -6.8751221 -26.482422 7
-0.083485 -7.087646 -26.772461 7
-0.096432 -7.194458 -26.915039 7
-0.083286002 -7.2186279 -26.733398 7
-0.30435601 -10.896729 -28.443359 7
-0.29212999 -10.912109 -28.268555 7
-0.29274699 -10.983887 -28.249023 7
-1.721127 -44.882202 15.526367 7
-0.200222 5.3106689 29.6875 7
-0.19911601 5.3751221 29.663086 7
-0.196545 5.4360352 29.62207 7
-0.111443 7.9862061 28.023438 7
-0.14463 8.1657705 28.389648 7
-0.169136 11.184692 27.708008 7
-0.100197 -0.70727497 -25.914062 7
-0.09832 -0.77087402 -25.889648 7
-0.103813 -0.83666998 -25.951172 7
-0.109291 -0.90295398 -26.014648 7
-0.071983002 -6.613647 -24.619141 7
-0.073586002 -6.6790771 -24.620117 7
-0.088123001 -6.8439941 -24.750977 7
-0.089725003 -6.9101558 -24.75293 7
-0.31901899 -10.379395 -26.407227 7
-0.310776 -10.409546 -26.289062 7
-0.29709601 -10.416626 -26.112305 7
-0.28637701 -10.435181 -25.967773 7
-0.29048899 -10.515625 -25.985352 7
-1.455387 -38.81665 14.128906 7
-1.389809 -38.053711 14.076172 7
-0.175056 4.7857671 27.512695 7
-0.10408 7.4831538 26.109375 7
-0.177036 10.637207 25.917969 7
-0.18462799 10.729858 25.972656 7
-0.17052101 10.723999 25.802734 7
-0.15798201 10.724854 25.650391 7
-0.152145 10.755493 25.566406 7
-0.150444 10.805298 25.525391 7
-0.156422 -0.55041498 -24.731445 7
-0.166485 -0.61425799 -24.84082 7
-0.164471 -0.67517102 -24.81543 7
-0.068657003 -6.10498 -22.878906 7
-0.075630002 -6.180542 -22.9375 7
-0.078383997 -6.244751 -22.950195 7
-0.073334001 -6.344604 -22.865234 7
-0.094547004 -6.4615479 -23.076172 7
-0.087794997 -6.4993901 -22.987305 7
-0.091084003 -6.5656738 -23.005859 7
-0.31086701 -9.956665 -24.365234 7
-0.29725599 -9.9615479 -24.200195 7
-0.29422 -10.009033 -24.144531 7
-0.29648599 -10.077271 -24.140625 7
-0.3125 -10.202148 -24.279297 7
-1.244579 -32.800415 16.169922 7
-1.250286 -32.818726 16.271484 7
-0.17618901 4.367188 25.898438 7
-0.16997901 4.4133301 25.824219 7
-0.170414 4.4719238 25.819336 7
-0.115356 7.0418701 24.664062 7
-0.132908 7.151123 24.825195 7
-0.116196 7.1544189 24.641602 7
-0.109428 7.1885991 24.558594 7
-0.135281 7.3248291 24.802734 7
-0.120781 7.3343511 24.641602 7
-0.183994 10.261597 24.322266 7
-0.18605401 10.325317 24.320312 7
-0.179295 10.350464 24.232422 7
-0.167576 10.353027 24.097656 7
-0.16412701 10.391724 24.041016 7
-0.15791699 10.417847 23.958008 7
-0.16768999 10.515015 24.02832 7
-0.064963996 0.22949199 -21.514648 7
-0.072433002 0.17590301 -21.589844 7
-0.080444001 0.121338 -21.671875 7
-0.089031003 0.067016996 -21.758789 7
-0.120937 -0.043945 -22.084961 7
-0.127251 -0.100342 -22.149414 7
-0.066811003 -5.8138428 -21.268555 7
-0.071998999 -5.880127 -21.305664 7
-0.065330997 -5.915771 -21.223633 7
-0.068816997 -5.9776611 -21.244141 7
-0.084151998 -6.0714111 -21.380859 7
-0.082572997 -6.1203609 -21.349609 7
-0.081557997 -6.1706538 -21.323242 7
-0.086181998 -6.2362061 -21.353516 7
-0.28863901 -9.5655518 -22.353516 7
-1.1483459 -30.991821 12.292969 7
-1.1437761 -30.922241 12.350586 7
-1.102001 -30.50647 12.285156 7
-1.1199909 -29.348267 15.37793 7
-1.11005 -29.226074 15.40332 7
-1.08947 -29.009277 15.383789 7
-1.081917 -28.907959 15.418945 7
-1.087379 -28.921753 15.510742 7
-1.089874 -28.909058 15.589844 7
-0.164875 3.9737549 24.286133 7
-0.161816 4.022583 24.248047 7
-0.1558 4.0656738 24.181641 7
-0.150383 4.110229 24.121094 7
-0.123775 6.7886958 23.254883 7
-0.108925 6.7966309 23.100586 7
-0.099976003 6.8210449 23.000977 7
-0.128712 6.959106 23.257812 7
-0.111504 6.9586182 23.080078 7
-0.104904 6.9893799 23.001953 7
-0.174946 9.9456787 22.662109 7
-0.165997 9.9580078 22.55957 7
-0.158222 9.9752197 22.467773 7
-0.149868 9.9893799 22.370117 7
-0.151485 10.046387 22.363281 7
-0.16309001 10.146484 22.445312 7
-0.161777 10.190918 22.411133 7
0.31527299 18.736694 4.7792969 7
0.31309101 18.767334 4.7392578 7
0.31663901 18.740234 4.6894531 7
0.32017899 18.713501 4.641602 7
0.318005 18.743896 4.6005859 7
0.31525001 18.779663 4.5605469 7
0.31479999 18.79248 4.516602 7
-0.098830998 -5.835815 -20.12207 7
-0.098930001 -5.8864751 -20.108398 7
-0.31663501 -9.137207 -21.160156 7
-0.31977099 -9.2015381 -21.166016 7
-0.16849899 3.6932371 23.017578 7
-0.16777401 3.7429199 23.003906 7
-0.16016001 3.781738 22.925781 7
-0.159428 3.831177 22.911133 7
-0.122868 6.436523 21.981445 7
-0.126499 6.4954829 22 7
-0.113888 6.5085449 21.873047 7
-0.106911 6.537354 21.797852 7
-0.13615 6.669312 22.041992 7
-0.117916 6.6656489 21.867188 7
-0.111553 6.6955571 21.794922 7
-0.178131 9.6140137 21.362305 7
-0.18671399 9.6966553 21.413086 7
-0.167896 9.6665039 21.233398 7
-0.158932 9.723877 21.115234 7
-0.154438 9.7518311 21.056641 7
-0.16552401 9.8452148 21.126953 7
-0.16973899 9.90979 21.139648 7
0.27092701 17.98938 4.922852 7
0.27772501 17.934204 4.8681641 7
-0.124504 0.27136201 -21.274414 7
-0.126366 0.21850599 -21.292969 7
-0.141418 0.112427 -21.44043 7
-0.150452 0.059326001 -21.527344 7
-0.126041 0.0057370001 -21.287109 7
-0.020985 -2.419312 -18.751953 7
-0.028140999 -2.522095 -18.803711 7
-0.049973 -2.6420901 -18.987305 7
-0.066096999 -5.1719971 -18.589844 7
-0.068745002 -5.224731 -18.600586 7
-0.085433997 -5.310791 -18.734375 7
-0.074046999 -5.3310552 -18.621094 7
-0.074146003 -5.377563 -18.607422 7
-0.082542002 -5.4440918 -18.666992 7
-0.091582999 -5.513062 -18.732422 7
-0.091674998 -5.5604248 -18.719727 7
-0.086020999 -5.5931401 -18.655273 7
-0.108475 -5.6960449 -18.838867 7
-0.10154 -5.7255859 -18.762695 7
-0.29871699 -8.668457 -19.571289 7
-0.30587399 -8.7425537 -19.609375 7
-0.322624 -8.8505859 -19.728516 7
-0.32019001 -8.8911133 -19.686523 7
-0.30751401 -8.8947754 -19.557617 7
-0.30827701 -8.9460449 -19.541992 7
-0.30328 -8.9765615 -19.477539 7
-0.42676499 -10.627686 -19.910156 7
-0.42691001 -10.677612 -19.884766 7
-0.41806799 -10.690308 -19.785156 7
-0.40986601 -10.705566 -19.693359 7
-0.408077 -10.747192 -19.652344 7
-0.87647998 -23.45874 14.106445 7
-0.87191802 -23.392822 14.142578 7
-0.10318 6.1018071 20.564453 7
-0.118984 6.1896968 20.682617 7
-0.098976001 6.1810298 20.50293 7
-0.091568001 6.2061772 20.427734 7
-0.103397 6.283936 20.512695 7
-0.113903 6.3580322 20.585938 7
-0.100521 6.3662109 20.460938 7
-0.090469003 6.3830571 20.363281 7
-0.166191 9.3132324 19.931641 7
-0.068995997 0.826904 -18.822266 7
-0.065876 0.77758801 -18.794922 7
-0.064671002 0.72888201 -18.785156 7
-0.072425999 0.68298298 -18.856445 7
-0.087775998 -5.0533452 -17.619141 7
-0.081867002 -5.1287842 -17.543945 7
-0.071827002 -5.1500239 -17.447266 7
-0.085418999 -5.2253418 -17.547852 7
-0.093627997 -5.2885742 -17.601562 7
-0.094406001 -5.3344731 -17.59375 7
-0.090438999 -5.3695068 -17.548828 7
-0.099991001 -5.436523 -17.613281 7
-0.29968601 -8.6821289 -18.18457 7
-0.30929899 -8.7614746 -18.237305 7
-0.430435 -10.412109 -18.555664 7
-0.427856 -10.447998 -18.509766 7
-0.423904 -10.478271 -18.454102 7
-0.41453901 -10.486572 -18.357422 7
-0.41127399 -10.518677 -18.305664 7
-0.76541901 -20.996216 13.673828 7
-0.35047501 0.339111 22.380859 7
-0.33068499 0.385254 22.216797 7
-0.34820899 0.4375 22.362305 7
-0.34390599 0.48608401 22.327148 7
-0.15728401 3.2254641 20.571289 7
-0.154377 3.266602 20.541016 7
-0.156399 3.3144529 20.550781 7
-0.150684 3.3511961 20.496094 7
-0.15201201 3.3986821 20.500977 7
-0.101719 5.974854 19.47168 7
-0.097424001 6.0068359 19.426758 7
-0.093819 6.0396729 19.384766 7
-0.159988 8.986084 18.801758 7
-0.161964 9.0351562 18.796875 7
-0.16324601 9.0811768 18.786133 7
-0.156845 9.0977783 18.71875 7
-0.149754 9.1112061 18.645508 7
-0.148228 9.1459961 18.614258 7
-0.152294 9.2028809 18.623047 7
-0.161247 9.2796631 18.668945 7
-0.106918 0.80273402 -18.547852 7
-0.112026 0.75817901 -18.583984 7
-0.122852 0.71447802 -18.678711 7
-0.1357 0.67126501 -18.790039 7
-0.031177999 -1.946533 -16.65625 7
-0.027667999 -1.9855959 -16.62207 7
-0.024165999 -2.024658 -16.588867 7
-0.027813001 -2.0697019 -16.612305 7
-0.034320999 -2.118042 -16.658203 7
-0.036533002 -2.1625979 -16.670898 7
-0.033741001 -2.2020259 -16.642578 7
-0.027378 -2.2376709 -16.585938 7
-0.069262996 -4.811646 -16.370117 7
-0.071498998 -4.8581538 -16.376953 7
-0.073734 -4.9042969 -16.380859 7
-0.092445001 -4.9865718 -16.513672 7
-0.086802997 -5.0159912 -16.458008 7
-0.086177997 -5.0562739 -16.44043 7
-0.095565997 -5.119019 -16.500977 7
-0.303967 -8.3331299 -17.043945 7
-0.29690599 -8.3519287 -16.970703 7
-0.29342699 -8.3828115 -16.924805 7
-0.291374 -8.418457 -16.889648 7
-0.30728501 -8.5155029 -16.985352 7
-0.31744799 -8.5932617 -17.039062 7
-0.39870101 -9.9604492 -17.050781 7
-0.40888599 -10.042725 -17.099609 7
-0.410458 -10.091431 -17.085938 7
-0.40266001 -10.104004 -17.004883 7
-0.40494201 -10.155273 -16.995117 7
-0.40002099 -10.178711 -16.936523 7
-0.683456 -19.175537 12.861328 7
-0.69344699 -19.130493 13.083008 7
-0.68756098 -19.063599 13.103516 7
-0.68400598 -18.983032 13.178711 7
-0.69003701 -18.994751 13.24707 7
-0.67669702 -18.878174 13.237305 7
-0.68878198 -18.900024 13.376953 7
-0.018944001 -1.706787 -15.583984 7
-0.018257 -1.746094 -15.574219 7
-0.022095 -1.788818 -15.598633 7
-0.025185 -1.8312989 -15.617188 7
-0.029781001 -1.874878 -15.647461 7
-0.068553999 -4.5028081 -15.402344 7
-0.067874998 -4.540771 -15.385742 7
-0.079319 -4.6029048 -15.458008 7
-0.071071997 -4.6254878 -15.385742 7
-0.077212997 -4.677002 -15.418945 7
-0.077289999 -4.7163091 -15.408203 7
-0.094798997 -4.7927251 -15.525391 7
-0.30360401 -8.0318604 -15.954102 7
-0.30067399 -8.0622559 -15.913086 7
-0.296974 -8.0904541 -15.867188 7
-0.29632601 -8.1281738 -15.842773 7
-0.29566199 -8.1663818 -15.818359 7
-0.300331 -8.2218018 -15.830078 7
-0.310314 -8.2947998 -15.87793 7
-0.61572599 -17.250977 12.729492 7
-0.61579502 -17.223999 12.770508 7
-0.024132 -1.467773 -14.708008 7
-0.019393999 -1.502197 -14.669922 7
-0.017852999 -1.538574 -14.654297 7
-0.0075300001 -1.5687259 -14.575195 7
-0.077572003 -4.494873 -14.477539 7
-0.080058999 -4.5369868 -14.484375 7
-0.072926 -4.5596919 -14.422852 7
-0.075405002 -4.6013179 -14.428711 7
-0.079493999 -4.646606 -14.445312 7
-0.092387997 -4.7105708 -14.523438 7
-0.095675997 -4.7541499 -14.53418 7
-0.28759801 -7.692749 -14.824219 7
-0.29894301 -7.7659912 -14.878906 7
-0.30146 -7.8112788 -14.875 7
-0.29592901 -7.831543 -14.820312 7
-0.29040501 -7.851685 -14.764648 7
-0.28649101 -7.876709 -14.719727 7
-0.28981 -7.9249272 -14.722656 7
-0.29713401 -7.9859619 -14.750977 7
-0.021614 -1.31543 -13.886719 7
-0.019142 -1.3494869 -13.866211 7
-0.011627 -1.380249 -13.811523 7
-0.011688 -1.415894 -13.807617 7
-0.014267 -1.453125 -13.821289 7
-0.015167 -1.4892581 -13.823242 7
-0.029518001 -1.5350339 -13.917969 7
-0.017798999 -1.5625 -13.833984 7
-0.018684 -1.598389 -13.834961 7
-0.056304999 -4.2226558 -13.540039 7
-0.059746001 -4.2641602 -13.552734 7
-0.074146003 -4.3265381 -13.636719 7
-0.069220997 -4.387085 -13.583008 7
-0.070212997 -4.4588618 -13.567383 7
-0.39611799 -9.288208 -13.727539 7
-0.39199099 -9.3081055 -13.680664 7
-0.39123499 -9.3405762 -13.654297 7
-0.387115 -9.3599854 -13.606445 7
-0.38637501 -9.3919678 -13.579102 7
-0.386482 -9.4272461 -13.556641 7
-0.395897 -9.4963379 -13.587891 7
-0.569866 -16.606812 9.1025391 7
-0.56123 -16.536255 9.1171885 7
-0.553482 -16.470581 9.1347656 7
-0.54572302 -16.405151 9.1513672 7
-0.53448498 -16.318726 9.1572266 7
-0.54675299 -16.373535 9.2314453 7
-0.54856098 -16.365601 9.2744141 7
-0.0092540001 -1.179077 -13.056641 7
-0.0040020002 -1.209717 -13.018555 7
-0.011124 -1.247559 -13.0625 7
-0.028091 -1.359131 -13.161133 7
-0.039721999 -3.85376 -12.737305 7
-0.040679999 -3.8881841 -12.732422 7
-0.051383998 -3.940063 -12.790039 7
-0.052329998 -3.974854 -12.786133 7
-0.049743999 -4.003418 -12.760742 7
-0.050705001 -4.0379639 -12.755859 7
-0.047226001 -4.064209 -12.723633 7
-0.070343003 -4.1400151 -12.858398 7
-0.29707301 -7.4055181 -13.074219 7
-0.290939 -7.4205322 -13.019531 7
-0.28747901 -7.4437261 -12.982422 7
-0.28312299 -7.4638672 -12.939453 7
-0.285 -7.5024409 -12.930664 7
-0.29042399 -7.5524902 -12.943359 7
-0.30474901 -7.6295171 -13.007812 7
-0.30572501 -7.6661382 -12.995117 7
-0.51929498 -15.359863 8.8818359 7
-0.50474501 -15.258667 8.8779297 7
-0.49018499 -15.158203 8.8730469 7
-0.48933801 -15.135376 8.9052734 7
-0.013123 -0.98889202 -12.405273 7
0.002598 -1.0137939 -12.303711 7
0.0015679999 -1.078369 -12.303711 7
-0.0086780004 -1.115479 -12.366211 7
-0.01619 -1.1837161 -12.405273 7
-0.025520001 -1.221191 -12.459961 7
-0.005169 -1.241699 -12.330078 7
-0.0070759999 -1.2750241 -12.339844 7
-0.038662001 -3.8494871 -12.003906 7
-0.041508 -3.8861079 -12.011719 7
-0.038791999 -3.912231 -11.985352 7
-0.063965 -3.987915 -12.125 7
-0.060309999 -4.012939 -12.09375 7
-0.060378999 -4.0445561 -12.083984 7
-0.054862998 -4.0657959 -12.040039 7
-0.044704001 -4.0783691 -11.969727 7
-0.28624299 -7.112061 -12.279297 7
-0.28260401 -7.1334229 -12.242188 7
-0.29201099 -7.1923828 -12.275391 7
-0.27904099 -7.1862788 -12.1875 7
-0.280056 -7.2205811 -12.174805 7
-0.27734801 -7.244019 -12.142578 7
-0.27370799 -7.264771 -12.105469 7
-0.268208 -7.2794189 -12.056641 7
-0.38870999 -8.9711914 -11.860352 7
-0.019580999 -3.5411379 -11.265625 7
-0.021594999 -3.573853 -11.268555 7
-0.028492 -3.614624 -11.298828 7
-0.024631999 -3.6378169 -11.267578 7
-0.022755001 -3.664185 -11.24707 7
-0.024761001 -3.697144 -11.250977 7
-0.026783001 -3.7297361 -11.251953 7
-0.037601002 -3.77771 -11.303711 7
-0.046452001 -3.8222661 -11.344727 7
-0.036747001 -3.835083 -11.279297 7
-0.37427899 -8.6550293 -11.016602 7
-0.383205 -8.7142334 -11.038086 7
-0.38036001 -8.7332764 -11.003906 7
-0.37652999 -8.7484131 -10.962891 7
-0.37956601 -8.7873545 -10.956055 7
-0.38563901 -8.8659668 -10.943359 7
-0.067116 2.556885 -11.414062 7
-0.056403998 2.5137939 -11.357422 7
-0.054489002 2.4807129 -11.352539 7
-0.057464998 2.4532471 -11.375977 7
-0.057503 2.422852 -11.380859 7
-0.063408002 2.398315 -11.419922 7
-0.062469002 2.3665769 -11.419922 7
-0.066428997 2.3399661 -11.448242 7
-0.080150999 2.3231201 -11.53418 7
-0.090930998 2.302856 -11.602539 7
-0.082188003 2.262939 -11.555664 7
-0.004642 -0.661255 -11.115234 7
-0.0057109999 -0.69103998 -11.120117 7
0.00036199999 -0.71826202 -11.083984 7
0.007458 -0.74487299 -11.041992 7
0.007404 -0.77380401 -11.039062 7
0.004307 -0.80383301 -11.053711 7
0.000187 -0.83447301 -11.075195 7
0.0021780001 -0.86279303 -11.061523 7
-0.009075 -0.89660603 -11.124023 7
-0.005047 -0.92395002 -11.09668 7
-0.001019 -0.95104998 -11.071289 7
-0.024036 -3.5279541 -10.68457 7
-0.028248001 -3.5913091 -10.689453 7
-0.028301001 -3.619751 -10.681641 7
-0.050845999 -3.6845701 -10.793945 7
-0.039669 -3.6943359 -10.723633 7
-0.042842999 -3.7563479 -10.722656 7
-0.052158002 -3.828613 -10.754883 7
-0.27000001 -6.7570801 -10.759766 7
-0.269054 -6.7827148 -10.738281 7
-0.27630201 -6.830811 -10.756836 7
-0.281506 -6.8735352 -10.765625 7
-0.27647001 -6.8875728 -10.724609 7
-0.27143499 -6.9017329 -10.683594 7
-0.27151099 -6.92981 -10.666992 7
-0.271595 -6.9578862 -10.649414 7
-0.270657 -6.9831538 -10.628906 7
-0.278927 -7.0344238 -10.650391 7
-0.37823901 -8.6065674 -10.239258 7
0.00039299999 -0.49133301 -10.50293 7
-0.002598 -0.51904303 -10.512695 7
-0.00049200002 -0.54638702 -10.5 7
0.0026819999 -0.57336402 -10.481445 7
0.011189 -0.59851098 -10.433594 7
0.012211 -0.62585402 -10.426758 7
-0.023403 -3.2232671 -10.144531 7
-0.025607999 -3.2532959 -10.147461 7
-0.026737001 -3.281738 -10.145508 7
-0.026798001 -3.3088379 -10.137695 7
-0.028996 -3.338989 -10.140625 7
-0.038692001 -3.3804929 -10.182617 7
-0.024822 -3.38623 -10.102539 7
-0.029162999 -3.4194341 -10.116211 7
-0.030300001 -3.4481201 -10.113281 7
-0.034641001 -3.481689 -10.126953 7
-0.363693 -8.3217773 -9.4814453 7
-0.36699301 -8.3579102 -9.4755859 7
-0.36708501 -8.3835449 -9.4560547 7
-0.365013 -8.4017334 -9.4267578 7
-0.37048 -8.4447021 -9.4287109 7
-0.36842 -8.4626455 -9.3994141 7
-0.37173799 -8.4987793 -9.3935547 7
-0.37720901 -8.5418701 -9.3955078 7
-0.38483801 -8.5925293 -9.40625 7
-0.38815701 -8.6282959 -9.3994141 7
0.011658 -0.56823701 -9.9179688 7
-0.032116 -3.2203369 -9.6494141 7
-0.032177001 -3.2459719 -9.6416016 7
-0.040057998 -3.283447 -9.6728516 7
-0.031169999 -3.2956541 -9.6201172 7
-0.032345001 -3.3231201 -9.6171885 7
-0.033512 -3.3505859 -9.6152344 7
-0.038043998 -3.3830571 -9.6289062 7
-0.044810999 -3.4189451 -9.6533203 7
-0.053822 -3.45874 -9.6904297 7
-0.042690001 -3.4669189 -9.625 7
-0.046108 -3.497925 -9.6337891 7
-0.250732 -6.4030762 -9.4101562 7
-0.25312001 -6.459229 -9.3896484 7
-0.27122501 -6.5577388 -9.4365234 7
-0.25566101 -6.5657959 -9.3369141 7
-0.254684 -6.6126709 -9.2998047 7
-0.25371599 -6.6594238 -9.2636719 7
-0.259399 -6.7000728 -9.2724609 7
-0.032055002 -3.205688 -9.1396484 7
-0.030949 -3.22876 -9.1269531 7
-0.035664 -3.260376 -9.1416016 7
-0.036892001 -3.286377 -9.1386719 7
-0.045116 -3.3232419 -9.1689453 7
-0.054515999 -3.3621831 -9.2060547 7
-0.045231 -3.3721919 -9.1523438 7
-0.047610998 -3.4005129 -9.1552734 7
-0.04417 -3.4195559 -9.1298828 7
-0.051228002 -3.4552 -9.1552734 7
-0.050113998 -3.4776609 -9.140625 7
-0.059505001 -3.517334 -9.1777344 7
-0.35829201 -8.006958 -8.2099609 7
-0.36307499 -8.0439453 -8.2080078 7
-0.36206099 -8.085083 -8.1660156 7
-0.36331201 -8.1112061 -8.1503906 7
-0.36691299 -8.1446533 -8.1445312 7
-0.364647 -8.1594238 -8.1162109 7
-0.364723 -8.1817627 -8.0966797 7
-0.36480701 -8.2041016 -8.078125 7
-0.36606601 -8.2296143 -8.0615234 7
-0.372017 -8.2706299 -8.0634766 7
0.019393999 -0.19616701 -8.5068359 7
0.025085 -0.218384 -8.4785156 7
0.023781 -0.241699 -8.484375 7
0.02375 -0.26464799 -8.4833984 7
0.024986001 -0.28710899 -8.4765615 7
0.018616 -0.311279 -8.5048828 7
-0.24653199 -6.1118159 -7.7236328 7
-0.247868 -6.1364751 -7.7138672 7
-0.25054899 -6.1850591 -7.6923828 7
-0.23914699 -6.1768799 -7.6357422 7
-0.240559 -6.2220459 -7.6113281 7
-0.24062701 -6.2431641 -7.5966802 7
-0.24324401 -6.270752 -7.5908198 7
-0.25351 -6.3178711 -7.6123052 7
-0.26129901 -6.380127 -7.610352 7
-0.005291 -0.121582 -8.2138672 7
-4.2e-05 -0.143677 -8.1914062 7
0.002563 -0.16577099 -8.1796885 7
0.0064849998 -0.1875 -8.1611328 7
0.010414 -0.20922901 -8.1435547 7
0.0090640001 -0.23168901 -8.1484385 7
0.001122 -0.25488299 -8.1826172 7
-0.000237 -0.27722201 -8.1865234 7
0.0063479999 -0.29858401 -8.1582031 7
-0.005138 -0.01001 -8.2158203 7
-0.246288 -5.9993901 -6.7158198 7
-0.244976 -6.014771 -6.6972661 7
-0.24918699 -6.0440669 -6.6962891 7
-0.247868 -6.0593262 -6.6767578 7
-0.247936 -6.0780029 -6.6621089 7
-0.242588 -5.7766109 -6.3818359 7
-0.246944 -5.8052979 -6.382812 7
-0.24270201 -5.8129878 -6.3554692 7
-0.25137699 -5.8511958 -6.367188 7
-0.25287199 -5.8728032 -6.3574219 7
-0.247196 -5.8773189 -6.3261719 7
-0.24009299 -5.877686 -6.2900391 7
-0.24445701 -5.9060059 -6.289062 7
-0.24451099 -5.9239502 -6.2753911 7
-0.244579 -5.9414058 -6.2597661 7
-0.248943 -5.9700928 -6.2587891 7
-0.248997 -5.987915 -6.2451172 7
-0.247623 -6.0020752 -6.226562 7
-0.25342199 -6.0341802 -6.2304692 7
-0.26351199 -6.0767822 -6.2470698 7
-0.24999601 -5.773438 -5.9404302 7
-0.25452 -5.801147 -5.9404302 7
-0.24563999 -5.7969971 -5.9003911 7
-0.241238 -5.8031011 -5.8730469 7
-0.244267 -5.827271 -5.8691411 7
-0.24432801 -5.8441162 -5.8544922 7
-0.251827 -5.879272 -5.8632808 7
-0.25189599 -5.895752 -5.8476558 7
-0.245998 -5.8980708 -5.8164058 7
-0.260952 -5.9512939 -5.8457031 7
-0.268448 -5.9864502 -5.8535161 7
-0.259579 -5.9813228 -5.813477 7
-0.25964001 -5.9979248 -5.7988281 7
-0.26417199 -6.0253911 -5.796875 7
-0.27762601 -6.0751948 -5.8212891 7
-0.26875299 -6.0699458 -5.78125 7
-0.24184801 -5.7679439 -5.460938 7
-0.241909 -5.7841802 -5.4482422 7
-0.233677 -5.611938 -5.09375 7
-0.23534 -5.6306152 -5.0830078 7
-0.23378401 -5.6420898 -5.0664058 7
-0.237041 -5.6646729 -5.061523 7
-0.237095 -5.679565 -5.047852 7
-0.238758 -5.6981201 -5.0380859 7
-0.23721699 -5.7093511 -5.0205078 7
-0.232475 -5.712769 -4.9941411 7
-0.237331 -5.7391362 -4.9931641 7
-0.227615 -5.441895 -4.7841802 7
-0.22435801 -5.4484859 -4.7626948 7
-0.239338 -5.496582 -4.7871089 7
-0.23441701 -5.4996338 -4.7617192 7
-0.23446301 -5.5140381 -4.749023 7
-0.234524 -5.5281978 -4.7363281 7
-0.231262 -5.53479 -4.7138672 7
-0.227997 -5.5413818 -4.6923828 7
-0.231369 -5.5628662 -4.686523 7
-0.22889701 -5.5700679 -4.6650391 7
-0.23061401 -5.587769 -4.655273 7
-0.23065899 -5.6019292 -4.641602 7
-0.22574601 -5.604248 -4.6162109 7
-0.23243 -5.6339111 -4.6201172 7
-0.24078 -5.6673579 -4.6279302 7
-0.240841 -5.6810298 -4.6132808 7
-0.252514 -5.7225342 -4.6279302 7
-0.25588599 -5.7441411 -4.6220698 7
-0.25429201 -5.7539058 -4.6044922 7
-0.242718 -5.7407231 -4.563477 7
-0.218803 -5.4442139 -4.313477 7
-0.215416 -5.449585 -4.2919922 7
-0.212036 -5.4552002 -4.2724609 7
-0.218971 -5.4836431 -4.273438 7
-0.22245 -5.5048828 -4.2695308 7
-0.215637 -5.5021968 -4.2402339 7
-0.213966 -5.51123 -4.2236328 7
-0.22089399 -5.5401611 -4.2255859 7
-0.231262 -5.5769038 -4.235352 7
-0.226166 -5.5776372 -4.2099609 7
-0.23996399 -5.6226811 -4.2285161 7
-0.23313899 -5.6199951 -4.1992192 7
-0.241779 -5.6529541 -4.2060552 7
-0.23840301 -5.657959 -4.1845698 7
-0.240162 -5.6750488 -4.1757808 7
-0.28152299 3.2418759 20.582317 7
0.081808001 -1.453666 -13.885192 7
-0.036511999 -4.4845099 -14.504386 7
0.040252998 -3.7155609 -10.576885 7
-0.057852 -3.277647 -8.3570089 7
-0.43295801 -8.4678192 -9.549757 7
-0.28565699 -6.2317829 -7.7341871 7
-0.22040901 -5.8565559 -5.9346819 7
-0.182036 -5.5348349 -4.711051 7
-0.147037 0.646595 -18.783161 7
-0.082693003 -0.77317703 -10.968775 7
-0.078533001 -3.6403251 -10.482992 7
-0.0090979999 -2.957128 -7.883471 7
-0.35592201 -7.17521 -12.064299 7
