# .PCD v0.7 - Point Cloud Data file format
VERSION 0.7
FIELDS x y z intensity
SIZE 4 4 4 4
TYPE F F F F
COUNT 1 1 1 1
WIDTH 861
HEIGHT 1
VIEWPOINT 0 0 0 1 0 0 0
POINTS 861
DATA ascii
2.183773 63.778564 -7.7431641 7
2.0231631 60.445801 -6.7988281 7
2.0232179 60.553467 -6.9589839 7
1.389402 44.615479 -2.710938 7
1.3892879 44.628662 -2.8183589 7
1.38253 45.027588 -3.1787109 7
1.405045 43.813721 -6.1064448 7
1.395594 44.343262 -6.3066411 7
1.301847 43.243652 -2.2548831 7
1.304754 43.106201 -2.3457029 7
1.299826 43.353271 -2.4707029 7
1.310593 42.845215 -5.8164058 7
1.314743 42.637451 -5.8837891 7
1.123175 40.148438 -1.691406 7
1.124365 40.105469 -1.783203 7
1.124342 40.108887 -1.878906 7
-0.31049201 22.22876 71.65332 7
1.086967 36.894531 -4.1787109 7
1.092873 36.69043 -4.235352 7
1.089165 36.809082 -4.34375 7
1.080126 37.107666 -4.4794922 7
-0.206352 -13.643555 -69.012695 7
-0.21309499 -14.011719 -69.130859 7
-0.36598799 13.789551 67.734375 7
-0.413073 14.205078 68.931641 7
-0.41628301 14.383789 68.989258 7
-0.438658 14.669678 69.543945 7
-0.27707899 16.503418 64.854492 7
-0.286659 16.719727 65.069336 7
-0.31513801 17.06665 65.771484 7
-0.15984499 -11.387695 -60.452148 7
-0.081165001 -11.144287 -58.348633 7
-0.152622 -11.640625 -60.197266 7
-0.195463 -12.000977 -61.289062 7
-0.28094101 -12.584473 -63.5 7
-0.31890699 11.696289 60.390625 7
-0.38078299 12.12915 61.825195 7
-0.43436101 12.529053 63.063477 7
-0.261978 14.437988 58.522461 7
-0.29694 14.782715 59.30957 7
-0.291798 14.890137 59.162109 7
-0.28190199 16.064209 58.665039 7
-0.29131499 16.263184 58.852539 7
-0.24294899 16.080078 57.700195 7
-0.30199799 19.490723 58.292969 7
0.90703201 34.248535 -0.180664 7
-0.176769 -9.9885254 -55.205078 7
-0.21597099 -10.289062 -56.114258 7
-0.25278699 -10.584229 -56.963867 7
-0.21588901 -10.557617 -56.051758 7
-0.253672 -10.860596 -56.923828 7
-0.12763999 -13.377197 -53.12793 7
-0.099361002 -13.338867 -52.424805 7
-0.118401 -13.576416 -52.834961 7
-0.053164002 -13.313965 -51.266602 7
-0.33909601 10.521484 55.904297 7
-0.40297899 10.92041 57.263672 7
-0.516922 11.539795 59.700195 7
-0.29680601 13.264404 54.478516 7
-0.27343899 13.264893 53.956055 7
-0.322294 13.65625 54.972656 7
-0.288008 15.228271 53.847656 7
-0.26679999 15.221436 53.368164 7
-0.24876601 15.23291 52.957031 7
-0.335585 18.591797 54.089844 7
-0.30544299 18.494141 53.423828 7
-0.26394999 18.308594 52.520508 7
-0.107712 -7.8781738 -48.664062 7
-0.14394601 -8.1220703 -49.429688 7
-0.178068 -8.3623047 -50.149414 7
-0.21670701 -8.6220703 -50.966797 7
-0.25510201 -8.8845205 -51.775391 7
-0.28843901 -9.1325684 -52.474609 7
-0.336384 -9.4384766 -53.491211 7
-0.073417999 -11.079346 -47.158203 7
-0.110722 -11.493164 -47.895508 7
-0.161963 -11.86792 -48.961914 7
-0.091995001 -12.309326 -47.237305 7
-0.108068 -12.625488 -47.513672 7
-0.034026999 -12.327148 -45.904297 7
-0.328123 9.1386719 51.149414 7
-0.39304399 9.4960938 52.416992 7
-0.42799199 9.7475586 53.088867 7
-0.48124701 10.071289 54.123047 7
-0.26567999 11.55127 49.463867 7
-0.30926099 11.873291 50.294922 7
-0.29219601 11.907471 49.9375 7
-0.33228499 12.217529 50.699219 7
-0.28361899 14.273438 49.224609 7
-0.239655 14.131348 48.344727 7
-0.26459301 14.390137 48.799805 7
-0.213984 14.203369 47.791992 7
-0.31732601 17.457031 49.03125 7
-0.27923599 17.303711 48.272461 7
-0.249521 17.205811 47.672852 7
-0.21750499 17.088867 47.030273 7
0.80965799 30.233887 -2.570312 7
0.80564702 30.31665 -2.6542971 7
0.79900903 30.457275 -2.7480471 7
0.80209899 30.383545 -2.8105471 7
-0.115028 -6.8349609 -45.033203 7
-0.137594 -7.0117192 -45.467773 7
-0.17510401 -7.2373052 -46.203125 7
-0.214054 -7.470459 -46.964844 7
-0.25672901 -7.7189941 -47.802734 7
-0.30517799 -7.9899902 -48.753906 7
-0.336676 -8.2102051 -49.363281 7
-0.069424003 -9.8710938 -43.429688 7
-0.091178998 -10.072266 -43.833984 7
-0.096244998 -10.200684 -43.90625 7
-0.143641 -10.520752 -44.816406 7
-0.16227099 -11.797607 -44.854492 7
-0.121986 -11.806641 -44 7
-0.093340002 -11.763916 -43.40625 7
-0.058922 -11.689209 -42.700195 7
-0.42487699 8.6784668 49.422852 7
-0.45313299 8.8874512 49.925781 7
-0.497982 9.1555176 50.733398 7
-0.353605 11.090576 47.65918 7
-0.30528501 10.987061 46.757812 7
-0.303186 11.085938 46.698242 7
-0.27985799 11.088379 46.251953 7
-0.26403999 13.457031 45.429688 7
-0.27345499 13.614502 45.571289 7
-0.235228 13.506104 44.858398 7
-0.330246 16.714111 45.774414 7
-0.296139 16.591797 45.138672 7
-0.257994 16.439697 44.432617 7
-0.227953 16.339111 43.871094 7
0.72182697 29.749268 1.044922 7
0.74669802 29.190186 -2.3369141 7
0.736332 29.395508 -2.4355471 7
-0.106403 -5.6291499 -40.926758 7
-0.129816 -5.787354 -41.342773 7
-0.155439 -5.953125 -41.798828 7
-0.174786 -6.104248 -42.136719 7
-0.214577 -6.3110352 -42.850586 7
-0.03686 -8.5109863 -39.032227 7
-0.05088 -8.659668 -39.262695 7
-0.07626 -8.8544922 -39.699219 7
-0.114235 -9.1013184 -40.364258 7
-0.100475 -10.87793 -39.611328 7
-0.087866001 -11.008057 -39.327148 7
-0.283672 -14.812256 -41.845703 7
-0.26456299 -14.797119 -41.473633 7
-0.237856 -14.733887 -40.967773 7
-0.224911 12.16748 41.180664 7
-0.215887 12.216064 41.006836 7
-0.199751 12.228027 40.71582 7
-0.186996 12.255615 40.480469 7
-0.195265 12.391846 40.59082 7
-0.17572799 12.382568 40.244141 7
-0.261738 15.514404 40.856445 7
-0.20824599 15.359375 39.931641 7
-0.188427 15.323486 39.580078 7
0.66693699 28.132812 1.5224611 7
0.66765398 28.126709 1.390625 7
0.66879803 28.108887 1.325195 7
-0.112196 -4.6523442 -37.864258 7
-0.156738 -4.9304199 -38.594727 7
-0.19276001 -5.1975098 -39.180664 7
-0.219805 -5.353271 -39.625977 7
-0.037617002 -7.4177251 -36.053711 7
-0.057190001 -7.5717769 -36.362305 7
-0.042986002 -7.6115718 -36.104492 7
-0.072144002 -7.8000488 -36.571289 7
-0.087645002 -7.9433589 -36.810547 7
-0.096161 -10.283936 -36.325195 7
-0.067226 -10.240479 -35.822266 7
-0.097815998 -10.467529 -36.298828 7
-0.073344998 -10.442139 -35.869141 7
-0.289114 -14.075928 -38.492188 7
-0.26427501 -14.026367 -38.056641 7
-0.2456 -14.010254 -37.720703 7
-0.235844 -14.044189 -37.527344 7
-0.15110201 11.369873 37.084961 7
-0.15290099 11.54834 37.063477 7
-0.236507 14.590576 37.521484 7
-0.230474 14.640625 37.401367 7
-0.203339 14.561035 36.966797 7
-0.188936 14.557617 36.72168 7
-0.165806 14.499268 36.34668 7
-0.19043501 -4.067627 -35.887695 7
-0.199095 -4.170166 -36.011719 7
-0.211468 -4.2797852 -36.191406 7
-0.031477001 -6.7077641 -32.883789 7
-0.043873001 -6.8261719 -33.056641 7
-0.013481 -6.8125 -32.570312 7
-0.074955001 -9.5891113 -32.820312 7
-0.100809 -9.7797852 -33.18457 7
-0.090511002 -9.8161621 -33.004883 7
-0.2911 -13.354004 -35.069336 7
-0.26773301 -13.311768 -34.69043 7
-0.251461 -13.306152 -34.417969 7
-0.24451999 -13.351562 -34.283203 7
-0.39736199 5.7990718 38.946289 7
-0.16837101 10.567627 34.547852 7
-0.146439 10.547363 34.216797 7
-0.182659 10.790283 34.703125 7
-0.153595 10.736328 34.272461 7
-0.220837 13.842285 34.306641 7
-0.200132 13.801025 33.994141 7
-0.16740599 13.764648 33.490234 7
0.55423498 25.543457 2.1826169 7
0.55330497 25.562744 2.124023 7
0.55089402 25.60498 2.063477 7
0.553312 25.570557 2.0019529 7
0.55497599 25.548584 1.9423831 7
-0.123344 -3.2050779 -32.526367 7
-0.135763 -3.3022461 -32.699219 7
-0.153736 -3.4086909 -32.952148 7
-0.176493 -3.5231929 -33.274414 7
-0.060215 -6.5671391 -31.008789 7
-0.051564999 -6.6176758 -30.867188 7
-0.043706998 -6.6696782 -30.737305 7
-0.03627 -6.722168 -30.612305 7
-0.029221 -6.7753911 -30.493164 7
-0.020966999 -6.8239751 -30.356445 7
-0.0091509996 -6.861084 -30.168945 7
-0.080716997 -8.9750977 -30.672852 7
-0.117525 -9.1970205 -31.166992 7
-0.085096002 -9.2167969 -30.663086 7
-0.267239 -12.508057 -32.305664 7
-0.28736299 -12.689697 -32.549805 7
-0.28312099 -12.74707 -32.459961 7
-0.268482 -12.749756 -32.227539 7
-0.25865 -12.776367 -32.060547 7
-0.176929 10.096924 32.592773 7
-0.150206 10.055664 32.21875 7
-0.147093 10.115723 32.157227 7
-0.153662 10.217773 32.222656 7
-0.13578799 10.211914 31.96582 7
-0.220194 13.191162 32.183594 7
-0.219576 13.260742 32.146484 7
-0.205524 13.256104 31.938477 7
-0.18601 13.220215 31.661133 7
-0.17489401 13.230469 31.493164 7
-0.18940499 13.384277 31.647461 7
-0.077422999 -2.338135 -29.446289 7
-0.084798999 -2.4182129 -29.540039 7
-0.104191 -2.512207 -29.795898 7
-0.063822001 -8.3234863 -28.056641 7
-0.06566 -8.3994141 -28.05957 7
-0.07914 -8.5183105 -28.211914 7
-0.076241001 -8.5769043 -28.152344 7
-0.266188 -11.874756 -29.682617 7
-0.29741099 -12.099365 -30.045898 7
-0.28806701 -12.126709 -29.897461 7
-0.273954 -12.129883 -29.689453 7
-0.263311 -12.148926 -29.524414 7
-0.220194 6.7275391 31.591797 7
-0.21050499 6.7712402 31.456055 7
-0.20672201 6.831543 31.394531 7
-0.210207 6.9125981 31.422852 7
-0.21143501 6.9873052 31.424805 7
-0.16412701 9.4064941 30.196289 7
-0.13676301 9.3642578 29.841797 7
-0.116661 9.3503418 29.576172 7
-0.157764 9.5852051 30.057617 7
-0.13085701 9.5424805 29.708008 7
-0.208849 12.616943 29.701172 7
-0.20370699 12.657227 29.612305 7
-0.184093 12.620117 29.354492 7
-0.16269501 12.571533 29.075195 7
0.50910401 22.715332 -0.680664 7
0.501118 22.820557 -0.74609399 7
0.49270201 22.931396 -0.81054699 7
0.50185001 22.803955 -0.85156202 7
0.50285703 22.786621 -0.90429699 7
0.50472599 22.75708 -0.95507801 7
-0.056483999 -7.4125981 -26.12207 7
-0.052905999 -7.4648442 -26.060547 7
-0.053004999 -7.5292969 -26.041992 7
-0.050816 -7.5856929 -25.995117 7
-0.053226002 -7.657959 -26.005859 7
-0.070863999 -7.7827148 -26.200195 7
-0.066010997 -7.8952641 -26.101562 7
-0.311975 -11.626709 -28.03418 7
-0.29177499 -11.600586 -27.769531 7
-0.28175899 -11.621094 -27.62207 7
-0.27728099 -11.666748 -27.539062 7
-0.28572699 -11.775146 -27.609375 7
-1.6982729 -44.340088 16.520508 7
-0.38580701 3.9851069 32.0625 7
-0.158823 9.1047363 28.249023 7
-0.136913 9.0827637 27.979492 7
-0.120329 9.0803223 27.769531 7
-0.15254401 9.270752 28.117188 7
-0.207773 12.051514 27.810547 7
-0.20325699 12.091553 27.734375 7
-0.192957 12.102051 27.59375 7
-0.180264 12.099365 27.427734 7
0.466436 21.767334 -0.36328101 7
0.47208801 21.692871 -0.40820301 7
0.46764901 21.746582 -0.46484399 7
0.46092001 21.828613 -0.524414 7
0.46153101 21.818115 -0.57519501 7
0.46671101 21.749512 -0.61914098 7
-0.081796996 -1.3937989 -25.462891 7
-0.091255002 -1.462891 -25.570312 7
-0.138927 -1.6875 -26.118164 7
-0.13850001 -1.751953 -26.108398 7
-0.29573601 -10.98877 -25.667969 7
-0.28044099 -10.983887 -25.474609 7
-0.271622 -11.006592 -25.351562 7
-0.264292 -11.0354 -25.244141 7
-1.432858 -38.358643 14.892578 7
-1.422153 -38.211182 14.941406 7
-1.389137 -37.828125 14.905273 7
-1.373529 -36.358643 17.885742 7
-0.183893 5.7207031 27.396484 7
-0.143518 8.4318848 26.24707 7
-0.12055 8.4067383 25.984375 7
-0.111601 8.432373 25.870117 7
-0.13954499 8.5991211 26.158203 7
-0.119711 8.5839844 25.928711 7
-0.111799 8.6125488 25.826172 7
-0.186075 11.597412 25.582031 7
-0.17299999 11.591064 25.422852 7
-0.16457701 11.606201 25.311523 7
-0.159245 11.637207 25.232422 7
-0.177156 11.783447 25.388672 7
-0.063345 -6.7868652 -22.467773 7
-0.053885002 -6.813477 -22.349609 7
-0.05345 -6.8676758 -22.328125 7
-0.077435002 -6.997314 -22.5625 7
-0.068507999 -7.0258789 -22.452148 7
-0.28926799 -10.469238 -23.724609 7
-1.223372 -32.250732 16.946289 7
-0.19648001 5.2692871 25.912109 7
-0.188593 5.3095698 25.819336 7
-0.185709 5.361084 25.779297 7
-0.182825 5.4121089 25.738281 7
-0.124996 8.0014648 24.451172 7
-0.11491 8.0212402 24.333984 7
-0.14575399 8.1838379 24.623047 7
-0.124592 8.1638184 24.394531 7
-0.121151 8.2062988 24.342773 7
-0.132624 8.3017578 24.438477 7
-0.176973 10.924316 23.917969 7
-0.18289401 11.005371 23.950195 7
-0.19486199 11.114746 24.039062 7
-0.19360401 11.162842 24.001953 7
-0.181871 11.161133 23.866211 7
-0.17290699 11.172363 23.756836 7
-0.16614 11.193604 23.667969 7
0.34376901 20.05835 3.476562 7
0.34711099 20.027832 3.425781 7
0.35152099 19.985596 3.374023 7
0.35113099 19.99585 3.327148 7
0.34595099 20.058105 3.2861331 7
0.34663799 20.056396 3.238281 7
-0.055328 -6.4333501 -20.828125 7
-0.059385002 -6.496582 -20.851562 7
-0.067427002 -6.572021 -20.914062 7
-0.066381 -6.6210942 -20.886719 7
-0.065893002 -6.6716309 -20.865234 7
-0.28143501 -9.9858398 -21.945312 7
-0.29235101 -10.084473 -22.023438 7
-0.279383 -10.086182 -21.876953 7
-0.27438501 -10.119385 -21.804688 7
-0.27392799 -10.171631 -21.776367 7
-1.0639189 -29.960693 12.818359 7
-1.080282 -30.025635 13.086914 7
-1.119778 -29.157959 15.886719 7
-1.106304 -29.003906 15.895508 7
-1.089308 -28.818604 15.887695 7
-1.072891 -28.638916 15.881836 7
-1.076569 -28.635742 15.96582 7
-1.066643 -28.513184 15.987305 7
-0.178247 4.8027339 24.241211 7
-0.17222799 4.8444819 24.173828 7
-0.16502599 4.8833008 24.09375 7
-0.164919 4.936523 24.082031 7
-0.16482 4.9899902 24.071289 7
-0.163523 5.040771 24.047852 7
-0.169329 5.106689 24.091797 7
-0.126673 7.5109859 23.03125 7
-0.117588 7.5837402 22.914062 7
-0.110981 7.6130371 22.835938 7
-0.14092299 7.763916 23.097656 7
-0.178261 10.605713 22.367188 7
-0.186333 10.69165 22.414062 7
-0.184433 10.733398 22.374023 7
-0.173134 10.731689 22.25 7
-0.165949 10.748535 22.163086 7
0.310675 19.041748 3.8251951 7
0.30870101 19.075195 3.738281 7
0.309975 19.068359 3.691406 7
0.31580201 19.015625 3.640625 7
0.31481001 19.031982 3.5966799 7
0.31039399 19.083496 3.5576169 7
-0.075308003 -6.0952148 -19.688477 7
-0.065146998 -6.1166992 -19.579102 7
-0.068852998 -6.1757808 -19.597656 7
-0.085804 -6.2719731 -19.739258 7
-0.082281001 -6.3112788 -19.69043 7
-0.083577998 -6.3642578 -19.686523 7
-0.298576 -9.6523438 -20.615234 7
-0.30351999 -9.7231445 -20.634766 7
-0.296381 -9.7460938 -20.546875 7
-0.28923199 -9.769043 -20.460938 7
-0.28814101 -9.8154297 -20.425781 7
-0.98442602 -26.028076 15.099609 7
-0.98516703 -26.000977 15.164062 7
-0.973997 -25.875977 15.175781 7
-0.96283001 -25.750732 15.1875 7
-0.97735399 -25.835938 15.3125 7
-0.185219 4.481689 23.006836 7
-0.176346 4.515625 22.916016 7
-0.168093 4.550293 22.831055 7
-0.16925199 4.6035161 22.833008 7
-0.16601799 4.6477051 22.793945 7
-0.162783 4.6916499 22.753906 7
-0.170206 4.7570801 22.811523 7
-0.12604 7.3139648 21.711914 7
-0.1178 7.3361821 21.625 7
-0.151419 7.4919429 21.90332 7
-0.181602 10.280762 21.054688 7
-0.189558 10.362061 21.097656 7
-0.192533 10.421875 21.098633 7
-0.18678901 10.443115 21.027344 7
-0.177315 10.448242 20.926758 7
-0.171562 10.469482 20.856445 7
-0.165199 10.487305 20.780273 7
-0.058440998 0.29321301 -18.907227 7
-0.067466997 0.24585 -18.989258 7
-0.075216003 0.197998 -19.060547 7
-0.078534998 0.14917 -19.089844 7
-0.085661002 0.100586 -19.15332 7
-0.089612998 0.051757999 -19.189453 7
-0.034164 -3.0817871 -18.661133 7
-0.063804999 -5.69873 -18.307617 7
-0.05562 -5.769043 -18.208008 7
-0.066611998 -5.8435059 -18.288086 7
-0.071181998 -5.9013672 -18.313477 7
-0.069343999 -5.942627 -18.282227 7
-0.069426998 -5.9885249 -18.267578 7
-0.082975 -6.0708008 -18.371094 7
-0.30385 -9.3283691 -19.208008 7
-0.300089 -9.3625488 -19.154297 7
-0.28925699 -9.3688955 -19.041992 7
-0.288715 -9.4145508 -19.015625 7
-0.28431299 -9.4450684 -18.955078 7
-0.30179 -9.5598145 -19.075195 7
-0.38764399 -11.149902 -19.103516 7
-0.387117 -11.195068 -19.070312 7
-0.166862 4.1933589 21.571289 7
-0.16144 4.2312012 21.516602 7
-0.160685 4.2773442 21.500977 7
-0.15659501 4.316895 21.456055 7
-0.164398 4.4265141 21.503906 7
-0.117846 6.7714839 20.464844 7
-0.116411 6.8120122 20.4375 7
-0.131577 6.9021001 20.546875 7
-0.109552 6.8815918 20.350586 7
-0.104137 6.909668 20.291016 7
-0.096721999 6.9318848 20.213867 7
-0.177908 10.012207 19.676758 7
-0.171829 10.029785 19.608398 7
-0.157013 10.052734 19.448242 7
-0.152924 10.078125 19.395508 7
-0.143534 10.080078 19.299805 7
-0.155968 10.177246 19.373047 7
-0.02035 -2.5739751 -17.482422 7
-0.027863 -2.6269529 -17.539062 7
-0.0089379996 -2.6481929 -17.371094 7
-0.017817 -2.7028811 -17.439453 7
-0.022623001 -2.7531741 -17.472656 7
-0.030136 -2.8066411 -17.529297 7
-0.024103001 -2.8435061 -17.47168 7
-0.068108 -5.469727 -17.225586 7
-0.062075 -5.498291 -17.162109 7
-0.055360999 -5.5249019 -17.092773 7
-0.081238002 -5.6325679 -17.291992 7
-0.079956003 -5.672852 -17.266602 7
-0.079352997 -5.715332 -17.248047 7
-0.076714002 -5.751709 -17.211914 7
-0.300028 -9.0134277 -17.932617 7
-0.28786799 -9.0141602 -17.81543 7
-0.28807399 -9.1044922 -17.772461 7
-0.29089701 -9.1586914 -17.770508 7
-0.29984501 -9.2370605 -17.818359 7
-0.12970001 6.8183589 19.416016 7
-0.11207 6.8088379 19.264648 7
-0.110567 6.8461909 19.237305 7
-0.116646 6.9492192 19.253906 7
-0.162811 9.6057129 18.489258 7
-0.17373499 9.7321777 18.524414 7
-0.16384099 9.7316895 18.431641 7
-0.158829 9.7514648 18.373047 7
-0.162193 9.8056641 18.375 7
-0.15577701 9.8190918 18.306641 7
-0.16054501 9.8789062 18.318359 7
-0.081114002 0.46630901 -18.21875 7
-0.017572001 -2.260498 -16.416016 7
-0.017626001 -2.30249 -16.411133 7
-0.0033150001 -2.328613 -16.288086 7
-0.010555 -2.377686 -16.34082 7
-0.010662 -2.460938 -16.329102 7
-0.01791 -2.5107419 -16.379883 7
-0.015095 -2.548584 -16.350586 7
-0.052781999 -5.125977 -16.053711 7
-0.058603 -5.1801758 -16.085938 7
-0.054361001 -5.210938 -16.040039 7
-0.050120998 -5.2416992 -15.994141 7
-0.068177998 -5.3249512 -16.121094 7
-0.071846001 -5.3747559 -16.135742 7
-0.072639003 -5.4172359 -16.12793 7
-0.288937 -8.6765137 -16.652344 7
-0.28037801 -8.6879883 -16.569336 7
-0.276144 -8.7148438 -16.517578 7
-0.27334401 -8.746582 -16.475586 7
-0.27993599 -8.8115234 -16.500977 7
-0.29084399 -8.8925781 -16.557617 7
-0.29526901 -8.9504395 -16.568359 7
-0.68691599 -19.030273 13.211914 7
-0.69814497 -19.076416 13.301758 7
-0.69674098 -19.03833 13.339844 7
-0.69160801 -18.97583 13.363281 7
-0.678303 -18.859375 13.353516 7
-0.68060702 -18.845703 13.407227 7
-0.16518401 3.529541 19.469727 7
-0.158325 3.604248 19.401367 7
-0.147837 3.630127 19.313477 7
-0.15072601 3.677002 19.327148 7
-0.14462499 3.7519529 19.265625 7
-0.143793 3.7927251 19.25 7
-0.141481 3.8310549 19.224609 7
-0.28035501 -8.3269043 -15.52832 7
-0.29112101 -8.4025879 -15.581055 7
-0.282148 -8.4509277 -15.478516 7
-0.28375101 -8.4953613 -15.46875 7
-0.28079799 -8.5246582 -15.427734 7
-0.281652 -8.5666504 -15.413086 7
-0.61899602 -17.268311 12.806641 7
-0.62142199 -17.255859 12.856445 7
-0.61363399 -17.180908 12.865234 7
-0.60663801 -17.110107 12.876953 7
-0.60670698 -17.083008 12.916992 7
-0.611498 -17.084717 12.977539 7
-0.61235201 -17.061768 13.021484 7
-0.608477 -17.010498 13.044922 7
-0.61615902 -17.021484 13.112305 7
-0.105848 1.25293 -15.96875 7
-0.101439 1.20874 -15.936523 7
-0.076683 1.154053 -15.748047 7
-0.074533001 1.112305 -15.733398 7
-0.075387999 1.0712889 -15.741211 7
-0.075494997 1.030762 -15.743164 7
-0.079375997 0.991211 -15.774414 7
-0.033163 -4.4995122 -14.075195 7
-0.034825999 -4.539062 -14.075195 7
-0.040716 -4.695312 -14.069336 7
-0.042387001 -4.7351069 -14.069336 7
-0.066644996 -4.8598628 -14.212891 7
-0.054653 -4.869873 -14.117188 7
-0.057124998 -4.9116211 -14.12207 7
-0.059604999 -4.953125 -14.126953 7
-0.072535001 -5.018311 -14.204102 7
-0.078234002 -5.067627 -14.231445 7
-0.080720998 -5.109375 -14.235352 7
-0.27648199 -8.0432129 -14.483398 7
-0.28543699 -8.1098633 -14.520508 7
-0.276649 -8.1174316 -14.444336 7
-0.271088 -8.1359863 -14.389648 7
-0.27117199 -8.1723633 -14.369141 7
-0.272064 -8.2124023 -14.355469 7
-0.28183001 -8.2817383 -14.396484 7
-0.066652 1.389648 -14.692383 7
-0.0079859998 -1.655762 -13.691406 7
0.0020979999 -1.68335 -13.618164 7
0.002045 -1.718262 -13.614258 7
0.001961 -1.788574 -13.605469 7
-0.0082149999 -1.832031 -13.669922 7
-0.0048890002 -1.864502 -13.642578 7
-0.0032480001 -1.898438 -13.626953 7
-0.035978001 -4.5136719 -13.244141 7
-0.041967001 -4.5600591 -13.271484 7
-0.050482001 -4.6118159 -13.31543 7
-0.051397 -4.6477051 -13.30957 7
-0.051465999 -4.6821289 -13.297852 7
-0.048985999 -4.7111821 -13.270508 7
-0.059193 -4.767334 -13.325195 7
-0.26628301 -7.950439 -13.439453 7
-0.014311 -1.312256 -13.017578 7
-0.01528 -1.380127 -13.017578 7
-0.010931 -1.44458 -12.980469 7
-0.0074140001 -1.4755861 -12.954102 7
-0.012785 -1.513184 -12.985352 7
-0.0021820001 -1.539307 -12.912109 7
-0.0022199999 -1.57251 -12.908203 7
-0.035477001 -4.1928711 -12.548828 7
-0.036421001 -4.2270508 -12.543945 7
-0.035590999 -4.2580571 -12.52832 7
-0.034752 -4.2888179 -12.512695 7
-0.036591001 -4.3249512 -12.513672 7
-0.036651999 -4.3571782 -12.50293 7
-0.054510001 -4.4248052 -12.601562 7
-0.049231 -4.4467769 -12.557617 7
-0.049284 -4.4794922 -12.547852 7
-0.376221 -9.322998 -12.430664 7
-0.383461 -9.3813477 -12.446289 7
-0.38353699 -9.4135742 -12.423828 7
-0.37827301 -9.4262695 -12.373047 7
-0.37567899 -9.4484863 -12.336914 7
-0.37308499 -9.4707031 -12.299805 7
-0.375862 -9.5124512 -12.291016 7
-0.385773 -9.5812988 -12.320312 7
-0.54022598 -15.462402 9.0253906 7
-0.52477598 -15.356201 9.0175781 7
-0.512968 -15.270996 9.0195312 7
-0.498436 -15.169922 9.015625 7
-0.482981 -15.063965 9.0078115 7
-0.484871 -15.056396 9.0478516 7
-0.49863401 -15.115479 9.1230469 7
-0.50235701 -15.11792 9.1679688 7
-0.50242603 -15.099365 9.2041016 7
-0.497017 -15.049805 9.2255859 7
-0.49891701 -15.041504 9.2675781 7
0.012121 -1.29126 -12.166016 7
0.011152 -1.323486 -12.167969 7
0.00367 -1.359863 -12.210938 7
0.0036319999 -1.391602 -12.208008 7
-0.000137 -1.42627 -12.227539 7
0.0044780001 -1.454834 -12.195312 7
0.0062560001 -1.516602 -12.174805 7
-0.26124999 -7.4880371 -11.836914 7
-0.26039499 -7.5161128 -11.814453 7
-0.26420799 -7.5583501 -11.816406 7
-0.255871 -7.5637212 -11.753906 7
-0.26622999 -7.6257319 -11.789062 7
0.017378001 -1.106445 -11.485352 7
0.020276999 -1.13501 -11.46582 7
0.016325001 -1.167236 -11.485352 7
0.017271001 -1.196533 -11.476562 7
0.018201999 -1.226074 -11.467773 7
0.0063840002 -1.293213 -11.530273 7
-0.020951999 -3.8552251 -11.131836 7
-0.0082660001 -3.861572 -11.050781 7
-0.010279 -3.894043 -11.052734 7
-0.010332 -3.9233401 -11.042969 7
-0.018221 -3.9667971 -11.078125 7
-0.027101999 -4.0119629 -11.117188 7
-0.025187001 -4.037354 -11.09668 7
-0.022303 -4.0610352 -11.070312 7
-0.026278 -4.0974121 -11.082031 7
-0.031235 -4.1359859 -11.099609 7
-0.050848 2.2436521 -11.460938 7
-0.048971001 2.2106929 -11.455078 7
-0.054930001 2.154541 -11.5 7
-0.058958001 2.0957029 -11.533203 7
-0.059996001 2.0656741 -11.542969 7
-0.067837 2.0415039 -11.59375 7
-0.084408 2.0258789 -11.694336 7
-0.079700001 1.958252 -11.675781 7
0.024509 -0.96582001 -10.883789 7
0.016310001 -0.99804699 -10.927734 7
0.016271999 -1.026855 -10.924805 7
0.017255999 -1.054932 -10.916016 7
0.016187999 -1.084229 -10.918945 7
0.012068 -1.11499 -10.938477 7
0.003851 -1.148438 -10.982422 7
0.014044 -1.171387 -10.921875 7
0.012991 -1.200928 -10.924805 7
0.012953 -1.2294919 -10.921875 7
0.012907 -1.258057 -10.917969 7
-0.030024 -3.919678 -10.551758 7
-0.032122001 -3.951416 -10.552734 7
-0.034224998 -3.9829099 -10.554688 7
-0.035309002 -4.0124512 -10.549805 7
-0.26236299 -7.0820308 -10.47168 7
-0.26449201 -7.1159668 -10.464844 7
-0.260456 -7.1313481 -10.427734 7
-0.257442 -7.150146 -10.396484 7
-0.25751099 -7.177002 -10.37793 7
-0.25552699 -7.1989751 -10.351562 7
-0.25456801 -7.2228999 -10.329102 7
-0.26799399 -7.2902832 -10.375 7
-0.27423301 -7.3361821 -10.387695 7
-0.27224299 -7.357666 -10.360352 7
-0.364941 -8.8354492 -9.9199219 7
-0.363987 -8.8581543 -9.8945312 7
-0.36406299 -8.8847656 -9.8740234 7
-0.36928901 -8.9294434 -9.8759766 7
0.0095349997 -0.65161097 -10.399414 7
0.01058 -0.67895502 -10.392578 7
0.01055 -0.70629901 -10.390625 7
0.009443 -0.73413098 -10.394531 7
0.010481 -0.76122999 -10.385742 7
0.021175001 -0.78442401 -10.326172 7
0.021144999 -0.81225598 -10.325195 7
0.022182001 -0.83911097 -10.317383 7
0.022151999 -0.86645502 -10.31543 7
0.023189999 -0.89306599 -10.306641 7
0.023158999 -0.92016602 -10.303711 7
0.017765 -0.94995099 -10.331055 7
-0.019335 -3.527832 -9.9892578 7
-0.019381 -3.554199 -9.9804688 7
-0.026949 -3.593262 -10.010742 7
-0.016247001 -3.6018071 -9.9472656 7
-0.019517999 -3.6335449 -9.9550781 7
-0.023874 -3.66748 -9.9677734 7
-0.022844 -3.6923831 -9.9541016 7
-0.033647999 -3.737061 -10 7
-0.043365002 -3.7797849 -10.039062 7
-0.034814999 -3.791748 -9.9863281 7
-0.033792 -3.8166499 -9.9716797 7
0.012884 -0.64477497 -9.8710938 7
0.017338 -0.66967797 -9.8466797 7
0.018429 -0.69580102 -9.8398438 7
0.020633999 -0.72094703 -9.8261719 7
0.021717001 -0.74658197 -9.8173828 7
0.025043 -0.77148402 -9.7988281 7
0.020535 -0.79931599 -9.8203115 7
0.016026 -0.82714802 -9.8398438 7
0.017116999 -0.85302699 -9.8330078 7
0.017085999 -0.87914997 -9.8310547 7
0.020412 -0.90356398 -9.8105469 7
0.020374 -0.92968798 -9.8085938 7
0.020344 -0.95605499 -9.8056641 7
-0.24999 -6.734375 -9.1582031 7
-0.238792 -6.7275391 -9.0927734 7
-0.23999 -6.7548828 -9.0810547 7
-0.241188 -6.782227 -9.0703115 7
-0.23786899 -6.7976069 -9.0390615 7
-0.237938 -6.8217769 -9.0224609 7
-0.24250001 -6.8586431 -9.0263672 7
-0.25155401 -6.9091802 -9.0488281 7
-0.25949699 -6.955811 -9.0654297 7
-0.255072 -6.967041 -9.0292969 7
-0.255133 -6.9914551 -9.0126953 7
-0.34715101 -8.3400879 -8.5556641 7
-0.34946299 -8.3710938 -8.5449219 7
-0.34728801 -8.3867188 -8.5166016 7
-0.34510601 -8.4018555 -8.4873047 7
-0.34744099 -8.4326172 -8.4755859 7
-0.34751701 -8.4555664 -8.4550781 7
-0.34758601 -8.4790039 -8.4365234 7
-0.349897 -8.5095205 -8.4248047 7
-0.369205 -8.6203613 -8.4570312 7
-0.042847 -3.530762 -9.0537109 7
-0.23128501 -6.4428711 -8.6015615 7
-0.236046 -6.478271 -8.6044922 7
-0.23494001 -6.498291 -8.5830078 7
-0.237343 -6.5280762 -8.578125 7
-0.249144 -6.583252 -8.6113281 7
-0.25038001 -6.6098628 -8.5996094 7
-0.241051 -6.6074219 -8.5449219 7
-0.23876201 -6.6242681 -8.5205078 7
-0.243515 -6.6603999 -8.5234385 7
-0.240059 -6.6733398 -8.4921885 7
-0.23777001 -6.690186 -8.4667969 7
0.016026 -0.32324201 -8.9423828 7
0.019649999 -0.34643599 -8.9238281 7
0.015965 -0.37109399 -8.9404297 7
0.026897 -0.392822 -8.8876953 7
0.013477 -0.419678 -8.9492188 7
0.02441 -0.44140601 -8.8964844 7
0.030466 -0.46386701 -8.8662109 7
0.021915 -0.489746 -8.9052734 7
0.021893 -0.51391602 -8.9042969 7
0.023083 -0.53759801 -8.8974609 7
0.021839 -0.561768 -8.9013672 7
0.019375 -0.58642602 -8.9111328 7
0.013256 -0.61230499 -8.9375 7
0.019314 -0.63427699 -8.9072266 7
-0.24096701 -6.4362788 -8.0546885 7
-0.241035 -6.4580078 -8.0380859 7
-0.23741899 -6.4707031 -8.0087891 7
-0.24604 -6.5153809 -8.0263672 7
-0.24732199 -6.540771 -8.015625 7
0.025506999 -0.33129901 -8.4443359 7
0.03438 -0.35327101 -8.4042969 7
0.034348998 -0.375732 -8.4023438 7
0.031778 -0.39917001 -8.4130859 7
0.034304 -0.42138699 -8.4003906 7
0.032999001 -0.44409201 -8.4033203 7
0.029161001 -0.468018 -8.4199219 7
0.020229001 -0.49292001 -8.4589844 7
0.026559999 -0.51415998 -8.4296885 7
0.02527 -0.53735399 -8.4335938 7
0.02524 -0.56030297 -8.4326172 7
0.025217 -0.58276403 -8.4296885 7
0.026461 -0.60522503 -8.4228516 7
0.02643 -0.62841803 -8.4208984 7
-0.24282099 -6.1030269 -7.1376948 7
-0.240219 -6.1157231 -7.1123052 7
-0.237617 -6.128418 -7.0878911 7
-0.240334 -6.155273 -7.0830078 7
-0.258986 -6.2224121 -7.1337891 7
-0.25373101 -6.2287598 -7.1005859 7
-0.245811 -6.2280269 -7.0576172 7
-0.24187499 -6.2375488 -7.0292969 7
-0.244606 -6.263916 -7.0224609 7
-0.245987 -6.2871089 -7.0126948 7
-0.24470501 -6.302979 -6.9931641 7
-0.243431 -6.3193359 -6.9736328 7
-0.24880999 -6.3525391 -6.976562 7
-0.258169 -6.3964839 -6.9941411 7
-0.240646 -6.0869141 -6.592773 7
-0.235163 -6.0915532 -6.5605469 7
-0.232454 -6.1030269 -6.5371089 7
-0.232508 -6.121582 -6.5224609 7
-0.233942 -6.1435552 -6.5126948 7
-0.23399501 -6.1621089 -6.4980469 7
-0.23958801 -6.1948242 -6.500977 7
-0.235498 -6.202148 -6.4716802 7
-0.24385101 -6.2419429 -6.484375 7
-0.25083199 -6.2783198 -6.4912109 7
-0.25502801 -6.307373 -6.4892578 7
-0.255081 -6.325439 -6.4746089 7
-0.25929299 -6.3547359 -6.4726558 7
-0.259354 -6.373291 -6.4580078 7
-0.26080301 -6.3945308 -6.4462891 7
-0.232691 -6.0603032 -6.079102 7
-0.231104 -5.7702641 -5.8300781 7
-0.238611 -5.8049321 -5.8378911 7
-0.23716199 -5.8181152 -5.820312 7
-0.23423199 -5.8276372 -5.796875 7
-0.23278999 -5.841064 -5.7792969 7
-0.234346 -5.8608398 -5.7685552 7
-0.23737501 -5.8847661 -5.7626948 7
-0.24040399 -5.908936 -5.757812 7
-0.230013 -5.8999019 -5.7138672 7
-0.240549 -5.9589839 -5.7158198 7
-0.231653 -5.9533691 -5.6757808 7
-0.231714 -5.969727 -5.6611328 7
-0.24077 -6.0241699 -5.657227 7
-0.24826799 -6.0595698 -5.6650391 7
-0.246828 -6.0722661 -5.6464839 7
-0.212217 -5.441895 -4.6962891 7
-0.212263 -5.4560552 -4.6826172 7
-0.21065301 -5.4663091 -4.6660161 7
-0.20902801 -5.476562 -4.648438 7
-0.2124 -5.498291 -4.6435552 7
-0.21909 -5.5275879 -4.6464839 7
-0.219128 -5.5415039 -4.6337891 7
-0.21586201 -5.5476069 -4.6113281 7
-0.217564 -5.5654302 -4.6025391 7
-0.215956 -5.575439 -4.5849609 7
-0.216002 -5.5896001 -4.5722661 7
-0.21011201 -5.5913091 -4.547852 7
-0.208509 -5.6010742 -4.530273 7
-0.21851701 -5.6386719 -4.5410161 7
-0.220211 -5.6560059 -4.532227 7
-0.208647 -5.6420898 -4.4892578 7
-0.210356 -5.6599121 -4.4804692 7
0.0047070002 -3.0330141 -7.7086282 7
-0.29790401 -6.764596 -9.1847115 7
-0.36857 -8.4543581 -8.6501999 7
0.003028 -2.8174851 -6.5462341 7
-0.226382 -6.2781038 -6.988461 7
0.024536001 2.1636829 -11.61795 7
-0.019196 -0.683375 -9.8289289 7
-0.13726 -4.03438 -11.492723 7
-0.25008401 -7.131279 -10.237702 7
-0.00801 -2.9776709 -6.770647 7
-0.22432201 -6.5780039 -8.2217836 7
0.013122 -2.6989219 -5.7657051 7
-0.17885999 -6.0998812 -6.3533802 7
