# .PCD v0.7 - Point Cloud Data file format
VERSION 0.7
FIELDS x y z intensity
SIZE 4 4 4 4
TYPE F F F F
COUNT 1 1 1 1
WIDTH 861
HEIGHT 1
VIEWPOINT 0 0 0 1 0 0 0
POINTS 861
DATA ascii
1.738289 64.375244 -18.914062 7
1.456779 56.56665 -16.270508 7
1.231697 49.991943 -10.274414 7
1.22876 50.123291 -10.554688 7
1.232201 49.543701 -13.681641 7
1.222527 50.028076 -13.958984 7
1.143997 47.871094 -9.6347656 7
1.0562741 45.409912 -8.4101562 7
1.060402 45.231689 -8.4833984 7
1.05616 45.391113 -8.6298828 7
-0.048797999 22.193848 70.365234 7
-0.103043 22.902344 71.995117 7
-0.067222998 28.972168 68.865234 7
-0.022026001 28.550049 67.453125 7
0.97197002 43.529785 -7.96875 7
0.967484 43.678711 -8.1083984 7
0.968086 43.644531 -8.2089844 7
0.97188598 43.012695 -11.317383 7
-0.017890999 19.263428 63.185547 7
-0.044158999 19.642822 63.882812 7
-0.098907001 20.278076 65.375 7
0.049713001 21.803955 60.387695 7
0.032462999 22.123291 60.819336 7
0.018997001 22.404785 61.144531 7
0.0061189998 16.83252 56.793945 7
-0.050071999 17.402344 58.186523 7
-0.087073997 17.828613 59.089844 7
0.077721 19.075195 54.176758 7
0.028480999 19.650635 55.368164 7
0.048492 19.595947 54.828125 7
-0.002716 20.197021 56.06543 7
0.000443 21.340576 55.597656 7
0.023285 21.246094 54.987305 7
0.032074001 21.288086 54.726562 7
-0.043311998 24.924561 55.508789 7
0.81225598 39.465332 -6.702148 7
-0.60488898 -19.623047 -67.619141 7
-0.66286498 -20.194824 -68.995117 7
-0.629906 -20.121826 -68.125 7
-0.67192799 -20.586914 -69.105469 7
-0.032791 15.161133 52.561523 7
-0.074928001 15.573242 53.500977 7
-0.10952 15.937988 54.265625 7
-0.172813 16.50708 55.688477 7
0.037422001 17.368408 50.139648 7
-0.011208 17.880859 51.206055 7
0.01207 17.809082 50.640625 7
-0.030967999 18.281982 51.577148 7
-0.0074160001 19.858643 50.445312 7
0.020927001 19.717529 49.769531 7
0.012169 19.914307 49.924805 7
0.045837 19.720215 49.131836 7
0.74501002 37.158936 -5.59375 7
0.74124902 37.245117 -5.702148 7
0.761787 36.192139 -8.7431641 7
0.769768 35.970703 -8.7724609 7
0.75673699 36.283203 -8.9560547 7
-0.53306597 -16.969727 -60.023438 7
-0.60859698 -17.588379 -61.679688 7
-0.535873 -17.272949 -59.993164 7
-0.59416199 -17.789551 -61.258789 7
-0.68297601 -18.508545 -63.206055 7
-0.054092001 13.759033 48.700195 7
-0.095688 14.129395 49.548828 7
-0.121582 14.405518 50.064453 7
-0.008568 16.10791 46.994141 7
-0.040504001 16.452881 47.623047 7
-0.023322999 16.435791 47.232422 7
-0.041549999 18.870361 46.818359 7
-0.016441001 18.765137 46.266602 7
-0.018631 18.891113 46.271484 7
0.0054020002 18.79126 45.742188 7
0.024948001 18.727783 45.304688 7
-0.091987997 22.158447 46.688477 7
-0.061896998 21.972656 46.042969 7
-0.032341 21.789551 45.410156 7
0.68939197 35.09082 -4.8398442 7
0.68250299 35.242676 -4.952148 7
0.68592101 35.142334 -5.1064448 7
-0.52697003 -14.771729 -54.564453 7
-0.57643098 -15.307129 -55.500977 7
-0.66040802 -15.909424 -57.18457 7
-0.651573 -16.131592 -56.916992 7
-0.36840099 -16.942139 -50.265625 7
-0.400848 -17.278564 -50.873047 7
-0.40935501 -17.457031 -50.999023 7
-0.456406 -17.898193 -51.900391 7
-0.43486801 -17.99707 -51.37207 7
-0.42024201 -18.018555 -51.030273 7
-0.39046499 -17.932617 -50.385742 7
-0.158585 13.002686 46.833008 7
-0.187721 13.273682 47.370117 7
-0.088592999 15.216797 44.745117 7
-0.069449998 15.182373 44.317383 7
-0.053328998 15.175293 43.977539 7
-0.044174001 15.214355 43.771484 7
-0.026329 15.192627 43.400391 7
-0.012253 15.195068 43.100586 7
-0.010368 17.351318 42.297852 7
-0.046050999 17.732422 42.922852 7
-0.004807 17.501953 42.118164 7
-0.084449999 20.734131 42.501953 7
-0.048508 20.600586 41.763672 7
-0.019463001 20.427979 41.194336 7
0.61857599 33.452393 -4.235352 7
0.61473799 33.525146 -4.329102 7
0.62250501 33.349854 -4.3798828 7
-0.47410601 -12.793457 -49.612305 7
-0.516716 -13.118896 -50.391602 7
-0.613518 -13.839844 -52.169922 7
-0.70472002 -14.549561 -53.833984 7
-0.37160501 -15.352295 -46.651367 7
-0.392021 -15.587891 -46.993164 7
-0.39581299 -15.723633 -47.023438 7
-0.44566301 -16.14209 -47.913086 7
-0.42973301 -16.839355 -47.313477 7
-0.364838 -16.531006 -46.063477 7
-0.393013 -16.824951 -46.542969 7
-0.34773999 -16.638672 -45.660156 7
-0.188812 12.09375 44.12207 7
-0.032699998 16.424561 39.675781 7
-0.025505001 16.553467 39.480469 7
0.0186 16.312012 38.686523 7
-0.115257 19.751709 39.935547 7
-0.069182999 19.536621 39.079102 7
-0.050964002 19.468506 38.732422 7
-0.038345002 19.447266 38.479492 7
0.56965601 31.891113 -3.6337891 7
0.56957197 31.884521 -3.7099609 7
-0.37667799 -10.440186 -43.791992 7
-0.41863999 -10.718506 -44.5 7
-0.44863099 -10.950928 -44.999023 7
-0.47377801 -11.164795 -45.410156 7
-0.51123798 -11.432861 -46.037109 7
-0.55322301 -11.723633 -46.742188 7
-0.32649201 -13.302002 -41.967773 7
-0.31987 -13.367188 -41.819336 7
-0.348961 -13.624756 -42.283203 7
-0.371811 -15.275635 -42.108398 7
-0.33711201 -15.267334 -41.441406 7
-0.30740401 -15.185059 -40.898438 7
-0.54623401 -19.4021 -43.731445 7
-0.51322198 -19.270752 -43.138672 7
-0.47792801 -19.119629 -42.508789 7
-0.013786 15.147949 36.219727 7
0.012459 15.048828 35.771484 7
-0.0094069997 15.283447 36.083984 7
0.011414 15.220459 35.72168 7
-0.089530997 18.464355 36.179688 7
-0.069420002 18.383789 35.833008 7
-0.049644001 18.303955 35.490234 7
-0.031562999 18.236816 35.174805 7
-0.038483001 18.374512 35.239258 7
-0.38643599 -9.2001953 -40.709961 7
-0.41600001 -9.4057617 -41.166992 7
-0.441017 -9.5966797 -41.549805 7
-0.46743801 -9.7949219 -41.954102 7
-0.51345801 -10.067627 -42.675781 7
-0.28872699 -11.565186 -38.328125 7
-0.28329501 -11.631836 -38.209961 7
-0.28172299 -11.717041 -38.155273 7
-0.30083501 -11.900391 -38.428711 7
-0.33046001 -12.13623 -38.870117 7
-0.31556699 -14.095215 -37.885742 7
-0.27888501 -13.977539 -37.275391 7
-0.31559801 -14.277588 -37.8125 7
-0.27713799 -14.147461 -37.175781 7
-0.50775099 -18.082031 -39.617188 7
-0.474525 -17.952393 -39.067383 7
-0.45219401 -17.894775 -38.683594 7
-0.44148299 -17.914551 -38.476562 7
-1.735283 -57.708252 24.702148 7
-1.699387 -57.122803 24.62207 7
-0.145363 9.3791504 37.414062 7
-0.028557001 14.303711 33.874023 7
0.0037 14.171875 33.371094 7
0.017715 14.15625 33.134766 7
0.0036319999 14.324463 33.30957 7
0.022026001 14.278809 33.009766 7
-0.084564 17.475586 33.416016 7
-0.070572004 17.444336 33.180664 7
-0.055121999 17.400146 32.924805 7
-0.036757998 17.331787 32.62793 7
-0.035507001 17.396729 32.572266 7
-0.35802501 -7.6464839 -37.042969 7
-0.38291201 -7.8120122 -37.396484 7
-0.41123199 -7.990479 -37.801758 7
-0.46749899 -8.3510742 -38.604492 7
-0.49430799 -8.5300293 -38.984375 7
-0.28897899 -10.376709 -35.199219 7
-0.25788099 -10.330078 -34.713867 7
-0.29464701 -10.571289 -35.227539 7
-0.32645401 -10.793701 -35.667969 7
-0.31052399 -13.265869 -34.504883 7
-0.47862199 -16.876221 -35.692383 7
-0.452003 -16.792969 -35.28125 7
-0.42919901 -16.731445 -34.922852 7
-0.40870699 -16.683838 -34.597656 7
-1.5120389 -50.054199 22.030273 7
-0.017601 13.275879 31.145508 7
-0.013115 13.31958 31.056641 7
0.013527 13.227539 30.667969 7
0.000168 13.378662 30.817383 7
0.023628 13.303711 30.472656 7
-0.081505001 16.451172 30.702148 7
-0.087273002 16.563232 30.740234 7
-0.071335003 16.516602 30.498047 7
-0.054221999 16.460205 30.240234 7
-0.038291998 16.411133 29.999023 7
-0.049187001 16.560303 30.101562 7
-0.47021499 -7.4633789 -36.181641 7
-0.294052 -9.6450195 -32.974609 7
-0.26448801 -9.6088867 -32.541992 7
-0.25161701 -9.6369629 -32.339844 7
-0.26683 -9.7763672 -32.524414 7
-0.235634 -9.7299805 -32.069336 7
-0.46923101 -15.980225 -33.110352 7
-0.43074 -15.905762 -32.53125 7
-0.428864 -15.972656 -32.466797 7
-1.23806 -43.325684 19.72168 7
-0.051810998 10.030518 30.6875 7
-0.049995001 10.091797 30.641602 7
-0.049461 10.158936 30.613281 7
-0.041405 12.70874 29.549805 7
0.004807 12.575928 28.911133 7
-0.030060001 12.84375 29.321289 7
-0.0092700003 12.788818 29.03125 7
0.00055699999 12.796631 28.878906 7
-0.102737 15.823975 29.001953 7
-0.10302 15.891602 28.96875 7
-0.088561997 15.856689 28.759766 7
-0.074547 15.823975 28.556641 7
-0.060532 15.789795 28.352539 7
-0.071732 15.934082 28.452148 7
0.372246 26.058594 -1.626953 7
0.366386 26.137939 -1.699219 7
0.36614999 26.13623 -1.7607419 7
0.37598401 25.989258 -1.804688 7
0.36728701 26.108643 -1.882812 7
-0.42951199 -6.1767578 -33.037109 7
-0.432724 -6.2651372 -33.0625 7
-0.418823 -14.758789 -29.878906 7
-0.452499 -15.023193 -30.244141 7
-0.43810299 -15.014404 -30.035156 7
-0.42150101 -14.991211 -29.798828 7
-0.043938 9.310791 28.552734 7
-0.045189001 9.3803711 28.547852 7
-0.049164001 9.4611816 28.574219 7
-0.028061001 11.881104 27.361328 7
-0.0051190001 11.880615 27.040039 7
-0.023621 12.041748 27.229492 7
-0.00083899999 11.978516 26.936523 7
0.013771 11.95874 26.740234 7
-0.099036999 15.125732 26.780273 7
-0.090774998 15.131104 26.654297 7
-0.054657001 15.068848 26.15332 7
-0.343063 -4.985352 -29.875 7
-0.34037799 -5.0534668 -29.829102 7
-0.38556701 -5.29248 -30.356445 7
-0.402542 -5.4025879 -30.550781 7
-0.22962999 -10.342773 -26.868164 7
-0.22993501 -10.475586 -26.819336 7
-0.44836399 -14.227783 -28.073242 7
-0.439087 -14.245361 -27.933594 7
-0.42039499 -14.211426 -27.69043 7
-0.408768 -14.2146 -27.525391 7
-1.039726 -35.426758 16.768555 7
-1.013046 -35.096436 16.724609 7
-0.95715302 -32.999512 19.389648 7
-0.060341001 8.6452637 27.053711 7
-0.059273001 8.7016602 27.021484 7
-0.056740001 8.7521973 26.973633 7
-0.055190999 8.8066406 26.935547 7
-0.055573002 8.8686523 26.920898 7
-0.059836999 8.9460449 26.949219 7
-0.034469999 11.317383 25.71875 7
-0.012589 11.262939 25.454102 7
-0.0090939999 11.302002 25.390625 7
-0.029297 11.463623 25.585938 7
-0.0054779998 11.397217 25.300781 7
-0.004402 11.448486 25.263672 7
-0.107391 14.482422 25.102539 7
-0.094543003 14.513672 24.904297 7
-0.084762998 14.507324 24.771484 7
-0.076912001 14.512451 24.657227 7
-0.080650002 14.592041 24.663086 7
-0.084862001 14.674561 24.672852 7
-0.28952801 -4.0090332 -27.163086 7
-0.28208899 -4.0632319 -27.066406 7
-0.29378501 -4.1494141 -27.189453 7
-0.29843101 -4.2241211 -27.230469 7
-0.31163001 -4.3139648 -27.371094 7
-0.30721301 -4.3737788 -27.308594 7
-0.31035599 -4.4465332 -27.333008 7
-0.224121 -9.5397949 -24.858398 7
-0.210472 -9.7282705 -24.613281 7
-0.210594 -9.7890615 -24.59082 7
-0.42100501 -13.351318 -25.602539 7
-0.39241001 -13.327881 -25.241211 7
-0.39305899 -13.393311 -25.214844 7
-0.052338 8.0395508 25.231445 7
-0.048606999 8.0825195 25.174805 7
-0.045906 8.1286621 25.126953 7
-0.042693999 8.173584 25.076172 7
-0.043639999 8.2329102 25.067383 7
-0.038353 8.2692871 24.993164 7
-0.019393999 10.593506 23.868164 7
-0.024986001 10.674072 23.902344 7
-0.0067369998 10.638428 23.692383 7
-0.00041199999 10.6604 23.603516 7
-0.029343 10.855225 23.873047 7
-0.010048 10.813721 23.654297 7
0.001465 10.80957 23.513672 7
-0.105644 13.810547 23.288086 7
-0.103966 13.852783 23.241211 7
-0.094535999 13.846924 23.119141 7
-0.087700002 13.856934 23.023438 7
-0.078270003 13.851318 22.90332 7
-0.081763998 13.924072 22.905273 7
-0.097144999 14.070312 23.018555 7
0.28909299 21.572998 -3.554688 7
0.29672199 21.47583 -3.5849609 7
0.29436499 21.491943 -3.6425779 7
0.28952 21.536377 -3.707031 7
0.28766599 21.546387 -3.7636721 7
0.28830701 21.528076 -3.813477 7
-0.34714499 -3.767334 -25.943359 7
-0.347794 -3.8322749 -25.939453 7
-0.20751201 -9.083252 -22.908203 7
-0.200615 -9.1135254 -22.81543 7
-0.20666499 -9.1933594 -22.854492 7
-0.40832499 -12.598633 -23.651367 7
-0.40033701 -12.617676 -23.542969 7
-0.39126599 -12.630859 -23.424805 7
-0.38561201 -12.718018 -23.307617 7
-0.78176898 -28.320801 14.083984 7
-0.81526202 -28.609375 14.294922 7
-0.78248602 -28.265869 14.219727 7
-0.75461602 -26.464111 16.985352 7
-0.048988 7.5698242 23.679688 7
-0.048347 7.620605 23.65625 7
-0.04493 7.6611328 23.605469 7
-0.016845999 10.156738 22.313477 7
-0.033241 10.332031 22.421875 7
-0.104279 13.310791 21.65332 7
-0.096984997 13.316895 21.55957 7
-0.090248004 13.325195 21.469727 7
-0.100616 13.434082 21.530273 7
-0.25411201 -2.6477051 -23.380859 7
-0.24675 -2.6972661 -23.298828 7
-0.25889599 -2.7687991 -23.414062 7
-0.26875299 -2.838623 -23.505859 7
-0.29247299 -2.9841311 -23.729492 7
-0.178764 -8.354248 -21.120117 7
-0.191544 -8.4519043 -21.219727 7
-0.190643 -8.5539551 -21.168945 7
-0.19248199 -8.612793 -21.163086 7
-0.39924601 -11.977539 -21.870117 7
-0.39762899 -12.024414 -21.827148 7
-0.38157699 -12.00293 -21.65332 7
-0.38054699 -12.051025 -21.613281 7
-0.37834901 -12.094482 -21.56543 7
-0.63103497 -23.617676 15.69043 7
-0.64670599 -23.610596 15.993164 7
-0.64320397 -23.546387 16.030273 7
-0.64919299 -23.561035 16.117188 7
-0.64153302 -23.461914 16.132812 7
-0.64277601 -23.437012 16.194336 7
-0.052322 6.9196782 22.398438 7
-0.049286 6.9599609 22.354492 7
-0.049210001 7.0090332 22.337891 7
-0.043212999 7.0397949 22.266602 7
-0.024078 9.6577148 21.041016 7
-0.014565 9.6625977 20.93457 7
-0.028511001 9.8168945 21.014648 7
-0.020752 9.8286133 20.922852 7
-0.030678 9.9194336 20.988281 7
-0.121666 12.812988 20.398438 7
-0.119194 12.844482 20.348633 7
-0.104988 12.809814 20.202148 7
-0.313683 -2.432373 -22.505859 7
-0.31499499 -2.48999 -22.511719 7
-0.147453 -5.058105 -20.400391 7
-0.161079 -5.1906738 -20.500977 7
-0.167274 -5.255127 -20.543945 7
-0.180199 -5.3356929 -20.650391 7
-0.17951199 -7.8088379 -19.830078 7
-0.180847 -7.8630371 -19.822266 7
-0.184624 -7.925293 -19.836914 7
-0.194519 -8.0078115 -19.904297 7
-0.19706 -8.065918 -19.907227 7
-0.198387 -8.1201172 -19.898438 7
-0.208893 -8.2060547 -19.972656 7
-0.195526 -8.2089844 -19.832031 7
-0.21093801 -8.3122559 -19.949219 7
-0.47288501 -13.327637 -20.094727 7
-0.04834 6.6411128 21.112305 7
-0.047637999 6.6855469 21.091797 7
-0.051566999 9.2929688 20.097656 7
-0.039588999 9.2878418 19.977539 7
-0.033248998 9.3046885 19.904297 7
-0.049415998 9.4172363 20.017578 7
-0.051826 9.4711914 20.015625 7
-0.038605001 9.4592295 19.884766 7
-0.028519001 9.4597168 19.779297 7
-0.13214099 12.414062 19.188477 7
-0.122681 12.405273 19.087891 7
-0.113853 12.399658 18.992188 7
-0.107506 12.407715 18.916992 7
-0.111771 12.472168 18.919922 7
-0.231888 -1.605469 -20.397461 7
-0.224197 -1.650879 -20.323242 7
-0.227531 -1.7043459 -20.348633 7
-0.234093 -1.759766 -20.401367 7
-0.148918 -4.52002 -19.157227 7
-0.138054 -4.5944819 -19.039062 7
-0.144638 -4.6555181 -19.084961 7
-0.15122201 -4.717041 -19.130859 7
-0.16932701 -7.4021001 -18.429688 7
-0.18125901 -7.5324712 -18.492188 7
-0.178726 -7.5705571 -18.452148 7
-0.38776401 -10.971436 -18.866211 7
-0.37415299 -10.959961 -18.733398 7
-0.37296301 -11.001465 -18.696289 7
-0.36589101 -11.016846 -18.614258 7
-0.382965 -11.137939 -18.719727 7
-0.46363801 -12.763428 -18.547852 7
-0.45656601 -12.775146 -18.462891 7
-0.57246399 -21.738037 11.569336 7
-0.57251698 -21.714111 11.620117 7
-0.56924403 -21.66333 11.65918 7
-0.58071899 -21.703613 11.804688 7
-0.55405402 -21.469482 11.754883 7
-0.53475201 -21.292969 11.731445 7
-0.52895403 -19.678711 14.414062 7
-0.53702497 -19.706299 14.5 7
-0.53038001 -19.627197 14.513672 7
-0.52307099 -19.543213 14.523438 7
-0.52245301 -19.507568 14.566406 7
-0.52717602 -19.509033 14.636719 7
-0.524544 -19.45874 14.669922 7
-0.51790601 -19.379639 14.682617 7
-0.061485 6.1210942 20.123047 7
-0.057418998 6.1542969 20.076172 7
-0.054016002 6.1889648 20.03418 7
-0.049286 6.219727 19.981445 7
-0.045883 6.2541499 19.938477 7
-0.043143999 6.2897949 19.901367 7
-0.043738998 6.3354492 19.892578 7
-0.050972 6.3999019 19.9375 7
-0.052025001 8.8388672 18.957031 7
-0.12650301 11.937012 17.904297 7
-0.117798 11.930908 17.81543 7
-0.109764 11.928467 17.731445 7
-0.103706 11.935791 17.661133 7
-0.098968998 11.949463 17.599609 7
-0.108131 12.036133 17.636719 7
-0.115967 12.116455 17.665039 7
-0.24111199 -1.270264 -19.308594 7
-0.24462099 -1.320312 -19.333984 7
-0.254967 -1.374512 -19.416992 7
-0.26326799 -1.428467 -19.484375 7
-0.27910599 -1.487061 -19.614258 7
-0.297676 -1.5480959 -19.766602 7
-0.292961 -1.5944819 -19.72168 7
-0.156525 -4.186523 -18.125977 7
-0.14082301 -4.2033691 -17.984375 7
-0.136108 -4.2402339 -17.935547 7
-0.148552 -4.308105 -18.026367 7
-0.157555 -4.370605 -18.09082 7
-0.150078 -4.401855 -18.017578 7
-0.13987 -4.4274902 -17.921875 7
-0.15483101 -6.8591309 -17.275391 7
-0.159225 -7.002686 -17.258789 7
-0.18615 -7.1271968 -17.453125 7
-0.175919 -7.1401372 -17.355469 7
-0.185638 -7.2133789 -17.414062 7
-0.18504301 -7.255127 -17.390625 7
-0.198891 -7.3415532 -17.481445 7
-0.37743399 -10.543945 -17.567383 7
-0.36650801 -10.543213 -17.461914 7
-0.35902399 -10.555908 -17.380859 7
-0.46627799 -17.849609 13.9375 7
-0.46843699 -17.834229 13.989258 7
-0.47695199 -17.861328 14.072266 7
-0.066147 5.8327641 19.137695 7
-0.056938 5.8503418 19.051758 7
-0.056159999 5.890625 19.03418 7
-0.058205001 5.9375 19.036133 7
-0.058837999 5.9807129 19.027344 7
-0.052444 6.0048828 18.963867 7
-0.053780001 6.0498052 18.960938 7
-0.034355 8.479248 17.792969 7
-0.024460001 8.4799805 17.701172 7
-0.038391002 8.5722656 17.783203 7
-0.045325998 8.6379395 17.81543 7
-0.139183 -3.666748 -16.952148 7
-0.13425399 -3.744873 -16.894531 7
-0.117615 -3.7602539 -16.754883 7
-0.12713601 -3.818115 -16.818359 7
-0.15095501 -6.422852 -16.213867 7
-0.14959 -6.4599609 -16.1875 7
-0.15767699 -6.5239258 -16.233398 7
-0.150475 -6.5446782 -16.163086 7
-0.154938 -6.5978999 -16.179688 7
-0.161575 -6.657959 -16.212891 7
-0.35697201 -9.9558105 -16.314453 7
-0.365105 -10.028809 -16.345703 7
-0.35570499 -10.032715 -16.256836 7
-0.35287499 -10.062744 -16.212891 7
-0.35151699 -10.098389 -16.178711 7
-0.353798 -10.148438 -16.169922 7
-0.36631 -10.239014 -16.231445 7
-0.41760299 -16.30127 13.379883 7
-0.41688499 -16.268555 13.414062 7
-0.058495 5.4589839 18.115234 7
-0.053879 5.5263672 18.055664 7
-0.052329998 5.5620122 18.032227 7
-0.049300998 5.5935059 17.99707 7
-0.047005001 5.6264648 17.966797 7
-0.048416 5.6694341 17.964844 7
-0.045387 5.7009282 17.930664 7
-0.031303 8.0058594 16.865234 7
-0.034935001 8.0554199 16.87207 7
-0.044495001 8.126709 16.919922 7
-0.034035001 8.1252441 16.829102 7
-0.02877 8.142334 16.774414 7
-0.020538 8.1484385 16.699219 7
-0.047150001 8.2834473 16.864258 7
-0.038169999 8.2866211 16.783203 7
-0.031424999 8.2973633 16.717773 7
-0.026900999 8.3166504 16.666992 7
-0.113365 11.184082 15.648438 7
-0.25508901 -0.35644501 -17.235352 7
-0.227577 -0.39550799 -17.025391 7
-0.22151899 -0.43774399 -16.978516 7
-0.220818 -0.48046899 -16.97168 7
-0.222427 -0.52392602 -16.981445 7
-0.226326 -0.56762701 -17.009766 7
-0.247086 -0.616211 -17.164062 7
-0.14203601 -6.0874019 -15.1875 7
-0.147507 -6.1398931 -15.209961 7
-0.138344 -6.1540532 -15.129883 7
-0.14227299 -6.2033691 -15.142578 7
-0.146973 -6.2546391 -15.160156 7
-0.158592 -6.3242192 -15.226562 7
-0.156441 -6.3959961 -15.180664 7
-0.35948199 -9.6555176 -15.237305 7
-0.35185999 -9.6652832 -15.165039 7
-0.34808299 -9.689209 -15.116211 7
-0.34586301 -9.7192383 -15.078125 7
-0.34903699 -9.7697754 -15.076172 7
-0.35762799 -9.8410645 -15.107422 7
-0.36002299 -9.8886719 -15.098633 7
-0.22030599 -0.0034179999 -15.930664 7
-0.21633901 -0.04541 -15.902344 7
-0.2211 -0.087158002 -15.9375 7
-0.22349501 -0.128418 -15.954102 7
-0.228256 -0.17041001 -15.989258 7
-0.120491 -5.7753911 -14.117188 7
-0.116493 -5.8010249 -14.075195 7
-0.119011 -5.84375 -14.078125 7
-0.133728 -5.916748 -14.160156 7
-0.13868 -5.9658198 -14.178711 7
-0.133064 -5.987793 -14.126953 7
-0.134766 -6.028564 -14.124023 7
-0.136475 -6.0688481 -14.120117 7
-0.32862899 -9.2363281 -14.015625 7
-0.32545501 -9.2602539 -13.974609 7
-0.42324799 -10.916992 -13.668945 7
-0.41608399 -10.956543 -13.575195 7
-0.42270699 -11.019043 -13.585938 7
-0.43095401 -11.088867 -13.606445 7
-0.44084901 -11.165527 -13.635742 7
-0.109871 -2.7814939 -14.075195 7
-0.103966 -2.8100591 -14.027344 7
-0.099762 -2.8408201 -13.992188 7
-0.101532 -2.878906 -13.99707 7
-0.117874 -2.9719241 -14.09082 7
-0.112419 -5.4646001 -13.301758 7
-0.108215 -5.48877 -13.261719 7
-0.111694 -5.5310059 -13.269531 7
-0.117752 -5.5800781 -13.294922 7
-0.124672 -5.631104 -13.324219 7
-0.128151 -5.673584 -13.332031 7
-0.127373 -5.7060552 -13.3125 7
-0.130859 -5.7492681 -13.321289 7
-0.322411 -8.9216309 -13.116211 7
-0.42089099 -10.594482 -12.740234 7
-0.41497001 -10.603027 -12.682617 7
-0.409042 -10.611572 -12.625977 7
-0.411713 -10.654785 -12.613281 7
-0.410072 -10.680664 -12.579102 7
-0.41789201 -10.745361 -12.595703 7
-0.43170899 -10.834473 -12.641602 7
-0.094933003 -2.561523 -13.231445 7
-0.092299998 -2.5922849 -13.208008 7
-0.098640002 -2.6337891 -13.242188 7
-0.112144 -2.683594 -13.320312 7
-0.100555 -2.7038569 -13.239258 7
-0.093445003 -2.7294919 -13.1875 7
-0.086327001 -2.7548831 -13.134766 7
-0.089073002 -2.7922361 -13.146484 7
-0.086448997 -2.822998 -13.123047 7
-0.087410003 -2.8579099 -13.121094 7
-0.095291004 -5.1252441 -12.488281 7
-0.096252002 -5.159668 -12.481445 7
-0.094521001 -5.1877441 -12.458008 7
-0.096382 -5.2243652 -12.456055 7
-0.100044 -5.2653809 -12.46582 7
-0.1073 -5.314209 -12.495117 7
-0.113663 -5.361084 -12.520508 7
-0.11013 -5.3852539 -12.486328 7
-0.111992 -5.4221191 -12.484375 7
-0.41645801 -10.302246 -11.825195 7
-0.41383401 -10.32251 -11.787109 7
-0.408508 -10.331787 -11.736328 7
-0.406784 -10.35498 -11.702148 7
-0.410469 -10.399902 -11.695312 7
-0.421379 -10.474365 -11.724609 7
-0.431389 -10.544922 -11.75 7
-0.080231003 -2.2568359 -12.492188 7
-0.089690998 -2.298584 -12.542969 7
-0.085045002 -2.326416 -12.509766 7
-0.084167004 -2.357666 -12.498047 7
-0.105835 -2.413574 -12.624023 7
-0.090857998 -2.4299321 -12.526367 7
-0.089203 -2.5576169 -12.490234 7
-0.078812003 -1.930908 -11.845703 7
-0.069008 -1.953125 -11.783203 7
-0.066086002 -1.981689 -11.761719 7
-0.069099002 -2.0148931 -11.774414 7
-0.069159999 -2.045898 -11.769531 7
-0.069205999 -2.0761721 -11.763672 7
-0.073211998 -2.1105959 -11.78125 7
-0.084128998 -2.1513669 -11.838867 7
-0.074309997 -2.1730959 -11.776367 7
-0.072388001 -2.202148 -11.760742 7
-0.073432997 -2.2336431 -11.759766 7
-0.103043 -4.8625488 -11.161133 7
-0.094276004 -4.9021001 -11.089844 7
-0.099289 -4.9416499 -11.104492 7
-0.100334 -4.973145 -11.097656 7
-0.112251 -5.0283198 -11.149414 7
-0.119225 -5.0727539 -11.174805 7
-0.299088 -8.0131836 -10.743164 7
-0.29518899 -8.0288086 -10.705078 7
-0.29229 -8.0478516 -10.672852 7
-0.29433399 -8.0822754 -10.662109 7
-0.29340401 -8.1074219 -10.639648 7
-0.28952 -8.1218262 -10.599609 7
-0.30246699 -8.192627 -10.642578 7
-0.30651101 -8.2336426 -10.641602 7
-0.30757901 -8.2651367 -10.626953 7
-0.30963099 -8.3000488 -10.617188 7
-0.38784799 -9.6408691 -10.129883 7
-0.38394901 -9.652832 -10.09082 7
-0.383026 -9.6760254 -10.063477 7
-0.384094 -9.7062988 -10.043945 7
-0.387146 -9.7446289 -10.03418 7
-0.38721499 -9.7714844 -10.011719 7
-0.39820901 -9.8400879 -10.037109 7
-0.40325901 -9.885498 -10.03418 7
-0.17617799 1.252197 -12.366211 7
-0.17131799 1.216553 -12.34082 7
-0.17131799 1.183838 -12.342773 7
-0.175179 1.152588 -12.368164 7
-0.176147 1.119873 -12.376953 7
-0.18099201 1.089111 -12.408203 7
-0.185837 1.058594 -12.439453 7
-0.195526 1.029541 -12.5 7
-0.20813 1.001465 -12.578125 7
-0.212006 0.969482 -12.602539 7
-0.086493999 -4.5288091 -10.55957 7
-0.089713998 -4.591064 -10.553711 7
-0.099243 -4.7211909 -10.556641 7
-0.100334 -4.7514648 -10.551758 7
-0.103493 -4.785645 -10.555664 7
-0.091201998 -4.815186 -10.46875 7
-0.098494999 -4.8581538 -10.494141 7
-0.110954 -4.9128418 -10.546875 7
-0.28492701 -7.6948242 -10.09375 7
-0.281876 -7.7119141 -10.05957 7
-0.29852301 -7.7905269 -10.118164 7
-0.296516 -7.810791 -10.089844 7
-0.28725401 -7.8083501 -10.02832 7
-0.28628501 -7.8320308 -10.004883 7
-0.28946701 -7.8681641 -10.000977 7
-0.28435501 -7.878418 -9.9589844 7
-0.28441599 -7.9047852 -9.9394531 7
-0.295883 -7.967773 -9.9716797 7
-0.072959997 -4.3125 -9.9140615 7
-0.075188003 -4.342773 -9.9140615 7
-0.087379001 -4.4978032 -9.9189453 7
-0.270264 -7.5820308 -9.2675781 7
-0.27141601 -7.6105962 -9.2548828 7
-0.27365899 -7.6420898 -9.2460938 7
-0.36158001 -9.0856934 -8.6357422 7
-0.36824799 -9.1560059 -8.6181641 7
-0.36505899 -9.1674805 -8.5830078 7
-0.36729401 -9.1989746 -8.5703115 7
-0.36736301 -9.2219238 -8.5478516 7
-0.36524999 -9.237793 -8.5185547 7
-0.067855999 -1.292969 -10.148438 7
-0.064507 -1.317139 -10.126953 7
-0.057785001 -1.340088 -10.089844 7
-0.063477002 -1.370361 -10.115234 7
-0.056754999 -1.393311 -10.078125 7
-0.05793 -1.42041 -10.080078 7
-0.055716999 -1.445801 -10.06543 7
-0.058022 -1.474121 -10.073242 7
-0.061446998 -1.50293 -10.085938 7
-0.068259999 -1.5344239 -10.116211 7
-0.067184001 -1.560303 -10.106445 7
-0.062714003 -1.583984 -10.080078 7
-0.061974 -4.1784668 -9.3496094 7
-0.066551 -4.2124019 -9.3613281 7
-0.066597 -4.2373052 -9.3515615 7
-0.067780003 -4.264648 -9.3466797 7
-0.071235999 -4.295898 -9.3515615 7
-0.075797997 -4.329834 -9.3632812 7
-0.075859003 -4.3547359 -9.3515615 7
-0.083824001 -4.39502 -9.3789062 7
-0.086135998 -4.424561 -9.3779297 7
-0.089576997 -4.456543 -9.3847656 7
-0.360466 -8.909668 -7.9941411 7
-0.35265401 -8.925293 -7.922852 7
-0.049194001 -1.2043459 -9.5732422 7
-0.056343 -1.2587889 -9.5996094 7
-0.058784001 -1.311523 -9.6054688 7
-0.061179999 -1.338623 -9.6132812 7
-0.067116 -1.36792 -9.6386719 7
-0.063621998 -1.3913569 -9.6181641 7
-0.063666999 -1.416504 -9.6132812 7
-0.269333 -7.077148 -8.2783203 7
-0.284767 -7.144043 -8.3193359 7
-0.27771801 -7.145752 -8.2753906 7
-0.269501 -7.1445308 -8.2265615 7
-0.271927 -7.1738281 -8.21875 7
-0.271988 -7.1965332 -8.2021484 7
-0.270859 -7.2150879 -8.1796885 7
-0.26618999 -7.223877 -8.1445312 7
-0.27452901 -7.2702641 -8.1591797 7
-0.27812999 -7.3027339 -8.1542969 7
-0.28292099 -7.3391109 -8.1552734 7
-0.35128799 -8.7229004 -7.3378911 7
-0.35371399 -8.7514648 -7.3251948 7
-0.359703 -8.7922363 -7.3232422 7
-0.36686701 -8.8371582 -7.327148 7
-0.36219001 -8.8410645 -7.2900391 7
-0.36462399 -8.8696289 -7.2773442 7
-0.369423 -8.9067383 -7.2724609 7
-0.36710399 -8.918457 -7.2431641 7
-0.37191001 -8.954834 -7.2363281 7
-0.14064801 2.2263179 -9.6582031 7
-0.13947301 2.1989751 -9.6572266 7
-0.14060999 2.1733401 -9.6679688 7
-0.1464 2.1521001 -9.7011719 7
-0.147552 2.1262209 -9.7119141 7
-0.14753699 2.0996089 -9.7167969 7
-0.14974201 2.074219 -9.7275391 7
-0.150894 2.0483401 -9.7382812 7
-0.15668499 2.0266111 -9.7705078 7
-0.164795 2.0070801 -9.8144531 7
-0.17522401 1.98877 -9.8701172 7
-0.178703 1.964844 -9.890625 7
-0.17057 1.9306639 -9.8564453 7
-0.054175999 -0.97876 -9.1611328 7
-0.048087999 -1.000977 -9.1308594 7
-0.054260001 -1.0280761 -9.15625 7
-0.060431998 -1.055908 -9.1826172 7
-0.058014002 -1.0793459 -9.1689453 7
-0.056830999 -1.103271 -9.1601562 7
-0.059326001 -1.12915 -9.1689453 7
-0.054466002 -1.151123 -9.1425781 7
-0.058182001 -1.17749 -9.1572266 7
-0.058228001 -1.202148 -9.1542969 7
-0.048454002 -1.221436 -9.1064453 7
-0.059532002 -1.251709 -9.1533203 7
-0.052223001 -1.272217 -9.1162109 7
-0.26380199 -6.9980469 -7.6767578 7
-0.26262701 -7.0158691 -7.655273 7
-0.169342 2.2402339 -9.2890615 7
-0.037865002 -0.95336902 -8.6240234 7
-0.257065 -6.7287598 -7.2060552 7
-0.25067899 -6.7312012 -7.1689448 7
-0.24687199 -6.7402339 -7.139648 7
-0.249504 -6.7675781 -7.132812 7
-0.24826799 -6.7836909 -7.1113281 7
-0.249603 -6.8071289 -7.0996089 7
-0.25094599 -6.8300781 -7.0869141 7
-0.258728 -6.8718262 -7.0976558 7
-0.261345 -6.8991699 -7.0908198 7
-0.27040899 -6.9443359 -7.1044922 7
-0.26789099 -6.9570308 -7.079102 7
-0.269218 -6.97998 -7.0673828 7
-0.269279 -7 -7.0507808 7
-0.27190399 -7.0266109 -7.0419922 7
-0.064957 -0.65258801 -8.3662109 7
-0.064986996 -0.67553699 -8.3642578 7
-0.063698001 -0.69751 -8.3564453 7
-0.061073001 -0.71923798 -8.34375 7
-0.051787999 -0.73901403 -8.3027344 7
-0.050499 -0.76122999 -8.2949219 7
-0.053199999 -0.78442401 -8.3037109 7
-0.053238001 -0.806885 -8.3007812 7
-0.053268 -0.82959002 -8.2998047 7
-0.053314 -0.851807 -8.296875 7
-0.060005002 -0.87744099 -8.3242188 7
-0.068024002 -0.90307599 -8.3554688 7
-0.062743999 -0.92407203 -8.3310547 7
-0.054786999 -0.943115 -8.2939453 7
-0.259666 -6.6533198 -6.7158198 7
-0.263733 -6.6828609 -6.7119141 7
-0.26110801 -6.6943359 -6.6875 7
-0.25092301 -6.4091802 -6.3125 7
-0.25235701 -6.4309082 -6.3017578 7
-0.246841 -6.4333501 -6.2675781 7
-0.241318 -6.436523 -6.235352 7
-0.246933 -6.4692378 -6.2373052 7
-0.249763 -6.4943848 -6.2304692 7
-0.245636 -6.500977 -6.202148 7
-0.249863 -6.5300288 -6.1992192 7
-0.249908 -6.5476069 -6.1845698 7
-0.254143 -6.576416 -6.1806641 7
-0.26255 -6.6164551 -6.1904302 7
-0.26398501 -6.637939 -6.1787109 7
-0.26682299 -6.6630859 -6.171875 7
-0.26826501 -6.6845698 -6.1601558 7
-0.26135299 -6.683105 -6.1230469 7
-0.268356 -6.719727 -6.1279302 7
-0.237625 -6.3818359 -5.7568359 7
-0.24295001 -6.098877 -5.5419922 7
-0.23999 -6.1079102 -5.5195308 7
-0.23854101 -6.119873 -5.500977 7
-0.237091 -6.1323242 -5.4824219 7
-0.240128 -6.1557622 -5.4755859 7
-0.232674 -6.1530762 -5.4404302 7
-0.080994003 4.0068359 -6.092773 7
-0.085403003 3.9963379 -6.1181641 7
-0.088333003 3.983398 -6.1367192 7
-0.082390003 3.954834 -6.125977 7
-0.08828 3.9467771 -6.155273 7
-0.089722 3.931396 -6.1689448 7
-0.083793998 3.9025879 -6.1582031 7
-0.085235998 3.886719 -6.172852 7
-0.083740003 3.8657229 -6.1767578 7
-0.098488003 3.8725591 -6.2363281 7
-0.091072001 3.8413091 -6.2207031 7
0.076637 -1.676146 -10.988234 7
-0.19330899 -8.2293406 -11.133509 7
-0.394254 -0.40459201 -16.583817 7
-0.096427999 -4.8239222 -10.491961 7
-0.24390399 -7.719358 -9.8069382 7
-0.079259001 -0.78039199 -8.2132425 7
-0.0031010001 -3.132602 -6.6389332 7
-0.194151 -6.4468989 -6.308238 7
-0.125306 3.8756189 -6.0877452 7
-0.077636003 -0.131302 -6.1530981 7
-0.058015998 -0.115301 -5.5424442 7
-0.058341 -0.29962999 -5.5384932 7
