# .PCD v0.7 - Point Cloud Data file format
VERSION 0.7
FIELDS x y z intensity
SIZE 4 4 4 4
TYPE F F F F
COUNT 1 1 1 1
WIDTH 846
HEIGHT 1
VIEWPOINT 0 0 0 1 0 0 0
POINTS 846
DATA ascii
1.974754 62.948242 -26.463867 7
1.40403 48.240723 -19.520508 7
1.403572 48.228516 -19.650391 7
1.294777 46.349609 -14.914062 7
1.297478 46.178711 -14.976562 7
1.213768 44.273926 -13.923828 7
1.2112581 44.358887 -14.071289 7
1.211411 44.321777 -14.175781 7
1.212288 44.251465 -14.268555 7
1.1194381 42.368652 -12.947266 7
1.114853 42.522461 -13.112305 7
1.118065 42.366211 -13.169922 7
1.112366 42.563477 -13.350586 7
1.114197 41.494141 -16.360352 7
-0.002258 29.174805 67.541992 7
0.123917 30.65918 62.530273 7
0.020699 34.991699 64.336914 7
0.058586001 34.531738 63.166016 7
0.117752 33.718262 61.381836 7
1.033012 40.820801 -12.282227 7
1.022537 41.164551 -12.506836 7
1.0333019 40.754883 -12.474609 7
1.025475 41.003906 -12.667969 7
0.035537999 25.207031 60.371094 7
-0.0033420001 25.808594 61.386719 7
0.122383 27.187988 56.865234 7
0.112373 27.455566 57.079102 7
0.12637299 28.211914 56.311523 7
0.96329498 38.710449 -11.279297 7
0.95476502 38.900879 -11.649414 7
0.061035 22.117676 54.198242 7
0.001411 22.870605 55.633789 7
-0.036483999 23.400879 56.52832 7
0.119423 24.343262 51.682617 7
0.076889001 24.969727 52.666016 7
0.094093002 24.88916 52.197266 7
0.054198999 26.492676 52.6875 7
0.089745 26.17334 51.779297 7
0.085097998 26.354004 51.836914 7
0.115005 26.100098 51.06543 7
0.88893902 36.753418 -10.337891 7
0.883385 36.886719 -10.476562 7
0.88919801 36.696777 -10.510742 7
0.88148499 36.890625 -10.670898 7
-0.01355 20.45166 50.84375 7
-0.043083001 20.847168 51.464844 7
-0.109863 21.59668 52.920898 7
0.087265 22.108887 47.59668 7
0.046799 22.649414 48.44043 7
0.067947 22.538086 47.928711 7
0.035172001 23.001465 48.601562 7
0.021895999 24.745605 48.195312 7
0.055916 24.467773 47.40918 7
0.060768001 24.523926 47.25293 7
0.075882003 24.459473 46.875977 7
0.101288 24.274414 46.279297 7
-0.021576 28.222656 47.671875 7
0.0032810001 28.016113 47.091797 7
0.029327 27.791992 46.489258 7
0.80800599 34.914551 -9.7539062 7
-0.61677599 -23.990234 -62.408203 7
-0.70658898 -24.910645 -64.380859 7
-0.61983502 -24.309082 -62.34375 7
-0.70267498 -25.177734 -64.152344 7
-0.58211499 -26.969238 -60.011719 7
-0.021973001 18.550293 46.900391 7
-0.056403998 18.951172 47.571289 7
-0.080048002 19.263184 48.018555 7
0.054001 20.425293 44.381836 7
0.018105 20.875488 45.061523 7
0.045630999 20.713379 44.463867 7
0.0068589998 21.196289 45.201172 7
0.017746 23.172363 44.029297 7
0.041556999 23.019531 43.511719 7
0.037650999 23.164062 43.540039 7
0.056754999 23.059082 43.117188 7
0.064865001 23.071777 42.908203 7
-0.035530001 26.461426 43.686523 7
-0.016212 26.333496 43.262695 7
0.008316 26.141113 42.741211 7
0.034912001 25.92041 42.180664 7
0.74937397 33.155762 -8.6552734 7
0.74295801 33.282715 -8.7792969 7
0.75009203 33.096191 -8.8076172 7
0.74828303 33.116211 -8.8994141 7
-0.54285401 -20.568848 -55.285156 7
-0.58248901 -21 -56.048828 7
-0.630081 -21.495605 -56.975586 7
-0.58380902 -21.274414 -55.958984 7
-0.62292498 -21.708984 -56.708984 7
-0.67692602 -22.263184 -57.763672 7
-0.459328 -23.29541 -51.958984 7
-0.46530899 -23.471191 -52.016602 7
-0.110443 17.450195 44.731445 7
-0.122551 17.646484 44.922852 7
-0.035781998 19.475098 42.333008 7
0.00605 19.203613 41.522461 7
0.024323 19.234375 41.105469 7
0.044296 19.246094 40.65625 7
0.057151999 19.224121 40.380859 7
0.085716002 19.152344 39.77832 7
0.0049439999 21.700684 40.411133 7
0.038925 21.455566 39.757812 7
0.015465 21.783691 40.129883 7
0.054862998 21.47998 39.381836 7
-0.049805 24.916992 39.96875 7
-0.024178 24.723633 39.472656 7
0.005142 24.487305 38.916016 7
0.028702 24.309082 38.445312 7
0.68307501 31.508789 -8.0859385 7
0.683456 31.480957 -8.1582031 7
-0.54730201 -18.491699 -51.19043 7
-0.59304798 -18.924805 -52.016602 7
-0.634193 -19.330566 -52.754883 7
-0.67852002 -19.761719 -53.550781 7
-0.716537 -20.15332 -54.224609 7
-0.44776201 -20.811035 -47.917969 7
-0.475784 -21.146973 -48.384766 7
-0.52284199 -21.637695 -49.206055 7
-0.52171302 -22.091797 -48.950195 7
-0.44622001 -21.587402 -47.491211 7
-0.489555 -22.057617 -48.236328 7
-0.42355299 -21.623535 -46.957031 7
-0.66206402 -26.456055 -49.773438 7
-0.605995 -26.04834 -48.698242 7
-0.022072 20.544922 37.972656 7
0.015738999 20.279297 37.302734 7
0.051688999 20.02832 36.665039 7
0.016525 20.445312 37.202148 7
0.052170001 20.194336 36.571289 7
-0.048424002 23.515625 36.918945 7
-0.029755 23.404785 36.571289 7
-0.001274 23.187988 36.069336 7
0.014618 23.102051 35.766602 7
-0.41630599 -15.016113 -44.737305 7
-0.448982 -15.313477 -45.274414 7
-0.48606899 -15.638672 -45.886719 7
-0.51372498 -15.911133 -46.331055 7
-0.548935 -16.230469 -46.908203 7
-0.60616302 -16.685059 -47.87207 7
-0.64831501 -17.053223 -48.568359 7
-0.33548701 -17.300781 -42.145508 7
-0.34934199 -17.496582 -42.337891 7
-0.371719 -17.854492 -42.628906 7
-0.407684 -18.208984 -43.197266 7
-0.36096999 -19.378418 -41.654297 7
-0.38245401 -19.64209 -41.964844 7
-0.34358999 -19.442383 -41.258789 7
-0.57392102 -23.940918 -43.59082 7
-0.100433 14.364258 38.349609 7
-0.113708 14.536621 38.53418 7
0.027000001 18.607422 34.150391 7
0.033927999 18.626465 34.004883 7
0.058265999 18.493164 33.595703 7
0.039726 18.73291 33.834961 7
0.061721999 18.618164 33.462891 7
0.068976998 18.631348 33.313477 7
-0.032806002 21.828125 33.522461 7
-0.015198 21.731445 33.220703 7
0.0034030001 21.624023 32.904297 7
0.016334999 21.571289 32.669922 7
0.031257998 21.498047 32.407227 7
0.58565497 28.398438 -6.6181641 7
-0.41697699 -13.263672 -41.424805 7
-0.43801099 -13.470703 -41.733398 7
-0.46687299 -13.719727 -42.168945 7
-0.48791501 -13.930664 -42.475586 7
-0.52835798 -14.245117 -43.098633 7
-0.56234699 -14.52832 -43.616211 7
-0.33161899 -15.756348 -38.833984 7
-0.36228201 -16.04248 -39.280273 7
-0.39704099 -16.356934 -39.790039 7
-0.37457299 -17.98291 -38.576172 7
-0.36866799 -18.124512 -38.389648 7
-0.331985 -17.953613 -37.771484 7
-0.59952497 -22.50293 -40.432617 7
-0.52569598 -21.998047 -39.270508 7
0.022315999 17.510254 31.723633 7
0.039864 17.44043 31.439453 7
0.059578001 17.352051 31.125977 7
0.036300998 17.614258 31.412109 7
0.056373999 17.521484 31.09375 7
-0.0243 20.588379 30.80957 7
-0.0089649996 20.516113 30.55957 7
0.0063780001 20.442871 30.311523 7
0.018828999 20.39502 30.101562 7
0.53395098 27.119629 -6.0400391 7
-0.36791199 -11.219238 -37.391602 7
-0.39186901 -11.415527 -37.723633 7
-0.41399401 -11.60498 -38.026367 7
-0.43871301 -11.808105 -38.368164 7
-0.45971701 -11.995605 -38.652344 7
-0.490013 -12.227051 -39.077148 7
-0.51771498 -12.449219 -39.461914 7
-0.28694201 -13.526367 -35.15332 7
-0.30614501 -13.717285 -35.400391 7
-0.304176 -13.791016 -35.334961 7
-0.31818399 -13.954102 -35.503906 7
-0.34893 -14.211426 -35.917969 7
-0.36146501 -14.368652 -36.063477 7
-0.32128099 -16.405273 -34.393555 7
-0.36407501 -16.769531 -34.959961 7
-0.33002499 -16.627441 -34.431641 7
-0.53364599 -20.507324 -35.881836 7
-0.50288397 -20.359863 -35.408203 7
0.028236 16.361816 29.124023 7
0.051933002 16.248047 28.785156 7
0.032531999 16.461914 28.99707 7
0.068558 16.316406 28.463867 7
-0.035393 19.456055 28.364258 7
-0.02581 19.437012 28.205078 7
-0.0072630001 19.338379 27.938477 7
0.0073850001 19.272461 27.71875 7
0.013435 19.282227 27.601562 7
-0.50921601 -10.959473 -36.87207 7
-0.27480301 -12.642578 -32.560547 7
-0.30964699 -12.902344 -33.005859 7
-0.28163099 -12.834961 -32.587891 7
-0.251228 -12.754883 -32.135742 7
-0.321136 -15.396973 -32.018555 7
-0.33057401 -15.531738 -32.104492 7
-0.533943 -19.479004 -33.265625 7
-0.495781 -19.283691 -32.731445 7
-0.47644001 -19.222168 -32.4375 7
0.016288999 15.542969 27.475586 7
0.036109999 15.463379 27.204102 7
0.020827999 15.635254 27.352539 7
0.026016001 15.660156 27.255859 7
0.047501002 15.56543 26.964844 7
-0.050567999 18.661621 26.657227 7
-0.010864 18.510254 26.085938 7
0.428581 24.865234 -4.8417969 7
0.42467499 24.907227 -4.914062 7
0.43675199 24.72168 -4.9277339 7
0.43085501 24.791504 -5.0087891 7
0.422562 24.894531 -5.0986328 7
-0.44389299 -9.3432617 -33.354492 7
-0.46080801 -9.484375 -33.551758 7
-0.28454599 -14.126953 -29.063477 7
-0.50234997 -17.984863 -30.246094 7
-0.48747301 -17.957031 -30.026367 7
-0.47216001 -17.925781 -29.801758 7
-0.48279601 -18.069336 -29.880859 7
-1.396233 -40.772949 22.084961 7
-1.36496 -38.814941 24.6875 7
0.049888998 14.506348 25.082031 7
0.015900001 14.795898 25.426758 7
0.056678999 14.630371 24.911133 7
-0.053009 17.694336 24.633789 7
-0.048797999 17.717285 24.549805 7
-0.033386 17.650391 24.351562 7
-0.007057 17.549805 24.000977 7
0.38984701 23.602539 -4.1777339 7
0.38562801 23.645508 -4.2470698 7
0.393051 23.536133 -4.2783198 7
0.39443201 23.504395 -4.3300781 7
0.388062 23.576172 -4.40625 7
0.38555899 23.595703 -4.4707031 7
0.409462 22.374512 -7.3701172 7
0.411255 22.331543 -7.414062 7
0.40316001 22.413574 -7.507812 7
0.40022299 22.429688 -7.5761719 7
0.400291 22.407715 -7.6289058 7
-0.36394501 -7.7753911 -30.256836 7
-0.37667799 -7.9633789 -30.37207 7
-0.40253401 -8.1181641 -30.668945 7
-0.420158 -8.2485352 -30.865234 7
-0.241951 -12.493652 -26.791992 7
-0.23938 -12.54541 -26.729492 7
-0.235901 -12.591797 -26.657227 7
-0.22827099 -12.617188 -26.538086 7
-0.260757 -12.852539 -26.87793 7
-0.262802 -12.928223 -26.869141 7
-0.26763201 -13.019531 -26.891602 7
-0.27798501 -13.139648 -26.977539 7
-0.27865601 -13.208984 -26.952148 7
-0.288086 -13.325195 -27.026367 7
-0.497711 -16.960938 -27.99707 7
-0.154617 9.3110352 28.152344 7
-0.027733 11.522461 25.680664 7
0.020485001 13.76123 23.895508 7
0.0062409998 13.905762 24.012695 7
0.014076 13.909668 23.900391 7
0.031502001 13.851562 23.689453 7
0.011993 14.030762 23.859375 7
0.018386999 14.042969 23.761719 7
0.037726998 13.970703 23.53125 7
0.040282998 14.006836 23.473633 7
-0.058548 16.962402 22.961914 7
-0.034790002 16.885254 22.657227 7
-0.026016001 16.869141 22.535156 7
-0.019646 16.87207 22.4375 7
-0.28780401 -6.4101558 -27.294922 7
-0.300789 -6.51123 -27.427734 7
-0.31426999 -6.61377 -27.56543 7
-0.34666401 -6.8364258 -27.902344 7
-0.230446 -11.736816 -24.584961 7
-0.258118 -11.992676 -24.820312 7
-0.23746499 -11.951172 -24.569336 7
-0.46759 -15.831055 -25.451172 7
-0.442909 -15.745117 -25.164062 7
-0.43964401 -15.786133 -25.09082 7
-0.44085699 -15.854004 -25.0625 7
-1.0090261 -30.037109 20.489258 7
-1.010887 -29.916016 20.710938 7
-1.017265 -29.929199 20.819336 7
-0.99539202 -29.678223 20.755859 7
-0.024360999 10.725098 23.982422 7
-0.021637 10.765137 23.930664 7
-0.018913001 10.806152 23.878906 7
-0.017235 10.851074 23.837891 7
0.033576999 13.043457 22.049805 7
0.0079960003 13.248535 22.264648 7
0.022034001 13.212402 22.100586 7
-0.047233999 16.150879 21.047852 7
-0.036324002 16.118652 20.916016 7
-0.031548001 16.130859 20.837891 7
-0.037032999 16.217285 20.848633 7
-0.21444701 -10.885742 -22.71875 7
-0.21409599 -10.939941 -22.688477 7
-0.217979 -11.013184 -22.698242 7
-0.231438 -11.130859 -22.804688 7
-0.228966 -11.175293 -22.750977 7
-0.44222999 -14.758301 -23.381836 7
-0.447227 -14.84375 -23.391602 7
-0.435707 -14.835449 -23.24707 7
-0.43271601 -14.875 -23.181641 7
-0.439316 -14.969238 -23.206055 7
-0.94713598 -27.352051 19.327148 7
-0.93829298 -27.231934 19.339844 7
-0.91773999 -27.009277 19.286133 7
-0.91614503 -26.953125 19.338867 7
-0.92683399 -27.002441 19.464844 7
-0.91352803 -26.84375 19.450195 7
-0.036934 10.047852 22.696289 7
-0.030746 10.070312 22.614258 7
-0.029510001 10.115234 22.580078 7
-0.025520001 10.146973 22.519531 7
-0.019874999 10.171387 22.443359 7
0.021819999 12.416016 20.762695 7
0.009323 12.534668 20.84668 7
0.0056150001 12.602051 20.850586 7
-0.070083998 15.492676 19.8125 7
-0.062820002 15.486816 19.717773 7
-0.054458998 15.473145 19.614258 7
-0.049385 15.481934 19.539062 7
-0.043212999 15.482422 19.453125 7
-0.056198001 15.616211 19.522461 7
-0.25985 -4.6611328 -23.598633 7
-0.262817 -4.7255859 -23.616211 7
-0.31057701 -4.996582 -24.061523 7
-0.31635299 -5.0673828 -24.106445 7
-0.21215799 -10.282227 -21.102539 7
-0.21687301 -10.35498 -21.121094 7
-0.21589699 -10.402344 -21.084961 7
-0.224014 -10.489258 -21.132812 7
-0.41582501 -13.991211 -21.361328 7
-0.51687598 -15.818359 -21.338867 7
-0.52335399 -15.908691 -21.354492 7
-0.82089198 -24.354004 17.947266 7
-0.80670202 -24.19873 17.926758 7
-0.80983001 -24.144531 18.057617 7
-0.80335999 -24.052734 18.077148 7
-0.036407001 9.3286133 21.405273 7
-0.030410999 9.3515615 21.332031 7
-0.032051001 9.4057617 21.325195 7
-0.023705 9.4174805 21.229492 7
-0.022407999 9.4589844 21.196289 7
-0.018173 9.487793 21.137695 7
-0.019805999 9.5415039 21.130859 7
0.00666 11.856934 19.599609 7
0.015572 11.852051 19.499023 7
0.011604 11.916992 19.504883 7
-0.0023119999 12.036621 19.592773 7
0.0083539998 12.020996 19.477539 7
0.017852999 12.01123 19.37207 7
0.0045170002 12.128906 19.455078 7
-0.076035 14.812012 18.501953 7
-0.077643998 14.86377 18.480469 7
-0.067001 14.834961 18.368164 7
-0.059273001 14.824707 18.276367 7
-0.052138999 14.817383 18.1875 7
-0.053169001 14.864746 18.162109 7
-0.059432998 14.946777 18.174805 7
-0.160583 -6.7314448 -20.443359 7
-0.167336 -6.80127 -20.488281 7
-0.171684 -6.8647461 -20.510742 7
-0.17662799 -6.9306641 -20.538086 7
-0.19179501 -7.0258789 -20.660156 7
-0.21331801 -9.6625977 -19.769531 7
-0.216492 -9.7246094 -19.773438 7
-0.222076 -9.796875 -19.797852 7
-0.42723101 -13.160156 -20.140625 7
-0.43485999 -13.29834 -20.137695 7
-0.42839101 -13.314941 -20.051758 7
-0.420708 -13.324707 -19.955078 7
-0.431786 -13.430664 -20.011719 7
-0.51889801 -15.124023 -19.822266 7
-0.52352101 -15.248047 -19.783203 7
-0.749138 -22.158203 16.990234 7
0.00044999999 11.358398 18.5 7
-0.001915 11.411133 18.493164 7
-0.022895999 11.5625 18.630859 7
-0.080100998 14.314453 17.256836 7
-0.073165998 14.308594 17.175781 7
-0.066840999 14.305176 17.098633 7
-0.064231999 14.326172 17.046875 7
-0.242035 -3.207031 -20.673828 7
-0.227486 -3.2392581 -20.532227 7
-0.235893 -3.3017581 -20.599609 7
-0.24493399 -3.3657229 -20.671875 7
-0.25270799 -3.4282229 -20.733398 7
-0.26494601 -3.4980471 -20.833984 7
-0.285469 -3.5795901 -21.008789 7
-0.295158 -3.6464839 -21.086914 7
-0.264671 -3.652832 -20.802734 7
-0.157272 -6.125 -19.150391 7
-0.148453 -6.1489258 -19.057617 7
-0.159462 -6.2255859 -19.137695 7
-0.18018299 -6.3774409 -19.285156 7
-0.164322 -6.382812 -19.131836 7
-0.152954 -6.3994141 -19.016602 7
-0.19689199 -9.0166016 -18.350586 7
-0.19319201 -9.0483398 -18.297852 7
-0.20040099 -9.1210938 -18.334961 7
-0.21017499 -9.2045898 -18.391602 7
-0.215462 -9.2700195 -18.411133 7
-0.41422999 -12.576172 -18.545898 7
-0.406021 -12.582031 -18.451172 7
-0.401039 -12.603516 -18.382812 7
-0.411522 -12.700684 -18.431641 7
-0.41813701 -12.778809 -18.450195 7
-0.50285298 -14.397461 -18.208984 7
-0.66076702 -21.754395 13.208984 7
-0.66284198 -21.741211 13.269531 7
-0.204018 6.1054692 21.464844 7
-0.028884999 8.3242188 19.03418 7
-0.026794 8.3583984 18.999023 7
-0.023375999 8.387207 18.954102 7
-0.019958001 8.4160156 18.907227 7
-0.019424001 11.01709 17.472656 7
-0.0054549999 10.984863 17.34668 7
0.0052189999 10.96875 17.244141 7
0.0053329999 11.006348 17.217773 7
-0.012352 11.133789 17.321289 7
-0.068641998 13.712891 15.947266 7
-0.065894999 13.731934 15.899414 7
-0.061165001 13.736816 15.836914 7
-0.167961 -5.4804692 -18.197266 7
-0.155899 -5.4975591 -18.083008 7
-0.17023499 -5.577148 -18.1875 7
-0.133812 -5.5351558 -17.87207 7
-0.145432 -5.6079102 -17.953125 7
-0.151649 -5.6679692 -17.990234 7
-0.158539 -5.72998 -18.032227 7
-0.182907 -8.3256836 -17.211914 7
-0.183723 -8.371582 -17.197266 7
-0.18793499 -8.4291992 -17.208008 7
-0.190918 -8.5263672 -17.189453 7
-0.20192 -8.6088867 -17.25293 7
-0.39830801 -11.885254 -17.277344 7
-0.41004899 -11.982422 -17.332031 7
-0.40203899 -11.98877 -17.245117 7
-0.396065 -12.003906 -17.172852 7
-0.39350101 -12.03418 -17.124023 7
-0.39502701 -12.083984 -17.104492 7
-0.50016803 -13.830566 -16.910156 7
-0.492836 -13.834473 -16.826172 7
-0.514862 -13.990723 -16.941406 7
-0.00066399999 10.359863 16.466797 7
0.0043259999 10.37207 16.40918 7
-0.080719002 13.26123 15.037109 7
-0.082680002 13.305664 15.018555 7
-0.067985997 13.250977 14.899414 7
-0.063704997 13.258301 14.84375 7
-0.071220003 13.335449 14.858398 7
-0.160347 -7.69873 -16.032227 7
-0.159035 -7.734375 -16.00293 7
-0.16347501 -7.7895508 -16.016602 7
-0.167198 -7.842773 -16.024414 7
-0.17884099 -7.9223628 -16.089844 7
-0.174652 -7.94873 -16.039062 7
-0.38582599 -11.400879 -15.97168 7
-0.38308001 -11.428223 -15.923828 7
-0.37963101 -11.452637 -15.873047 7
-0.37544999 -11.473633 -15.817383 7
-0.47922501 -13.143555 -15.584961 7
-0.48300901 -13.201172 -15.576172 7
-0.47882801 -13.219727 -15.517578 7
-0.493462 -13.331055 -15.577148 7
-0.50447798 -13.425293 -15.613281 7
-0.52414697 -16.55957 14.388672 7
-0.041602999 7.440918 17.274414 7
-0.040771 7.4755859 17.251953 7
-0.0392 7.5068359 17.223633 7
-0.036873002 7.5366211 17.19043 7
-0.032333001 7.5585942 17.140625 7
-0.030029001 7.5874019 17.107422 7
-0.02919 7.6220698 17.083984 7
-0.026138 7.6494141 17.045898 7
-0.010063 9.9306641 15.617188 7
-0.0033259999 9.934082 15.551758 7
0.0026700001 9.9404297 15.490234 7
-0.0082780002 10.023926 15.538086 7
-0.015541 10.09082 15.561523 7
-0.009544 10.09668 15.5 7
-0.001328 10.092285 15.423828 7
0.001724 10.111816 15.382812 7
-0.012909 10.213379 15.453125 7
-0.078902997 12.758301 14.030273 7
-0.073540002 12.788574 13.941406 7
-0.068282999 12.788086 13.882812 7
-0.21620899 -1.624023 -17.123047 7
-0.21629301 -1.6669919 -17.118164 7
-0.22168 -1.714355 -17.154297 7
-0.228577 -1.762695 -17.202148 7
-0.2332 -1.809082 -17.234375 7
-0.244637 -1.861816 -17.316406 7
-0.26060501 -1.917969 -17.432617 7
-0.130989 -4.4838872 -15.896484 7
-0.128059 -4.5185552 -15.863281 7
-0.129677 -4.5620122 -15.863281 7
-0.119171 -4.5810552 -15.773438 7
-0.12307 -4.6289058 -15.791016 7
-0.12545 -4.6733398 -15.795898 7
-0.133141 -4.7290039 -15.839844 7
-0.13703901 -4.777832 -15.857422 7
-0.125771 -4.7939448 -15.761719 7
-0.16132399 -7.4282231 -15.013672 7
-0.162209 -7.4682622 -14.999023 7
-0.162323 -7.5068359 -14.982422 7
-0.166245 -7.5576172 -14.990234 7
-0.17626201 -7.6274409 -15.040039 7
-0.17941999 -7.67627 -15.042969 7
-0.47172499 -12.533203 -14.495117 7
-0.46881101 -12.555176 -14.446289 7
-0.46819299 -12.588867 -14.412109 7
-0.473717 -12.651855 -14.414062 7
-0.46468401 -12.644531 -14.330078 7
-0.484734 -12.777344 -14.416992 7
-0.049911 7.0664058 16.484375 7
-0.043570999 7.0820308 16.426758 7
-0.047378998 7.129395 16.435547 7
-0.039489999 7.139648 16.366211 7
-0.038612001 7.171875 16.34375 7
-0.038520999 7.2070308 16.327148 7
-0.0058900001 9.5683594 14.704102 7
-0.022705 9.737793 14.739258 7
-0.106842 -4.1933589 -14.78125 7
-0.11335 -4.2431641 -14.81543 7
-0.122269 -4.2973628 -14.867188 7
-0.120766 -4.3330078 -14.845703 7
-0.112846 -4.3554692 -14.779297 7
-0.109749 -4.387207 -14.746094 7
-0.12610599 -6.7368159 -13.97168 7
-0.126221 -6.7724609 -13.955078 7
-0.126335 -6.8085942 -13.938477 7
-0.130463 -6.855957 -13.949219 7
-0.142639 -6.9287109 -14.012695 7
-0.14114401 -6.9594731 -13.984375 7
-0.141258 -6.995605 -13.96875 7
-0.35214201 -10.330078 -13.729492 7
-0.35227999 -10.365234 -13.704102 7
-0.35080001 -10.393555 -13.669922 7
-0.36641699 -10.527832 -13.709961 7
-0.440788 -11.845703 -13.341797 7
-0.445793 -11.901855 -13.339844 7
-0.45967901 -11.998535 -13.387695 7
-0.46224999 -12.044434 -13.373047 7
-0.44864699 -12.016602 -13.268555 7
-0.447182 -12.043457 -13.231445 7
-0.443275 -12.059082 -13.179688 7
-0.44422901 -12.09668 -13.155273 7
-0.108139 -3.655273 -14.06543 7
-0.103172 -3.683105 -14.022461 7
-0.092308 -3.702637 -13.941406 7
-0.094085999 -3.7407229 -13.943359 7
-0.096703 -3.78125 -13.952148 7
-0.098488003 -3.819824 -13.954102 7
-0.111786 -6.4204102 -13.081055 7
-0.120346 -6.4785161 -13.119141 7
-0.125526 -6.5263672 -13.135742 7
-0.124786 -6.5571289 -13.113281 7
-0.127434 -6.5986328 -13.113281 7
-0.13178299 -6.64502 -13.125 7
-0.13695499 -6.6933589 -13.139648 7
-0.35799399 -9.9291992 -12.935547 7
-0.34963199 -9.9296885 -12.865234 7
-0.34722099 -9.953125 -12.827148 7
-0.348198 -9.9897461 -12.808594 7
-0.35779601 -10.092773 -12.811523 7
-0.36387599 -10.149902 -12.821289 7
-0.45159101 -11.583008 -12.416016 7
-0.44662499 -11.592773 -12.362305 7
-0.44335899 -11.609863 -12.316406 7
-0.44094801 -11.630371 -12.275391 7
-0.447891 -11.692871 -12.283203 7
-0.453987 -11.751465 -12.286133 7
-0.46604201 -11.836426 -12.319336 7
-0.163147 -0.012207 -13.650391 7
-0.16587099 -0.04834 -13.667969 7
-0.171257 -0.084472999 -13.702148 7
-0.18292201 -0.15771499 -13.777344 7
-0.187416 -0.194336 -13.805664 7
-0.19369499 -0.231445 -13.845703 7
-0.207985 -0.26953101 -13.9375 7
-0.215157 -0.307129 -13.983398 7
-0.102676 -3.2290039 -13.327148 7
-0.098328002 -3.2568359 -13.290039 7
-0.095757 -3.2871089 -13.265625 7
-0.093185 -3.3173831 -13.240234 7
-0.082634002 -3.335938 -13.165039 7
-0.086266004 -3.375488 -13.179688 7
-0.088134997 -3.4125979 -13.183594 7
-0.092643999 -3.453125 -13.203125 7
-0.091849998 -3.4858401 -13.188477 7
-0.109001 -6.0957031 -12.349609 7
-0.116219 -6.1464839 -12.376953 7
-0.116325 -6.1791992 -12.362305 7
-0.117325 -6.2138672 -12.353516 7
-0.119202 -6.250977 -12.349609 7
-0.123749 -6.2944341 -12.360352 7
-0.136307 -6.3608398 -12.418945 7
-0.132851 -6.3833008 -12.381836 7
-0.43292999 -14.321289 9.6074219 7
-0.43389899 -14.306641 9.6445312 7
-0.433952 -14.287109 9.6787109 7
-0.413849 -14.157715 9.6474609 7
-0.40839401 -14.10791 9.6640615 7
-0.204651 -0.216309 -13.654297 7
-0.203796 -0.25146499 -13.647461 7
-0.182541 -0.28369099 -13.514648 7
-0.18261001 -0.31835899 -13.512695 7
-0.093803003 -2.8930659 -12.613281 7
-0.092026003 -2.922852 -12.59375 7
-0.089325003 -2.952148 -12.570312 7
-0.084762998 -2.9790039 -12.535156 7
-0.079346001 -3.0366211 -12.487305 7
-0.082213998 -3.0727539 -12.49707 7
-0.087875001 -3.113281 -12.523438 7
-0.094550997 -3.187012 -12.546875 7
-0.108307 -5.7675781 -11.711914 7
-0.108398 -5.7983398 -11.697266 7
-0.117813 -5.8530269 -11.737305 7
-0.117912 -5.8837891 -11.722656 7
-0.116142 -5.9091802 -11.697266 7
-0.120903 -5.9516602 -11.708984 7
-0.123795 -5.9892578 -11.710938 7
-0.127625 -6.0297852 -11.717773 7
-0.30574799 -8.9755859 -11.194336 7
-0.324112 -9.1870117 -11.174805 7
-0.316742 -9.1889648 -11.116211 7
-0.32903299 -9.2631836 -11.154297 7
-0.391716 -13.415039 9.1679688 7
-0.398476 -13.432129 9.2207031 7
-0.39469099 -13.393555 9.2402344 7
-0.38227099 -13.30957 9.234375 7
-0.37271899 -13.242188 9.2373047 7
-0.35934401 -13.153809 9.2275391 7
-0.18107601 -0.0048830002 -13.512695 7
-0.182999 -0.040038999 -13.523438 7
-0.18769801 -0.075195 -13.552734 7
-0.196098 -0.11084 -13.604492 7
-0.203583 -0.145996 -13.650391 7
-0.207367 -0.181152 -13.671875 7
-0.070846997 -2.6933589 -11.801758 7
-0.068970002 -2.7216799 -11.78418 7
-0.068069004 -2.7514651 -11.772461 7
-0.066200003 -2.7797849 -11.753906 7
-0.066269003 -2.8105471 -11.748047 7
-0.079048 -2.8574221 -11.814453 7
-0.096084997 -5.4550781 -11.004883 7
-0.097153001 -5.4863281 -10.99707 7
-0.106064 -5.5371089 -11.032227 7
-0.114975 -5.5874019 -11.066406 7
-0.119957 -5.628418 -11.079102 7
-0.108292 -5.628418 -11.001953 7
-0.109367 -5.6601558 -10.994141 7
-0.115341 -5.7036128 -11.011719 7
-0.121307 -5.7470698 -11.029297 7
-0.30899799 -8.6557617 -10.511719 7
-0.30517599 -8.6704102 -10.472656 7
-0.32200599 -8.7563477 -10.530273 7
-0.311295 -8.7460938 -10.458008 7
-0.31140101 -8.7739258 -10.4375 7
-0.30857101 -8.7910156 -10.40332 7
-0.310646 -8.8256836 -10.391602 7
-0.306824 -8.8393555 -10.352539 7
-0.315788 -8.8979492 -10.37207 7
-0.320824 -8.9433594 -10.374023 7
-0.065063 -2.5053711 -11.197266 7
-0.094710998 -5.1235352 -10.488281 7
-0.086608998 -5.132812 -10.433594 7
-0.088737004 -5.1650391 -10.431641 7
-0.091972001 -5.2275391 -10.422852 7
-0.108467 -5.2929692 -10.494141 7
-0.106499 -5.315918 -10.47168 7
-0.101463 -5.331543 -10.431641 7
-0.105736 -5.3969731 -10.427734 7
-0.109917 -5.434082 -10.435547 7
-0.29556301 -8.328125 -9.8447266 7
-0.29463199 -8.3510742 -9.8212891 7
-0.30193299 -8.4018555 -9.8339844 7
-0.31437701 -8.4697266 -9.8681641 7
-0.302147 -8.4545898 -9.7939453 7
-0.30121601 -8.4760742 -9.7675781 7
-0.30133101 -8.5024414 -9.7480469 7
-0.30039999 -8.5249023 -9.7236328 7
-0.29948401 -8.5473633 -9.6982422 7
-0.304726 -8.5913086 -9.7001953 7
-0.153603 1.138672 -11.495117 7
-0.135223 1.098145 -11.395508 7
-0.131165 1.06543 -11.375 7
-0.131203 1.034668 -11.376953 7
-0.13227101 1.004395 -11.384766 7
-0.132301 0.97412097 -11.386719 7
-0.13438401 0.944336 -11.400391 7
-0.136475 0.91406202 -11.415039 7
-0.142654 0.88574201 -11.451172 7
-0.067184001 -4.8173828 -9.7861328 7
-0.064048998 -4.8364258 -9.7587891 7
-0.066276997 -4.8676758 -9.7578115 7
-0.070656002 -4.9023442 -9.765625 7
-0.079337999 -4.9477539 -9.796875 7
-0.080490001 -4.9760742 -9.7900391 7
-0.087021001 -5.0161128 -9.8095703 7
-0.077431001 -5.0209961 -9.7509766 7
-0.079659 -5.0517578 -9.7490234 7
-0.081894003 -5.0830078 -9.7480469 7
-0.28816199 -8.0019531 -9.2001953 7
-0.28942901 -8.0551758 -9.1660156 7
-0.29384601 -8.09375 -9.1669922 7
-0.30149099 -8.1425781 -9.1777344 7
-0.29188499 -8.1357422 -9.1171885 7
-0.28983301 -8.1533203 -9.0878906 7
-0.29101601 -8.1811523 -9.0732422 7
-0.292191 -8.2094727 -9.0585938 7
-0.29887399 -8.2792969 -9.0478516 7
-0.38389599 -9.7182617 -8.3125 7
-0.38076001 -9.7290039 -8.2773438 7
-0.38194999 -9.7548828 -8.2578115 7
-0.386383 -9.7944336 -8.2519531 7
-0.384323 -9.8085938 -8.2197266 7
-0.393089 -9.8642578 -8.2285156 7
-0.127808 1.271484 -10.708008 7
-0.12999 1.243652 -10.722656 7
-0.13109601 1.214844 -10.730469 7
-0.13650499 1.188965 -10.761719 7
-0.14083099 1.161621 -10.788086 7
-0.148384 1.1357419 -10.831055 7
-0.16023999 1.112305 -10.896484 7
-0.160271 1.083496 -10.898438 7
-0.15708899 1.052734 -10.882812 7
-0.14852899 1.018555 -10.84082 7
-0.14212 0.98632801 -10.807617 7
-0.054198999 -1.9462889 -10.087891 7
-0.053153999 -1.972168 -10.077148 7
-0.054329 -1.999023 -10.077148 7
-0.066749997 -2.0644529 -10.129883 7
-0.064644001 -2.1157229 -10.108398 7
-0.061416999 -2.1660161 -10.081055 7
-0.059250001 -2.1904299 -10.063477 7
-0.058196999 -2.2163091 -10.052734 7
-0.061492998 -4.617188 -9.265625 7
-0.063819997 -4.6469731 -9.265625 7
-0.066132002 -4.6767578 -9.2646484 7
-0.068458997 -4.7060552 -9.2636719 7
-0.073174 -4.7895508 -9.25 7
-0.28389001 -7.7788091 -8.6162109 7
-0.28624001 -7.8085942 -8.6054688 7
-0.292061 -7.8730469 -8.5898438 7
-0.28878799 -7.8857422 -8.5585938 7
-0.28888699 -7.9091802 -8.5400391 7
-0.28907001 -7.9555659 -8.5019531 7
-0.063652001 -1.615234 -9.6914062 7
-0.063721001 -1.641113 -9.6875 7
-0.061446998 -1.665527 -9.671875 7
-0.063835002 -1.692871 -9.6787109 7
-0.053397998 -1.710449 -9.6240234 7
-0.049965002 -1.733398 -9.6035156 7
-0.051192999 -1.759766 -9.6044922 7
-0.054749001 -1.788574 -9.6171885 7
-0.057144001 -1.815918 -9.6240234 7
-0.063033998 -1.846191 -9.6474609 7
-0.066605002 -1.874512 -9.6591797 7
-0.066666 -1.900391 -9.6542969 7
-0.058563001 -1.919434 -9.6113281 7
-0.087050997 -4.6376948 -8.8486328 7
-0.085968003 -4.6591802 -8.8330078 7
-0.088371001 -4.6879878 -8.8320312 7
-0.093139999 -4.7216802 -8.8417969 7
-0.093208 -4.7451172 -8.8291016 7
-0.096794002 -4.7763672 -8.8339844 7
-0.29188499 -7.6889648 -8.0371094 7
-0.28962699 -7.7036128 -8.0097656 7
-0.048514999 -1.299805 -8.7167969 7
-0.042220999 -1.3193361 -8.6845703 7
-0.042273998 -1.342773 -8.6806641 7
-0.044861 -1.367676 -8.6894531 7
-0.044922002 -1.391602 -8.6855469 7
-0.053863999 -1.420898 -8.7216797 7
-0.057723999 -1.4462889 -8.734375 7
-0.053970002 -1.467285 -8.7148438 7
-0.051483002 -1.4892581 -8.7001953 7
-0.048996001 -1.5107419 -8.6845703 7
-0.051589999 -1.536621 -8.6923828 7
-0.046569999 -1.556152 -8.6660156 7
-0.047897 -1.580566 -8.6679688 7
-0.26928699 -7.1269531 -7.0332031 7
-0.26297799 -7.1279302 -6.9941411 7
-0.263062 -7.1469731 -6.976562 7
-0.263145 -7.1669922 -6.9599609 7
-0.26708201 -7.1977539 -6.9560552 7
-0.26716599 -7.2172852 -6.9394531 7
-0.27236199 -7.2519531 -6.938477 7
-0.27884701 -7.2900391 -6.9433589 7
-0.28788799 -7.3364258 -6.9560552 7
-0.28796399 -7.3554692 -6.9375 7
-0.059532002 -1.296387 -8.3486328 7
-0.067512996 -1.32373 -8.3798828 7
-0.062286001 -1.343262 -8.3535156 7
-0.063652001 -1.366699 -8.3554688 7
-0.059737999 -1.386719 -8.3349609 7
-0.061119001 -1.410156 -8.3369141 7
-0.062484998 -1.434082 -8.3398438 7
-0.26530501 -6.7363281 -6.1757808 7
-0.24884801 -6.7250981 -6.09375 7
-0.250305 -6.746582 -6.0810552 7
-0.18835799 9.3083715 20.784672 7
0.0040529999 -3.8457301 -14.113454 7
-0.036341999 -6.5523219 -12.966193 7
-0.001835 -2.8164461 -11.740316 7
0.055720001 -4.81531 -9.6218786 7
-0.044489998 -1.447935 -8.9103212 7
-0.096980996 -4.401372 -8.2371168 7
-0.232476 -0.065797001 -13.676364 7
-0.13623101 -2.7767799 -11.729399 7
-0.225491 -6.3277378 -12.512363 7
-0.034942999 -1.305528 -8.6264429 7
-0.124695 -4.5101008 -9.2480612 7
-0.31142899 -8.8090057 -10.4245 7
-0.18253399 1.177111 -10.873128 7
4e-06 -0.79337698 -7.1725502 7
-0.054905001 -3.685569 -7.160305 7
-0.25425199 -7.6685901 -7.974894 7
-0.21424501 -6.8486538 -6.2850342 7
