# .PCD v0.7 - Point Cloud Data file format
VERSION 0.7
FIELDS x y z intensity
SIZE 4 4 4 4
TYPE F F F F
COUNT 1 1 1 1
WIDTH 916
HEIGHT 1
VIEWPOINT 0 0 0 1 0 0 0
POINTS 916
DATA ascii
1.6919709 54.13623 -27.301758 7
1.431435 47.361328 -23.564453 7
1.315376 45.699707 -18.829102 7
1.318863 45.480469 -18.860352 7
1.227959 43.864258 -17.744141 7
1.234612 43.524414 -17.716797 7
0.187759 39.975586 63.18457 7
1.129692 40.689941 -19.924805 7
0.141129 31.262695 61.19043 7
0.089371003 32.20459 62.638672 7
0.156021 34.063965 59.370117 7
0.168594 33.994141 58.942383 7
0.16879299 34.132324 58.867188 7
0.21084601 33.55957 57.600586 7
0.069214001 38.476074 60.333008 7
0.114502 37.794434 58.994141 7
0.14956699 37.29541 57.943359 7
1.044891 40.315918 -15.727539 7
1.045563 40.259277 -15.81543 7
1.043503 40.298828 -15.944336 7
0.15007 27.634766 55.446289 7
0.060729999 28.98584 57.758789 7
0.163193 30.438965 53.729492 7
0.170166 30.461426 53.485352 7
0.14375301 31.507812 53.845703 7
0.171432 31.207031 53.070312 7
0.170212 31.353027 53.037109 7
0.96655297 38.334473 -14.789062 7
0.972565 38.113281 -14.800781 7
0.96800202 38.225098 -14.955078 7
0.070908003 25.685059 52.242188 7
0.045791999 26.115234 52.791992 7
0.159454 27.302246 48.870117 7
0.15046699 27.540039 49.024414 7
0.14492799 27.731934 49.095703 7
0.121017 29.230957 49.053711 7
0.142303 29.044922 48.500977 7
0.145004 29.12207 48.37793 7
0.16734301 28.916016 47.802734 7
0.066528 32.960938 48.646484 7
0.083664 32.810059 48.195312 7
0.106827 32.561523 47.610352 7
0.90098602 36.116699 -13.438477 7
0.89465302 36.265625 -13.598633 7
0.899643 36.094238 -13.62793 7
0.070418999 22.888672 47.492188 7
0.026916999 23.474121 48.390625 7
-0.011749 24.010742 49.181641 7
0.100952 25.385254 45.514648 7
0.124969 25.198242 44.952148 7
0.087387003 25.766113 45.692383 7
0.102539 27.279297 44.473633 7
0.126968 27.0625 43.910156 7
0.127747 27.156738 43.836914 7
0.14285301 27.060059 43.46875 7
0.046631001 30.675781 44.056641 7
0.068618998 30.464355 43.552734 7
0.091324002 30.240234 43.037109 7
0.81799299 34.34375 -12.524414 7
0.81575 34.312988 -12.795898 7
-0.676956 -27.481934 -60.663086 7
-0.76048303 -28.432617 -62.398438 7
-0.69261199 -27.92041 -60.857422 7
-0.77122498 -28.831543 -62.481445 7
-0.83502197 -29.604492 -63.78125 7
0.021438999 21.298828 44.585938 7
-0.006699 21.681152 45.100586 7
-0.034851 22.067383 45.615234 7
0.078048997 23.250488 42.288086 7
0.065215997 23.491699 42.486328 7
0.072815001 23.506836 42.290039 7
0.062224999 25.696289 41.383789 7
0.082367003 25.54834 40.949219 7
0.097793996 25.456543 40.604492 7
0.101486 25.507324 40.481445 7
0.117691 25.40332 40.12207 7
0.143829 25.175781 39.580078 7
0.048232999 28.567383 39.999023 7
0.063629001 28.455078 39.65918 7
0.083434999 28.282227 39.241211 7
0.102737 28.114746 38.833984 7
0.75245702 32.666504 -11.643555 7
-0.62927198 -23.973145 -54.439453 7
-0.66941798 -24.446777 -55.171875 7
-0.70712298 -24.902344 -55.854492 7
-0.66316199 -24.653809 -54.920898 7
-0.70603901 -25.157227 -55.703125 7
-0.75488299 -25.717285 -56.600586 7
-0.52157599 -25.95752 -50.754883 7
-0.53027302 -26.162109 -50.855469 7
-0.56291199 -26.599121 -51.415039 7
-0.516357 -26.26709 -50.454102 7
-0.54112202 -26.628418 -50.861328 7
-0.713745 -31.333496 -52.34082 7
-0.65290803 -30.795898 -51.136719 7
-0.070435002 20.231934 42.619141 7
-0.084274001 20.455566 42.828125 7
0.028259 21.877441 39.623047 7
0.041976999 21.830078 39.333008 7
0.052521002 21.812988 39.098633 7
0.065948002 21.766602 38.81543 7
0.079940997 21.712402 38.521484 7
0.093933001 21.657715 38.229492 7
0.103622 21.645996 38.011719 7
0.113297 21.633301 37.794922 7
0.118698 21.665527 37.65332 7
0.131531 21.617188 37.381836 7
0.13348401 21.683594 37.300781 7
0.076416001 23.793457 37.449219 7
0.108948 23.512207 36.841797 7
0.078079 23.949707 37.316406 7
0.118881 23.572266 36.572266 7
0.024643 26.936523 36.709961 7
0.051956002 26.681641 36.205078 7
0.073288001 26.499023 35.799805 7
0.094604 26.314453 35.395508 7
0.69189501 30.939453 -10.626953 7
0.68984997 30.930176 -10.792969 7
-0.59962499 -21.290039 -49.957031 7
-0.62803602 -21.626953 -50.423828 7
-0.68167102 -22.162598 -51.354492 7
-0.72125202 -22.593262 -52.024414 7
-0.77343798 -23.125 -52.921875 7
-0.49366799 -23.40625 -46.544922 7
-0.52331501 -23.777832 -47.014648 7
-0.58384699 -24.423828 -48.032227 7
-0.56977803 -24.865723 -47.46875 7
-0.485291 -24.210938 -45.911133 7
-0.51377898 -24.580078 -46.353516 7
-0.68748498 -29.039551 -47.672852 7
-0.640854 -28.678711 -46.805664 7
0.033629999 22.664062 35.436523 7
0.065886997 22.405273 34.878906 7
0.083664 22.297363 34.548828 7
0.063277997 22.595703 34.821289 7
0.098907001 22.29541 34.211914 7
-0.0093839997 25.678223 34.456055 7
0.011734 25.510742 34.082031 7
0.030396 25.370605 33.746094 7
0.050278001 25.214844 33.393555 7
0.074432001 25.006836 32.976562 7
0.62939501 29.763672 -10.060547 7
0.63171399 29.670898 -10.185547 7
-0.44673201 -17.280762 -43.506836 7
-0.472565 -17.555176 -43.900391 7
-0.50898701 -17.902832 -44.473633 7
-0.540604 -18.220703 -44.964844 7
-0.56741297 -18.509277 -45.37207 7
-0.61891198 -18.966309 -46.196289 7
-0.64769 -19.250977 -46.605469 7
-0.39042699 -19.699219 -41.211914 7
-0.41174299 -20.060547 -41.460938 7
-0.42898601 -20.294434 -41.694336 7
-0.47097799 -20.722168 -42.332031 7
-0.45344499 -21.979004 -41.289062 7
-0.41471899 -21.753418 -40.609375 7
-0.40815699 -21.794922 -40.449219 7
-0.63664198 -26.498535 -42.419922 7
0.073073998 20.658203 31.9375 7
0.097763002 20.490234 31.536133 7
0.085235998 20.686035 31.670898 7
0.096175998 20.651367 31.467773 7
0.120193 20.486328 31.079102 7
0.095946997 20.799316 31.380859 7
0.023087 23.735352 30.921875 7
0.060943998 23.461426 30.302734 7
0.073532 23.392578 30.080078 7
0.062073 23.589844 30.182617 7
0.58477801 28.01709 -9.0146484 7
0.58306903 28.024902 -9.09375 7
0.578857 28.075684 -9.1884766 7
0.59086603 27.842773 -9.1748047 7
0.58354199 27.94873 -9.2910156 7
0.58338898 27.928223 -9.359375 7
-0.43571499 -15.323242 -40.189453 7
-0.46949801 -15.618652 -40.683594 7
-0.50329602 -15.917969 -41.178711 7
-0.52148402 -16.125 -41.423828 7
-0.55808997 -16.425781 -41.935547 7
-0.59121698 -16.726562 -42.415039 7
-0.61499 -16.972168 -42.746094 7
-0.356415 -17.516602 -37.716797 7
-0.36668399 -17.678223 -37.829102 7
-0.37208599 -17.807129 -37.867188 7
-0.39831501 -18.081543 -38.222656 7
-0.436737 -18.443848 -38.763672 7
-0.433029 -20.252441 -37.732422 7
-0.38034099 -19.932617 -36.897461 7
-0.38211101 -20.122559 -36.821289 7
-0.60363799 -24.492188 -38.485352 7
-0.57107502 -24.296875 -37.959961 7
0.058577999 19.493164 29.792969 7
0.085143998 19.317383 29.396484 7
0.099792004 19.250488 29.15918 7
0.086989999 19.436035 29.286133 7
0.104156 19.34375 29.015625 7
0.0022430001 22.55127 28.793945 7
0.023331 22.398438 28.479492 7
0.040465999 22.286133 28.214844 7
0.052184999 22.229004 28.019531 7
0.065002002 22.160156 27.80957 7
0.054428 22.335449 27.892578 7
0.52802998 26.828613 -8.3476562 7
0.53053302 26.76709 -8.3964844 7
0.52528399 26.831543 -8.4921885 7
0.53219599 26.698242 -8.5136719 7
0.531326 26.69043 -8.5830078 7
-0.43716401 -13.367188 -37.09375 7
-0.43656901 -13.453125 -37.050781 7
-0.45709199 -13.648926 -37.316406 7
-0.48140001 -13.865723 -37.635742 7
-0.50230402 -14.066406 -37.905273 7
-0.53114301 -14.310059 -38.290039 7
-0.55808997 -14.545898 -38.645508 7
-0.36769101 -15.825195 -34.848633 7
-0.338379 -15.726562 -34.394531 7
-0.39146399 -16.143066 -35.104492 7
-0.56788599 -22.464355 -34.611328 7
-0.538086 -22.302734 -34.166992 7
-0.50753802 -22.132812 -33.713867 7
-1.926605 -52.515137 31.115234 7
0.059478998 18.085449 27.469727 7
0.058090001 18.160156 27.446289 7
0.064560004 18.166992 27.326172 7
0.088242002 18.026367 26.99707 7
0.081772 18.144043 27.035156 7
0.095458999 18.148438 26.788086 7
-0.001709 21.182129 26.395508 7
0.0031890001 21.195312 26.291992 7
0.017044 21.120117 26.085938 7
0.028945999 21.063477 25.904297 7
0.04126 21.002441 25.717773 7
0.053162001 20.944824 25.536133 7
0.470413 25.475098 -7.7207031 7
0.46723899 25.50293 -7.7988281 7
0.47441101 25.376465 -7.820312 7
0.46827701 25.447754 -7.914062 7
0.47395301 25.343262 -7.9433589 7
-0.38726801 -11.758789 -34.121094 7
-0.412384 -11.958008 -34.436523 7
-0.423401 -12.092285 -34.557617 7
-0.309784 -14.537109 -31.723633 7
-0.320847 -14.678711 -31.833008 7
-0.30122399 -14.640137 -31.538086 7
-0.2836 -14.611816 -31.267578 7
-0.267593 -14.592285 -31.020508 7
-0.35673499 -17.116699 -31.144531 7
-0.36860701 -17.272949 -31.253906 7
-0.519867 -21.026855 -31.470703 7
-1.6568151 -45.925293 27.654297 7
0.043593999 17.309082 25.878906 7
0.076935001 17.155762 25.422852 7
0.053513002 17.463379 25.611328 7
0.088333003 17.235352 25.177734 7
0.00031999999 20.27832 24.457031 7
0.013824 20.208008 24.269531 7
0.024429001 20.164062 24.112305 7
0.025451999 20.209473 24.056641 7
0.015244 20.360352 24.117188 7
0.44062799 24.233398 -7.1933589 7
0.434448 24.300781 -7.28125 7
-0.34085101 -10.099609 -31.125977 7
-0.35272199 -10.222656 -31.251953 7
-0.36546299 -10.351074 -31.389648 7
-0.375595 -10.46875 -31.492188 7
-0.29782099 -15.362793 -28.137695 7
-0.322418 -15.584473 -28.390625 7
-0.307724 -15.561523 -28.178711 7
-0.54174799 -19.651367 -29.308594 7
-0.51960802 -19.561523 -29.010742 7
-0.50009203 -19.490234 -28.745117 7
-0.52870202 -19.768066 -29.015625 7
-1.391937 -39.746094 24.135742 7
-1.3579561 -37.509277 26.798828 7
0.015991 14.019531 25.780273 7
0.017044 14.071289 25.737305 7
0.040176 16.333984 24.023438 7
0.078704998 16.146973 23.546875 7
0.051468 16.410156 23.795898 7
0.081450999 16.285645 23.408203 7
-0.016372999 19.245117 22.75293 7
-0.0072479998 19.216797 22.621094 7
0.019073 19.086426 22.279297 7
0.024628 19.088867 22.18457 7
0.395401 23.075684 -6.485352 7
0.395538 23.056641 -6.5400391 7
0.386383 23.13916 -6.6923828 7
0.40757799 21.702148 -9.5205078 7
0.40429699 21.717773 -9.5917969 7
-0.44073501 -9.7231445 -30.232422 7
-0.45107999 -9.8354492 -30.332031 7
-0.27606201 -14.031738 -26.092773 7
-0.28179899 -14.128418 -26.121094 7
-0.278671 -14.173828 -26.050781 7
-0.29234299 -14.316895 -26.166992 7
-0.52893102 -18.47168 -27.057617 7
-0.50383002 -18.365234 -26.75 7
-0.48761001 -18.319824 -26.536133 7
-1.154404 -32.925781 24.129883 7
-1.18721 -33.138672 24.508789 7
0.036513999 15.458984 22.530273 7
0.042923 15.463379 22.432617 7
0.060805999 15.384277 22.222656 7
0.062408 15.422363 22.172852 7
0.040511999 15.632812 22.352539 7
0.060805999 15.53418 22.119141 7
0.071517996 15.505859 21.980469 7
-0.012955 18.35791 21.044922 7
-0.0056150001 18.344238 20.938477 7
0.0022130001 18.325684 20.827148 7
0.35430899 22.075195 -6.0039058 7
-0.352615 -8.0048828 -27.255859 7
-0.35722399 -8.0864258 -27.286133 7
-0.37233001 -8.2011719 -27.43457 7
-0.39442399 -8.340332 -27.662109 7
-0.39204401 -8.4008789 -27.615234 7
-0.241882 -12.808105 -23.839844 7
-0.244644 -12.939941 -23.804688 7
-0.25331101 -13.04541 -23.862305 7
-0.26361099 -13.217285 -23.90332 7
-0.27679399 -13.347168 -24.005859 7
-0.49221799 -17.126953 -24.581055 7
-0.47427401 -17.071289 -24.365234 7
-1.06636 -29.683105 22.31543 7
-1.035156 -29.348145 22.183594 7
-1.029526 -29.24707 22.21582 7
-1.0437011 -29.325684 22.376953 7
0.051971 14.536621 20.777344 7
0.062424 14.512207 20.649414 7
0.058228001 14.679199 20.587891 7
0.062484998 14.695801 20.516602 7
-0.020279 17.51123 19.436523 7
-0.012421 17.492676 19.333008 7
-0.0071410001 17.493652 19.249023 7
-0.0059509999 17.527832 19.201172 7
-0.28253201 -6.597168 -24.845703 7
-0.28530899 -6.6660161 -24.858398 7
-0.29289201 -6.7480469 -24.920898 7
-0.29887399 -6.8261719 -24.966797 7
-0.312332 -6.9248052 -25.09082 7
-0.32096899 -7.0107422 -25.165039 7
-0.23182701 -12.028809 -22.045898 7
-0.95225501 -26.609863 20.619141 7
-0.93342602 -26.403809 20.566406 7
-0.94630402 -26.467285 20.707031 7
-0.94194001 -26.383789 20.742188 7
-0.937576 -26.300781 20.776367 7
-0.143448 9.6660156 24.024414 7
0.022399999 13.883789 19.735352 7
0.036972001 13.87793 19.548828 7
0.044785 13.870117 19.451172 7
0.042739999 13.926758 19.4375 7
0.030807 14.04834 19.504883 7
0.040268 14.030273 19.395508 7
0.043152001 14.054199 19.338867 7
-0.037154999 16.717773 18.228516 7
-0.040833 16.786621 18.217773 7
-0.031387001 16.754883 18.108398 7
-0.025757 16.75293 18.027344 7
-0.020126 16.750488 17.947266 7
-0.171509 -8.3212891 -21.265625 7
-0.17846701 -8.3989258 -21.310547 7
-0.18656901 -8.4814453 -21.367188 7
-0.19877601 -8.6313477 -21.44043 7
-0.212631 -11.020996 -20.464844 7
-0.217316 -11.09375 -20.479492 7
-0.216278 -11.139648 -20.443359 7
-0.227844 -11.244629 -20.520508 7
-0.238846 -11.347168 -20.591797 7
-0.23152199 -11.36377 -20.498047 7
-0.23793 -11.444824 -20.52832 7
-0.43617201 -14.831055 -20.776367 7
-0.44516 -15.036133 -20.742188 7
-0.44413799 -15.081055 -20.696289 7
-0.44255099 -15.123047 -20.645508 7
-0.860291 -25.880371 16.433594 7
-0.85218799 -25.738281 16.515625 7
-0.80874598 -23.530762 19 7
-0.83490002 -23.694336 19.208984 7
-0.81779498 -23.51709 19.163086 7
0.0040130001 10.888672 20.150391 7
0.0041350001 10.932617 20.125 7
0.0095370002 10.950195 20.053711 7
0.013763 10.973145 19.993164 7
0.0097960001 11.037598 20.001953 7
0.0088649997 11.131348 19.959961 7
0.014847 11.144043 19.883789 7
0.028091 13.151367 18.426758 7
0.019440001 13.245117 18.464844 7
0.032439999 13.207031 18.333008 7
0.044861 13.17041 18.206055 7
0.040314 13.239258 18.211914 7
0.024658 13.375977 18.302734 7
0.037659001 13.335938 18.171875 7
0.043044999 13.342285 18.099609 7
-0.042144999 16.050293 16.882812 7
-0.032683998 16.019043 16.780273 7
-0.029617 16.03418 16.722656 7
-0.024826 16.036133 16.65332 7
-0.042435002 16.275391 16.663086 7
0.251495 19.102539 -4.2080078 7
0.24765 19.12793 -4.264648 7
0.25340301 19.058105 -4.2929692 7
0.25634801 19.016602 -4.329102 7
0.25193799 19.047852 -4.3867192 7
0.248108 19.072754 -4.4433589 7
-0.25531 -4.9335942 -21.668945 7
-0.257828 -4.9926758 -21.680664 7
-0.260941 -5.0527339 -21.696289 7
-0.19171099 -7.7304692 -20.161133 7
-0.18328901 -7.753418 -20.066406 7
-0.190063 -7.8251948 -20.107422 7
-0.204742 -7.9243159 -20.219727 7
-0.21516401 -8.0092773 -20.292969 7
-0.193405 -7.9868159 -20.078125 7
-0.20770299 -10.29248 -19.161133 7
-0.207809 -10.34082 -19.137695 7
-0.21156301 -10.404785 -19.143555 7
-0.218979 -10.484863 -19.181641 7
-0.233688 -10.597656 -19.280273 7
-0.228928 -10.624023 -19.213867 7
-0.23390201 -10.694336 -19.229492 7
-0.243729 -10.785645 -19.287109 7
-0.245667 -10.842773 -19.276367 7
-0.443039 -14.129395 -19.425781 7
-0.464508 -14.293457 -19.560547 7
-0.45488 -14.289551 -19.449219 7
-0.44706699 -14.29541 -19.353516 7
-0.442307 -14.317871 -19.282227 7
-0.57290602 -16.209961 -19.391602 7
-0.75772101 -21.60791 17.954102 7
-0.74961901 -21.508789 17.958984 7
-0.76728803 -21.598633 18.109375 7
-0.756042 -21.476074 18.09668 7
-0.013596 10.375977 19.19043 7
-0.010986 10.405273 19.145508 7
-0.0096129999 10.441406 19.111328 7
-0.0070190001 10.470703 19.066406 7
0.0030670001 10.464844 18.961914 7
-0.005539 10.547363 19.006836 7
0.02623 12.658203 17.260742 7
0.0027620001 12.834473 17.40332 7
0.013443 12.810059 17.296875 7
0.029221 12.79248 17.123047 7
-0.068649001 15.463867 15.987305 7
-0.066024996 15.480469 15.93457 7
-0.060943998 15.480957 15.866211 7
-0.057709001 15.493164 15.810547 7
-0.048920002 15.466797 15.71875 7
-0.303009 -4.5224609 -20.738281 7
-0.31275901 -4.5922852 -20.8125 7
-0.30445901 -4.6289058 -20.728516 7
-0.177246 -6.8974609 -18.863281 7
-0.162582 -6.9482422 -18.704102 7
-0.156845 -6.9775391 -18.636719 7
-0.195831 -9.6240234 -17.823242 7
-0.192047 -9.6533203 -17.769531 7
-0.201859 -9.737793 -17.824219 7
-0.21684299 -9.8442383 -17.919922 7
-0.20787001 -9.8520508 -17.824219 7
-0.215103 -9.9267578 -17.857422 7
-0.217133 -9.9794922 -17.848633 7
-0.226944 -10.06543 -17.902344 7
-0.43418899 -13.412598 -17.972656 7
-0.52603102 -15.237305 -17.584961 7
-0.522888 -15.263184 -17.526367 7
-0.51911902 -15.286133 -17.463867 7
-0.011658 9.6401367 18.180664 7
-0.007584 9.6616211 18.12793 7
-0.014755 9.7333984 18.161133 7
-0.0019680001 9.7563477 18.019531 7
-0.001846 9.7958984 17.99707 7
0.0035250001 9.8105469 17.93457 7
0.018478001 12.062012 16.282227 7
0.027176 12.049316 16.196289 7
0.017395001 12.139648 16.235352 7
-0.069977 14.850098 14.814453 7
-0.06459 14.84668 14.748047 7
-0.059204001 14.843262 14.682617 7
-0.051849 14.826172 14.605469 7
-0.044495001 14.809082 14.527344 7
-0.043044999 14.831055 14.485352 7
-0.036346 14.817871 14.412109 7
-0.048691001 14.931641 14.450195 7
-0.057755001 15.024414 14.46875 7
-0.166153 -6.4267578 -17.674805 7
-0.171021 -6.484375 -17.697266 7
-0.175201 -6.5405269 -17.714844 7
-0.18279999 -6.6064448 -17.759766 7
-0.205872 -9.2939453 -16.760742 7
-0.21760599 -9.3818359 -16.826172 7
-0.219055 -9.4296885 -16.814453 7
-0.23763999 -9.5454102 -16.929688 7
-0.239105 -9.59375 -16.917969 7
-0.43463099 -12.839355 -16.797852 7
-0.52059901 -14.612305 -16.308594 7
-0.51727301 -14.635254 -16.251953 7
-0.52220201 -14.702637 -16.249023 7
-0.64541602 -20.020508 13.399414 7
0.02124 11.584961 15.314453 7
0.024139 11.603516 15.270508 7
0.011124 11.739746 15.299805 7
0.022384999 11.711914 15.201172 7
0.014847 11.786133 15.222656 7
-0.059891 14.300781 13.686523 7
-0.060454998 14.333984 13.65625 7
-0.045745999 14.269531 13.543945 7
-0.046326 14.302246 13.514648 7
-0.045502 14.32666 13.477539 7
-0.221176 -2.858887 -17.897461 7
-0.223419 -2.906738 -17.907227 7
-0.232132 -2.9628911 -17.969727 7
-0.239426 -3.0170901 -18.019531 7
-0.247421 -3.0727539 -18.075195 7
-0.257599 -3.1318359 -18.148438 7
-0.269943 -3.1933589 -18.238281 7
-0.28228801 -3.2548831 -18.327148 7
-0.28236401 -3.30127 -18.319336 7
-0.13447601 -5.78125 -16.436523 7
-0.146851 -5.8540039 -16.516602 7
-0.15271001 -5.9111328 -16.546875 7
-0.162918 -5.9785161 -16.610352 7
-0.147797 -5.9814448 -16.479492 7
-0.14352401 -6.012207 -16.432617 7
-0.142166 -6.0507808 -16.407227 7
-0.17063899 -8.3647461 -15.633789 7
-0.174347 -8.4169922 -15.639648 7
-0.170807 -8.4448242 -15.59375 7
-0.17598 -8.5014648 -15.609375 7
-0.189117 -8.5893555 -15.682617 7
-0.190643 -8.6347656 -15.672852 7
-0.497269 -13.82373 -15.038086 7
-0.495911 -13.854492 -14.996094 7
-0.49746701 -13.900391 -14.97168 7
-0.496124 -13.931152 -14.929688 7
-0.51152003 -14.048828 -14.989258 7
-0.61354101 -18.726074 12.566406 7
-0.612122 -18.689941 12.604492 7
-0.611435 -18.658203 12.646484 7
-0.013931 8.831543 16.299805 7
-0.016052 8.875 16.293945 7
-0.013733 8.9013672 16.257812 7
-0.0084690005 8.9150391 16.202148 7
-0.006149 8.9404297 16.166016 7
0.012238 11.209473 14.414062 7
0.020447001 11.198242 14.339844 7
-0.067749001 13.774414 12.785156 7
-0.063965 13.778809 12.734375 7
-0.056488 13.760742 12.666016 7
-0.048186999 13.763184 12.560547 7
-0.047332998 13.785156 12.525391 7
-0.049408 13.824707 12.503906 7
-0.055160999 13.887207 12.5 7
-0.059432998 13.94043 12.489258 7
-0.14650001 -5.1337891 -15.673828 7
-0.14428701 -5.168457 -15.645508 7
-0.12907401 -5.1738281 -15.521484 7
-0.126083 -5.206543 -15.487305 7
-0.12768599 -5.2495122 -15.485352 7
-0.133102 -5.3017578 -15.512695 7
-0.142349 -5.362793 -15.566406 7
-0.14929201 -5.4179692 -15.602539 7
-0.140182 -5.4360352 -15.522461 7
-0.17742901 -8.0776367 -14.678711 7
-0.171371 -8.0947266 -14.617188 7
-0.169937 -8.1269531 -14.587891 7
-0.17308 -8.175293 -14.589844 7
-0.186188 -8.2578115 -14.657227 7
-0.18243399 -8.2817383 -14.611328 7
-0.385452 -11.531738 -14.322266 7
-0.384781 -11.564453 -14.290039 7
-0.38026401 -11.581055 -14.235352 7
-0.39649999 -11.69043 -14.304688 7
-0.405045 -11.765625 -14.328125 7
-0.40360999 -11.795898 -14.291016 7
-0.48545799 -13.15332 -13.955078 7
-0.492477 -13.224121 -13.963867 7
-0.48873901 -13.241211 -13.911133 7
-0.478073 -13.222656 -13.817383 7
-0.477402 -13.254883 -13.782227 7
-0.47749299 -13.290527 -13.750977 7
-0.025787 8.3334961 15.619141 7
-0.021011 8.3496094 15.570312 7
-0.017792 8.3706055 15.530273 7
-0.016922001 8.4003906 15.504883 7
-0.012146 8.4155273 15.455078 7
-0.0097049996 8.4399414 15.420898 7
-0.007278 8.4638672 15.386719 7
-0.0087430002 8.5029297 15.376953 7
-0.010223 8.5419922 15.367188 7
0.0091089997 10.649414 13.712891 7
0.017775999 10.63623 13.639648 7
0.017883001 10.665039 13.615234 7
0.0024260001 10.770508 13.676758 7
0.00097699999 10.807129 13.661133 7
0.0088499999 10.797363 13.591797 7
0.013626 10.802246 13.540039 7
0.016052 10.818848 13.501953 7
0.010712 10.874512 13.505859 7
-0.063323997 13.308594 11.791992 7
-0.061661001 13.324219 11.753906 7
-0.057663001 13.325195 11.705078 7
-0.061432 13.37207 11.691406 7
-0.065186001 13.418945 11.676758 7
-0.126297 -4.512207 -14.700195 7
-0.123947 -4.5444341 -14.671875 7
-0.12803601 -4.590332 -14.688477 7
-0.128098 -4.6279302 -14.677734 7
-0.120087 -4.6494141 -14.611328 7
-0.104004 -4.6533198 -14.488281 7
-0.103256 -4.6889648 -14.47168 7
-0.108978 -4.737793 -14.5 7
-0.111465 -4.780273 -14.504883 7
-0.130981 -7.3823242 -13.563477 7
-0.14888 -7.4750981 -13.660156 7
-0.147324 -7.504395 -13.630859 7
-0.140121 -7.5161128 -13.566406 7
-0.14668299 -7.5717769 -13.589844 7
-0.154846 -7.6337891 -13.624023 7
-0.37876901 -10.908203 -13.404297 7
-0.37074301 -10.908203 -13.332031 7
-0.366043 -10.956543 -13.25293 7
-0.369385 -11.004883 -13.246094 7
-0.365417 -11.021484 -13.196289 7
-0.382568 -11.129395 -13.266602 7
-0.38264501 -11.164062 -13.240234 7
-0.46931499 -12.625977 -12.794922 7
-0.46453899 -12.63623 -12.739258 7
-0.46299699 -12.660645 -12.700195 7
-0.46472201 -12.70166 -12.678711 7
-0.46481299 -12.734375 -12.648438 7
-0.012573 7.967773 14.701172 7
-0.0091859996 7.9873052 14.663086 7
-0.190231 -1.210938 -14.933594 7
-0.18605 -1.246582 -14.902344 7
-0.192871 -1.288574 -14.945312 7
-0.201447 -1.369141 -14.99707 7
-0.21003699 -1.451172 -15.046875 7
-0.218567 -1.4951169 -15.101562 7
-0.22624201 -1.538574 -15.149414 7
-0.219528 -1.5732419 -15.100586 7
-0.110077 -4.1801758 -13.81543 7
-0.103348 -4.2026372 -13.759766 7
-0.097457998 -4.2275391 -13.710938 7
-0.100067 -4.2670898 -13.717773 7
-0.100983 -4.304688 -13.712891 7
-0.102737 -4.342773 -13.713867 7
-0.108749 -4.3901372 -13.742188 7
-0.118149 -4.4433589 -13.792969 7
-0.109711 -4.4624019 -13.726562 7
-0.111557 -6.7861328 -12.789062 7
-0.112549 -6.8544922 -12.760742 7
-0.118576 -6.9057622 -12.78125 7
-0.120361 -6.9443359 -12.775391 7
-0.131622 -7.077148 -12.791992 7
-0.134247 -7.1181641 -12.791016 7
-0.14122 -7.2060552 -12.797852 7
-0.454391 -12.14209 -11.818359 7
-0.201828 -0.94140601 -14.22168 7
-0.092254996 -3.84375 -12.981445 7
-0.094085999 -3.8798831 -12.983398 7
-0.098601997 -3.921875 -13.00293 7
-0.098663002 -3.9550779 -12.993164 7
-0.107651 -4.0048828 -13.040039 7
-0.104141 -4.032227 -13.007812 7
-0.096161 -4.0507808 -12.946289 7
-0.089965999 -4.0732422 -12.898438 7
-0.097167999 -4.1196289 -12.932617 7
-0.094543003 -4.1479492 -12.90625 7
-0.119385 -6.504395 -12.118164 7
-0.125717 -6.5541992 -12.139648 7
-0.127579 -6.5908198 -12.134766 7
-0.131226 -6.632812 -12.139648 7
-0.13583399 -6.7094731 -12.133789 7
-0.13948099 -6.750977 -12.137695 7
-0.137756 -6.7773442 -12.111328 7
-0.152161 -6.8510742 -12.177734 7
-0.150436 -6.8774409 -12.151367 7
-0.153183 -6.9169922 -12.149414 7
-0.15683 -6.9594731 -12.154297 7
-0.356033 -9.9750977 -11.696289 7
-0.36509699 -10.041504 -11.71875 7
-0.35440099 -10.028809 -11.638672 7
-0.34910601 -10.038086 -11.588867 7
-0.35098299 -10.075684 -11.573242 7
-0.34567299 -10.084473 -11.522461 7
-0.352936 -10.143555 -11.535156 7
-0.360199 -10.202148 -11.546875 7
-0.447449 -11.569336 -11.079102 7
-0.45112601 -11.61377 -11.067383 7
-0.45571899 -11.663086 -11.060547 7
-0.44680801 -11.651855 -10.991211 7
-0.45050001 -11.697266 -10.980469 7
-0.45237699 -11.733887 -10.960938 7
-0.45066801 -11.754883 -10.924805 7
-0.462448 -11.836426 -10.951172 7
-0.106812 -6.0991211 -11.449219 7
-0.104996 -6.124023 -11.423828 7
-0.10318 -6.1489258 -11.398438 7
-0.11824 -6.219727 -11.466797 7
-0.124878 -6.2680659 -11.489258 7
-0.130569 -6.3129878 -11.504883 7
-0.118454 -6.3100591 -11.422852 7
-0.12600701 -6.360352 -11.448242 7
-0.38139299 -13.10791 9.5878906 7
-0.14515699 0.18261699 -12.19043 7
-0.15104701 0.149902 -12.226562 7
-0.154037 0.117188 -12.243164 7
-0.098328002 -5.7788091 -10.77832 7
-0.092483997 -5.79248 -10.732422 7
-0.094498001 -5.8251948 -10.729492 7
-0.096542001 -5.8588872 -10.726562 7
-0.111374 -5.9257808 -10.790039 7
-0.116364 -5.9667969 -10.801758 7
-0.106567 -5.9692378 -10.735352 7
-0.108597 -6.003418 -10.732422 7
-0.111618 -6.039062 -10.733398 7
-0.113647 -6.0722661 -10.727539 7
-0.30561799 -8.9638672 -10.161133 7
-0.31063801 -9.0087891 -10.162109 7
-0.31861901 -9.0644531 -10.176758 7
-0.31275901 -9.0703115 -10.128906 7
-0.32368499 -9.1367188 -10.15625 7
-0.31684899 -9.1381836 -10.102539 7
-0.31395 -9.1538086 -10.067383 7
-0.31799299 -9.1953115 -10.063477 7
-0.31509399 -9.2109385 -10.02832 7
-0.31616199 -9.2412109 -10.010742 7
-0.154633 0.31347701 -12.24707 7
-0.148865 0.27978501 -12.213867 7
-0.145996 0.247559 -12.195312 7
-0.14801 0.215332 -12.207031 7
-0.083999999 -2.6977539 -11.180664 7
-0.085068002 -2.7280271 -11.179688 7
-0.081009001 -2.7519529 -11.149414 7
-0.076949999 -2.7763669 -11.121094 7
-0.066711001 -2.792969 -11.057617 7
-0.068816997 -2.8251951 -11.0625 7
-0.072982997 -2.859375 -11.078125 7
-0.081511997 -5.4526372 -10.171875 7
-0.084656 -5.487793 -10.174805 7
-0.081619002 -5.5068359 -10.145508 7
-0.099182002 -5.5766602 -10.220703 7
-0.098205999 -5.6010742 -10.202148 7
-0.096207 -5.6235352 -10.178711 7
-0.094208002 -5.6455078 -10.155273 7
-0.099426001 -5.6850591 -10.167969 7
-0.099472001 -5.7114258 -10.152344 7
-0.30311599 -8.6835938 -9.5390615 7
-0.31042501 -8.7348633 -9.5498047 7
-0.31358299 -8.7709961 -9.5419922 7
-0.323975 -8.8330078 -9.5664062 7
-0.316818 -8.8334961 -9.5146484 7
-0.311737 -8.840332 -9.4716797 7
-0.31489599 -8.8769531 -9.4638672 7
-0.312897 -8.894043 -9.4326172 7
-0.31193501 -8.9155273 -9.4072266 7
-0.40646401 -10.480957 -8.6230469 7
-0.13942 0.63964802 -11.530273 7
-0.142517 0.609375 -11.548828 7
-0.14563 0.57910198 -11.567383 7
-0.149765 0.54931599 -11.591797 7
-0.150833 0.51855499 -11.597656 7
-0.152924 0.487793 -11.610352 7
-0.156036 0.45703101 -11.628906 7
-0.160156 0.42627001 -11.65332 7
-0.070220999 -2.414062 -10.540039 7
-0.065963998 -2.437012 -10.511719 7
-0.069243997 -2.46875 -10.523438 7
-0.067123003 -2.4936521 -10.505859 7
-0.062912002 -2.5444341 -10.470703 7
-0.071533002 -5.1430659 -9.5869141 7
-0.071579002 -5.168457 -9.5732422 7
-0.074890003 -5.2016602 -9.5771484 7
-0.080338001 -5.2392578 -9.5898438 7
-0.086989999 -5.331543 -9.5839844 7
-0.088104002 -5.359375 -9.5761719 7
-0.090332001 -5.3901372 -9.5732422 7
-0.092545003 -5.4213872 -9.5703115 7
-0.296112 -8.3388672 -8.9101562 7
-0.29949999 -8.3984385 -8.8837891 7
-0.30714399 -8.4482422 -8.8945312 7
-0.30828899 -8.4755859 -8.8789062 7
-0.29861501 -8.4663086 -8.8183594 7
-0.30084199 -8.4975586 -8.8076172 7
-0.299835 -8.5175781 -8.7832031 7
-0.30638099 -8.5634766 -8.7890615 7
-0.31410199 -8.6376953 -8.7792969 7
-0.063598998 -2.245605 -10.005859 7
-0.062514998 -2.2709961 -9.9951172 7
-0.065978996 -2.327637 -10.000977 7
-0.072769001 -2.3613279 -10.029297 7
-0.077316001 -2.3925779 -10.045898 7
-0.067276001 -2.4350591 -9.9833984 7
-0.062850997 -2.4829099 -9.9492188 7
-0.060699001 -2.5336909 -9.9257812 7
-0.066605002 -4.8085942 -9.1416016 7
-0.067795001 -4.835938 -9.1357422 7
-0.074600004 -4.8754878 -9.1552734 7
-0.066757001 -4.882812 -9.1074219 7
-0.072448999 -4.9194341 -9.1210938 7
-0.075882003 -4.9511719 -9.1240234 7
-0.075928003 -4.9755859 -9.1123047 7
-0.083878003 -5.0175781 -9.1367188 7
-0.085051998 -5.0449219 -9.1298828 7
-0.086227 -5.0717769 -9.1230469 7
-0.084030002 -5.0917969 -9.1005859 7
-0.297775 -8.1865234 -8.3027344 7
-0.30242899 -8.2460938 -8.2802734 7
-0.302551 -8.2915039 -8.2412109 7
-0.060226001 -1.995605 -9.5380859 7
-0.061446998 -2.0224609 -9.5390615 7
-0.066177003 -2.0522461 -9.5576172 7
-0.066223003 -2.078125 -9.5517578 7
-0.074478 -2.1108401 -9.5859385 7
-0.075684004 -2.137207 -9.5869141 7
-0.075714 -2.1630859 -9.5810547 7
-0.073409997 -2.1860349 -9.5654297 7
-0.069931 -2.2089839 -9.5429688 7
-0.071152002 -2.235352 -9.5429688 7
-0.067763999 -4.559082 -8.7226562 7
-0.070160002 -4.5874019 -8.7216797 7
-0.073792003 -4.6420898 -8.7148438 7
-0.067962997 -4.6533198 -8.6777344 7
-0.071548 -4.6845698 -8.6826172 7
-0.071594 -4.70752 -8.6708984 7
-0.07164 -4.7314448 -8.6601562 7
-0.086975001 -4.7871089 -8.7158203 7
-0.062758997 -1.640137 -9.1455078 7
-0.075011998 -1.67334 -9.1982422 7
-0.066497996 -1.691895 -9.1542969 7
-0.060470998 -1.736816 -9.1181641 7
-0.067841001 -1.76709 -9.1474609 7
-0.061751999 -1.786621 -9.1152344 7
-0.065505996 -1.837891 -9.1220703 7
-0.075317003 -1.870605 -9.1630859 7
-0.079010002 -1.898438 -9.1757812 7
-0.051056001 -1.537109 -8.6347656 7
-0.049805 -1.559082 -8.625 7
-0.051116999 -1.583984 -8.6279297 7
-0.056442 -4.2563481 -7.780273 7
-0.068007998 -4.2998052 -7.8164058 7
-0.069320999 -4.32373 -7.8105469 7
-0.071929999 -4.3500981 -7.8105469 7
-0.059174001 -4.3461909 -7.7480469 7
-0.061783001 -4.3725591 -7.749023 7
-0.059280001 -4.3886719 -7.7275391 7
-0.064438 -4.4199219 -7.7373052 7
-0.069595002 -4.4516602 -7.7470698 7
-0.047485001 -1.2919919 -8.2470703 7
-0.052841 -1.316895 -8.265625 7
-0.050216999 -1.337891 -8.2509766 7
-0.050246999 -1.360352 -8.2480469 7
-0.047623001 -1.380859 -8.2333984 7
-0.051651001 -1.40625 -8.2470703 7
-0.050338998 -1.427734 -8.2373047 7
-0.050384998 -1.450195 -8.234375 7
-0.050415002 -1.472656 -8.2304688 7
-0.050446 -1.494629 -8.2265615 7
-0.050476 -1.516602 -8.2226562 7
-0.050507002 -1.539551 -8.2197266 7
-0.050551999 -1.561523 -8.2148438 7
-0.051910002 -1.5849611 -8.2177734 7
-0.078339003 -4.184082 -7.4667969 7
-0.074386999 -4.1972661 -7.4423828 7
-0.075759999 -4.2207031 -7.4375 7
-0.075805999 -4.2407231 -7.4267578 7
-0.077179 -4.2641602 -7.421875 7
-0.086548001 -4.3027339 -7.4482422 7
-0.089249 -4.328125 -7.4472661 7
-0.091949001 -4.3530269 -7.4462891 7
-0.09465 -4.3789058 -7.4462891 7
-0.096023999 -4.401855 -7.4404302 7
-0.092072003 -4.4150391 -7.4150391 7
-0.100113 -4.4506841 -7.4345698 7
-0.101486 -4.4741211 -7.429688 7
-0.268341 -7.1098628 -6.3964839 7
-0.26712 -7.1425781 -6.358398 7
-0.26849401 -7.164062 -6.3457031 7
-0.27255201 -7.1938481 -6.3408198 7
-0.27400199 -7.234375 -6.311523 7
-0.284729 -7.2836909 -6.327148 7
-0.29144299 -7.3208008 -6.329102 7
-0.29022199 -7.3535161 -6.2910161 7
-0.058731001 -3.897949 -7.0722661 7
-0.065704003 -3.929688 -7.0888672 7
-0.061569002 -3.9423831 -7.063477 7
-0.061615001 -3.9619141 -7.054688 7
-0.058899 -3.976562 -7.0341802 7
-0.061707001 -4.0004878 -7.0341802 7
-0.061751999 -4.02002 -7.0244141 7
-0.063170999 -4.04248 -7.0205078 7
-0.067368001 -4.0698242 -7.0263672 7
-0.067413002 -4.089355 -7.016602 7
-0.072982997 -4.1186519 -7.0263672 7
-0.073028997 -4.1386719 -7.0175781 7
-0.070312001 -4.152832 -6.9970698 7
-0.063323997 -3.8486331 -6.7226558 7
-0.067672998 -3.875 -6.7285161 7
-0.095337003 -4.092773 -6.7382808 7
-0.093947999 -4.1088872 -6.7236328 7
-0.043322001 12.006454 15.697517 7
-0.0037459999 -4.3728838 -13.931678 7
-0.10622 -7.396708 -13.682509 7
-0.076057002 -1.8471659 -9.1609049 7
-0.068108 -4.2021418 -7.9929881 7
-0.48172799 -12.571567 9.3672504 7
-0.016697001 8.1345434 15.176322 7
-0.288766 -1.206642 -14.661187 7
-0.12692 -3.069267 -11.506826 7
-0.170816 -6.1878119 -11.483638 7
-0.235145 0.387582 -11.71899 7
-0.048581999 -3.8426459 -6.9959822 7
-0.066662997 -4.2551761 -7.0674939 7
-0.331415 -8.3947277 -8.7797041 7
-0.213559 -7.0431061 -6.092886 7
