# .PCD v0.7 - Point Cloud Data file format
VERSION 0.7
FIELDS x y z intensity
SIZE 4 4 4 4
TYPE F F F F
COUNT 1 1 1 1
WIDTH 878
HEIGHT 1
VIEWPOINT 0 0 0 1 0 0 0
POINTS 878
DATA ascii
1.453796 49.055176 -35.302734 7
1.147705 41.911621 -25.795898 7
1.1383359 42.233398 -26.148438 7
1.1429141 41.992188 -26.131836 7
0.22538801 46.077637 58.3125 7
1.0519871 39.979004 -24.300781 7
0.10051 41.356445 57.790039 7
0.20355199 41.836426 52.902344 7
0.19918799 42.057617 52.926758 7
0.083359003 46.931152 54.162109 7
0.120834 46.224121 53.124023 7
0.156036 45.562988 52.144531 7
0.95938098 38.447266 -23.400391 7
0.132065 36.29248 51.836914 7
0.10881 36.82959 52.330078 7
0.201004 37.922363 48.275391 7
0.18399 38.364746 48.594727 7
0.18698099 39.007812 48.025391 7
0.20117199 38.846191 47.610352 7
0.88473499 36.559082 -21.833008 7
0.091568001 33.381836 47.810547 7
0.067870997 33.875 48.261719 7
0.164673 34.817383 44.456055 7
0.174164 34.759277 44.178711 7
0.150589 36.064453 43.708984 7
0.154953 36.092285 43.540039 7
0.176239 35.816895 43.020508 7
0.064269997 30.319824 43.953125 7
0.044112999 30.712402 44.288086 7
0.124985 31.938965 41.067383 7
0.135681 31.869629 40.791992 7
0.105896 33.792969 40.279297 7
0.13050801 33.487793 39.745117 7
0.13034099 33.585938 39.675781 7
0.14691199 33.407715 39.293945 7
0.175522 33.030762 38.69043 7
0.060821999 36.866699 38.910156 7
0.080002002 36.625 38.490234 7
0.73828101 32.577148 -19.079102 7
0.73718297 30.856445 -21.871094 7
-0.67523199 -34.532227 -56.180664 7
-0.75060999 -35.576172 -57.600586 7
-0.69345099 -35.012695 -56.362305 7
-0.75761402 -35.92627 -57.551758 7
-0.81581098 -36.772461 -58.618164 7
-0.66442901 -40.072266 -51.473633 7
0.049805 27.678711 40.675781 7
0.028778 28.145508 40.939453 7
-0.026854999 28.971191 41.895508 7
0.096283004 29.358887 38.075195 7
0.087935999 29.566406 38.15625 7
0.079910003 31.630859 36.804688 7
0.1017 31.390137 36.369141 7
0.105057 31.424805 36.243164 7
0.115417 31.353516 36 7
0.12735 31.256836 35.731445 7
0.025726 34.712402 35.769531 7
0.041779 34.539551 35.438477 7
0.051865 34.460938 35.201172 7
0.079268999 34.100586 34.691406 7
0.083405003 34.114746 34.549805 7
-0.63709998 -30.211914 -50.878906 7
-0.679169 -30.781738 -51.575195 7
-0.71386701 -31.276367 -52.133789 7
-0.76089501 -31.90625 -52.915039 7
-0.78875703 -32.332031 -53.342773 7
-0.75797999 -32.119629 -52.693359 7
-0.51351899 -31.432129 -46.777344 7
-0.55973798 -32.189941 -47.432617 7
-0.59509301 -32.716309 -47.975586 7
-0.53710902 -32.25 -46.78125 7
-0.54716498 -32.477539 -46.874023 7
-0.79100001 -38.029785 -48.988281 7
-0.72399902 -37.39209 -47.665039 7
-0.705948 -37.269043 -47.266602 7
-0.001785 25.837891 38.206055 7
-0.01236 26.053711 38.328125 7
-0.039138999 26.462891 38.719727 7
0.074661002 27.306152 35.3125 7
0.078583002 27.337891 35.189453 7
0.102371 27.11084 34.748047 7
0.121887 26.9375 34.376953 7
0.060927998 29.60791 33.886719 7
0.091141 29.265137 33.361328 7
0.077804998 29.530273 33.498047 7
0.096252002 29.247559 33.041016 7
0.116074 29.047852 32.677734 7
0.021149 32.340332 32.352539 7
0.058959998 31.925293 31.669922 7
0.081528001 31.734863 31.208008 7
0.613693 29.382324 -16.487305 7
0.60424799 29.518555 -16.666992 7
0.61637902 29.251953 -16.597656 7
-0.76722699 -26.874512 -50.686523 7
-0.79451001 -27.242676 -51.094727 7
-0.82948297 -27.683105 -51.635742 7
-0.864151 -28.124512 -52.170898 7
-0.59255999 -26.828125 -46.651367 7
-0.62518299 -27.25293 -47.142578 7
-0.67085302 -27.808105 -47.856445 7
-0.70706201 -28.273926 -48.405273 7
-0.756302 -28.870605 -49.175781 7
-0.79371601 -29.354004 -49.741211 7
-0.83499098 -29.878906 -50.370117 7
-0.44738799 -27.853516 -42.478516 7
-0.49108899 -28.416992 -43.131836 7
-0.50602698 -28.677246 -43.305664 7
-0.55004901 -29.248047 -43.958984 7
-0.59082001 -29.788086 -44.555664 7
-0.50926203 -29.612793 -42.680664 7
-0.55365002 -30.201172 -43.326172 7
-0.46723899 -29.345215 -41.84375 7
-0.63250703 -33.792969 -42.363281 7
0.051849 27.736328 31.310547 7
0.080231003 27.439941 30.853516 7
0.061783001 27.753418 31.048828 7
0.086150996 27.505859 30.647461 7
-0.007156 30.694336 30.139648 7
0.0077209999 30.556152 29.875977 7
0.048110999 30.125488 29.212891 7
0.062316999 30.062012 28.892578 7
0.55847198 28.105957 -15.583984 7
0.54678297 28.270508 -15.775391 7
0.56367499 27.94043 -15.663086 7
-0.47674599 -22.5625 -41.335938 7
-0.50711101 -22.918457 -41.761719 7
-0.54104602 -23.306641 -42.242188 7
-0.56820703 -23.639648 -42.614258 7
-0.59794599 -23.996582 -43.026367 7
-0.63513201 -24.42041 -43.554688 7
-0.664581 -24.778809 -43.958008 7
-0.395309 -24.365723 -38.410156 7
-0.403427 -24.532227 -38.470703 7
-0.41867101 -24.767578 -38.640625 7
-0.443634 -25.097168 -38.958984 7
-0.39376801 -26.122559 -37.086914 7
-0.419128 -26.466797 -37.396484 7
-0.62448102 -31.038574 -38.396484 7
-0.58834797 -30.726562 -37.807617 7
0.052078001 25.665039 28.668945 7
0.061951 25.612305 28.486328 7
0.081802003 25.4375 28.176758 7
0.087996997 25.427734 28.040039 7
0.089188002 25.478027 27.967773 7
0.105377 25.345703 27.706055 7
0.121552 25.212402 27.445312 7
-0.001801 28.553711 27.249023 7
0.006699 28.506348 27.084961 7
0.027832 28.291016 26.771484 7
0.041000001 28.180176 26.553711 7
0.05249 28.090332 26.354492 7
0.046386998 28.232422 26.362305 7
-0.43598899 -19.73584 -38.006836 7
-0.460693 -20.104492 -38.272461 7
-0.49238601 -20.436035 -38.691406 7
-0.51676899 -20.714355 -39.001953 7
-0.53976399 -20.984375 -39.290039 7
-0.59903002 -21.536133 -40.117188 7
-0.34986901 -21.558105 -35.186523 7
-0.36381501 -21.760742 -35.332031 7
-0.36448699 -21.850586 -35.286133 7
-0.38754299 -22.132324 -35.55957 7
-0.40779099 -22.391602 -35.791992 7
-0.43296799 -22.693848 -36.09375 7
-0.39939901 -24.218262 -34.301758 7
-0.37550399 -24.074707 -33.912109 7
-0.40705901 -24.452148 -34.28418 7
-0.37754801 -24.253418 -33.817383 7
-0.56503302 -28.357422 -34.456055 7
-0.54035902 -28.182129 -34.064453 7
0.056992002 24.036621 26.357422 7
0.077301003 23.867188 26.06543 7
0.092208996 23.758789 25.838867 7
0.084487997 23.905273 25.875 7
0.094008997 23.856445 25.709961 7
0.114304 23.683594 25.421875 7
0.0093379999 26.727539 24.819336 7
0.010971 26.765137 24.741211 7
0.025131 26.648438 24.530273 7
0.039641999 26.525391 24.314453 7
0.047348 26.485352 24.171875 7
0.050765999 26.499512 24.075195 7
0.45970199 25.236328 -13.603516 7
0.45607001 25.255859 -13.695312 7
-0.51782203 -18.272461 -36.174805 7
-0.52607697 -18.414551 -36.241211 7
-0.54344201 -18.619629 -36.433594 7
-0.56460601 -18.851562 -36.676758 7
-0.299454 -19.194336 -31.710938 7
-0.34803799 -19.646484 -32.305664 7
-0.30725101 -19.405762 -31.714844 7
-0.28128099 -19.277832 -31.322266 7
-0.33848599 -21.739258 -30.652344 7
-0.37770101 -22.151855 -31.091797 7
-0.351273 -21.996094 -30.703125 7
-0.38707 -22.379883 -31.097656 7
0.050124999 22.44043 24.256836 7
0.077362001 22.263184 23.865234 7
0.073211998 22.361328 23.859375 7
0.090530001 22.231934 23.625 7
0.103943 22.143555 23.433594 7
-0.001938 25.165527 22.619141 7
0.0029140001 25.161133 22.515625 7
0.015137 25.071777 22.34082 7
0.028122 24.972656 22.15918 7
0.039565999 24.890625 21.992188 7
0.049072001 24.830566 21.844727 7
0.40380901 23.964355 -12.698242 7
0.39907801 23.996094 -12.792969 7
-0.487122 -16.48877 -33.587891 7
-0.51289397 -16.729492 -33.881836 7
-0.32089201 -18.533691 -29.586914 7
-0.30043 -18.452148 -29.288086 7
-0.29052699 -18.447754 -29.119141 7
-0.27818301 -18.425293 -28.920898 7
-0.26501501 -18.395508 -28.712891 7
-0.257965 -18.411133 -28.580078 7
-0.247238 -18.397461 -28.401367 7
-0.247086 -18.464844 -28.353516 7
-0.23921201 -18.472656 -28.210938 7
-0.33273301 -20.224121 -28.599609 7
-0.31669599 -20.163086 -28.359375 7
-0.344284 -20.454102 -28.633789 7
-0.52065998 -24.352051 -28.688477 7
-0.52748102 -24.481934 -28.703125 7
0.040192001 21.32373 22.737305 7
0.057404 21.203613 22.519531 7
0.073348999 21.095215 22.313477 7
0.054809999 21.332031 22.449219 7
0.072006002 21.210449 22.231445 7
0.087540001 21.104492 22.03125 7
-0.0040440001 23.831055 21.043945 7
-0.020447001 24.058105 21.134766 7
-0.0090939999 23.981934 20.978516 7
0.0030980001 23.895508 20.81543 7
0.013199 23.832031 20.670898 7
0.025374999 23.744629 20.508789 7
0.011887 23.939941 20.573242 7
-0.41694599 -14.010254 -30.626953 7
-0.403671 -14.012207 -30.428711 7
-0.41439801 -14.144043 -30.523438 7
-0.43383801 -14.32373 -30.724609 7
-0.464203 -14.56543 -31.057617 7
-0.461395 -14.624512 -30.986328 7
-0.26769999 -17.775879 -26.064453 7
-0.271027 -17.863281 -26.057617 7
-0.26730299 -17.898438 -25.970703 7
-0.260086 -17.908203 -25.845703 7
-0.282974 -18.200684 -26.007812 7
-0.306503 -18.438477 -26.222656 7
-0.29180899 -18.391113 -26.013672 7
-0.50147998 -22.557617 -26.195312 7
-0.49865699 -22.59668 -26.111328 7
-1.177704 -32.499512 29.069336 7
-1.126266 -31.9375 28.720703 7
-1.111145 -31.662598 28.746094 7
0.056350999 19.996582 20.744141 7
0.062758997 19.98291 20.640625 7
0.083205998 19.882812 20.365234 7
0.061873998 20.130859 20.511719 7
-0.023987001 22.739746 19.330078 7
-0.019362999 22.73584 19.241211 7
-0.0058439998 22.63916 19.080078 7
0.0027920001 22.592773 18.958008 7
0.016754 22.490234 18.794922 7
0.022263 22.475586 18.699219 7
0.313034 22.07666 -10.887695 7
0.312271 22.057129 -10.946289 7
0.32101399 21.925781 -10.94043 7
0.32025099 21.906738 -10.998047 7
0.31347701 21.958984 -11.094727 7
0.32435599 21.802246 -11.073242 7
0.325317 21.762207 -11.119141 7
0.329193 19.99707 -13.786133 7
0.329712 19.956055 -13.830078 7
0.327667 19.942871 -13.894531 7
0.32347101 19.953125 -13.977539 7
0.32356301 19.916016 -14.024414 7
-0.375824 -12.253906 -28.369141 7
-0.341553 -12.158203 -27.941406 7
-0.35296601 -12.280762 -28.041016 7
-0.367172 -12.41748 -28.173828 7
-0.26754799 -16.664062 -24.25293 7
-0.27598599 -16.839355 -24.256836 7
-0.277145 -16.905762 -24.226562 7
-0.30273399 -17.141113 -24.448242 7
-0.28135699 -17.052246 -24.185547 7
-0.29426599 -17.200195 -24.275391 7
0.054320998 18.847168 19.410156 7
0.064971998 18.796875 19.277344 7
0.042190999 19.04248 19.424805 7
0.059052002 18.936035 19.242188 7
-0.0073850001 21.540527 17.532227 7
-0.00057999999 21.512695 17.433594 7
-0.00089999998 21.555176 17.385742 7
0.27410901 20.990234 -10.384766 7
0.28575099 20.835449 -10.362305 7
0.280884 20.835449 -10.491211 7
0.28144801 20.801758 -10.537109 7
-0.22688299 -15.246582 -22.070312 7
-0.229614 -15.317871 -22.058594 7
-0.249512 -15.498047 -22.212891 7
-0.238617 -15.48291 -22.069336 7
-0.25042701 -15.612305 -22.144531 7
-0.45036301 -19.406738 -22.035156 7
-0.44046 -19.386719 -21.899414 7
-0.88177502 -25.453613 24.005859 7
-0.89073199 -25.42041 24.192383 7
0.012085 15.811035 20.422852 7
0.0070949998 15.893066 20.430664 7
-0.0035399999 16.01709 20.487305 7
0.016602 15.914551 20.275391 7
0.020843999 15.928711 20.202148 7
0.020400999 15.945801 20.132812 7
0.023605 15.967285 20.069336 7
0.058761999 17.765137 17.891602 7
0.051727001 17.863281 17.905273 7
0.057617001 17.893066 17.777344 7
0.064925998 17.871582 17.681641 7
-0.031966999 20.508789 16.302734 7
-0.023651 20.467773 16.199219 7
-0.015853999 20.431152 16.100586 7
-0.009079 20.402832 16.007812 7
-0.344345 -9.7431641 -24.503906 7
-0.36221299 -9.8725586 -24.661133 7
-0.36990401 -9.9628906 -24.712891 7
-0.25997901 -14.499023 -20.820312 7
-0.240219 -14.432129 -20.605469 7
-0.24957301 -14.538574 -20.65332 7
-0.44720501 -18.175293 -20.458008 7
-0.81999201 -23.234375 22.325195 7
-0.846313 -23.387207 22.564453 7
-0.0049439999 15.056152 19.181641 7
0.0034179999 15.041016 19.080078 7
0.0046390002 15.076172 19.036133 7
0.011337 15.071289 18.947266 7
0.0092770001 15.12793 18.930664 7
0.0093989996 15.168945 18.894531 7
0.02916 16.967285 16.938477 7
0.034453999 17.038086 16.78418 7
0.037323002 17.052246 16.724609 7
0.032226998 17.203125 16.642578 7
0.223465 18.814941 -8.8652344 7
0.223022 18.794922 -8.9130859 7
-0.27739 -8.0551758 -22.546875 7
-0.26443499 -8.0683594 -22.401367 7
-0.26803601 -8.1352539 -22.415039 7
-0.28021199 -8.2314453 -22.511719 7
-0.183716 -10.499023 -20.40332 7
-0.18045001 -10.535156 -20.347656 7
-0.20678701 -10.804688 -20.506836 7
-0.206955 -10.855957 -20.481445 7
-0.19664 -12.85498 -19.140625 7
-0.198532 -12.911621 -19.125 7
-0.20274401 -12.981934 -19.12793 7
-0.188538 -12.95166 -18.974609 7
-0.20481899 -13.086914 -19.081055 7
-0.218246 -13.208008 -19.162109 7
-0.21727 -13.25 -19.121094 7
-0.213425 -13.275391 -19.055664 7
-0.22453301 -13.384766 -19.117188 7
-0.441605 -17.038086 -18.996094 7
-0.53262299 -18.888672 -18.489258 7
-0.52589399 -18.886719 -18.393555 7
-0.51972997 -18.888184 -18.302734 7
-0.54829401 -19.133789 -18.462891 7
-0.75065601 -21.20752 20.6875 7
-0.73042297 -21.015625 20.604492 7
-0.71136498 -20.833008 20.527344 7
-0.72866797 -20.866699 20.741211 7
-0.72927898 -20.825195 20.793945 7
0.0076139998 14.183594 17.907227 7
0.01181 14.195801 17.84375 7
0.020691 14.176758 17.743164 7
0.0097200004 14.289062 17.794922 7
0.013351 14.304199 17.735352 7
0.011719 14.354004 17.713867 7
0.011047 14.372559 17.657227 7
0.039184999 16.044434 15.678711 7
0.045120001 16.03418 15.602539 7
0.031952001 16.202148 15.614258 7
0.041976999 16.160645 15.512695 7
0.044434 16.17627 15.459961 7
0.037551999 16.26123 15.466797 7
0.037673999 16.294922 15.428711 7
-0.051529001 18.645996 13.910156 7
-0.057799999 18.728516 13.901367 7
-0.053024001 18.719238 13.832031 7
-0.29333499 -7.2998052 -21.391602 7
-0.30458099 -7.4394531 -21.457031 7
-0.32173201 -7.5444341 -21.59375 7
-0.33403 -7.6352539 -21.686523 7
-0.19332901 -9.6225586 -19.351562 7
-0.17401101 -9.5917969 -19.15918 7
-0.18589801 -9.7358398 -19.213867 7
-0.193985 -9.8168945 -19.258789 7
-0.209976 -9.9301758 -19.371094 7
-0.213654 -12.308105 -17.982422 7
-0.218887 -12.42334 -17.961914 7
-0.21661399 -12.456055 -17.913086 7
-0.22534201 -12.546387 -17.952148 7
-0.246292 -12.699707 -18.087891 7
-0.23484799 -12.68457 -17.964844 7
-0.24052399 -12.759277 -17.979492 7
-0.42292801 -16.044434 -17.553711 7
-0.42311099 -16.089355 -17.515625 7
-0.42085299 -16.118164 -17.459961 7
-0.43698099 -16.26123 -17.536133 7
-0.667557 -19.18457 19.338867 7
-0.67201197 -19.085938 19.50293 7
-0.015564 13.469238 17.094727 7
0.012146 15.387695 14.916992 7
0.0023650001 15.489746 14.942383 7
0.011749 15.455566 14.849609 7
0.022384999 15.412109 14.748047 7
0.022491001 15.443359 14.711914 7
0.0046689999 15.603516 14.785156 7
0.013443 15.572266 14.696289 7
0.023452999 15.531738 14.598633 7
0.027267 15.536133 14.540039 7
0.011917 15.678711 14.59668 7
-0.071990997 17.933105 12.966797 7
-0.078033 18.009277 12.956055 7
-0.073608004 18.001953 12.892578 7
-0.065459996 17.964844 12.80957 7
-0.173264 -8.6547852 -18.092773 7
-0.173416 -8.7006836 -18.072266 7
-0.166458 -8.7202148 -17.993164 7
-0.159485 -8.7382812 -17.914062 7
-0.164169 -8.800293 -17.929688 7
-0.172745 -8.8779297 -17.977539 7
-0.18746901 -11.234863 -16.759766 7
-0.172668 -11.206543 -16.620117 7
-0.18518101 -11.307617 -16.6875 7
-0.19508401 -11.396973 -16.734375 7
-0.21344 -11.527344 -16.844727 7
-0.18954501 -11.453613 -16.635742 7
-0.202713 -11.557617 -16.705078 7
-0.215225 -11.660645 -16.771484 7
-0.217972 -11.716309 -16.762695 7
-0.216187 -11.748535 -16.719727 7
-0.224152 -11.82959 -16.750977 7
-0.48724401 -16.664551 -15.674805 7
-0.50245702 -16.799316 -15.731445 7
-0.49479699 -16.789062 -15.640625 7
-0.498245 -16.849609 -15.621094 7
-0.49122599 -16.844238 -15.537109 7
0.0025480001 12.697266 15.969727 7
0.0026700001 12.731445 15.939453 7
0.0054020002 12.749512 15.891602 7
0.011429 12.748535 15.822266 7
0.011536 12.782715 15.792969 7
0.010803 14.759277 13.80957 7
0.0089419996 14.802246 13.787109 7
-0.069870003 17.161133 11.78418 7
-0.063858002 17.140137 11.717773 7
-0.059158001 17.128906 11.65625 7
-0.055771001 17.12793 11.600586 7
-0.054352 17.141602 11.554688 7
-0.056853998 17.185547 11.526367 7
-0.065903001 17.279785 11.527344 7
-0.24894699 -5.3300781 -18.810547 7
-0.255905 -5.3925781 -18.854492 7
-0.26150501 -5.4526372 -18.886719 7
-0.26983601 -5.5180659 -18.94043 7
-0.27815199 -5.5844731 -18.995117 7
-0.28920001 -5.657227 -19.071289 7
-0.30435199 -5.7407231 -19.180664 7
-0.31677201 -5.816895 -19.267578 7
-0.31828299 -5.8686519 -19.264648 7
-0.16394 -8.0068359 -17.014648 7
-0.145615 -7.9868159 -16.852539 7
-0.166428 -8.1435547 -16.973633 7
-0.17752101 -8.2246094 -17.039062 7
-0.17834499 -8.2705078 -17.025391 7
-0.16856401 -10.483887 -15.662109 7
-0.16320799 -10.499023 -15.597656 7
-0.185333 -10.638184 -15.730469 7
-0.197845 -10.733887 -15.793945 7
-0.201447 -10.789551 -15.792969 7
-0.190598 -10.779785 -15.688477 7
-0.19967701 -10.86084 -15.727539 7
-0.027161 12.174805 15.330078 7
-0.003082 12.17334 15.068359 7
0.010239 12.131348 14.958008 7
-0.015625 14.171875 13.227539 7
-0.0085749999 14.154297 13.157227 7
0.0089870002 14.096191 12.998047 7
0.0083919996 14.128418 12.96875 7
-0.002625 14.227539 12.994141 7
0.0072019999 14.190918 12.90918 7
0.012848 14.181641 12.84668 7
0.01088 14.222168 12.825195 7
0.001953 14.308105 12.837891 7
-0.00073199999 14.353516 12.819336 7
-0.065369003 16.436523 10.799805 7
-0.067336999 16.473633 10.769531 7
-0.063079998 16.464844 10.713867 7
-0.055358998 16.430664 10.644531 7
-0.062180001 16.502441 10.632812 7
-0.138947 -7.1972661 -15.926758 7
-0.133286 -7.219727 -15.867188 7
-0.137756 -7.2739258 -15.881836 7
-0.145142 -7.3364258 -15.916992 7
-0.146042 -9.6538086 -14.650391 7
-0.149811 -9.7070312 -14.652344 7
-0.135406 -9.6835938 -14.530273 7
-0.14717101 -9.769043 -14.584961 7
-0.15676901 -9.8457031 -14.625977 7
-0.171463 -9.9448242 -14.701172 7
-0.156326 -9.9179688 -14.575195 7
-0.16374201 -9.9868164 -14.600586 7
-0.172607 -10.061035 -14.635742 7
-0.18512 -10.151855 -14.695312 7
-0.183807 -10.183105 -14.661133 7
-0.187576 -10.236328 -14.661133 7
-0.474686 -15.069336 -13.491211 7
-0.47630301 -15.112305 -13.462891 7
-0.46548501 -15.084473 -13.367188 7
-0.46272299 -15.101562 -13.314453 7
-0.46287501 -15.13623 -13.279297 7
-0.49304199 -15.342773 -13.407227 7
-0.53991699 -17.230957 13.625 7
-0.54142803 -17.211426 13.672852 7
-0.53547698 -17.145508 13.686523 7
-0.53550702 -17.116211 13.726562 7
-0.0090030003 11.501953 14.365234 7
-0.0045170002 11.509277 14.313477 7
-0.0061189998 13.486816 12.329102 7
0.00059499999 13.47168 12.264648 7
0.02063 13.399902 12.104492 7
0.018509001 13.438477 12.083984 7
-0.078567997 15.76123 10.066406 7
-0.083603002 15.816406 10.048828 7
-0.076172002 15.786133 9.984375 7
-0.071686 15.774902 9.9306641 7
-0.12849399 -6.504395 -15.03125 7
-0.119431 -6.5175781 -14.952148 7
-0.117264 -6.5483398 -14.919922 7
-0.124283 -6.6064448 -14.952148 7
-0.12593099 -6.6489258 -14.947266 7
-0.136002 -6.7163091 -15.000977 7
-0.125626 -8.9755859 -13.696289 7
-0.119598 -8.9863281 -13.634766 7
-0.12664799 -9.0488281 -13.658203 7
-0.13063 -9.0991211 -13.661133 7
-0.147659 -9.2011719 -13.749023 7
-0.147018 -9.2333984 -13.72168 7
-0.137924 -9.2319336 -13.640625 7
-0.35447699 -12.550293 -13.110352 7
-0.36494401 -12.702637 -13.078125 7
-0.364319 -12.732422 -13.042969 7
-0.36215201 -12.754883 -13 7
-0.450073 -14.212891 -12.458984 7
-0.465195 -14.390137 -12.43457 7
-0.46070901 -14.397461 -12.375977 7
-0.024307 10.957031 13.758789 7
-0.017136 10.97998 13.668945 7
-0.016266 11.004395 13.637695 7
-0.013062 11.018066 13.595703 7
-0.0098719997 11.030273 13.551758 7
-0.0051119998 11.035156 13.5 7
-0.001144 11.044434 13.453125 7
-0.007278 11.103516 13.460938 7
-0.001129 12.898926 11.515625 7
0.0067139999 12.876465 11.449219 7
0.012222 12.867676 11.393555 7
0.01387 12.881836 11.356445 7
0.0030980001 12.970703 11.376953 7
0.0055240002 12.979492 11.334961 7
0.010269 12.974609 11.283203 7
0.011139 12.993164 11.25 7
0.010452 13.020996 11.222656 7
0.006668 13.066406 11.208984 7
-0.074294999 15.071289 9.2412109 7
-0.080398999 15.130859 9.2265615 7
-0.082611002 15.164062 9.1982422 7
-0.085616998 15.202637 9.1728516 7
-0.080871999 15.189941 9.1220703 7
-0.076920003 15.182129 9.0742188 7
-0.072173998 15.168945 9.0224609 7
-0.066680998 15.149902 8.96875 7
-0.21485899 -3.207031 -15.727539 7
-0.21737701 -3.250488 -15.737305 7
-0.23120099 -3.3095701 -15.826172 7
-0.238571 -3.360352 -15.870117 7
-0.24916101 -3.4155271 -15.935547 7
-0.247665 -3.452637 -15.915039 7
-0.23971599 -3.4814451 -15.849609 7
-0.22048999 -3.4941411 -15.705078 7
-0.118225 -5.7631841 -14.22168 7
-0.115112 -5.7915039 -14.186523 7
-0.098251 -5.7841802 -14.058594 7
-0.099166997 -5.8222661 -14.049805 7
-0.096054003 -5.8500981 -14.013672 7
-0.099411003 -5.8945308 -14.021484 7
-0.105179 -5.9448242 -14.044922 7
-0.116623 -6.0107422 -14.106445 7
-0.121597 -6.0600591 -14.125 7
-0.122513 -6.0986328 -14.116211 7
-0.115829 -8.3515615 -12.881836 7
-0.115952 -8.3857422 -12.862305 7
-0.111206 -8.4013672 -12.8125 7
-0.121063 -8.4702148 -12.852539 7
-0.134308 -8.5849609 -12.890625 7
-0.13443001 -8.6186523 -12.870117 7
-0.123993 -8.6118164 -12.785156 7
-0.13223299 -8.6748047 -12.813477 7
-0.138855 -8.7333984 -12.833008 7
-0.14709499 -8.7973633 -12.861328 7
-0.14721701 -8.8300781 -12.839844 7
-0.148972 -8.8701172 -12.829102 7
-0.15559401 -8.9277344 -12.84668 7
-0.344513 -11.978516 -12.129883 7
-0.34463501 -12.009766 -12.100586 7
-0.345581 -12.045898 -12.077148 7
-0.34408599 -12.069824 -12.040039 7
-0.43250999 -13.47168 -11.49707 7
-0.43183899 -13.497559 -11.460938 7
-0.44749501 -13.60791 -11.503906 7
-0.442734 -13.612305 -11.448242 7
-0.43714899 -13.612793 -11.387695 7
-0.44383201 -13.67627 -11.386719 7
-0.44232199 -13.697754 -11.34668 7
-0.020385999 10.323242 13.09375 7
-0.01857 10.371094 13.037109 7
-0.016829999 10.390137 13.003906 7
-0.026611 10.463867 13.03125 7
-0.010117 10.412598 12.920898 7
-0.0067440001 10.424316 12.878906 7
-0.002563 10.431152 12.833008 7
-0.0041200002 10.46582 12.817383 7
0.011185 12.447754 10.514648 7
0.017821999 12.431152 10.458008 7
-0.074844003 14.534668 8.2792969 7
-0.071502998 14.529785 8.2353516 7
-0.067322001 14.519531 8.1894531 7
-0.066422001 14.529785 8.1533203 7
-0.065521002 14.540527 8.1171885 7
-0.070220999 14.603027 8.0625 7
-0.075011998 14.650879 8.0429688 7
-0.080627002 14.703125 8.0244141 7
-0.104645 -5.2988281 -13.414062 7
-0.095398001 -5.3120122 -13.341797 7
-0.098053001 -5.3520508 -13.345703 7
-0.098159999 -5.3867192 -13.332031 7
-0.103378 -5.4335942 -13.352539 7
-0.122299 -8.015625 -12.175781 7
-0.130951 -8.0771484 -12.206055 7
-0.13447601 -8.1210938 -12.207031 7
-0.135574 -8.1879883 -12.172852 7
-0.139099 -8.2314453 -12.172852 7
-0.151169 -8.3056641 -12.222656 7
-0.322586 -11.22168 -11.410156 7
-0.33470199 -11.305664 -11.444336 7
-0.331406 -11.320312 -11.400391 7
-0.33667001 -11.373535 -11.399414 7
-0.33252001 -11.383789 -11.350586 7
-0.330933 -11.40625 -11.31543 7
-0.334488 -11.45166 -11.305664 7
-0.331177 -11.464844 -11.259766 7
-0.42643699 -13.04541 -10.525391 7
-0.43342599 -13.10791 -10.525391 7
-0.024261 9.9316406 12.455078 7
-0.025908999 9.9658203 12.44043 7
-0.024109 9.9838867 12.408203 7
-0.019714 9.9892578 12.363281 7
-0.011856 9.9799805 12.301758 7
-0.010925 10.001465 12.273438 7
-0.010834 10.026855 12.25 7
-0.0081789996 10.041016 12.214844 7
-0.0063629998 10.058105 12.182617 7
0.015778 11.863281 9.9736328 7
0.0072630001 11.930664 9.9794922 7
0.0090640001 11.940918 9.9453115 7
-0.094573997 -4.8217769 -12.699219 7
-0.091109999 -4.847168 -12.665039 7
-0.091216996 -4.8798828 -12.65332 7
-0.093993999 -4.9189448 -12.658203 7
-0.100357 -4.9648442 -12.68457 7
-0.10939 -5.0170898 -12.726562 7
-0.103241 -5.0361328 -12.676758 7
-0.103348 -5.0693359 -12.665039 7
-0.095412999 -5.0839839 -12.603516 7
-0.091049001 -5.1069341 -12.564453 7
-0.101517 -7.4047852 -11.486328 7
-0.099838004 -7.4291992 -11.458984 7
-0.109818 -7.4912109 -11.495117 7
-0.115295 -7.5385742 -11.506836 7
-0.119995 -7.61377 -11.496094 7
-0.114731 -7.625977 -11.448242 7
-0.146469 -7.8217769 -11.566406 7
-0.32693499 -10.910645 -10.592773 7
-0.349457 -10.838867 13.081055 7
-0.34393299 -10.788086 13.081055 7
-0.16726699 -1.302246 -13.280273 7
-0.16922 -1.337402 -13.289062 7
-0.17211901 -1.372559 -13.301758 7
-0.17500301 -1.408691 -13.31543 7
-0.179749 -1.4462889 -13.341797 7
-0.190109 -1.486816 -13.400391 7
-0.196732 -1.525879 -13.4375 7
-0.204285 -1.564941 -13.479492 7
-0.094742 -4.2739258 -12.151367 7
-0.081832998 -4.3125 -12.054688 7
-0.080994003 -4.3417969 -12.038086 7
-0.082961999 -4.3764648 -12.039062 7
-0.074630998 -4.3920898 -11.979492 7
-0.086898997 -4.4467769 -12.040039 7
-0.086989999 -4.4775391 -12.02832 7
-0.106934 -7.0957031 -10.898438 7
-0.105164 -7.1176758 -10.871094 7
-0.093993999 -7.1108398 -10.793945 7
-0.097855002 -7.1508789 -10.796875 7
-0.107361 -7.2089839 -10.830078 7
-0.112152 -7.2524409 -10.836914 7
-0.129181 -7.3349609 -10.90918 7
-0.125534 -7.3520508 -10.87207 7
-0.113419 -7.3413091 -10.791016 7
-0.302643 -10.345215 -9.8798828 7
-0.30935699 -10.398926 -9.8847656 7
-0.298141 -10.377441 -9.8095703 7
-0.298264 -10.403809 -9.7851562 7
-0.30403101 -10.453613 -9.7851562 7
-0.31831399 -10.539551 -9.8232422 7
-0.415436 -11.939941 -9.1738281 7
-0.40988201 -11.938965 -9.1230469 7
-0.39770499 -11.90625 -9.0449219 7
-0.404434 -11.961426 -9.0439453 7
-0.40550199 -11.990234 -9.0185547 7
-0.40940899 -12.032227 -9.0058594 7
-0.429382 -12.147949 -9.0546885 7
-0.42382801 -12.145996 -9.0039062 7
-0.078552 -3.858887 -11.461914 7
-0.073821999 -3.910156 -11.416016 7
-0.072936997 -3.9389651 -11.401367 7
-0.070068002 -3.9624021 -11.374023 7
-0.077041999 -4.0048828 -11.40332 7
-0.083038002 -4.0444341 -11.426758 7
-0.086166002 -4.110352 -11.423828 7
-0.077514999 -4.1542969 -11.355469 7
-0.071608998 -6.4838872 -10.219727 7
-0.074661002 -6.52002 -10.21875 7
-0.076736003 -6.5527339 -10.213867 7
-0.085906997 -6.6601558 -10.210938 7
-0.086014003 -6.6870122 -10.195312 7
-0.087096997 -6.7163091 -10.18457 7
-0.106049 -6.8261719 -10.246094 7
-0.297638 -9.8696289 -9.2646484 7
-0.30070499 -9.9057617 -9.2539062 7
-0.38357499 -11.419434 -8.2939453 7
-0.388657 -11.464844 -8.2861328 7
-0.085616998 -3.523926 -10.989258 7
-0.078521997 -3.5419919 -10.941406 7
-0.074492998 -3.5639651 -10.911133 7
-0.079712003 -3.6005859 -10.930664 7
-0.080840997 -3.6308589 -10.927734 7
-0.085037 -3.6665039 -10.94043 7
-0.091278002 -3.7050779 -10.964844 7
-0.092391998 -3.7358401 -10.961914 7
-0.088379003 -3.757324 -10.929688 7
-0.077652 -6.0830078 -9.8164062 7
-0.077744 -6.1088872 -9.8017578 7
-0.075774997 -6.129395 -9.7773438 7
-0.072769001 -6.1464839 -9.7470703 7
-0.080077998 -6.1923828 -9.7675781 7
-0.080185004 -6.21875 -9.7529297 7
-0.087494001 -6.2641602 -9.7724609 7
-0.09584 -6.3129878 -9.7978516 7
-0.091812 -6.327148 -9.7626953 7
-0.083649002 -6.3310552 -9.7080078 7
-0.088898003 -6.371582 -9.7177734 7
-0.067230001 -5.789062 -9.2216797 7
-0.072738998 -5.8276372 -9.2333984 7
-0.084716998 -5.882812 -9.2734385 7
-0.083724998 -5.9047852 -9.2539062 7
-0.079483002 -5.918457 -9.2207031 7
-0.079575002 -5.9433589 -9.2060547 7
-0.079666004 -5.9672852 -9.1923828 7
-0.083084002 -6.0258789 -9.1787109 7
-0.28205901 -8.9677734 -8.2138672 7
-0.28433201 -8.9980469 -8.2001953 7
-0.28225699 -9.0126953 -8.1708984 7
-0.28126499 -9.0302734 -8.1445312 7
-0.28137201 -9.0532227 -8.1240234 7
-0.28581199 -9.0908203 -8.1181641 7
-0.281555 -9.097168 -8.0800781 7
-0.296875 -9.1757812 -8.1162109 7
-0.29153401 -9.1772461 -8.0742188 7
-0.294891 -9.2119141 -8.0644531 7
-0.29934701 -9.2495117 -8.0576172 7
-0.30160499 -9.2797852 -8.0439453 7
-0.068085 -2.8417971 -9.9082031 7
-0.075057998 -2.929688 -9.9208984 7
-0.083084002 -2.991699 -9.9443359 7
-0.065338001 -5.4594731 -8.7998047 7
-0.066559002 -5.4863281 -8.7919922 7
-0.068908997 -5.5151372 -8.7890615 7
-0.080275998 -5.5673828 -8.8271484 7
-0.080352999 -5.5913091 -8.8134766 7
-0.073669001 -5.5976558 -8.7695312 7
-0.072617002 -5.6186519 -8.7509766 7
-0.076095998 -5.6508789 -8.7529297 7
-0.078429997 -5.6801758 -8.7490234 7
-0.088684 -5.7294922 -8.7802734 7
-0.089890003 -5.7553711 -8.7714844 7
-0.28810099 -8.684082 -7.7441411 7
-0.061050002 -2.563477 -9.4375 7
-0.061127 -2.5883789 -9.4296885 7
-0.062362999 -2.6152339 -9.4296885 7
-0.062454 -2.640137 -9.4238281 7
-0.06134 -2.664062 -9.4111328 7
-0.063766003 -2.691895 -9.4160156 7
-0.059142999 -2.711426 -9.3876953 7
-0.061569002 -2.7392581 -9.3916016 7
-0.060470998 -2.7631841 -9.3798828 7
-0.071106002 -2.800781 -9.421875 7
-0.080565996 -2.8374021 -9.4599609 7
-0.079467997 -2.8608401 -9.4472656 7
-0.070160002 -2.875 -9.3964844 7
-0.068176001 -5.1430659 -8.4316406 7
-0.058837999 -5.14502 -8.3798828 7
-0.064804003 -5.1811519 -8.3925781 7
-0.067244999 -5.2094731 -8.3896484 7
-0.067322001 -5.2324219 -8.3779297 7
-0.082703002 -5.2905269 -8.4306641 7
-0.072189003 -5.289062 -8.3730469 7
-0.072281003 -5.311523 -8.3603516 7
-0.071181998 -5.3320308 -8.3427734 7
-0.077147998 -5.3676758 -8.3544922 7
-0.07959 -5.3964839 -8.3515615 7
-0.084380999 -5.4301758 -8.3583984 7
-0.28486601 -8.3432617 -7.3066411 7
-0.27203399 -8.3393555 -7.2226558 7
-0.27803001 -8.3793945 -7.2226558 7
-0.27230799 -8.3989258 -7.1621089 7
-0.27830499 -8.4394531 -7.1621089 7
-0.281937 -8.4711914 -7.1542969 7
-0.28793299 -8.5117188 -7.1542969 7
-0.29157999 -8.5439453 -7.1464839 7
-0.29766801 -8.6040039 -7.125 7
-0.29666099 -8.6396484 -7.0800781 7
-0.054001 -2.25 -9.0029297 7
-0.054076999 -2.273926 -8.9970703 7
-0.057799999 -2.3017581 -9.0078115 7
-0.052994002 -2.320801 -8.9804688 7
-0.053055 -2.3452151 -8.9746094 7
-0.054352 -2.370605 -8.9746094 7
-0.055709999 -2.4204099 -8.96875 7
-0.057082999 -2.469727 -8.9619141 7
-0.069366001 -2.507324 -9.0107422 7
-0.066986002 -2.5283201 -8.9941406 7
-0.0634 -2.5483401 -8.9707031 7
-0.062164001 -4.82373 -8.0498047 7
-0.058563001 -4.8378911 -8.0234385 7
-0.061081 -4.8652339 -8.0214844 7
-0.062392998 -4.889648 -8.0146484 7
-0.063689999 -4.914062 -8.0078115 7
-0.063766003 -4.9350591 -7.9951172 7
-0.066298999 -4.9633789 -7.9941411 7
-0.067672998 -5.0092769 -7.9755859 7
-0.071425997 -5.0395508 -7.9785161 7
-0.069061004 -5.0556641 -7.9570308 7
-0.071671002 -5.10498 -7.9423828 7
-0.267975 -8.0317383 -6.797852 7
-0.25820899 -8.0185547 -6.7460942 7
-0.261978 -8.0498047 -6.7392578 7
-0.26947001 -8.0932617 -6.7441411 7
-0.051674001 -5.7054849 -13.948916 7
-0.100937 -8.5151911 -12.510427 7
0.01444 -3.6501851 -11.036547 7
-0.084343001 -5.00349 -7.6942911 7
-0.171828 14.916441 8.6757164 7
-0.129254 -3.9806631 -11.355077 7
-0.099184997 -2.81036 -9.3537331 7
-0.069881998 -5.0026722 -8.1078796 7
-0.32238901 -10.229591 -9.6947174 7
-0.222368 -8.2343311 -6.930079 7
