# .PCD v0.7 - Point Cloud Data file format
VERSION 0.7
FIELDS x y z intensity
SIZE 4 4 4 4
TYPE F F F F
COUNT 1 1 1 1
WIDTH 1403
HEIGHT 1
VIEWPOINT 0 0 0 1 0 0 0
POINTS 1403
DATA ascii
0.094054997 -1.421021 -69.277344 7
0.15883601 -1.53894 -67.073242 7
0.098586999 5.4589839 -69.199219 7
0.14749099 5.1668701 -67.548828 7
0.10183 5.1148682 -69.101562 7
0.094985999 -1.564941 -61.597656 7
0.119949 -1.693481 -60.832031 7
0.182579 -1.784912 -58.932617 7
0.186821 4.9483638 -58.859375 7
0.114998 4.9776611 -61.03418 7
0.0625 4.9515381 -62.626953 7
0.026916999 -1.854858 -56.664062 7
0.090140998 -1.934082 -54.951172 7
0.129463 -2.028564 -53.882812 7
0.076851003 -2.2146001 -55.287109 7
-0.80887598 -3.1209719 72.65918 7
0.175079 5.0944819 -52.665039 7
0.15074199 5.026001 -53.329102 7
0.184631 4.8060298 -52.416016 7
0.150749 4.7572021 -53.334961 7
0.092635997 4.7592769 -54.908203 7
0.18463901 1.346558 -52.505859 7
0.015526 -1.9406739 -51.494141 7
0.06134 -2.022095 -50.366211 7
0.100693 -2.1048579 -49.397461 7
0.050841998 -2.278198 -50.602539 7
-0.723351 -0.223877 64.966797 7
0.147499 4.9085689 -48.229492 7
0.108482 4.8823242 -49.19043 7
0.176369 4.6062012 -47.542969 7
0.131859 4.5892329 -48.636719 7
0.106689 4.5249019 -49.259766 7
-0.023353999 -2.025146 -47.378906 7
0.025886999 -2.0931399 -46.28125 7
0.061919998 -2.169312 -45.474609 7
0.093177997 -2.2437739 -44.816406 7
0.018143 -2.4373779 -46.463867 7
0.049683001 -2.513428 -45.756836 7
0.114265 -2.5454099 -44.320312 7
-0.61122102 -0.193848 57.386719 7
-0.620377 -0.061278999 57.573242 7
0.14776599 4.8841548 -43.548828 7
0.107407 4.8718262 -44.451172 7
0.076263003 4.834229 -45.149414 7
0.14294399 4.57373 -43.681641 7
0.110237 4.5380859 -44.415039 7
0.057236001 4.5423579 -45.594727 7
-0.048935 -2.1025391 -44.138672 7
0.002258 -2.2648931 -43.076172 7
0.039917 -2.329102 -42.300781 7
0.075843997 -2.3917241 -41.55957 7
0.0068589998 -2.574707 -42.955078 7
0.068870999 -2.603394 -41.682617 7
-0.57003802 -0.17981 52.658203 7
-0.60630798 -0.059204001 53.336914 7
0.114098 4.7731929 -40.710938 7
0.083755001 4.741333 -41.338867 7
0.050864998 4.7124019 -42.017578 7
0.117508 4.4650879 -40.667969 7
0.083747998 4.4361572 -41.365234 7
0.053413 4.3970952 -41.992188 7
0.0033720001 4.3946528 -43.020508 7
-0.016563 -2.3743899 -39.507812 7
-0.009544 -2.655884 -39.349609 7
0.015396 -2.720825 -38.875977 7
0.037216 -2.78772 -38.461914 7
0.042693999 -2.8747561 -38.349609 7
-0.51232898 -2.996094 47.383789 7
-0.54707301 -2.9248049 47.985352 7
-0.56984699 -2.8378911 48.383789 7
-0.481049 -0.049194001 47.020508 7
0.075005002 4.8131099 -37.688477 7
0.057723999 4.7587891 -38.019531 7
0.038872 4.7064209 -38.37793 7
0.010345 4.672852 -38.916992 7
-0.0041350001 4.6074219 -39.196289 7
0.136879 0.953857 -36.736328 7
0.129555 0.86645502 -36.871094 7
0.158264 0.76464802 -36.335938 7
0.152206 0.67700201 -36.448242 7
0.18080901 0.49011201 -35.913086 7
-0.015015 -2.813477 -36.269531 7
-0.018257 -2.906738 -36.313477 7
0.00235 -2.9680181 -35.951172 7
0.020888999 -3.0301509 -35.623047 7
0.026184 -3.1099851 -35.523438 7
-0.474792 -2.84375 43.510742 7
-0.49121901 -2.7611079 43.779297 7
-0.53566003 -2.7049561 44.491211 7
-0.44465601 0.051879998 43.186523 7
-0.430527 0.150269 42.963867 7
-0.44730401 0.250366 43.232422 7
0.041556999 4.8598628 -35.19043 7
0.025870999 4.8026118 -35.470703 7
0.006821 4.7564702 -35.806641 7
-0.013237 4.71106 -36.15918 7
-0.040436 4.6787109 -36.634766 7
0.0082630003 4.4876709 -35.80957 7
0.11779 1.226318 -34.109375 7
0.116234 1.05835 -34.137695 7
0.110306 0.63769501 -34.241211 7
0.12921099 0.54797399 -33.916016 7
0.15150499 0.45898399 -33.53125 7
0.14005999 0.378418 -33.801758 7
0.154182 0.29296899 -33.556641 7
-0.035034001 -3.014648 -33.40918 7
-0.042992 -3.1079099 -33.523438 7
-0.03125 -3.173584 -33.331055 7
-0.013222 -3.229126 -33.038086 7
-0.017837999 -3.3173831 -33.098633 7
-0.388466 0.228149 39.141602 7
0.035133 4.9473882 -32.170898 7
0.020668 4.900146 -32.408203 7
-0.0038600001 4.7929692 -32.8125 7
-0.056740001 4.8253169 -33.652344 7
0.134369 1.345703 -30.878906 7
0.092918001 0.43322799 -31.540039 7
0.138252 0.27063 -30.822266 7
0.129913 0.118042 -30.951172 7
0.122177 -0.10498 -29.001953 7
-0.068976998 -3.2492681 -31.575195 7
-0.050438002 -3.299927 -31.294922 7
-0.03669 -3.3564451 -31.082031 7
-0.063072003 -3.473877 -31.458008 7
-0.36041301 0.459351 36.436523 7
-0.362396 0.54260302 36.463867 7
-0.35759699 0.62439001 36.397461 7
-0.010818 5.1009521 -30.570312 7
0.040077001 4.9083252 -29.837891 7
0.021431001 4.8757319 -30.121094 7
-0.000313 4.8450928 -30.450195 7
-0.023689 4.82019 -30.802734 7
-0.056976002 4.815186 -31.299805 7
-0.066520996 4.7574458 -31.450195 7
0.112419 1.560425 -29.063477 7
0.115906 1.4855959 -29.013672 7
0.091278002 1.429932 -29.378906 7
0.118896 1.338745 -28.972656 7
0.094260998 1.28186 -29.338867 7
0.085135996 0.26001 -29.556641 7
0.088982001 0.186279 -29.498047 7
0.11779 0.11145 -29.072266 7
0.082001001 0.040038999 -29.598633 7
0.096106999 -0.031005999 -27.011719 7
0.114014 -0.097534001 -26.767578 7
0.101067 -0.16577099 -26.941406 7
0.097565003 -0.233521 -26.988281 7
0.111168 -0.29894999 -26.800781 7
-0.093902998 -3.331543 -29.417969 7
-0.088469997 -3.3963621 -29.334961 7
-0.077018999 -3.451416 -29.169922 7
-0.352669 0.58178699 33.883789 7
0.040527001 5.0201421 -27.412109 7
0.027237 4.9824219 -27.601562 7
0.013931 4.943481 -27.791016 7
0.00019799999 4.9047852 -27.986328 7
-0.030602001 4.9029541 -28.414062 7
-0.039207 4.8508301 -28.540039 7
0.099326998 1.5880131 -26.952148 7
0.12664001 1.500488 -26.583008 7
0.109444 1.445923 -26.818359 7
0.082832001 1.396606 -27.183594 7
0.106705 1.313599 -26.859375 7
0.079262003 -0.155762 -25.405273 7
0.069068998 -0.22021499 -25.533203 7
0.085479997 -0.28173801 -25.323242 7
0.099586003 -0.34277299 -25.141602 7
0.091576003 -0.47009301 -25.238281 7
-0.111145 -3.4759519 -27.542969 7
-0.107597 -3.5386961 -27.487305 7
-0.096252002 -3.588989 -27.333984 7
-0.084418997 -3.638062 -27.174805 7
-0.089142002 -3.7132571 -27.223633 7
-0.10952 -3.814697 -27.469727 7
0.012039 5.0072021 -25.799805 7
0.001465 4.9665532 -25.943359 7
-0.0091169998 4.9250488 -26.086914 7
-0.024719 4.8942871 -26.293945 7
-0.047508001 4.8746338 -26.59375 7
-0.044806998 4.8022461 -26.571289 7
0.075340003 1.626709 -25.357422 7
0.107346 1.539307 -24.954102 7
0.081398003 1.431519 -25.375 7
0.081467003 -0.32067901 -23.460938 7
0.074455 -0.38085899 -23.541992 7
0.092628002 -0.43615699 -23.324219 7
0.095490001 -0.49389601 -23.288086 7
0.068230003 -0.55957001 -23.608398 7
0.083420001 -0.61438 -23.426758 7
-0.104294 -3.5975339 -25.342773 7
-0.100471 -3.6546631 -25.288086 7
-0.086731002 -3.69519 -25.118164 7
-0.077437997 -3.7425539 -24.999023 7
-0.071631998 -3.7950439 -24.921875 7
0.0076680002 5.0186772 -23.830078 7
-0.002228 4.980957 -23.957031 7
-0.011627 4.941772 -24.078125 7
-0.022003001 4.9042969 -24.208984 7
-0.046684001 4.897583 -24.506836 7
-0.051155001 4.8455811 -24.570312 7
0.087233998 1.795898 -23.282227 7
0.089615002 1.734985 -23.256836 7
0.100838 1.609131 -23.130859 7
0.070633002 1.5137939 -23.493164 7
0.062691003 -0.74536097 -22.001953 7
0.067870997 -0.79895002 -21.941406 7
-0.102905 -3.651855 -23.512695 7
-0.11628 -3.7323 -23.647461 7
-0.107918 -3.7775879 -23.546875 7
-0.096382 -3.8171389 -23.411133 7
-0.095435999 -3.874023 -23.390625 7
-0.098747 -3.938477 -23.415039 7
-0.114761 -4.0250239 -23.578125 7
-0.017136 5.0786128 -22.352539 7
-0.019301999 5.0271001 -22.386719 7
-0.027779 4.989502 -22.489258 7
-0.03624 4.951416 -22.592773 7
-0.047348 4.9188228 -22.724609 7
-0.066367999 4.90271 -22.941406 7
-0.067474 4.847168 -22.964844 7
0.068916 1.91272 -21.827148 7
0.078354001 1.849121 -21.727539 7
0.078293003 1.794189 -21.731445 7
0.059760999 1.754272 -21.938477 7
0.087142996 1.677002 -21.639648 7
0.076522999 1.630371 -21.760742 7
0.048508 -0.64929199 -20.638672 7
0.054085001 -0.69982898 -20.580078 7
0.062454 -0.74890101 -20.490234 7
0.058983002 -0.80175799 -20.524414 7
0.040245 -0.86145002 -20.714844 7
0.051445 -0.90893602 -20.594727 7
0.057007 -0.95837402 -20.535156 7
-0.116867 -3.8790281 -21.970703 7
-0.105095 -3.914062 -21.839844 7
-0.098976001 -3.958252 -21.768555 7
-0.096825004 -4.0090332 -21.735352 7
-0.098067999 -4.0657959 -21.737305 7
-0.115189 -4.1514888 -21.900391 7
-0.018990001 5.070435 -20.757812 7
-0.02636 5.0344238 -20.844727 7
-0.034843002 5.0004878 -20.942383 7
-0.038833998 4.9561772 -20.994141 7
-0.057449002 4.9439702 -21.192383 7
-0.071014002 4.9196782 -21.34082 7
-0.058098 4.837646 -21.22168 7
0.069266997 1.891968 -20.305664 7
0.058510002 1.849731 -20.421875 7
0.071425997 1.786865 -20.291992 7
0.073059 1.733765 -20.27832 7
0.063408002 1.689819 -20.381836 7
0.056030001 1.6437989 -20.461914 7
0.022414999 -0.76647902 -19.560547 7
0.025146 -0.914307 -19.526367 7
0.027984999 -1.011963 -19.492188 7
0.036903001 -1.056885 -19.401367 7
-0.12886 -3.8735349 -20.642578 7
-0.14222699 -3.9482419 -20.760742 7
-0.13568901 -3.9893799 -20.689453 7
-0.12677801 -4.0258789 -20.592773 7
-0.119652 -4.0653081 -20.514648 7
-0.117363 -4.1126709 -20.481445 7
-0.032912999 5.044312 -19.493164 7
-0.051498 5.0362549 -19.680664 7
-0.058127999 5.000854 -19.755859 7
-0.074920997 4.987793 -19.925781 7
-0.091132998 4.972168 -20.09082 7
-0.080398999 4.8977051 -20 7
0.049934 1.990479 -19.166992 7
0.051674001 1.939941 -19.152344 7
0.034224998 1.906616 -19.326172 7
0.055176001 1.838989 -19.126953 7
0.053321999 1.791748 -19.149414 7
0.045471001 1.749146 -19.229492 7
0.032829002 1.710205 -19.355469 7
0.048965 1.648193 -19.203125 7
0.023841999 -1.137207 -18.235352 7
-0.128555 -4.1712651 -19.180664 7
-0.035629001 5.1124272 -18.135742 7
-0.043953001 5.0849609 -18.220703 7
-0.052276999 5.0568848 -18.306641 7
-0.062508002 5.0328369 -18.40918 7
-0.06955 5.0010991 -18.483398 7
-0.084259003 4.9862061 -18.625 7
-0.091934003 4.9554439 -18.704102 7
-0.072861001 4.866333 -18.544922 7
0.047203001 1.9646 -17.90918 7
0.036888 1.881592 -18.010742 7
0.045775998 1.827759 -17.933594 7
0.041878 1.784912 -17.972656 7
0.024612 1.75293 -18.134766 7
0.038605001 1.695312 -18.010742 7
0.041106999 1.647095 -17.991211 7
0.00077799999 -0.81897002 -17.356445 7
0.0088200001 -0.860107 -17.28418 7
0.004677 -0.90612799 -17.317383 7
-0.005051 -1.043579 -17.392578 7
-0.0057979999 -1.088501 -17.395508 7
-0.00046499999 -1.130005 -17.345703 7
-0.010109 -1.224121 -17.421875 7
-0.153313 -4.1665039 -18.201172 7
-0.15069599 -4.2078862 -18.168945 7
-0.150124 -4.2531738 -18.152344 7
0.020996001 1.919922 -17.051758 7
0.012177 1.883545 -17.130859 7
0.043884002 1.812622 -16.862305 7
0.02964 1.78064 -16.988281 7
0.030289 1.73645 -16.986328 7
0.019432001 1.701172 -17.084961 7
0.026802 1.651245 -17.023438 7
0.0097350003 -0.97705102 -16.199219 7
0.016129 -1.015747 -16.145508 7
-0.001892 -1.06604 -16.287109 7
-0.007706 -1.11084 -16.331055 7
-0.002754 -1.150146 -16.288086 7
3.1e-05 -1.19043 -16.261719 7
-0.003639 -1.234375 -16.288086 7
-0.16441301 -4.165894 -17.121094 7
-0.160919 -4.2033691 -17.082031 7
-0.155266 -4.2366939 -17.027344 7
-0.15248901 -4.275146 -16.993164 7
-0.169853 -4.3503418 -17.118164 7
-0.172829 -4.3995361 -17.130859 7
-0.179405 -4.455688 -17.170898 7
0.024651 1.889526 -15.952148 7
0.030289 1.802124 -15.915039 7
0.040259998 1.752686 -15.837891 7
0.029495001 1.720215 -15.928711 7
0.028015001 1.6800539 -15.944336 7
0.034416001 1.633911 -15.896484 7
-0.00058699999 -0.966919 -15.305664 7
-0.001411 -1.006714 -15.30957 7
0.00077099999 -1.045288 -15.289062 7
-0.014465 -1.092407 -15.402344 7
-0.01606 -1.132935 -15.412109 7
-0.012337 -1.1706541 -15.379883 7
-0.014771 -1.251343 -15.390625 7
-0.184494 -4.177979 -16.199219 7
-0.17545301 -4.2033691 -16.121094 7
-0.174026 -4.242188 -16.099609 7
-0.173355 -4.282227 -16.083984 7
-0.188004 -4.3917241 -16.170898 7
-0.194199 -4.4445801 -16.205078 7
-0.063408002 5.0609131 -15.020508 7
-0.069472998 5.0352778 -15.077148 7
-0.074036002 5.0062261 -15.12207 7
-0.074051 4.9669189 -15.133789 7
-0.082390003 4.9456792 -15.207031 7
-0.095275998 4.93396 -15.313477 7
-0.097565003 4.8990479 -15.341797 7
-0.083237 4.8286128 -15.248047 7
0.023796 1.7468261 -14.999023 7
0.026741 1.666382 -14.984375 7
0.032752998 1.622925 -14.941406 7
0.038010001 1.580078 -14.905273 7
0.028876999 1.547852 -14.978516 7
0.016739 1.517334 -15.074219 7
0.021988001 1.474365 -15.037109 7
0.035590999 1.42627 -14.936523 7
0.043129001 1.3824461 -14.882812 7
0.038527999 1.34668 -14.919922 7
0.03167 1.31189 -14.975586 7
-0.0090100002 -0.99157703 -14.439453 7
0.003761 -1.023315 -14.344727 7
0.0044940002 -1.060059 -14.335938 7
-0.0084229996 -1.10376 -14.425781 7
-0.022125 -1.148438 -14.521484 7
-0.014969 -1.182251 -14.466797 7
-0.0094299996 -1.216675 -14.422852 7
-0.0087050004 -1.25354 -14.414062 7
-0.187897 -4.1885991 -15.193359 7
-0.181587 -4.216064 -15.137695 7
-0.178452 -4.2496338 -15.105469 7
-0.177742 -4.287231 -15.088867 7
-0.17621601 -4.3232422 -15.067383 7
-0.18355601 -4.3757319 -15.108398 7
-0.195702 -4.4372559 -15.180664 7
-0.093497999 5.1062012 -14.235352 7
-0.091934003 5.0654302 -14.235352 7
-0.088753 5.0211182 -14.225586 7
-0.088760003 4.9838872 -14.237305 7
-0.090392999 4.9500728 -14.260742 7
-0.090407997 4.9128418 -14.272461 7
-0.095221996 4.8858638 -14.316406 7
-0.098457001 4.8552251 -14.350586 7
0.035271 1.27417 -14.038086 7
0.028030001 1.241333 -14.092773 7
0.036804002 1.199585 -14.032227 7
0.047164999 1.157104 -13.958984 7
0.052749999 1.117798 -13.920898 7
0.054320998 1.080444 -13.913086 7
0.044647001 1.0487061 -13.983398 7
0.043007001 1.012939 -13.99707 7
0.042160001 0.97656202 -14.004883 7
-0.00062599999 -0.97351098 -13.582031 7
-0.0023729999 -1.009766 -13.59082 7
0.004311 -1.04187 -13.541992 7
0.0025559999 -1.078125 -13.550781 7
-0.00088499999 -1.115234 -13.572266 7
-0.012764 -1.15686 -13.650391 7
-0.015373 -1.19397 -13.664062 7
-0.012062 -1.227661 -13.638672 7
-0.012978 -1.2637939 -13.640625 7
-0.191917 -4.170166 -14.333984 7
-0.19706701 -4.2165532 -14.358398 7
-0.191231 -4.2431641 -14.308594 7
-0.189629 -4.2773442 -14.288086 7
-0.18888099 -4.3131099 -14.271484 7
-0.186424 -4.345459 -14.244141 7
-0.194977 -4.3980708 -14.289062 7
-0.20436101 -4.4525151 -14.34082 7
0.034378 0.930664 -13.277344 7
0.047821 0.89025903 -13.186523 7
0.050322998 0.85437 -13.171875 7
0.054489002 0.81799299 -13.144531 7
0.059494 0.78161597 -13.111328 7
0.051033001 0.75 -13.171875 7
0.047614999 0.71630901 -13.196289 7
0.043365002 0.68286097 -13.227539 7
-0.005287 -0.99365199 -12.856445 7
-0.003548 -1.026611 -12.842773 7
-0.001839 -1.05957 -12.829102 7
0.00075499999 -1.091797 -12.808594 7
-0.0064090001 -1.12915 -12.852539 7
-0.017998001 -1.169067 -12.924805 7
-0.020737 -1.204468 -12.938477 7
-0.01281 -1.234009 -12.884766 7
-0.016434001 -1.269775 -12.904297 7
-0.201759 -4.1896968 -13.548828 7
-0.207169 -4.2344971 -13.572266 7
-0.20103499 -4.2589111 -13.523438 7
-0.19754 -4.2878418 -13.491211 7
-0.195839 -4.3197021 -13.469727 7
-0.19414499 -4.351685 -13.448242 7
-0.19869199 -4.3951421 -13.46582 7
-0.208572 -4.4483638 -13.515625 7
0.046227001 0.746948 -12.467773 7
0.047065999 0.71362299 -12.463867 7
0.046126999 0.68090802 -12.470703 7
0.038070999 0.61730999 -12.524414 7
0.040688001 0.58325201 -12.509766 7
0.044204999 0.54919398 -12.487305 7
0.053032 0.51415998 -12.430664 7
0.058311 0.47985801 -12.397461 7
0.060051002 0.44665501 -12.387695 7
0.057349999 0.414307 -12.405273 7
0.049323998 0.38281199 -12.458008 7
0.047522999 0.35009801 -12.470703 7
-0.184181 -4.1618652 -12.677734 7
-0.202011 -4.22644 -12.771484 7
-0.203949 -4.2633061 -12.772461 7
-0.210556 -4.3087158 -12.801758 7
-0.19664 -4.316895 -12.708984 7
-0.197662 -4.3519292 -12.703125 7
-0.194939 -4.380127 -12.675781 7
-0.19315299 -4.4099121 -12.655273 7
-0.19044501 -4.4381099 -12.626953 7
-0.090111002 5.0759282 -11.753906 7
-0.096611001 5.05896 -11.803711 7
-0.072494999 4.9743652 -11.674805 7
-0.077147998 4.9533691 -11.713867 7
-0.079948001 4.9281011 -11.742188 7
-0.078110002 4.8928218 -11.742188 7
-0.077202 4.859375 -11.748047 7
-0.082778998 4.8397222 -11.791992 7
-0.089272 4.8222661 -11.841797 7
0.060180999 0.394409 -11.816406 7
0.057303999 0.33215299 -11.835938 7
0.053130999 -0.012085 -11.117188 7
0.05407 -0.041992001 -11.111328 7
0.046211001 -0.071898997 -11.157227 7
-0.013649 -1.300415 -11.518555 7
-0.198677 -4.1696782 -12.001953 7
-0.202682 -4.208252 -12.013672 7
-0.21066999 -4.2857671 -12.038086 7
-0.205856 -4.3087158 -12 7
-0.20395701 -4.336792 -11.979492 7
-0.200119 -4.3614502 -11.947266 7
-0.20214801 -4.396606 -11.948242 7
-0.20026401 -4.424438 -11.925781 7
-0.20427699 -4.4633789 -11.9375 7
-0.102463 5.0882568 -11.072266 7
-0.101517 5.056396 -11.078125 7
-0.079085998 4.9772949 -10.966797 7
-0.069343999 4.9265141 -10.925781 7
-0.074234001 4.9078369 -10.963867 7
-0.074248999 4.8782959 -10.974609 7
-0.077170998 4.855103 -11.00293 7
-0.078178003 4.8276372 -11.019531 7
-0.084022999 4.8105469 -11.063477 7
-0.098670997 4.811523 -11.155273 7
0.037682001 0.138184 -11.208984 7
0.028984001 -0.01123 -10.77832 7
0.034049999 -0.039795 -10.75 7
0.031943999 -0.068726003 -10.760742 7
0.032928001 -0.097411998 -10.754883 7
0.022644 -0.126709 -10.8125 7
0.024643 -0.155518 -10.799805 7
0.024597 -0.184448 -10.799805 7
0.032715 -0.212402 -10.75293 7
0.035728 -0.24084499 -10.735352 7
0.038757 -0.26928699 -10.717773 7
0.039726 -0.29785201 -10.710938 7
-0.207443 -4.17981 -11.392578 7
-0.210594 -4.215332 -11.398438 7
-0.210686 -4.245728 -11.388672 7
-0.219971 -4.29248 -11.427734 7
-0.221077 -4.324585 -11.422852 7
-0.215004 -4.3438721 -11.379883 7
-0.21096 -4.3666992 -11.348633 7
-0.21102899 -4.396729 -11.337891 7
-0.213158 -4.4306641 -11.337891 7
-0.20914499 -4.4532471 -11.304688 7
-0.112686 4.8537598 -10.575195 7
-0.110664 4.8208008 -10.576172 7
0.027161 -0.33972201 -10.19043 7
0.020683 -0.368164 -10.224609 7
0.024924999 -0.39489701 -10.200195 7
0.023804 -0.42236301 -10.205078 7
0.021606 -0.450317 -10.214844 7
0.020485001 -0.47802699 -10.219727 7
0.024727 -0.50463903 -10.196289 7
0.026825 -0.53161597 -10.183594 7
0.027855 -0.558716 -10.176758 7
0.025627 -0.58654797 -10.185547 7
0.016998 -0.61633301 -10.229492 7
0.015845999 -0.67175299 -10.232422 7
0.021156 -0.69763201 -10.202148 7
0.018967001 -0.72583002 -10.211914 7
0.016762 -0.75402802 -10.22168 7
0.016708 -0.78161597 -10.220703 7
-0.0061869998 -0.98400903 -10.325195 7
-0.0062330002 -1.0118411 -10.323242 7
-0.010582 -1.041626 -10.34375 7
-0.014923 -1.071411 -10.364258 7
-0.005318 -1.0944819 -10.310547 7
-0.0032200001 -1.1212161 -10.295898 7
-0.0075610001 -1.151001 -10.316406 7
-0.0065609999 -1.177979 -10.307617 7
-0.019485001 -1.212891 -10.373047 7
-0.024901999 -1.2437741 -10.398438 7
-0.023864999 -1.271118 -10.390625 7
-0.100464 0.668823 13.359375 7
-0.083930999 0.69213903 13.271484 7
-0.078383997 0.71838403 13.241211 7
-0.080559 0.74719203 13.251953 7
-0.080513 0.77526897 13.250977 7
-0.079369001 0.80285603 13.242188 7
-0.081519999 0.83178699 13.25293 7
-0.080367997 0.85949701 13.244141 7
-0.082526997 0.88830602 13.253906 7
-0.084686004 0.91723597 13.262695 7
-0.080238 0.94348103 13.238281 7
0.003792 -0.64599597 -9.7890615 7
0.0048750001 -0.67224097 -9.7822266 7
0.0093 -0.69726598 -9.7568359 7
0.015961001 -0.72143602 -9.7207031 7
0.017044 -0.74731398 -9.7138672 7
0.01474 -0.774414 -9.7226562 7
0.010216 -0.80236799 -9.7441406 7
-0.0021510001 -0.83337402 -9.8046885 7
-0.004433 -0.86084002 -9.8144531 7
0.0044630002 -0.883789 -9.7666016 7
0.006668 -0.909302 -9.7539062 7
0.005508 -0.93603498 -9.7568359 7
0.002075 -0.96398902 -9.7714844 7
-0.005806 -0.99401897 -9.8085938 7
-0.014816 -1.024536 -9.8525391 7
-0.017113 -1.052368 -9.8613281 7
-0.014915 -1.077881 -9.8476562 7
-0.020561 -1.107422 -9.8740234 7
-0.0093989996 -1.1281739 -9.8144531 7
-0.0094680004 -1.154785 -9.8105469 7
-0.010628 -1.182007 -9.8144531 7
-0.012924 -1.209595 -9.8222656 7
-0.020821 -1.2406009 -9.859375 7
-0.032074001 -1.2738039 -9.9130859 7
-0.026527001 -1.297119 -9.8818359 7
-0.024329999 -1.32251 -9.8681641 7
-0.025497001 -1.349854 -9.8701172 7
-0.02668 -1.377197 -9.8720703 7
-0.027863 -1.4044189 -9.8740234 7
-0.31686401 -6.0817871 -9.8457031 7
-0.314697 -6.1027832 -9.8203115 7
-0.31027201 -6.1181641 -9.7861328 7
-0.309219 -6.1419678 -9.7666016 7
-0.31382 -6.179565 -9.7724609 7
-0.316147 -6.2114258 -9.7666016 7
-0.31847399 -6.2435298 -9.7617188 7
-0.32192999 -6.2784419 -9.7617188 7
-0.334389 -6.335815 -9.8017578 7
-0.33898199 -6.3739009 -9.8066406 7
-0.082024001 0.71606398 12.757812 7
-0.084251001 0.77063 12.766602 7
-0.083053999 0.79711902 12.758789 7
-0.083007999 0.82397503 12.757812 7
-0.085205004 0.87866199 12.764648 7
-0.085120998 0.93261701 12.760742 7
-0.020576 -0.98278803 -9.3945312 7
-0.012436 -1.004517 -9.3525391 7
-0.0089870002 -1.028198 -9.3330078 7
-0.0090260003 -1.0537111 -9.3310547 7
-0.0079269996 -1.078491 -9.3212891 7
-0.013855 -1.132202 -9.3457031 7
-0.017464001 -1.184814 -9.3564453 7
-0.014015 -1.208496 -9.3369141 7
-0.030425999 -1.24292 -9.4130859 7
-0.039825 -1.273926 -9.4560547 7
-0.32167101 -6.1065669 -9.2216797 7
-0.32064101 -6.1539311 -9.1875 7
-0.31954199 -6.1760249 -9.1679688 7
-0.31726801 -6.195312 -9.1435547 7
-0.320862 -6.2290039 -9.1435547 7
-0.325645 -6.265625 -9.1484385 7
-0.33755499 -6.3450928 -9.1669922 7
-0.099586003 0.66528302 12.361328 7
-0.101936 0.69177198 12.371094 7
-0.093535997 0.71533197 12.330078 7
-0.093483001 0.74108899 12.327148 7
-0.093451999 0.76696801 12.326172 7
-0.096984997 0.79406703 12.341797 7
-0.093360998 0.818726 12.322266 7
-0.095702998 0.84533697 12.332031 7
-0.095656998 0.871216 12.330078 7
-0.094429001 0.89660603 12.322266 7
-0.092003003 0.92163098 12.30957 7
-0.090767004 0.946899 12.301758 7
-0.0082320003 -0.96032703 -8.8818359 7
-0.0058360002 -0.98352098 -8.8681641 7
-0.0070949998 -1.008423 -8.8720703 7
-0.001068 -1.029907 -8.8398438 7
-0.010864 -1.058838 -8.8828115 7
-0.023079 -1.088989 -8.9365234 7
-0.015822999 -1.109863 -8.9003906 7
-0.026839999 -1.139771 -8.9492188 7
-0.017136 -1.15918 -8.9003906 7
-0.018394001 -1.184204 -8.9042969 7
-0.025757 -1.2125241 -8.9345703 7
-0.014832 -1.230835 -8.8808594 7
-0.029510001 -1.263428 -8.9462891 7
-0.31932101 -6.1303711 -8.59375 7
-0.31574199 -6.1447749 -8.5634766 7
-0.315804 -6.168457 -8.5498047 7
-0.32322699 -6.2103271 -8.5644531 7
-0.317177 -6.2186279 -8.5244141 7
-0.31971699 -6.2480469 -8.5195312 7
-0.33203101 -6.3023682 -8.5537109 7
-0.33577701 -6.335083 -8.5527344 7
-0.33829501 -6.3648682 -8.5478516 7
-0.0074160001 -0.96301299 -8.4121094 7
-0.011276 -0.98791498 -8.4267578 7
-0.001198 -1.029785 -8.3769531 7
8e-06 -1.075317 -8.3671885 7
-0.0051500001 -1.100952 -8.3857422 7
-0.0065159998 -1.147827 -8.3867188 7
-0.0091019999 -1.172363 -8.3955078 7
-0.011742 -1.220093 -8.4003906 7
-0.010544 -1.265747 -8.3896484 7
-0.213791 -4.44873 -8.3789062 7
-0.314331 -6.110352 -7.9550781 7
-0.309349 -6.1420898 -7.907227 7
-0.315819 -6.17981 -7.9160161 7
-0.32236499 -6.2398682 -7.9101558 7
-0.32372299 -6.2651372 -7.9003911 7
-0.32897899 -6.3218989 -7.889648 7
-0.33296999 -6.3756099 -7.8730469 7
-0.29650101 -5.0938721 11.035156 7
-0.29126701 -5.0375981 11.039062 7
-0.29127499 -5.014648 11.051758 7
-0.29126701 -4.9918208 11.063477 7
-0.292557 -4.9716802 11.080078 7
-0.295151 -4.9309082 11.114258 7
-0.29254201 -4.902832 11.116211 7
-0.29122901 -4.8773189 11.123047 7
-0.29122201 -4.854126 11.133789 7
-0.288605 -4.8260498 11.134766 7
-0.083687 -1.909668 11.196289 7
-0.077072002 -1.8117681 11.185547 7
-0.074455 -1.786499 11.178711 7
-0.073128 -1.762329 11.176758 7
-0.069220997 -1.7362061 11.165039 7
-0.071686 -1.64563 11.191406 7
-0.070389003 -1.62146 11.19043 7
-0.15010799 4.098999 10.87793 7
-0.144814 4.1347661 10.836914 7
-0.134415 4.1385498 10.786133 7
-0.129173 4.1514888 10.755859 7
-0.071983002 4.7993159 -7.485352 7
-0.073250003 4.7807622 -7.500977 7
-0.070708998 4.754272 -7.5029302 7
-0.071983002 4.7354741 -7.5195308 7
-0.070716999 4.7116699 -7.5253911 7
-0.074524 4.6982422 -7.5517578 7
-0.079627998 4.6873779 -7.5810552 7
-0.089782998 4.6868901 -7.6347661 7
-0.092308 4.6704102 -7.65625 7
-0.098670997 4.6618652 -7.6914058 7
-0.087242 4.6169429 -7.657227 7
-0.083449997 4.5875239 -7.6523442 7
-0.083449997 4.565918 -7.6630859 7
-0.083426997 4.544312 -7.6748052 7
-0.079636 4.5150151 -7.6689448 7
-0.079636 4.4932861 -7.679688 7
-0.020271 -0.97399902 -8.0644531 7
-0.021637 -0.996948 -8.0673828 7
-0.022987001 -1.02002 -8.0712891 7
-0.025696 -1.043457 -8.0800781 7
-0.027061 -1.06665 -8.0830078 7
-0.029762 -1.090332 -8.0908203 7
-0.015228 -1.105469 -8.0273438 7
-0.016594 -1.128418 -8.0292969 7
-0.016632 -1.150757 -8.0273438 7
-0.016678 -1.172974 -8.0244141 7
-0.019362999 -1.196777 -8.0332031 7
-0.019424001 -1.219116 -8.0302734 7
-0.022102 -1.242798 -8.0390615 7
-0.026131 -1.2674561 -8.0517578 7
-0.23326901 -4.414062 -8.0058594 7
-0.31424701 -5.10144 10.62207 7
-0.31151599 -5.0740972 10.624023 7
-0.31018099 -5.049438 10.632812 7
-0.31153101 -5.030273 10.649414 7
-0.311508 -5.0084229 10.661133 7
-0.311508 -4.9864502 10.673828 7
-0.311508 -4.9646001 10.685547 7
-0.314201 -4.947998 10.707031 7
-0.31148499 -4.89856 10.719727 7
-0.307419 -4.8685298 10.716797 7
-0.30471799 -4.841187 10.717773 7
-0.30738801 -4.802124 10.75 7
-0.097305 -1.911621 10.849609 7
-0.095931999 -1.888062 10.848633 7
-0.106712 -1.874512 10.898438 7
-0.103989 -1.849854 10.890625 7
-0.083664 -1.78894 10.81543 7
-0.082298003 -1.765747 10.814453 7
-0.080894001 -1.720093 10.817383 7
-0.082222 -1.698853 10.827148 7
-0.087585002 -1.68042 10.853516 7
-0.086220004 -1.6569819 10.851562 7
-0.079414003 -1.6075439 10.832031 7
-0.325798 -6.1029048 -6.9179692 7
-0.32865101 -6.129395 -6.9121089 7
-0.32456201 -6.1390381 -6.8837891 7
-0.32325 -6.1551509 -6.8642578 7
-0.32051799 -6.1677251 -6.8417969 7
-0.31922099 -6.1838379 -6.8222661 7
-0.32066301 -6.2067871 -6.8125 7
-0.32350901 -6.2331538 -6.8056641 7
-0.32495901 -6.255981 -6.795898 7
-0.33197001 -6.292603 -6.8027339 7
-0.33895901 -6.3294678 -6.8105469 7
-0.34733599 -6.369751 -6.8222661 7
-0.303368 -5.099731 10.077148 7
-0.297737 -5.067627 10.069336 7
-0.30055201 -5.052856 10.09082 7
-0.301956 -5.0350342 10.107422 7
-0.296341 -5.0030522 10.101562 7
-0.29633299 -4.9824219 10.113281 7
-0.29663801 -4.9616699 10.125 7
-0.29802701 -4.9438481 10.141602 7
-0.30085 -4.9287109 10.163086 7
-0.29801899 -4.9024658 10.165039 7
-0.29942301 -4.884521 10.181641 7
-0.30505401 -4.8747559 10.212891 7
-0.28815499 -4.8209229 10.165039 7
-0.290977 -4.8056641 10.186523 7
-0.082428001 -1.90625 10.385742 7
-0.082413003 -1.88501 10.390625 7
-0.085205004 -1.865967 10.40625 7
-0.096419998 -1.853882 10.455078 7
-0.092170998 -1.829102 10.442383 7
-0.080917001 -1.7987061 10.402344 7
-0.073875003 -1.7718509 10.379883 7
-0.073853001 -1.75061 10.383789 7
-0.071014002 -1.727173 10.375977 7
-0.065369003 -1.701782 10.358398 7
-0.080811001 -1.692139 10.423828 7
-0.080788001 -1.670776 10.427734 7
-0.073723003 -1.644165 10.40332 7
-0.075111002 -1.623901 10.413086 7
-0.108627 4.757935 -6.7431641 7
-0.101768 4.7241211 -6.7285161 7
-0.101761 4.7047119 -6.7402339 7
-0.096275002 4.6739502 -6.7314448 7
-0.092133 4.626709 -6.7373052 7
-0.089371003 4.6018071 -6.7392578 7
-0.087996997 4.5794678 -6.7451172 7
-0.085258 4.5544429 -6.7460942 7
-0.085258 4.5349121 -6.7568359 7
-0.085251004 4.5153809 -6.7675781 7
-0.085258 4.4959722 -6.7783198 7
-0.30731201 -5.111938 9.6464844 7
-0.30586201 -5.089355 9.6542969 7
-0.29856101 -5.0549321 9.6416016 7
-0.29855299 -5.035522 9.6533203 7
-0.295647 -5.0100098 9.65625 7
-0.298538 -4.99646 9.6767578 7
-0.29709601 -4.9737549 9.6845703 7
-0.29709601 -4.954102 9.6962891 7
-0.29562399 -4.9316411 9.703125 7
-0.29708901 -4.9147949 9.7197266 7
-0.30144501 -4.9038091 9.7451172 7
-0.29705799 -4.8754878 9.7421885 7
-0.29852301 -4.858398 9.7587891 7
-0.29705799 -4.835938 9.765625 7
-0.299988 -4.8217769 9.7880859 7
-0.30144501 -4.804565 9.8037109 7
-0.081078 -1.915283 10.027344 7
-0.081046999 -1.894897 10.03125 7
-0.079567 -1.8731689 10.029297 7
-0.079558998 -1.852661 10.03418 7
-0.085364997 -1.837036 10.061523 7
-0.085326999 -1.81665 10.06543 7
-0.085326999 -1.7961431 10.070312 7
-0.072173998 -1.765259 10.023438 7
-0.072159 -1.744873 10.02832 7
-0.069220997 -1.722168 10.021484 7
-0.069182999 -1.701782 10.025391 7
-0.066261001 -1.679077 10.019531 7
-0.077895999 -1.667236 10.067383 7
-0.072059996 -1.642578 10.049805 7
-0.070572004 -1.621094 10.047852 7
-0.23173501 -4.483398 -6.6220698 7
-0.228798 -4.4968262 -6.601562 7
-0.230354 -4.5185552 -6.5957031 7
-0.236359 -4.5487061 -6.6054692 7
-0.23195601 -4.559082 -6.579102 7
-0.22903401 -4.5725098 -6.5595698 7
-0.23864 -4.6108398 -6.5820308 7
-0.243156 -4.6381841 -6.5849609 7
-0.24025001 -4.6513672 -6.5644531 7
-0.244781 -4.6789551 -6.5673828 7
-0.244812 -4.6977539 -6.5566411 7
-0.25234199 -4.730957 -6.5693359 7
-0.26132199 -4.7672119 -6.5878911 7
-0.250954 -4.7657471 -6.5429692 7
-0.25847599 -4.7990718 -6.554688 7
-0.33688399 -6.090332 -5.9824219 7
-0.33097801 -6.0932622 -5.9501948 7
-0.33699799 -6.1252441 -5.954102 7
-0.340042 -6.1497798 -5.9482422 7
-0.33862299 -6.1635742 -5.9287109 7
-0.34167501 -6.1881099 -5.922852 7
-0.33426699 -6.1872559 -5.8867192 7
-0.338806 -6.2154541 -5.8847661 7
-0.33438101 -6.221436 -5.8574219 7
-0.33148199 -6.2312012 -5.8330078 7
-0.341988 -6.274292 -5.8486328 7
-0.342049 -6.2913818 -5.8339839 7
-0.342125 -6.3085942 -5.8183589 7
-0.34217799 -6.3256841 -5.8037109 7
-0.342255 -6.3426509 -5.7880859 7
-0.35427099 -6.389648 -5.8066411 7
-0.30697599 -5.1184082 9.1953115 7
-0.29940799 -5.0844731 9.1835938 7
-0.29788199 -5.0629878 9.1904297 7
-0.2994 -5.047729 9.2070312 7
-0.28878799 -5.00769 9.1855469 7
-0.29334301 -4.9985352 9.2119141 7
-0.296379 -4.9859619 9.234375 7
-0.297905 -4.9703369 9.2509766 7
-0.29032901 -4.9368901 9.2382812 7
-0.29032901 -4.918335 9.25 7
-0.29486799 -4.9085689 9.2763672 7
-0.078743003 -1.917236 9.6650391 7
-0.089309998 -1.906616 9.7089844 7
-0.083244003 -1.8818361 9.6914062 7
-0.080200002 -1.859741 9.6845703 7
-0.081688002 -1.841431 9.6943359 7
-0.083176002 -1.822876 9.7050781 7
-0.089211002 -1.808105 9.7314453 7
-0.090714 -1.789673 9.7412109 7
-0.067993 -1.752197 9.6621094 7
-0.074019998 -1.737305 9.6884766 7
-0.070983998 -1.715332 9.6816406 7
-0.064902999 -1.691162 9.6630859 7
-0.058837999 -1.667114 9.6455078 7
-0.075461999 -1.659912 9.7099609 7
-0.078452997 -1.6424561 9.7246094 7
-0.066321999 -1.614136 9.6845703 7
-0.065909997 0.97094703 9.8027344 7
-0.058318999 0.987427 9.7714844 7
-0.050742999 1.003662 9.7412109 7
-0.055229001 1.0255131 9.7558594 7
-0.053679999 1.044678 9.7470703 7
-0.058173999 1.066528 9.7617188 7
-0.058159001 1.0863039 9.7597656 7
-0.061142001 1.107422 9.7685547 7
-0.071654998 1.132568 9.8037109 7
-0.07164 1.1524661 9.8017578 7
-0.065559 1.169312 9.7773438 7
-0.062492002 1.187256 9.7626953 7
-0.063971996 1.2080081 9.765625 7
-0.071479999 1.231934 9.7900391 7
-0.060883 1.24585 9.7490234 7
-0.063865997 1.2674561 9.7578115 7
-0.30100301 -5.1020508 8.7851562 7
-0.29161099 -5.0480962 8.78125 7
-0.29159501 -5.030396 8.7929688 7
-0.27751899 -4.9844971 8.7626953 7
-0.28534701 -4.965332 8.8095703 7
-0.285355 -4.9477539 8.8212891 7
-0.28534701 -4.9301758 8.8339844 7
-0.290039 -4.9041748 8.8701172 7
-0.29003099 -4.8865972 8.8818359 7
-0.296303 -4.881104 8.9130859 7
-0.28534701 -4.8240972 8.9023438 7
-0.29004699 -4.8154302 8.9287109 7
-0.07119 -1.918579 9.3320312 7
-0.071152002 -1.89978 9.3359385 7
-0.075820997 -1.866089 9.3613281 7
-0.074242003 -1.846069 9.3603516 7
-0.077353999 -1.829712 9.3769531 7
-0.078864999 -1.7930911 9.390625 7
-0.067901999 -1.765625 9.3554688 7
-0.055374 -1.737183 9.3164062 7
-0.066284001 -1.707886 9.3632812 7
-0.066269003 -1.689087 9.3671885 7
-0.067809999 -1.671265 9.3769531 7
-0.070900001 -1.635986 9.3964844 7
-0.064621001 -1.612427 9.3769531 7
-0.054947 0.97033697 9.4648438 7
-0.056473002 0.98986799 9.4677734 7
-0.053328998 1.007568 9.4541016 7
-0.047042999 1.023682 9.4296885 7
-0.050124999 1.044312 9.4375 7
-0.050101999 1.063354 9.4365234 7
-0.046936002 1.080688 9.4228516 7
-0.046898 1.099609 9.4199219 7
-0.054680001 1.122559 9.4453115 7
-0.057762001 1.143188 9.453125 7
-0.057732001 1.162231 9.4511719 7
-0.063896 1.203491 9.4667969 7
-0.059188999 1.220093 9.4482422 7
-0.056046002 1.237427 9.4345703 7
-0.063804999 1.2607419 9.4589844 7
-0.23263501 -4.483398 -5.8378911 7
-0.22948501 -4.4945068 -5.8183589 7
-0.227936 -4.5085449 -5.8027339 7
-0.234383 -4.5375981 -5.8105469 7
-0.234459 -4.554688 -5.7998052 7
-0.23610701 -4.5748291 -5.7939448 7
-0.23295601 -4.5855708 -5.7724609 7
-0.226616 -4.59021 -5.7431641 7
-0.23628201 -4.6256099 -5.7597661 7
-0.23953199 -4.6486821 -5.7587891 7
-0.24439199 -4.6748052 -5.7607422 7
-0.25084701 -4.704102 -5.7695308 7
-0.255714 -4.7304692 -5.7724609 7
-0.25737 -4.7504878 -5.765625 7
-0.254219 -4.76123 -5.7451172 7
-0.26068899 -4.7905269 -5.7519531 7
-0.076195002 -1.919922 9.0234385 7
-0.068062 -1.895142 9 7
-0.069672003 -1.87854 9.0107422 7
-0.068030998 -1.859253 9.0097656 7
-0.068007998 -1.841187 9.0136719 7
-0.066367999 -1.8218991 9.0126953 7
-0.074463002 -1.810303 9.0439453 7
-0.077689998 -1.794922 9.0585938 7
-0.072806999 -1.772949 9.046875 7
-0.064667001 -1.748535 9.0234385 7
-0.054908998 -1.723022 8.9951172 7
-0.058136001 -1.70752 9.0097656 7
-0.054878 -1.687012 9.0029297 7
-0.053252999 -1.667847 9.0019531 7
-0.053215001 -1.649902 9.0048828 7
-0.061301999 -1.637817 9.0361328 7
-0.059677001 -1.61853 9.0351562 7
-0.053001001 0.96826202 9.1396484 7
-0.048103001 0.98449701 9.1201172 7
-0.041625999 0.99975598 9.0966797 7
-0.041572999 1.018066 9.09375 7
-0.041549999 1.036255 9.0917969 7
-0.041519001 1.0543211 9.0898438 7
-0.041480999 1.07251 9.0869141 7
-0.04631 1.09314 9.1015615 7
-0.049515001 1.112915 9.1103516 7
-0.059218999 1.136108 9.140625 7
-0.049454 1.1494139 9.1044922 7
-0.062369999 1.174316 9.1464844 7
-0.059096999 1.190918 9.1328115 7
-0.062293999 1.210815 9.140625 7
-0.059029002 1.2275389 9.1269531 7
-0.058998 1.245728 9.1240234 7
-0.062210001 1.265747 9.1318359 7
-0.239204 -4.485229 -5.4736328 7
-0.23759501 -4.4984131 -5.4580078 7
-0.237648 -4.514648 -5.4472661 7
-0.239365 -4.5340581 -5.4404302 7
-0.236092 -4.5440669 -5.420898 7
-0.239464 -4.5664058 -5.4199219 7
-0.242844 -4.5887451 -5.4169922 7
-0.241234 -4.601685 -5.4023442 7
-0.23796099 -4.6114502 -5.3818359 7
-0.234695 -4.6212158 -5.3623052 7
-0.238068 -4.6435552 -5.360352 7
-0.24807701 -4.6785889 -5.3769531 7
-0.25478399 -4.707397 -5.3837891 7
-0.25483701 -4.7235112 -5.3720698 7
-0.26484701 -4.7587891 -5.389648 7
-0.25827 -4.7618408 -5.358398 7
-0.25831601 -4.777832 -5.3486328 7
-0.34777099 -6.2099609 -4.4775391 7
-0.34783199 -6.2236328 -4.4619141 7
-0.35287499 -6.2497559 -4.4589839 7
-0.34960201 -6.2554932 -4.436523 7
-0.33634901 -6.2362061 -4.390625 7
-0.33474699 -6.2459722 -4.3730469 7
-0.33313799 -6.2554932 -4.3535161 7
-0.33151999 -6.2650151 -4.335938 7
-0.33325201 -6.2825928 -4.3242192 7
-0.33332801 -6.2961431 -4.3085942 7
-0.33837101 -6.322144 -4.304688 7
-0.33844799 -6.3355708 -4.289062 7
-0.34016401 -6.353271 -4.2783198 7
-0.34187299 -6.3708501 -4.266602 7
-0.34194899 -6.3842769 -4.2519531 7
-0.28866601 -5.0882568 7.9042969 7
-0.28866601 -5.072876 7.9160161 7
-0.285301 -5.0352778 7.9306641 7
-0.283638 -5.0162349 7.9394531 7
-0.27858001 -4.990479 7.9375 7
-0.270172 -4.9580078 7.9267578 7
-0.27523801 -4.9372559 7.9638672 7
-0.27524599 -4.9217529 7.9755859 7
-0.27524599 -4.8905029 7.999023 7
-0.079277001 -1.918823 8.7246094 7
-0.075905003 -1.89856 8.71875 7
-0.069159999 -1.8757319 8.7011719 7
-0.067428999 -1.839844 8.7041016 7
-0.065742001 -1.821167 8.703125 7
-0.075790003 -1.794556 8.7451172 7
-0.069061004 -1.7718509 8.7275391 7
-0.069031 -1.754517 8.7314453 7
-0.053902 -1.7255861 8.6865234 7
-0.053856 -1.691162 8.6953115 7
-0.050461002 -1.671387 8.6875 7
-0.048751999 -1.63562 8.6904297 7
-0.068916 -1.632935 8.7597656 7
-0.058807001 -1.6081541 8.7304688 7
-0.050338998 0.98339802 8.8310547 7
-0.050301 1.000977 8.828125 7
-0.043510001 1.0330811 8.8007812 7
-0.045157999 1.051147 8.8037109 7
-0.045127999 1.0687259 8.8017578 7
-0.043419 1.085449 8.7939453 7
-0.056800999 1.127197 8.8339844 7
-0.051734999 1.14209 8.8144531 7
-0.058371998 1.1806639 8.8310547 7
-0.061684001 1.1999511 8.8388672 7
-0.061652999 1.217651 8.8359385 7
-0.054916002 1.231323 8.8105469 7
-0.061562002 1.270142 8.8271484 7
-0.239861 -4.4885249 -5.1025391 7
-0.245056 -4.5134282 -5.1054692 7
-0.234787 -4.509521 -5.0673828 7
-0.234833 -4.5249019 -5.0566411 7
-0.231453 -4.5335689 -5.0371089 7
-0.234955 -4.5552979 -5.0341802 7
-0.238434 -4.5770259 -5.0332031 7
-0.235062 -4.5856929 -5.0126948 7
-0.236839 -4.604126 -5.0058589 7
-0.235168 -4.6159668 -4.9902339 7
-0.236946 -4.6343989 -4.984375 7
-0.247307 -4.669189 -5 7
-0.247353 -4.6843262 -4.9892578 7
-0.24740601 -4.6994629 -4.9775391 7
-0.252617 -4.7246089 -4.9804692 7
-0.25611901 -4.7463379 -4.9775391 7
-0.252731 -4.7548828 -4.9570308 7
-0.25621799 -4.7766109 -4.9550781 7
-0.25627899 -4.791626 -4.9443359 7
-0.28466001 -4.848022 7.6894531 7
-0.27770999 -4.819458 7.6835942 7
-0.28118101 -4.8114009 7.703125 7
-0.078514002 -1.9136961 8.4355469 7
-0.075011998 -1.8944089 8.4287109 7
-0.071517996 -1.874756 8.4228516 7
-0.068007998 -1.855347 8.4160156 7
-0.068001002 -1.838623 8.4208984 7
-0.066253997 -1.820557 8.4199219 7
-0.071456999 -1.808228 8.4394531 7
-0.067955002 -1.78894 8.4326172 7
-0.069687001 -1.77356 8.4433594 7
-0.066184998 -1.754272 8.4365234 7
-0.069649003 -1.740234 8.4511719 7
-0.057449002 -1.714111 8.4179688 7
-0.053955 -1.695068 8.4111328 7
-0.052193001 -1.677124 8.4091797 7
-0.059128001 -1.6656491 8.4345703 7
-0.055640999 -1.646484 8.4277344 7
-0.062576003 -1.63501 8.4541016 7
-0.05909 -1.615723 8.4472656 7
-0.045249999 0.96179199 8.5390615 7
-0.055626001 1.000366 8.5673828 7
-0.048645001 1.014038 8.5429688 7
-0.052085999 1.0324709 8.5517578 7
-0.041625999 1.044434 8.515625 7
-0.038139001 1.059692 8.5029297 7
-0.045006 1.096558 8.5195312 7
-0.041480999 1.128418 8.5029297 7
-0.048386 1.1488039 8.5224609 7
-0.044899002 1.1636961 8.5087891 7
-0.051787999 1.184204 8.5273438 7
-0.055252001 1.203003 8.5361328 7
-0.058655001 1.238647 8.5419922 7
-0.058609001 1.2724611 8.5371094 7
-0.13870201 4.1730962 7.6689448 7
-0.135139 4.1962891 7.639648 7
-0.138557 4.2171631 7.6386719 7
-0.145454 4.244751 7.648438 7
-0.14366899 4.2563481 7.632812 7
-0.12804399 4.24231 7.5820308 7
-0.122749 4.2617192 7.547852 7
-0.12265 4.2905269 7.5263672 7
-0.126076 4.311646 7.5263672 7
-0.122566 4.3195801 7.5068359 7
-0.122513 4.3339839 7.4960942 7
-0.12249 4.3482671 7.4863281 7
-0.122391 4.3768311 7.4658198 7
-0.127487 4.4155269 7.4580078 7
-0.132645 4.4396968 7.4619141 7
-0.132607 4.454102 7.452148 7
-0.090691 4.787354 -4.242188 7
-0.085556 4.763062 -4.2402339 7
-0.080406003 4.73877 -4.2392578 7
-0.076995999 4.7182622 -4.2412109 7
-0.076981001 4.7047119 -4.2519531 7
-0.076958001 4.69104 -4.264648 7
-0.076958001 4.6774902 -4.2753911 7
-0.078658998 4.6672359 -4.2910161 7
-0.078644 4.653687 -4.3017578 7
-0.078629002 4.6400151 -4.3125 7
-0.082061999 4.6334229 -4.3320308 7
-0.083740003 4.6239009 -4.3457031 7
-0.095694996 4.6342769 -4.3876948 7
-0.10083 4.630981 -4.4111328 7
-0.093979001 4.603271 -4.405273 7
-0.097397 4.5961909 -4.4248052 7
-0.090545997 4.568481 -4.4179692 7
-0.092254996 4.5578609 -4.4326172 7
-0.095665 4.5506592 -4.453125 7
-0.085403003 4.516479 -4.436523 7
-0.088813998 4.5092769 -4.4570308 7
-0.088806003 4.4951172 -4.4667969 7
-0.248688 -4.487793 -4.7832031 7
-0.24696399 -4.499146 -4.7675781 7
-0.25415 -4.526978 -4.7744141 7
-0.24349999 -4.521729 -4.7373052 7
-0.24354599 -4.5361328 -4.726562 7
-0.240036 -4.5438228 -4.7070308 7
-0.24542999 -4.568481 -4.7099609 7
-0.24547599 -4.5827641 -4.6982422 7
-0.249092 -4.6038818 -4.6962891 7
-0.24913 -4.6184082 -4.6855469 7
-0.245636 -4.625977 -4.6660161 7
-0.245689 -4.6402588 -4.6542969 7
-0.247513 -4.657959 -4.6474609 7
-0.25824699 -4.6928711 -4.6621089 7
-0.254738 -4.7003169 -4.6425781 7
-0.24768101 -4.7009282 -4.6142578 7
-0.25839999 -4.7355962 -4.6289058 7
-0.26557201 -4.7637939 -4.6357422 7
-0.25672099 -4.7607422 -4.6025391 7
-0.25856 -4.7783198 -4.594727 7
-0.083045997 -1.912964 8.1787109 7
-0.079437003 -1.8937989 8.1728516 7
-0.088408999 -1.885376 8.203125 7
-0.082993001 -1.864868 8.1923828 7
-0.082993001 -1.848755 8.1972656 7
-0.081169002 -1.831177 8.1953115 7
-0.081169002 -1.815186 8.2001953 7
-0.082932003 -1.800537 8.2099609 7
-0.091911003 -1.791504 8.2402344 7
-0.082915999 -1.768188 8.21875 7
-0.075705998 -1.74646 8.2011719 7
-0.077483997 -1.731812 8.2099609 7
-0.073853001 -1.7130131 8.203125 7
-0.070243999 -1.6943361 8.1962891 7
-0.070235997 -1.678223 8.2001953 7
-0.066643 -1.659302 8.1943359 7
-0.06662 -1.643188 8.1992188 7
-0.073798999 -1.632202 8.2246094 7
-0.079185002 -1.620239 8.2451172 7
-0.077362001 -1.602661 8.2431641 7
-0.055969 0.98071301 8.3095703 7
-0.050528999 1.011108 8.2890615 7
-0.046882998 1.025635 8.2744141 7
-0.046875 1.0419919 8.2734385 7
-0.050415002 1.076172 8.2802734 7
-0.053963002 1.094116 8.2880859 7
-0.044968002 1.106079 8.2578115 7
-0.046707001 1.139282 8.2578115 7
-0.055640999 1.160156 8.2822266 7
-0.043044999 1.169922 8.2421885 7
-0.044769 1.203003 8.2412109 7
-0.057312001 1.226074 8.2763672 7
-0.051902998 1.23938 8.2578115 7
-0.051826 1.271729 8.2519531 7
-0.13659699 4.1610112 7.34375 7
-0.150879 4.2009282 7.3710942 7
-0.13646699 4.203125 7.313477 7
-0.152527 4.2462158 7.34375 7
-0.161438 4.2766109 7.3574219 7
-0.13987 4.2653809 7.2832031 7
-0.13446 4.269043 7.2597661 7
-0.129051 4.2729492 7.2363281 7
-0.12894399 4.300415 7.2148442 7
-0.128906 4.314209 7.2060552 7
-0.13065299 4.3312988 7.2001948 7
-0.13055401 4.358521 7.1787109 7
-0.128731 4.3687739 7.164062 7
-0.12510701 4.3754878 7.1455078 7
-0.12858599 4.4094238 7.132812 7
-0.12853999 4.4229741 7.1220698 7
-0.13029499 4.4398189 7.1162109 7
-0.089584 4.776978 -3.886719 7
-0.091353998 4.768188 -3.9013669 7
-0.082497001 4.737061 -3.8925779 7
-0.073624 4.705811 -3.882812 7
-0.080696002 4.7078862 -3.910156 7
-0.080688 4.6950679 -3.921875 7
-0.082428001 4.6860352 -3.9375 7
-0.082436003 4.6732178 -3.9482419 7
-0.078879997 4.6531978 -3.9511721 7
-0.080650002 4.6439209 -3.9658201 7
-0.080642998 4.630981 -3.976562 7
-0.082390003 4.6217041 -3.992188 7
-0.082382001 4.6087651 -4.0029302 7
-0.087677002 4.6072998 -4.0253911 7
-0.098274 4.6157231 -4.0625 7
-0.100021 4.6062012 -4.077148 7
-0.105339 4.6037598 -4.1005859 7
-0.087631002 4.5549321 -4.0693359 7
-0.080559 4.527832 -4.0625 7
-0.098236002 4.5500488 -4.1152339 7
-0.091164 4.5227051 -4.109375 7
-0.091147996 4.4962158 -4.1308589 7
-0.135913 0.906425 12.268366 7
-0.088179998 -1.858054 10.855257 7
-0.34461299 -4.8954072 11.182852 7
-0.065341003 -1.897725 10.009698 7
-0.059746999 -1.633338 10.034056 7
-0.028667999 1.051097 9.4182949 7
-0.36498001 -5.0672169 9.6283226 7
-0.39236099 -4.9450979 9.9735851 7
-0.079465002 -1.64405 9.2146664 7
-0.066221997 -1.700174 8.7090712 7
-0.072687 0.96006697 8.9536819 7
-0.067759 1.157423 8.8815956 7
-0.138537 4.3838682 7.4983358 7
-0.069907002 -1.7794141 8.3588467 7
-0.046732999 1.051597 8.4410381 7
-0.060377002 1.257965 8.4770079 7
-0.135318 4.2475491 7.0462151 7
-0.063445002 -1.822976 7.9901748 7
-0.047148 -1.619493 7.97296 7
-0.034401 0.970249 8.1023331 7
-0.035951 1.141902 8.0698433 7
-0.101288 -1.856956 7.6602302 7
-0.078478001 -1.653916 7.6258039 7
-0.059845999 1.049413 7.7448301 7
-0.068361998 1.217342 7.7418132 7
-0.097760998 -1.893645 7.3823051 7
-0.087955996 -1.7294329 7.4132771 7
-0.070583999 -1.736277 7.1066642 7
-0.063415997 -1.757624 6.8645382 7
-0.055080999 -1.619051 6.901288 7
-0.088982001 -1.7675411 6.6341119 7
-0.072731003 -1.622133 6.6484451 7
-0.068166003 -1.67226 6.441895 7
-0.136916 -4.383069 -13.092204 7
-0.27557001 -4.4344831 -10.443089 7
-0.247526 -4.466239 -8.4681749 7
-0.33866599 -6.1230831 -8.4396095 7
0.0070830001 -1.3416719 -5.9815321 7
0.033835001 -1.302862 -4.907043 7
-0.037978001 -1.8662879 11.061501 7
-0.071373001 -1.598272 -4.3389349 7
-0.243191 -4.6624942 -4.2402601 7
-0.35997799 -5.0404472 10.686092 7
-0.087169997 -1.778828 10.279045 7
-0.037168 -1.538138 -3.565208 7
-0.222305 -4.6181312 -3.4267571 7
-0.33162299 -4.970953 9.8779945 7
-0.045471001 -1.699778 9.5550661 7
-0.21106499 -4.5933499 -2.7664371 7
-0.31188101 -4.9183388 9.2071199 7
-0.042459998 -1.896518 9.0809212 7
-0.015467 -1.637763 8.9876204 7
-0.192826 -4.5399332 -2.150646 7
-0.20050199 -4.7683182 -2.00594 7
-0.069531001 -1.817755 8.5700645 7
-0.041878 -1.419582 -2.060514 7
-0.23456199 -4.6484008 -1.415929 7
-0.318901 -4.9184952 7.8291869 7
-0.065673999 -1.771867 8.2697163 7
-0.054366 -1.725394 7.9645109 7
-0.21557599 -4.5542202 -0.58701402 7
-0.211743 -4.6860232 -0.40963399 7
-0.057406999 -1.877488 7.7001061 7
-0.031497002 -1.675818 7.6374249 7
-0.0055729998 -1.3468111 -1.125657 7
-0.018567 -1.533757 -1.146401 7
-0.069600999 -1.809446 7.3546672 7
-0.058993999 -1.632363 7.3573179 7
-0.056986999 -1.7660871 7.13236 7
-0.030614 -1.470847 -0.62893897 7
-0.066039003 -1.8952841 6.9594722 7
-0.049040001 -1.729328 6.9441891 7
-0.014622 -1.292456 -0.43775901 7
-0.028580001 -1.450555 -0.46091101 7
-0.046496999 -1.844414 6.7459378 7
-0.038764998 -1.693799 6.762032 7
-0.01521 -1.4272 -0.265439 7
-0.034253001 -1.582171 -0.29946399 7
-0.052616999 -1.786833 6.5066729 7
-0.044764001 -1.646317 6.5207038 7
-0.042904001 -1.405779 -0.093695 7
-0.052696001 -1.548293 -0.095237002 7
-0.100874 4.9608512 -14.958669 7
-0.073817 4.8208599 -11.346831 7
-0.059897002 4.6173582 -3.9594049 7
-0.101885 4.1648211 10.912251 7
-0.14127301 4.593462 -3.226393 7
-0.044537999 1.090897 9.6280022 7
-0.091995001 1.081521 9.1328545 7
-0.063807003 1.07497 8.6556578 7
-0.16935401 4.2221122 7.5560298 7
-0.150006 4.3240552 7.3235388 7
-0.043265998 1.069533 8.2657375 7
-0.027000001 1.064871 7.9342828 7
-0.041140001 1.262657 7.961926 7
0.001734 -1.050406 -14.494306 7
-0.03985 4.9952149 -15.254314 7
0.051639002 0.93516898 -13.032654 7
0.079498 0.40687799 -12.247731 7
-0.054331001 -0.34205899 -10.471707 7
-0.033578001 -0.70371401 -10.087097 7
-0.056986999 -1.1300941 -10.484311 7
-0.25560299 -4.2828522 -13.652258 7
-0.113852 4.8313599 -10.752192 7
-0.011811 -1.169579 -8.2886648 7
-0.234146 -4.3638039 -11.084136 7
0.009385 -1.2117341 -6.998033 7
-0.220919 -4.4118018 -9.2686434 7
-0.301285 -6.1365218 -9.6815939 7
-0.079195999 4.6740322 -6.980125 7
-0.112095 4.663548 -7.494132 7
0.022875 -1.243824 -6.0988622 7
-0.029297 -1.493549 -5.5082712 7
-0.25595099 -4.5241842 -6.4391789 7
-0.08089 4.6332459 -4.0517612 7
-0.096594997 4.607183 -4.3115258 7
-0.0055379998 -1.2938859 -4.9254642 7
-0.020652 -1.501367 -4.9969101 7
-0.24974 -4.4971929 -5.592391 7
-0.26417199 -4.7991562 -5.5086722 7
-0.31020501 -6.3635859 -4.4252892 7
-0.082253002 4.612011 -3.22753 7
0.000933 -1.315749 -4.5211611 7
-0.015576 -1.51157 -4.5896211 7
-0.22736 -4.511672 -4.60428 7
-0.21645799 -4.603858 -4.378181 7
0.003788 -1.339144 -4.1971312 7
-0.010053 -1.513606 -4.2359018 7
-0.19616599 -4.505887 -3.528553 7
-0.19382501 -4.6109891 -3.3421619 7
-0.023705 -1.348717 -3.898988 7
-0.039822001 -1.514746 -3.9354551 7
-0.222683 -4.5808282 -2.191288 7
-0.21799099 -4.6137681 -1.997314 7
-0.020964 -1.365991 -3.661799 7
-0.029355001 -1.499171 -3.6507521 7
-0.015144 -1.369064 -3.4335959 7
-0.024095999 -1.494607 -3.4212279 7
-0.0097139999 -1.3683929 -3.2293291 7
-0.017038001 -1.480507 -3.206368 7
-0.014856 -1.377205 -2.225858 7
-0.027271001 -1.461496 -2.195951 7
-0.014878 -1.469806 -2.111475 7
-0.017612001 -1.5317791 -2.0410399 7
-0.0089459997 -1.306633 -2.1706259 7
-0.00428 -1.338104 -2.1077099 7
-0.013989 -1.409027 -2.0715599 7
-0.020439999 -1.469591 -2.025413 7
-0.0093040001 -1.47416 -1.946494 7
-0.0064300001 -1.292917 -2.0751929 7
0.001673 -1.310699 -2.0072589 7
0.001482 -1.349267 -1.953808 7
-0.015274 -1.297681 -1.9226069 7
-0.020768 -1.568063 -1.252735 7
-0.022666 -1.581374 -1.187206 7
-0.021125 -1.580784 -1.120989 7
-0.019613 -1.5775059 -1.054888 7
-0.012215 -1.4850481 -1.247237 7
-0.017834 -1.509277 -1.1854089 7
-0.014576 -1.503132 -1.122333 7
-0.01663 -1.511021 -1.058779 7
-0.02049 -1.521922 -0.99391901 7
0.00174 -1.391207 -1.2411031 7
