# .PCD v0.7 - Point Cloud Data file format
VERSION 0.7
FIELDS x y z intensity
SIZE 4 4 4 4
TYPE F F F F
COUNT 1 1 1 1
WIDTH 836
HEIGHT 1
VIEWPOINT 0 0 0 1 0 0 0
POINTS 836
DATA ascii
1.447678 51.06543 -47.473633 7
0.47007799 53.118164 52.407227 7
0.50137299 54.572266 49.306641 7
0.47726399 57.819336 47.75 7
0.50848401 45.639648 45.595703 7
0.42106599 48.264648 47.696289 7
0.48074299 49.058594 44.012695 7
0.47538799 49.327148 44.041992 7
0.48367301 49.201172 43.731445 7
0.51527399 48.398438 42.84375 7
0.34712201 55.133789 45.121094 7
0.385254 54.106445 44.100586 7
0.41387901 53.359375 43.30957 7
0.44920301 52.405273 42.362305 7
0.96792603 37.418945 -38.701172 7
0.368835 44.333984 44.601562 7
0.345245 45.024414 45.067383 7
0.29791301 46.416016 45.993164 7
0.40261799 46.104492 41.512695 7
0.396072 46.379883 41.561523 7
0.38530001 46.977539 41.501953 7
0.405716 46.550781 40.949219 7
0.41214001 46.486328 40.707031 7
0.43490601 45.992188 40.103516 7
0.29046601 51.540039 41.553711 7
0.34637499 40.49707 40.830078 7
0.34030199 40.732422 40.87207 7
0.39555401 41.786133 37.555664 7
0.39369199 41.923828 37.50293 7
0.36021399 43.469727 37.430664 7
0.380676 43.076172 36.93457 7
0.38620001 43.038086 36.734375 7
0.30372599 37.232422 37.839844 7
0.29795799 37.44043 37.870117 7
0.35017401 38.578125 34.796875 7
0.34823599 38.706055 34.749023 7
0.33418301 40.202148 33.792969 7
0.34568799 40.035156 33.504883 7
0.35172999 39.987305 33.3125 7
0.36154199 39.855469 33.054688 7
0.243637 44.155273 33.196289 7
0.251984 34.474609 35.123047 7
0.236847 34.831055 35.311523 7
0.30221599 35.686523 32.277344 7
0.29881299 35.830078 32.253906 7
0.27735901 37.696289 31.035156 7
0.29028299 37.516602 30.751953 7
0.298325 37.433594 30.545898 7
0.31216401 37.233398 30.25 7
0.31996199 37.152344 30.047852 7
0.223175 40.754883 29.585938 7
0.24777199 40.388672 29.053711 7
0.267838 40.042969 28.679688 7
0.201767 32.276367 33.004883 7
0.202332 32.345703 32.924805 7
0.249329 33.441406 30.366211 7
0.26066601 33.319336 30.124023 7
0.25125101 33.554688 30.189453 7
0.27870199 33.151367 29.708984 7
0.246429 35.424805 28.348633 7
0.263336 35.18457 28.036133 7
0.270538 35.121094 27.858398 7
0.274445 35.117188 27.726562 7
0.178818 38.469727 27.109375 7
0.19261201 38.271484 26.847656 7
0.20616101 38.076172 26.589844 7
0.217163 37.929688 26.365234 7
0.23930401 37.567383 26.001953 7
-0.91047698 -41.602539 -50.207031 7
-1.028885 -43.44043 -51.961914 7
-1.102463 -44.68457 -52.960938 7
-1.169769 -45.725586 -53.958008 7
-1.235046 -46.838867 -55.010742 7
-1.0485229 -48.700195 -47.599609 7
-0.96089202 -47.592773 -46.041016 7
0.213043 31.387695 28.044922 7
0.220901 31.330078 27.870117 7
0.228485 31.275391 27.698242 7
0.235779 31.224609 27.53125 7
0.243637 31.165039 27.356445 7
0.25512701 31.045898 27.133789 7
0.26074201 31.019531 26.990234 7
0.26916501 30.949219 26.810547 7
0.273651 30.94043 26.681641 7
0.19841 33.375 26.268555 7
0.246475 32.628906 25.59668 7
0.25015301 32.689453 25.404297 7
0.136032 36.255859 24.748047 7
0.15969799 35.895508 24.398438 7
0.17031901 35.766602 24.198242 7
0.188416 35.503906 23.914062 7
0.20346101 35.293945 23.666016 7
0.20378099 35.34668 23.583008 7
0.50663799 27.956055 -24.435547 7
-0.97796601 -38.796875 -47.952148 7
-1.065186 -40.098633 -49.114258 7
-1.032684 -39.810547 -48.511719 7
-1.0653991 -40.332031 -48.918945 7
-1.125549 -41.196289 -49.74707 7
-0.83709699 -39.589844 -43.499023 7
-0.89231902 -40.417969 -44.217773 7
-0.82133502 -39.585938 -43.072266 7
-0.79054302 -39.280273 -42.521484 7
-0.80409199 -39.55957 -42.624023 7
-0.98367298 -44.412109 -42.722656 7
0.192734 31.286133 24.1875 7
0.20959499 31.078125 23.924805 7
0.202362 31.25 23.9375 7
0.235458 30.783203 23.494141 7
0.22612 30.988281 23.530273 7
0.129364 34.061523 22.59375 7
0.138367 33.967773 22.424805 7
0.15695199 33.711914 22.157227 7
0.17253099 33.505859 21.922852 7
0.185715 33.338867 21.713867 7
-0.778534 -32.024414 -41.807617 7
-0.81069899 -32.472656 -42.195312 7
-0.85124201 -33.014648 -42.703125 7
-0.88632202 -33.499023 -43.12793 7
-0.92623901 -34.038086 -43.621094 7
-0.94737202 -34.431641 -43.902344 7
-0.98657203 -34.96875 -44.382812 7
-1.030624 -35.560547 -44.929688 7
-0.63334697 -32.71875 -37.889648 7
-0.67744398 -33.322266 -38.421875 7
-0.68539399 -33.505859 -38.450195 7
-0.70787001 -33.861328 -38.678711 7
-0.75132799 -34.462891 -39.195312 7
-0.68077099 -34.529297 -37.388672 7
-0.691971 -34.753906 -37.455078 7
-0.88017303 -39.408203 -37.5625 7
-0.84674102 -39.06543 -37.043945 7
-1.643494 -46.94043 47.136719 7
0.189621 28.926758 22.041016 7
0.218063 28.616211 21.619141 7
0.215042 28.711914 21.585938 7
0.218918 28.707031 21.481445 7
0.233307 28.546875 21.270508 7
0.141174 31.460938 20.050781 7
0.15159599 31.347656 19.884766 7
0.161026 31.249023 19.728516 7
0.172745 31.116211 19.552734 7
0.42153901 24.832031 -21.085938 7
-0.70567298 -28.068359 -38.22168 7
-0.73793 -28.473633 -38.592773 7
-0.76915002 -28.871094 -38.948242 7
-0.79827899 -29.25 -39.273438 7
-0.82670599 -29.624023 -39.586914 7
-0.85620099 -30.009766 -39.913086 7
-0.88543701 -30.442383 -40.285156 7
-0.91871601 -30.869141 -40.660156 7
-0.59613001 -29.273438 -34.979492 7
-0.60014302 -29.399414 -34.958984 7
-0.62229902 -29.71875 -35.174805 7
-0.647232 -30.067383 -35.424805 7
-0.80406201 -35.702148 -33.59082 7
-0.773148 -35.410156 -33.143555 7
-1.469696 -41.706055 41.833008 7
0.180115 27.154297 20.30957 7
0.18887299 27.083008 20.166992 7
0.203293 26.93457 19.970703 7
0.206726 26.933594 19.876953 7
0.22552501 26.816406 19.520508 7
0.109787 29.837891 18.535156 7
0.119217 29.745117 18.389648 7
0.12831099 29.658203 18.248047 7
0.138794 29.549805 18.094727 7
0.146805 29.475586 17.961914 7
0.156937 29.37207 17.814453 7
-0.64317298 -24.237305 -34.951172 7
-0.65092498 -24.388672 -34.991211 7
-0.67762798 -24.703125 -35.272461 7
-0.70054603 -24.986328 -35.503906 7
-0.724976 -25.28418 -35.753906 7
-0.751297 -25.599609 -36.026367 7
-0.77801502 -25.919922 -36.301758 7
-0.80131501 -26.210938 -36.533203 7
-0.83032203 -26.554688 -36.833984 7
-0.52439898 -25.487305 -31.700195 7
-0.55227703 -25.827148 -31.977539 7
-0.56613201 -26.03418 -32.081055 7
-0.59288001 -26.366211 -32.34082 7
-0.62380999 -26.736328 -32.650391 7
-0.54014599 -27.973633 -29.902344 7
-0.571091 -28.364258 -30.1875 7
-1.274124 -36.495117 36.625977 7
0.175522 25.299805 18.488281 7
0.17343099 25.369141 18.448242 7
0.184296 25.317383 18.241211 7
0.199371 25.209961 18 7
0.20729101 25.151367 17.876953 7
0.097382002 27.999023 16.609375 7
0.110657 27.860352 16.450195 7
0.12085 27.760742 16.3125 7
0.13182101 27.651367 16.170898 7
0.137802 27.608398 16.064453 7
0.13154601 27.730469 16.045898 7
-0.58871502 -21.683594 -32.349609 7
-0.60870397 -21.917969 -32.538086 7
-0.66027802 -22.402344 -33.107422 7
-0.70310998 -22.90332 -33.513672 7
-0.79348803 -23.869141 -34.426758 7
-0.79487598 -23.962891 -34.384766 7
-0.55163598 -24.037109 -29.990234 7
-0.51248199 -23.764648 -29.485352 7
-0.53857398 -24.066406 -29.723633 7
-0.50021398 -23.796875 -29.229492 7
-0.46795699 -23.580078 -28.805664 7
-0.453522 -23.520508 -28.584961 7
-0.49308801 -25.446289 -27.651367 7
-0.53991699 -25.959961 -28.094727 7
-0.544128 -26.067383 -28.076172 7
-0.55198699 -26.210938 -28.098633 7
0.16639701 24.036133 17.166992 7
0.17153899 24.014648 17.072266 7
0.164368 24.139648 17.073242 7
0.187805 23.936523 16.783203 7
0.073119998 26.697266 15.520508 7
0.072127998 26.746094 15.46582 7
0.079727001 26.685547 15.353516 7
0.089354999 26.598633 15.229492 7
0.100037 26.53418 15.038086 7
0.25839201 21.525391 -17.693359 7
-0.54559302 -19.003906 -29.918945 7
-0.54573101 -19.076172 -29.873047 7
-0.56462097 -19.28125 -30.041992 7
-0.57524103 -19.429688 -30.116211 7
-0.59414703 -19.635742 -30.283203 7
-0.442947 -22.260742 -25.773438 7
-0.43061799 -22.862305 -25.071289 7
-0.468384 -23.254883 -25.395508 7
-0.46983299 -23.329102 -25.353516 7
-0.50192302 -23.672852 -25.618164 7
-0.66834998 -27.474609 -24.924805 7
-0.90814197 -26.360352 30.859375 7
-0.90914899 -26.298828 30.930664 7
0.129715 20.929688 18.521484 7
0.126816 21.00293 18.499023 7
0.109695 21.219727 18.592773 7
0.126312 21.081055 18.399414 7
0.134506 21.039062 18.28418 7
0.14093 21.014648 18.18457 7
0.15312199 20.930664 18.038086 7
0.13650499 22.779297 16.020508 7
0.14289901 22.744141 15.922852 7
0.15014599 22.771484 15.71582 7
0.16734301 22.650391 15.492188 7
0.17153899 22.638672 15.412109 7
0.079375997 25.106445 13.697266 7
0.089722 25.013672 13.580078 7
0.092574999 25.011719 13.505859 7
-0.451675 -21.296875 -23.769531 7
-0.42654401 -21.150391 -23.479492 7
-0.44305399 -21.341797 -23.583984 7
-0.43769801 -21.414062 -23.429688 7
-0.44952399 -21.568359 -23.489258 7
-0.48054501 -21.879883 -23.728516 7
-0.63671899 -25.329102 -23.019531 7
-0.64296001 -25.441406 -23.012695 7
-0.64781201 -25.541016 -22.992188 7
-0.84759498 -24.099609 28.560547 7
0.112061 20.010742 17.260742 7
0.119827 19.973633 17.155273 7
0.130463 19.910156 17.029297 7
0.129227 19.959961 16.993164 7
0.123734 20.051758 16.989258 7
0.138763 21.547852 14.696289 7
0.143677 21.529297 14.615234 7
0.13348401 21.669922 14.630859 7
0.146896 21.560547 14.495117 7
0.14946 21.56543 14.429688 7
0.139267 21.707031 14.445312 7
0.045821998 24.054688 12.724609 7
0.054474 23.984375 12.624023 7
0.062210001 23.925781 12.52832 7
0.066177003 23.910156 12.453125 7
0.067322001 23.924805 12.391602 7
-0.58334398 -16.019531 -26.650391 7
-0.587479 -16.108398 -26.652344 7
-0.35015899 -18.888672 -21.25 7
-0.37190199 -19.103516 -21.397461 7
-0.394135 -19.322266 -21.547852 7
-0.379181 -19.262695 -21.368164 7
-0.39137301 -19.407227 -21.429688 7
0.103348 18.670898 16.258789 7
0.102493 18.714844 16.22168 7
0.092666999 18.876953 16.206055 7
0.108124 18.772461 16.053711 7
0.13366701 20.163086 13.702148 7
0.123703 20.291016 13.714844 7
0.113739 20.419922 13.726562 7
0.12204 20.369141 13.631836 7
0.133881 20.282227 13.514648 7
0.13356 20.31543 13.470703 7
0.125626 20.423828 13.469727 7
0.131393 20.396484 13.388672 7
0.139679 20.344727 13.294922 7
0.140366 20.367188 13.244141 7
0.041198999 22.708008 11.374023 7
0.044922002 22.694336 11.304688 7
0.052184999 22.642578 11.219727 7
0.171158 18.118164 -14.354492 7
-0.50141901 -13.508789 -24.638672 7
-0.46292099 -13.374023 -24.235352 7
-0.465698 -13.448242 -24.229492 7
-0.47598299 -13.55957 -24.295898 7
-0.486801 -13.675781 -24.366211 7
-0.50994903 -13.854492 -24.553711 7
-0.53096002 -14.024414 -24.72168 7
-0.52838099 -14.070312 -24.662109 7
-0.37306201 -17.762695 -20.017578 7
-0.37425199 -17.821289 -19.985352 7
-0.372208 -17.856445 -19.925781 7
-0.68449402 -19.702148 24.036133 7
-0.69191003 -19.59082 24.233398 7
0.081832998 17.785156 15.291016 7
0.077102996 17.859375 15.282227 7
0.085433997 17.822266 15.186523 7
0.092681997 17.793945 15.098633 7
0.095016003 17.807617 15.042969 7
0.13957199 17.239258 -13.435547 7
-0.41117901 -11.5625 -22.520508 7
-0.407837 -11.602539 -22.460938 7
-0.41307101 -11.681641 -22.480469 7
-0.31485 -13.668945 -20.155273 7
-0.30920401 -13.6875 -20.074219 7
-0.305298 -13.71582 -20.006836 7
-0.333572 -13.972656 -20.181641 7
-0.343979 -14.080078 -20.236328 7
-0.342926 -14.125 -20.192383 7
-0.31248501 -16.012695 -18.384766 7
-0.33265701 -16.188477 -18.503906 7
-0.352249 -16.361328 -18.619141 7
-0.326538 -16.241211 -18.37793 7
-0.340408 -16.376953 -18.447266 7
-0.36805701 -16.602539 -18.623047 7
-0.36241099 -16.612305 -18.539062 7
-0.64474499 -20.457031 20.21875 7
-0.64422601 -20.40918 20.262695 7
-0.605331 -17.875977 22.139648 7
-0.59294099 -17.746094 22.089844 7
-0.61676002 -17.799805 22.350586 7
-0.602005 -17.65625 22.28125 7
0.080856003 16.739258 14.34375 7
0.079254001 16.783203 14.314453 7
0.072448999 16.869141 14.317383 7
0.084213004 16.806641 14.207031 7
0.089019999 16.799805 14.139648 7
0.091491997 16.810547 14.086914 7
0.103729 18.268555 11.798828 7
0.097534001 18.349609 11.788086 7
0.090195 18.439453 11.78125 7
0.095565997 18.417969 11.711914 7
0.106125 18.350586 11.619141 7
0.110901 18.333984 11.553711 7
0.102402 18.433594 11.551758 7
0.10257 18.458008 11.508789 7
0.10907 18.424805 11.43457 7
0.111542 18.427734 11.380859 7
0.106506 18.49707 11.361328 7
-0.44986001 -10.600586 -21.654297 7
-0.452362 -10.664062 -21.649414 7
-0.446365 -10.694336 -21.572266 7
-0.45008901 -10.762695 -21.578125 7
-0.46232599 -10.867188 -21.658203 7
-0.47882101 -10.988281 -21.773438 7
-0.48193401 -11.055664 -21.773438 7
-0.32206699 -12.506836 -19.192383 7
-0.313629 -12.511719 -19.092773 7
-0.29058799 -12.443359 -18.875 7
-0.29312101 -12.503906 -18.865234 7
-0.306595 -12.618164 -18.944336 7
-0.31520101 -12.709961 -18.983398 7
-0.29586801 -14.827148 -17.208008 7
-0.329575 -15.117188 -17.386719 7
-0.34611499 -15.259766 -17.472656 7
-0.32366899 -15.167969 -17.270508 7
-0.3396 -15.307617 -17.350586 7
-0.62237501 -20.533203 -15.806641 7
-0.63288897 -20.650391 -15.821289 7
-0.62017798 -20.595703 -15.694336 7
-0.54493701 -16.303711 20.669922 7
0.068207003 16.054688 13.415039 7
0.072662003 16.049805 13.352539 7
0.075286999 16.05957 13.301758 7
0.081588998 16.041016 13.230469 7
0.092193998 15.988281 13.133789 7
0.080658004 16.105469 13.161133 7
0.080185004 16.137695 13.126953 7
0.086623996 17.59375 10.838867 7
0.076981001 17.698242 10.84082 7
0.074676998 17.741211 10.810547 7
0.083420001 17.69043 10.730469 7
0.086639002 17.686523 10.675781 7
0.082503997 17.744141 10.65332 7
0.068572998 17.884766 10.672852 7
-0.021346999 19.827148 8.5644531 7
-0.010803 19.750977 8.484375 7
-0.007584 19.739258 8.4277344 7
-0.0031590001 19.716797 8.3681641 7
-0.01152 19.810547 8.3496094 7
-0.38142401 -9.0126953 -20.022461 7
-0.37890601 -9.0537109 -19.979492 7
-0.387375 -9.1337891 -20.027344 7
-0.279495 -11.245117 -17.819336 7
-0.26727301 -11.233398 -17.697266 7
-0.25634801 -11.226562 -17.584961 7
-0.26355001 -11.303711 -17.613281 7
-0.27334601 -11.393555 -17.661133 7
-0.28830001 -11.507812 -17.748047 7
-0.29090899 -13.773438 -16.142578 7
-0.31239301 -13.932617 -16.259766 7
-0.289139 -13.842773 -16.0625 7
-0.300262 -13.946289 -16.107422 7
-0.31268299 -14.056641 -16.160156 7
-0.506073 -15.033203 19.351562 7
-0.49410999 -14.923828 19.305664 7
-0.51483202 -14.996094 19.481445 7
-0.51087999 -14.931641 19.489258 7
-0.50157201 -14.836914 19.460938 7
0.059937 15.100586 12.797852 7
0.067276001 15.076172 12.724609 7
0.062835999 15.134766 12.712891 7
0.051192999 15.245117 12.739258 7
0.059845001 15.210938 12.65918 7
0.071106002 15.157227 12.564453 7
0.072555996 15.173828 12.522461 7
0.074920997 16.672852 10.232422 7
0.057617001 16.853516 10.225586 7
0.066878997 16.801758 10.149414 7
0.076141 16.749023 10.072266 7
0.080200002 16.738281 10.016602 7
0.072525002 16.821289 10.009766 7
0.068115003 16.876953 9.9882812 7
0.073471002 16.855469 9.9277344 7
-0.032791 18.890625 7.71875 7
-0.028107001 18.865234 7.6611328 7
-0.022751 18.835938 7.601562 7
-0.017426001 18.805664 7.5429692 7
-0.014664 18.797852 7.492188 7
-0.016449001 18.828125 7.452148 7
-0.019547001 18.870117 7.4169922 7
-0.393951 -8.1630859 -19.112305 7
-0.39674401 -8.2197266 -19.114258 7
-0.40295401 -8.2880859 -19.142578 7
-0.41601601 -8.3769531 -19.224609 7
-0.42837501 -8.4658203 -19.301758 7
-0.443542 -8.6123047 -19.378906 7
-0.26254299 -10.245117 -16.821289 7
-0.27221701 -10.328125 -16.868164 7
-0.25379899 -10.292969 -16.707031 7
-0.24498001 -10.296875 -16.617188 7
-0.254639 -10.379883 -16.663086 7
-0.27113301 -10.492188 -16.758789 7
-0.25645399 -12.529297 -15.212891 7
-0.26408401 -12.607422 -15.233398 7
-0.27854899 -12.720703 -15.300781 7
-0.254639 -12.634766 -15.109375 7
-0.26225299 -12.712891 -15.129883 7
-0.27604699 -12.822266 -15.191406 7
-0.29669201 -12.969727 -15.298828 7
-0.27619901 -12.900391 -15.130859 7
-0.27902201 -12.954102 -15.118164 7
-0.29487601 -13.076172 -15.192383 7
-0.057845999 13.113281 14.897461 7
0.064331003 16.154297 9.2197266 7
0.066528 16.15625 9.1738281 7
0.065292001 16.18457 9.140625 7
0.061310001 16.234375 9.1181641 7
0.067642003 16.205078 9.0576172 7
-0.054687999 18.171875 7.030273 7
-0.051787999 18.163086 6.9814448 7
-0.041382 18.091797 6.9130859 7
-0.043274 18.12207 6.875977 7
-0.039703 18.106445 6.8251948 7
-0.030655 18.046875 6.7617192 7
-0.216141 -9.2089844 -15.634766 7
-0.215469 -9.2470703 -15.607422 7
-0.246124 -9.4853516 -15.75293 7
-0.25343299 -9.5537109 -15.782227 7
-0.224884 -11.552734 -14.15625 7
-0.219162 -11.561523 -14.091797 7
-0.215607 -11.580078 -14.041992 7
-0.22503699 -11.671875 -14.081055 7
-0.240356 -11.782227 -14.149414 7
-0.254944 -11.889648 -14.213867 7
-0.24195901 -11.861328 -14.102539 7
-0.241302 -11.894531 -14.069336 7
-0.257339 -12.008789 -14.142578 7
-0.26974499 -12.105469 -14.19043 7
-0.45962501 -15.365234 -13.194336 7
-0.457535 -15.386719 -13.146484 7
-0.55885297 -17.039062 -12.429688 7
-0.55021697 -17.016602 -12.345703 7
-0.55250502 -17.0625 -12.317383 7
-0.54823297 -17.066406 -12.254883 7
-0.079071 12.501953 14.257812 7
-0.076752 12.519531 14.21582 7
0.050735001 13.775391 11.314453 7
0.043549001 13.84668 11.316406 7
0.056839 13.78418 11.223633 7
0.080154002 13.749023 10.958984 7
0.043625001 15.394531 8.8447266 7
0.050322998 15.364258 8.7861328 7
0.050857998 15.431641 8.640625 7
-0.051879998 17.288086 6.1787109 7
-0.051010001 17.293945 6.1367192 7
-0.042755 17.253906 6.039062 7
-0.03537 17.208008 5.983398 7
-0.033050999 17.201172 5.938477 7
-0.032928001 17.211914 5.8974609 7
-0.032058999 17.21582 5.8554692 7
-0.038437001 17.277344 5.828125 7
-0.317215 -5.7626948 -16.854492 7
-0.31420901 -5.797852 -16.818359 7
-0.315018 -5.842773 -16.80957 7
-0.32423401 -5.90625 -16.861328 7
-0.32811001 -5.9580078 -16.875 7
-0.331985 -6.0097661 -16.888672 7
-0.34121701 -6.0751948 -16.94043 7
-0.35272199 -6.1455078 -17.007812 7
-0.36273199 -6.2128911 -17.06543 7
-0.371185 -6.2773442 -17.110352 7
-0.366653 -6.3085942 -17.0625 7
-0.217087 -8.3300781 -14.925781 7
-0.21026599 -8.34375 -14.859375 7
-0.201141 -8.3496094 -14.77832 7
-0.204254 -8.3984385 -14.77832 7
-0.209686 -8.4560547 -14.794922 7
-0.215881 -8.5146484 -14.81543 7
-0.22129799 -8.5722656 -14.831055 7
-0.229782 -8.6396484 -14.866211 7
-0.21890301 -10.901367 -13.286133 7
-0.23353601 -11.001953 -13.347656 7
-0.213669 -10.945312 -13.202148 7
-0.222946 -11.022461 -13.232422 7
-0.230682 -11.09082 -13.250977 7
-0.445618 -14.448242 -12.334961 7
-0.43887299 -14.473633 -12.231445 7
-0.443573 -14.53125 -12.219727 7
-0.45297199 -14.646484 -12.198242 7
-0.45613101 -14.694336 -12.178711 7
-0.53271502 -16.043945 -11.447266 7
-0.53512597 -16.087891 -11.419922 7
-0.52674901 -16.067383 -11.342773 7
-0.533005 -16.133789 -11.333008 7
-0.530792 -16.149414 -11.28418 7
-0.54858398 -16.28418 -11.327148 7
-0.37835699 -11.8125 16.120117 7
-0.37759399 -11.774414 16.142578 7
-0.391022 -11.765625 16.276367 7
-0.38870201 -11.719727 16.290039 7
0.039276 14.738281 8.1552734 7
0.05658 14.667969 7.999023 7
0.055160999 14.694336 7.969727 7
-0.055266999 16.509766 5.4345698 7
-0.056671001 16.529297 5.398438 7
-0.050415002 16.493164 5.3486328 7
-0.046448 16.473633 5.3037109 7
-0.043242998 16.460938 5.2587891 7
-0.042343002 16.463867 5.21875 7
-0.040679999 16.460938 5.1777339 7
-0.043609999 16.493164 5.1445308 7
-0.19535799 -7.483398 -14.069336 7
-0.182449 -7.4775391 -13.96875 7
-0.180893 -7.5097661 -13.94043 7
-0.18337999 -7.5517578 -13.9375 7
-0.19072001 -7.6123052 -13.966797 7
-0.19967701 -7.6767578 -14.005859 7
-0.19017 -9.984375 -12.467773 7
-0.22612 -10.265625 -12.575195 7
-0.203476 -10.200195 -12.421875 7
-0.22633401 -10.363281 -12.501953 7
-0.23613 -10.4375 -12.533203 7
-0.23706099 -10.505859 -12.487305 7
-0.41578701 -13.446289 -11.511719 7
-0.41424599 -13.467773 -11.47168 7
-0.41595501 -13.506836 -11.448242 7
-0.418457 -13.549805 -11.427734 7
-0.40879801 -13.52832 -11.347656 7
-0.413757 -13.583984 -11.339844 7
-0.41302499 -13.608398 -11.302734 7
-0.42608601 -13.707031 -11.333984 7
-0.42942801 -13.75293 -11.316406 7
-0.341461 -11.083984 15.080078 7
-0.343155 -11.058594 15.115234 7
-0.35812399 -11.056641 15.249023 7
-0.340729 -10.949219 15.180664 7
-0.33909601 -10.90918 15.197266 7
-0.33332801 -10.851562 15.191406 7
-0.35575899 -10.915039 15.339844 7
-0.353302 -10.871094 15.351562 7
-0.34669501 -10.810547 15.34082 7
-0.34507799 -10.771484 15.357422 7
0.05249 14.030273 7.3574219 7
0.050170999 14.05957 7.3310552 7
-0.054276001 15.707031 4.7714839 7
-0.054962002 15.719727 4.735352 7
-0.061310001 15.773438 4.7080078 7
-0.061996002 15.786133 4.671875 7
-0.056198001 15.753906 4.6269531 7
-0.055282999 15.755859 4.5888672 7
-0.0495 15.722656 4.5429692 7
-0.048553001 15.724609 4.5048828 7
-0.18806501 -6.7724609 -13.411133 7
-0.183853 -6.7949219 -13.368164 7
-0.177109 -6.8095698 -13.310547 7
-0.174606 -6.8378911 -13.27832 7
-0.17721599 -6.8789058 -13.277344 7
-0.180664 -6.922852 -13.282227 7
-0.184967 -6.969727 -13.291992 7
-0.190125 -7.0185552 -13.306641 7
-0.176926 -9.3144531 -11.806641 7
-0.183777 -9.3701172 -11.821289 7
-0.189804 -9.4248047 -11.832031 7
-0.191681 -9.5244141 -11.773438 7
-0.197708 -9.578125 -11.783203 7
-0.316284 -10.224609 14.449219 7
-0.32066301 -10.211914 14.496094 7
-0.31808501 -10.169922 14.507812 7
-0.33467099 -10.207031 14.618164 7
-0.327728 -10.147461 14.605469 7
-0.32515001 -10.105469 14.616211 7
-0.32255599 -10.064453 14.625977 7
-0.32607999 -10.046875 14.667969 7
0.031235 12.057617 9.5898438 7
0.035645001 12.052734 9.5458984 7
0.041747998 12.038086 9.4960938 7
0.043579001 12.046875 9.4609385 7
0.044539999 12.061523 9.4296885 7
0.048935 12.055664 9.3857422 7
0.048202999 12.079102 9.3603516 7
0.056015 12.053711 9.3037109 7
0.041962001 13.451172 6.976562 7
0.032683998 13.522461 6.96875 7
0.039627001 13.492188 6.9199219 7
0.044006001 13.478516 6.8769531 7
0.048401002 13.464844 6.835938 7
0.048508 13.477539 6.8037109 7
0.044357002 13.516602 6.7832031 7
0.040206999 13.556641 6.7617192 7
0.041182999 13.5625 6.7275391 7
-0.25296 -3.2099609 -14.236328 7
-0.25209001 -3.246094 -14.222656 7
-0.25659201 -3.2880859 -14.243164 7
-0.25930801 -3.328125 -14.251953 7
-0.26738 -3.375977 -14.295898 7
-0.27008101 -3.4150391 -14.303711 7
-0.275482 -3.4599609 -14.329102 7
-0.27996799 -3.5029299 -14.349609 7
-0.295212 -3.5986331 -14.427734 7
-0.30328399 -3.6474609 -14.470703 7
-0.30599999 -3.6894529 -14.478516 7
-0.305145 -3.7246089 -14.463867 7
-0.17421 -6.109375 -12.739258 7
-0.174255 -6.1425781 -12.723633 7
-0.179672 -6.1894531 -12.741211 7
-0.16452 -6.1826172 -12.635742 7
-0.162781 -6.2099609 -12.610352 7
-0.17086799 -6.264648 -12.643555 7
-0.174484 -6.3056641 -12.649414 7
-0.182587 -6.360352 -12.681641 7
-0.15983599 -8.6679688 -11.146484 7
-0.166153 -8.7207031 -11.15918 7
-0.176971 -8.7890615 -11.195312 7
-0.182404 -8.8388672 -11.202148 7
-0.16275001 -8.7949219 -11.078125 7
-0.170883 -8.8544922 -11.099609 7
-0.17453 -8.8964844 -11.097656 7
-0.183533 -8.9580078 -11.12207 7
-0.38324001 -12.172852 -9.9257812 7
-0.397751 -12.293945 -9.9306641 7
-0.472702 -13.686523 -8.9599609 7
-0.47547901 -13.724609 -8.9375 7
-0.29994199 -9.5693359 13.799805 7
-0.29631001 -9.5263672 13.804688 7
-0.29541001 -9.4931641 13.822266 7
-0.31648299 -9.5449219 13.952148 7
-0.313766 -9.5048828 13.960938 7
-0.30372599 -9.4365234 13.931641 7
-0.30375701 -9.4072266 13.954102 7
-0.30836499 -9.3945312 14 7
-0.16832 -5.546875 -12.155273 7
-0.164612 -5.570312 -12.121094 7
-0.15528899 -5.579102 -12.054688 7
-0.15064999 -5.5996089 -12.014648 7
-0.157242 -5.6464839 -12.038086 7
-0.15918 -5.6835942 -12.036133 7
-0.158279 -5.7119141 -12.016602 7
-0.160202 -5.7480469 -12.013672 7
-0.15274 -8.0390615 -10.668945 7
-0.154663 -8.0732422 -10.660156 7
-0.14158601 -8.0566406 -10.574219 7
-0.14820901 -8.1074219 -10.587891 7
-0.154816 -8.1572266 -10.601562 7
-0.167068 -8.2285156 -10.643555 7
-0.16806 -8.2597656 -10.628906 7
-0.143723 -8.2011719 -10.486328 7
-0.15595999 -8.2724609 -10.52832 7
-0.17671201 -8.4013672 -10.592773 7
-0.175827 -8.4257812 -10.567383 7
-0.17869601 -8.4638672 -10.5625 7
-0.45446801 -13.038086 -8.2900391 7
-0.45078999 -13.041992 -8.2460938 7
-0.14601099 -5.0195308 -11.463867 7
-0.147034 -5.0507808 -11.457031 7
-0.15100101 -5.0888672 -11.46582 7
-0.16982999 -5.219727 -11.530273 7
-0.13313299 -7.390625 -10.110352 7
-0.13317899 -7.4179692 -10.09375 7
-0.138153 -7.4599609 -10.099609 7
-0.135254 -7.4775391 -10.067383 7
-0.130371 -7.4873052 -10.024414 7
-0.135345 -7.530273 -10.03125 7
-0.13934299 -7.570312 -10.032227 7
-0.144333 -7.6123052 -10.038086 7
-0.159164 -7.688477 -10.091797 7
-0.154282 -7.6982422 -10.049805 7
-0.145477 -7.6962891 -9.9892578 7
-0.14946 -7.735352 -9.9892578 7
-0.152481 -7.7714839 -9.9853516 7
-0.164368 -7.8378911 -10.023438 7
-0.17130999 -7.8867192 -10.038086 7
-0.16644301 -7.8964839 -9.9951172 7
-0.169449 -7.9326172 -9.9902344 7
-0.173462 -7.9726558 -9.9902344 7
-0.28779599 -10.87207 10.470703 7
-0.28987101 -10.837891 10.529297 7
-0.24675 -8.3183594 12.551758 7
-0.25080901 -8.3066406 12.589844 7
-0.26188701 -8.3183594 12.660156 7
-0.257889 -8.2773438 12.661133 7
-0.255905 -8.2441406 12.671875 7
-0.254913 -8.2138672 12.686523 7
-0.25492901 -8.1875 12.706055 7
-0.26802099 -8.2041016 12.787109 7
-0.150833 -4.4873052 -11.048828 7
-0.143677 -4.5019531 -11 7
-0.14679 -4.5371089 -11.005859 7
-0.145798 -4.563477 -10.989258 7
-0.147888 -4.5957031 -10.988281 7
-0.146896 -4.6230469 -10.972656 7
-0.156204 -4.670898 -11.009766 7
-0.161377 -4.7089839 -11.025391 7
-0.159363 -4.733398 -11.00293 7
-0.153229 -4.750977 -10.959961 7
-0.151199 -4.7753911 -10.9375 7
-0.14712501 -4.795898 -10.904297 7
-0.123047 -7.030273 -9.5595703 7
-0.128235 -7.0712891 -9.5673828 7
-0.13447601 -7.1152339 -9.5791016 7
-0.137604 -7.1503911 -9.5771484 7
-0.15312199 -7.2246089 -9.6318359 7
-0.15109301 -7.2431641 -9.6035156 7
-0.136719 -7.2226558 -9.5195312 7
-0.14296 -7.2675781 -9.53125 7
-0.14506499 -7.2998052 -9.5234385 7
-0.149231 -7.3378911 -9.5253906 7
-0.34324601 -10.371094 -8.2773438 7
-0.34744301 -10.410156 -8.2675781 7
-0.34751901 -10.433594 -8.2431641 7
-0.35066199 -10.46875 -8.2304688 7
-0.353836 -10.503906 -8.2167969 7
-0.35699499 -10.539062 -8.2041016 7
-0.29612699 -10.557617 9.953125 7
-0.29512 -10.533203 9.9746094 7
-0.29097 -10.495117 9.984375 7
-0.278427 -10.420898 9.9658203 7
-0.285797 -10.430664 10.016602 7
-0.28479001 -10.40625 10.038086 7
-0.29426599 -10.425781 10.095703 7
-0.28697199 -10.374023 10.094727 7
-0.28385901 -10.34082 10.107422 7
-0.28181499 -10.311523 10.125 7
-0.279755 -10.282227 10.141602 7
-0.28189099 -10.270508 10.172852 7
-0.132156 -3.8535161 -10.50293 7
-0.125717 -3.8701169 -10.460938 7
-0.12574799 -3.898438 -10.451172 7
-0.126862 -3.9267581 -10.447266 7
-0.123657 -3.949219 -10.421875 7
-0.123688 -3.976562 -10.412109 7
-0.123734 -4.0039058 -10.402344 7
-0.124832 -4.0332031 -10.397461 7
-0.124863 -4.0605469 -10.387695 7
-0.124908 -4.0878911 -10.378906 7
-0.123856 -4.1132808 -10.363281 7
-0.123886 -4.140625 -10.353516 7
-0.120682 -4.1621089 -10.327148 7
-0.121811 -4.1914058 -10.322266 7
-0.123993 -4.2226558 -10.323242 7
-0.122955 -4.2480469 -10.308594 7
-0.130539 -4.289062 -10.334961 7
-0.142426 -4.3378911 -10.383789 7
-0.142471 -4.3662109 -10.373047 7
-0.143585 -4.3955078 -10.368164 7
-0.13606299 -4.4082031 -10.320312 7
-0.13394199 -4.4306641 -10.298828 7
-0.13722201 -4.4648442 -10.304688 7
-0.12970001 -4.4775391 -10.255859 7
-0.144012 -6.7285161 -9.1494141 7
-0.125732 -6.7236328 -9.0361328 7
-0.13339201 -6.7949219 -9.0371094 7
-0.137756 -6.8310552 -9.0400391 7
-0.14645401 -6.8808589 -9.0615234 7
-0.14218099 -6.8925781 -9.0263672 7
-0.144379 -6.9238281 -9.0195312 7
-0.143402 -6.96875 -8.9814453 7
-0.25903299 -9.9042969 9.4238281 7
-0.25578299 -9.8720703 9.4365234 7
-0.252518 -9.8388672 9.4492188 7
-0.25695801 -9.8378906 9.4873047 7
-0.26907301 -9.8671885 9.5507812 7
-0.25813299 -9.8037109 9.5371094 7
-0.25817901 -9.7851562 9.5605469 7
-0.252716 -9.7431641 9.5654297 7
-0.252747 -9.7236328 9.5878906 7
-0.22374 -7.4111328 11.532227 7
-0.212753 -7.3525391 11.503906 7
-0.30519101 -8.9609385 -6.8652339 7
-0.305298 -9 -6.8222661 7
-0.30305499 -9.0292969 -6.7724609 7
-0.313705 -9.0859385 -6.7841802 7
-0.31611601 -9.1142578 -6.7705078 7
-0.31858799 -9.1601562 -6.734375 7
-0.061044998 15.675946 13.00362 7
-0.237149 -10.760997 -13.069818 7
-0.091078997 -7.4842081 -9.9906712 7
-0.37281001 -10.057044 9.7484493 7
-0.26090401 -7.4011941 11.582035 7
-0.055783998 14.855093 12.143324 7
-0.040307999 12.859291 10.178932 7
-0.01653 11.286556 8.6953678 7
-0.238436 -6.313098 -12.770731 7
-0.15691701 -3.881078 -9.9857702 7
-0.148129 -6.488246 -8.7413235 7
