# .PCD v0.7 - Point Cloud Data file format
VERSION 0.7
FIELDS x y z intensity
SIZE 4 4 4 4
TYPE F F F F
COUNT 1 1 1 1
WIDTH 905
HEIGHT 1
VIEWPOINT 0 0 0 1 0 0 0
POINTS 905
DATA ascii
0.73023999 60.417969 39.302734 7
0.69625902 61.938477 40.05127 7
0.74688703 59.933594 38.608398 7
0.711685 65.651367 34.433594 7
0.73588598 64.665039 33.748535 7
0.76406902 63.49707 32.980469 7
0.99677998 37.245117 -52.317383 7
1.003464 36.90918 -52.101074 7
0.67381299 56.257812 36.188477 7
0.70144701 55.321289 35.431641 7
0.72218299 56.413086 32.37207 7
0.72412097 56.423828 32.205566 7
0.73124701 56.233398 31.930664 7
0.73837298 56.041016 31.65625 7
0.60075402 62.726562 32.446289 7
0.62814301 61.726562 31.772949 7
0.65154999 60.883789 31.182129 7
0.66726702 60.342773 30.742676 7
0.68798798 59.598633 30.208984 7
0.90219098 35.041016 -49.341309 7
0.61293 51.254883 33.225098 7
0.66468799 51.822266 29.504883 7
0.62687701 53.34668 29.843262 7
0.63398701 53.179688 29.594727 7
0.64741498 52.794922 29.232422 7
0.675354 51.985352 28.495605 7
0.52073699 58.43457 29.4375 7
0.53746003 57.923828 29.026367 7
0.56039399 57.341797 28.254883 7
0.81646699 32.770508 -45.618164 7
0.82398999 32.479492 -45.435547 7
0.52771002 48.775391 31.744141 7
0.55148298 48.154297 31.20166 7
0.567505 49.488281 28.290039 7
0.60659802 48.360352 27.533203 7
0.59346002 48.833984 27.640137 7
0.636765 47.572266 26.821289 7
0.56262201 50.27832 27.355469 7
0.580383 49.798828 26.960938 7
0.59324598 49.466797 26.644531 7
0.61550897 48.84082 26.182617 7
0.73219299 30.879883 -43.055664 7
0.73422199 30.730469 -43.065918 7
0.49232501 44.831055 29.271973 7
0.51945502 44.18457 28.728027 7
0.53099102 43.949219 28.44043 7
0.54475403 45.206055 25.810547 7
0.56819201 44.623047 25.362305 7
0.55783099 44.973633 25.413086 7
0.57658398 44.517578 25.036621 7
0.51663202 46.819336 24.859863 7
0.53199798 46.450195 24.539551 7
0.54196203 46.230469 24.29541 7
0.54876697 46.099609 24.095703 7
0.55648798 45.943359 23.885254 7
0.47331199 40.90625 26.585449 7
0.46112099 42.835938 24.285645 7
0.50936902 41.695312 23.553711 7
0.49258399 42.171875 23.678223 7
0.52191198 41.49707 23.199707 7
0.49049401 43.242188 21.95166 7
0.49571201 43.164062 21.790527 7
0.499695 43.115234 21.644043 7
0.51133698 42.871094 21.407227 7
0.513641 42.865234 21.281738 7
0.57873499 27.397461 -37.647461 7
0.57913202 27.298828 -37.702148 7
0.57481402 27.27832 -37.872559 7
0.38192701 38.654297 25.183105 7
0.40310699 38.260742 24.818359 7
0.41612199 38.040039 24.561035 7
0.44751 38.948242 21.96875 7
0.42904699 39.416992 22.09668 7
0.457901 38.821289 21.669434 7
0.45605499 38.915039 21.602051 7
0.42388901 40.71875 20.04541 7
0.439087 40.464844 19.700195 7
0.44554099 40.363281 19.540039 7
0.45657301 40.154297 19.333984 7
0.45681801 40.196289 19.239258 7
0.35197401 43.589844 18.332031 7
0.35611001 43.536133 18.193848 7
0.368729 43.280273 17.979492 7
0.382736 42.992188 17.753418 7
0.38410899 43.001953 17.641602 7
0.39581299 42.765625 17.438477 7
0.32603499 36.500977 23.772949 7
0.40202299 36.563477 20.409668 7
0.40527299 36.545898 20.291992 7
0.413589 36.422852 20.120117 7
0.424927 36.285156 19.834473 7
0.435745 36.108398 19.639648 7
0.444565 35.973633 19.46582 7
0.38133201 38.297852 18.208008 7
0.39820901 37.983398 17.964355 7
0.397156 38.048828 17.886719 7
0.40266401 37.973633 17.748535 7
0.41624501 37.726562 17.538086 7
0.32144201 40.756836 16.167969 7
0.329712 40.615234 16.008789 7
0.338974 40.450195 15.842773 7
0.346497 40.325195 15.691895 7
0.360535 40.054688 15.491211 7
0.37531999 39.766602 15.286133 7
0.4086 21.765625 -35.397949 7
0.33926401 35.890625 16.732422 7
0.347763 35.765625 16.580566 7
0.358749 35.59082 16.408691 7
0.38148499 35.262695 15.979492 7
0.39218101 35.089844 15.812012 7
0.28070101 38.207031 14.519043 7
0.287521 38.104492 14.384277 7
0.29957601 37.896484 14.214844 7
0.310516 37.709961 14.053223 7
0.32284501 37.494141 13.883789 7
0.31781 37.628906 13.830078 7
-1.291824 -50.400391 -43.820312 7
-1.253281 -49.938477 -43.196289 7
-1.407104 -52.274414 -45.056641 7
-1.3733979 -51.883789 -44.491699 7
-1.436478 -52.90625 -45.171387 7
-1.508301 -54.05957 -45.958496 7
-1.117661 -49.774414 -39.004883 7
-1.133224 -50.09668 -39.070801 7
-1.269287 -53.995117 -37.964355 7
-1.287369 -54.363281 -38.035645 7
-1.279709 -54.327148 -37.814941 7
-1.318954 -55.027344 -38.122559 7
0.319565 33.775391 15.307129 7
0.33378601 33.552734 15.124512 7
0.33457899 33.574219 15.041504 7
0.33715799 33.5625 14.944824 7
0.34628299 33.430664 14.800781 7
0.355728 33.292969 14.655273 7
0.35502601 33.339844 14.583496 7
0.228195 36.503906 13.397949 7
0.23791499 36.354492 13.254883 7
0.240189 36.34082 13.156738 7
0.25737 36.051758 12.970215 7
0.267654 35.888672 12.825684 7
0.276474 35.753906 12.690918 7
-1.13205 -42.983398 -39.412109 7
-1.172806 -43.602539 -39.803711 7
-1.214233 -44.233398 -40.201172 7
-1.243546 -44.707031 -40.447266 7
-1.284348 -45.331055 -40.831055 7
-1.329407 -46.014648 -41.263672 7
-1.362015 -46.536133 -41.541992 7
-0.95735198 -42.449219 -35.09375 7
-0.98637402 -42.921875 -35.323242 7
-0.99700898 -43.146484 -35.339355 7
-1.0257111 -43.616211 -35.561523 7
-1.065918 -44.244141 -35.913574 7
-0.96955901 -43.325195 -34.275879 7
-0.93711901 -42.955078 -33.803711 7
-1.0072941 -44.000977 -34.484375 7
-1.1281739 -47.681641 -32.841797 7
-1.207687 -34.066406 47.531738 7
-1.215256 -34.033203 47.715332 7
0.303543 31.427734 13.731934 7
0.31056201 31.342773 13.61377 7
0.32278401 31.168945 13.462402 7
0.32980299 31.082031 13.345215 7
0.33126801 31.087891 13.263672 7
0.33663899 31.027344 13.157715 7
0.34333801 30.945312 13.043945 7
0.34089699 31.016602 12.987793 7
0.23480199 33.616211 11.487305 7
0.234955 33.638672 11.407715 7
0.248932 33.449219 11.181641 7
0.256897 33.336914 11.063965 7
0.26454201 33.230469 10.94873 7
0.26536599 33.240234 10.867188 7
0.27864099 20.304688 -27.210449 7
-0.97757 -36.96875 -35.768066 7
-1.00589 -37.382812 -36.006836 7
-1.033844 -37.792969 -36.239258 7
-1.068542 -38.285156 -36.547852 7
-1.091568 -38.641602 -36.719727 7
-1.12767 -39.152344 -37.041016 7
-1.156372 -39.578125 -37.274902 7
-1.230774 -40.634766 -37.931641 7
-0.82960498 -36.987305 -31.966797 7
-0.860107 -37.435547 -32.210938 7
-0.874313 -37.683594 -32.272949 7
-0.88534498 -37.894531 -32.300781 7
-0.91018701 -38.276367 -32.477539 7
-0.794083 -37.75293 -30.010742 7
-0.85125703 -38.548828 -30.516602 7
-0.83923298 -38.46582 -30.295898 7
-0.87974501 -39.050781 -30.622559 7
-1.05748 -43.230469 -29.664062 7
0.28614801 29.553711 12.452148 7
0.28982499 29.524414 12.362305 7
0.30668601 29.317383 12.129395 7
0.308258 29.321289 12.053223 7
0.314392 29.251953 11.950684 7
0.320526 29.182617 11.849121 7
0.208496 31.734375 10.208008 7
0.21077 31.72168 10.124512 7
0.213379 31.701172 10.038574 7
0.22335801 31.564453 9.9228516 7
0.229477 31.487305 9.8232422 7
0.235947 31.405273 9.7216797 7
0.241714 31.334961 9.625 7
0.23881499 19.076172 -25.59668 7
-0.843674 -31.603516 -32.388184 7
-0.87164301 -31.97168 -32.619629 7
-0.90306097 -32.37793 -32.887207 7
-0.92874098 -32.724609 -33.090332 7
-0.952133 -33.046875 -33.265625 7
-0.98126203 -33.430664 -33.50293 7
-1.009262 -33.805664 -33.726562 7
-1.031128 -34.115234 -33.880859 7
-1.058762 -34.489258 -34.097656 7
-1.087921 -34.878906 -34.328613 7
-1.121323 -35.31543 -34.60498 7
-0.74458301 -32.388672 -29.238281 7
-0.76147503 -32.644531 -29.333008 7
-0.77914399 -32.90918 -29.435059 7
-0.79951501 -33.205078 -29.564941 7
-0.82601899 -33.569336 -29.755371 7
-0.84446698 -33.84375 -29.861816 7
-0.73568702 -33.987305 -27.016113 7
-0.795044 -34.742188 -27.505859 7
-0.75682098 -34.358398 -27.051758 7
-0.80578601 -34.994141 -27.437012 7
-0.91828901 -38.130859 -25.868164 7
0.27066001 27.601562 11.133789 7
0.278061 27.519531 11.033203 7
0.28242499 27.480469 10.946777 7
0.29455599 27.353516 10.759766 7
0.29661599 27.347656 10.686035 7
0.29714999 27.363281 10.619629 7
0.182175 29.767578 8.9121094 7
0.183258 29.791016 8.769043 7
0.19764701 29.614258 8.5786133 7
0.20274401 29.555664 8.4912109 7
0.212036 29.436523 8.3901367 7
0.20874 29.50293 8.3325195 7
-0.93328899 -30.007812 -31.630371 7
-0.93077099 -30.057617 -31.529297 7
-0.94462597 -30.265625 -31.599609 7
-0.97483802 -30.632812 -31.84082 7
-0.99729902 -30.925781 -32 7
-1.026276 -31.283203 -32.225586 7
-1.037689 -31.470703 -32.266602 7
-0.71780401 -29.733398 -27.42334 7
-0.78005999 -30.4375 -27.963867 7
-0.72091699 -29.893555 -27.306152 7
-0.78933698 -30.663086 -27.903809 7
-0.66909802 -30.875 -24.938477 7
-0.69902003 -31.257812 -25.137207 7
-0.74702501 -31.898438 -25.419922 7
-0.74896199 -31.978516 -25.359863 7
-0.78878802 -32.472656 -25.641602 7
-0.88388097 -25.320312 34.675781 7
0.24587999 26.323242 10.219727 7
0.25582901 26.211914 10.114746 7
0.25596601 26.231445 10.052734 7
0.254471 26.273438 9.9980469 7
0.26767001 26.116211 9.8793945 7
0.270248 26.101562 9.8071289 7
0.150543 28.453125 7.9648442 7
0.15150499 28.456055 7.89502 7
0.15325899 28.448242 7.8227539 7
0.166824 28.274414 7.714355 7
0.180099 28.120117 7.54248 7
-0.71855199 -24.875 -28.143555 7
-0.91436797 -27.118164 -29.592773 7
-0.582367 -26.963867 -23.296875 7
-0.57601899 -26.957031 -23.174316 7
-0.64392102 -28.227539 -23.020996 7
-0.62692302 -28.111328 -22.805664 7
-0.64982599 -28.395508 -22.932617 7
-0.68425 -28.794922 -23.155762 7
-0.811508 -31.856445 -21.740234 7
-0.81626898 -31.958008 -21.699219 7
-0.83570898 -32.21582 -21.769043 7
0.222321 23.720703 12.036133 7
0.227753 23.681641 11.952148 7
0.234055 23.629883 11.86377 7
0.24389599 23.537109 11.756836 7
0.25373799 23.443359 11.650879 7
0.241089 23.623047 11.662109 7
0.229736 24.763672 9.2363281 7
0.238663 24.669922 9.1435547 7
0.24186701 24.648438 9.0732422 7
0.23759501 24.72168 9.0322266 7
0.250595 24.594727 8.8671885 7
0.13853499 26.749023 6.640625 7
0.146988 26.651367 6.5566411 7
0.154129 26.571289 6.476562 7
0.15293901 26.599609 6.41748 7
0.100067 13.666992 -23.111816 7
0.095748998 13.635742 -23.194824 7
0.087112002 13.633789 -23.329102 7
0.098724 13.499023 -23.222656 7
-0.82621801 -23.923828 -27.455078 7
-0.84014899 -24.099609 -27.52832 7
-0.84938002 -24.239258 -27.556152 7
-0.57431 -25.404297 -21.353516 7
-0.574112 -25.454102 -21.289551 7
-0.58952302 -25.647461 -21.353027 7
-0.58885199 -25.692383 -21.284668 7
-0.61372399 -25.972656 -21.42334 7
-0.59791601 -25.87793 -21.231445 7
-0.78508002 -29.59668 -20.020996 7
-0.71077001 -21.171875 28.547363 7
-0.74707001 -21.37207 28.938965 7
0.208038 22.482422 11.132812 7
0.216171 22.413086 11.040527 7
0.2229 22.360352 10.956543 7
0.225372 22.355469 10.892578 7
0.216324 23.464844 8.3125 7
0.215973 23.486328 8.2587891 7
0.217957 23.479492 8.1972656 7
0.219025 23.484375 8.1391602 7
0.22854599 23.387695 8.0527344 7
0.21786501 23.533203 8.0336914 7
0.097182997 25.601562 5.9462891 7
0.066817999 12.639648 -22.000977 7
-0.72930902 -20.759766 -25.260742 7
-0.747742 -20.952148 -25.376465 7
-0.75709498 -21.080078 -25.40918 7
-0.76747102 -21.21582 -25.450195 7
-0.490417 -22.641602 -19.466309 7
-0.48913601 -22.677734 -19.400879 7
-0.51072699 -22.908203 -19.512207 7
-0.53585798 -23.168945 -19.648926 7
-0.51985198 -23.079102 -19.469238 7
-0.53331 -23.241211 -19.516113 7
-0.56608599 -23.569336 -19.709473 7
-0.56124902 -23.574219 -19.614746 7
-0.70001203 -26.670898 -18.097656 7
-0.71453899 -26.848633 -18.130371 7
-0.74436998 -27.168945 -18.26416 7
-0.79965198 -28.538086 -17.269043 7
-0.576401 -16.46582 27.223633 7
-0.59895301 -16.478516 27.513184 7
-0.58053601 -16.307617 27.379395 7
0.189606 21.138672 10.486328 7
0.188217 21.175781 10.443848 7
0.17617799 21.326172 10.447754 7
0.17932101 21.313477 10.383789 7
0.19313 21.189453 10.273438 7
0.20500199 21.106445 10.123047 7
0.208664 21.087891 10.058105 7
0.089690998 24.009766 5.0224609 7
0.085785002 24.064453 4.973145 7
0.086898997 24.060547 4.9145508 7
0.095154002 23.983398 4.7885742 7
0.101807 23.915039 4.7216802 7
0.104431 23.893555 4.6621089 7
0.100037 23.954102 4.612793 7
0.057266001 14.68457 -18.628418 7
0.060729999 14.612305 -18.629883 7
0.060242001 14.568359 -18.668945 7
0.063721001 14.49707 -18.669922 7
0.064208999 14.445312 -18.699219 7
-0.620148 -17.791992 -23.336914 7
-0.62632799 -17.887695 -23.34668 7
-0.637878 -18.017578 -23.402344 7
-0.65536499 -18.186523 -23.510254 7
-0.67553699 -18.373047 -23.641113 7
-0.68656898 -18.500977 -23.69043 7
-0.686813 -18.55957 -23.645996 7
-0.483688 -18.888672 -20.450684 7
-0.47357199 -18.963867 -20.228027 7
-0.479752 -19.057617 -20.231445 7
-0.48864701 -19.169922 -20.255859 7
-0.47099301 -20.848633 -18.194336 7
-0.48425299 -20.99707 -18.239746 7
-0.504013 -21.197266 -18.33252 7
-0.50012201 -21.255859 -18.200684 7
-0.52531397 -21.499023 -18.331055 7
-0.53532398 -21.624023 -18.351074 7
-0.68141198 -24.671875 -16.917969 7
-0.686005 -24.75293 -16.887695 7
-0.68897998 -24.818359 -16.846191 7
-0.69738799 -24.932617 -16.838867 7
-0.54792798 -14.998047 25.540527 7
0.15681501 20.238281 9.7182617 7
0.165573 20.171875 9.6362305 7
0.17378201 20.108398 9.5561523 7
0.177689 20.088867 9.4936523 7
0.181595 20.071289 9.4316406 7
0.188721 20.019531 9.3569336 7
0.187759 20.047852 9.3139648 7
0.183548 20.110352 9.2836914 7
0.16864 21.12207 6.8276372 7
0.183395 20.994141 6.690918 7
0.182419 21.017578 6.644043 7
0.178207 21.075195 6.6054692 7
0.182648 21.041992 6.545898 7
0.184891 21.03125 6.4907231 7
0.182861 21.06543 6.4467769 7
0.065857001 22.8125 4.0888672 7
0.065413997 22.824219 4.035645 7
0.068741001 22.794922 3.9785161 7
0.074738003 22.736328 3.9189451 7
0.078064002 22.707031 3.8618159 7
-0.56164598 -15.418945 -21.959473 7
-0.54005402 -15.351562 -21.73877 7
-0.54545599 -15.435547 -21.746094 7
-0.55601501 -15.547852 -21.796387 7
-0.56484997 -15.650391 -21.831543 7
-0.56507897 -15.705078 -21.794434 7
-0.585388 -15.874023 -21.925293 7
-0.58563203 -15.928711 -21.887695 7
-0.57896399 -15.943359 -21.79248 7
-0.42620799 -16.989258 -18.928223 7
-0.43048099 -17.064453 -18.918945 7
-0.44566301 -17.208984 -18.993652 7
-0.420212 -18.953125 -16.84375 7
-0.438934 -19.131836 -16.927734 7
-0.44607499 -19.225586 -16.930664 7
-0.44455001 -19.255859 -16.873047 7
-0.46386701 -19.438477 -16.959473 7
-0.485504 -19.639648 -17.060059 7
-0.480499 -19.644531 -16.978027 7
-0.64770502 -22.770508 -15.678223 7
-0.65141302 -22.838867 -15.64502 7
-0.63709998 -22.761719 -15.504395 7
-0.650711 -22.90918 -15.529785 7
-0.660797 -23.02832 -15.533691 7
-0.74677998 -24.583984 -14.697266 7
-0.73594701 -24.52832 -14.579102 7
-0.74433899 -24.634766 -14.56543 7
-0.50366199 -16.65332 21.660156 7
-0.55319202 -16.8125 22.153809 7
0.157516 19.066406 8.9243164 7
0.16568001 19.006836 8.8500977 7
0.168686 18.99707 8.7944336 7
0.173981 18.96582 8.7319336 7
0.180435 18.922852 8.6645508 7
0.166245 19.928711 6.0253911 7
0.16864 19.916992 5.9736328 7
0.165848 19.955078 5.933105 7
0.16307101 19.994141 5.8920898 7
0.16892999 19.947266 5.8334961 7
0.168457 19.962891 5.7875981 7
-0.61572301 -14.631836 -21.129883 7
-0.405579 -15.507812 -17.900391 7
-0.41311601 -15.59668 -17.917969 7
-0.42860401 -15.734375 -17.993164 7
-0.43675199 -15.827148 -18.014648 7
-0.446136 -15.928711 -18.044434 7
-0.43716401 -15.917969 -17.938965 7
-0.39581299 -17.436523 -15.882324 7
-0.40889001 -17.564453 -15.92627 7
-0.42259201 -17.696289 -15.974121 7
-0.44242901 -17.871094 -16.062012 7
-0.43035901 -17.827148 -15.938477 7
-0.43240401 -17.880859 -15.908691 7
-0.46839899 -18.207031 -16.056152 7
-0.71444702 -23.023438 -13.382812 7
0.127014 18.258789 8.4746094 7
0.122818 18.314453 8.4467773 7
0.13209499 18.248047 8.3730469 7
0.143326 18.181641 8.25 7
0.14587399 18.175781 8.1992188 7
0.156387 18.098633 8.1230469 7
0.16270401 18.075195 8.0180664 7
0.138519 19.097656 5.42627 7
0.139832 19.094727 5.3789058 7
0.138092 19.121094 5.3378911 7
0.133911 19.170898 5.3007808 7
0.137665 19.144531 5.2485352 7
0.14325 19.102539 5.1943359 7
0.139679 19.145508 5.1557622 7
-0.495819 -12.022461 -19.620605 7
-0.49018899 -12.045898 -19.546387 7
-0.487793 -12.083008 -19.497559 7
-0.49641401 -12.170898 -19.534668 7
-0.50308198 -12.249023 -19.555664 7
-0.51104701 -12.333984 -19.586914 7
-0.524185 -12.44043 -19.656738 7
-0.532166 -12.526367 -19.6875 7
-0.545959 -12.638672 -19.762695 7
-0.54875201 -12.700195 -19.752441 7
-0.52758801 -12.650391 -19.558105 7
-0.36866799 -13.828125 -16.932129 7
-0.357162 -13.807617 -16.815918 7
-0.35862699 -13.856445 -16.791992 7
-0.36727899 -13.945312 -16.819336 7
-0.38047799 -14.060547 -16.878418 7
-0.39431801 -16.235352 -14.998047 7
-0.38490301 -16.25 -14.859863 7
-0.39880401 -16.375 -14.906738 7
-0.41923499 -16.541992 -14.994629 7
-0.57481402 -19.597656 -13.387207 7
-0.58811998 -19.725586 -13.410645 7
-0.58960003 -19.768555 -13.370117 7
-0.61405897 -19.977539 -13.451172 7
-0.66439801 -21.179688 -12.412598 7
-0.66392499 -21.207031 -12.358887 7
-0.66676301 -21.258789 -12.321777 7
-0.66366601 -21.266602 -12.255371 7
0.123184 17.290039 7.8129878 7
0.123932 17.299805 7.7705078 7
0.141693 17.182617 7.637207 7
0.144394 17.174805 7.5888672 7
0.149048 17.150391 7.534668 7
0.15239 17.136719 7.4848628 7
0.15834001 17.100586 7.4272461 7
0.157776 17.120117 7.3886719 7
0.147461 17.222656 7.378418 7
0.127838 18.129883 4.7719731 7
0.129227 18.125977 4.7275391 7
0.123474 18.185547 4.6948242 7
0.13209499 18.125977 4.5961909 7
0.128922 18.162109 4.559082 7
0.12574799 18.196289 4.5205078 7
0.001297 19.601562 1.912598 7
0.0020290001 19.595703 1.8662111 7
0.0053559998 19.567383 1.8193361 7
0.011887 19.509766 1.772949 7
0.012634 19.504883 1.7275389 7
0.012711 19.504883 1.681152 7
0.010849 19.522461 1.635254 7
-0.34048501 -12.600586 -16 7
-0.34133899 -12.645508 -15.974609 7
-0.348389 -12.720703 -15.991699 7
-0.36091599 -12.823242 -16.045898 7
-0.37414601 -12.930664 -16.104004 7
-0.37706 -12.985352 -16.091797 7
-0.372437 -13.001953 -16.02832 7
-0.32695001 -14.624023 -14.032715 7
-0.32780501 -14.665039 -14.002441 7
-0.344513 -14.796875 -14.067871 7
-0.36054999 -14.927734 -14.128906 7
-0.37312299 -15.036133 -14.168457 7
-0.362946 -15.010742 -14.070312 7
-0.36173999 -15.039062 -14.026367 7
-0.396561 -15.316406 -14.161133 7
-0.39122 -15.319336 -14.091309 7
-0.54139698 -18.271484 -12.472656 7
-0.64559901 -19.952148 -11.495117 7
-0.658279 -20.071289 -11.504395 7
-0.65637201 -20.085938 -11.447266 7
0.126495 16.368164 7.3217769 7
0.117645 16.453125 7.308105 7
0.116364 16.476562 7.273438 7
0.115753 16.495117 7.2363281 7
0.121338 16.46582 7.183105 7
0.122116 16.473633 7.1425781 7
0.122894 16.481445 7.1020508 7
-0.41726699 -9.1113281 -17.541504 7
-0.419617 -9.1640615 -17.535645 7
-0.423401 -9.2207031 -17.540039 7
-0.43153399 -9.2939453 -17.575195 7
-0.440384 -9.3691406 -17.615234 7
-0.45066801 -9.4492188 -17.665527 7
-0.45808399 -9.5205078 -17.694824 7
-0.4655 -9.5908203 -17.724121 7
-0.46638501 -9.6386719 -17.706543 7
-0.325165 -11.250977 -15.351074 7
-0.31224099 -11.231445 -15.238281 7
-0.296738 -11.274414 -15.052246 7
-0.30127001 -11.333008 -15.053711 7
-0.30796799 -11.401367 -15.069824 7
-0.31684899 -11.479492 -15.099121 7
-0.30094901 -13.499023 -13.189453 7
-0.30985999 -13.580078 -13.20752 7
-0.318771 -13.663086 -13.226562 7
-0.30215499 -13.604492 -13.097656 7
-0.31254601 -13.695312 -13.123535 7
-0.32511899 -13.797852 -13.163086 7
-0.34205601 -13.923828 -13.226562 7
-0.343674 -13.96582 -13.20166 7
-0.52369702 -16.988281 -11.819824 7
-0.52241498 -17.010742 -11.772461 7
-0.51670802 -17.003906 -11.703613 7
-0.52641302 -17.094727 -11.709473 7
-0.53096002 -17.152344 -11.689941 7
-0.53262299 -17.192383 -11.65625 7
-0.61396801 -18.678711 -10.550781 7
-0.61486799 -18.711914 -10.509766 7
-0.421646 -13.189453 16.691406 7
-0.36480701 -10.270508 18.290039 7
0.0063780001 15.054688 10.018555 7
0.10347 15.741211 6.7172852 7
0.109375 15.709961 6.6660161 7
0.117477 15.661133 6.609375 7
0.12413 15.623047 6.5566411 7
0.124924 15.628906 6.5180659 7
0.128647 15.613281 6.472168 7
0.129471 15.619141 6.434082 7
0.088531002 16.585938 3.824219 7
0.093689002 16.551758 3.780273 7
0.098862 16.516602 3.7358401 7
0.098938003 16.521484 3.6967771 7
0.096832 16.543945 3.660645 7
0.091826998 16.589844 3.6269529 7
0.093337998 16.583008 3.586426 7
0.098511003 16.546875 3.54248 7
-0.029602 17.713867 0.63427699 7
-0.024460001 17.670898 0.59472698 7
-0.022949001 17.657227 0.55419898 7
-0.017806999 17.614258 0.51464802 7
-0.28038001 -10.157227 -14.369629 7
-0.27976999 -10.191406 -14.34082 7
-0.28144801 -10.234375 -14.325684 7
-0.305695 -10.443359 -14.401855 7
-0.296875 -12.553711 -12.567871 7
-0.30319199 -12.617188 -12.572266 7
-0.31105 -12.689453 -12.585449 7
-0.29811099 -12.655273 -12.482422 7
-0.30364999 -12.714844 -12.482422 7
-0.31073001 -12.782227 -12.489746 7
-0.50671399 -16.051758 -10.918945 7
-0.50996399 -16.098633 -10.894531 7
-0.52250701 -16.202148 -10.912598 7
-0.58090198 -17.386719 -9.9077148 7
-0.58804297 -17.456055 -9.8945312 7
-0.58743298 -17.478516 -9.8500977 7
-0.58448797 -17.485352 -9.7963867 7
-0.59008801 -17.544922 -9.7768555 7
-0.32081601 -9.5976562 17.09668 7
-0.320023 -9.5585938 17.114258 7
-0.32711801 -9.5478516 17.181641 7
-0.33262599 -9.5322266 17.239258 7
-0.32786599 -9.4765615 17.231934 7
-0.33021501 -9.4482422 17.269043 7
0.112839 14.933594 6.0683589 7
0.114441 14.932617 6.0297852 7
0.116837 14.926758 5.9902339 7
0.118454 14.926758 5.9511719 7
0.122375 14.90918 5.9082031 7
0.116302 14.963867 5.8867192 7
0.111771 15.007812 5.8613281 7
0.11644 14.983398 5.815918 7
0.11499 15.004883 5.7841802 7
0.091170996 15.730469 3.1845701 7
0.092087001 15.732422 3.109863 7
0.086777002 15.776367 3.077148 7
0.088454999 15.772461 3.0019529 7
0.090072997 15.764648 2.9638669 7
0.090149 15.768555 2.9272461 7
0.085602 15.805664 2.8925779 7
-0.37616 -6.4746089 -15.985352 7
-0.36177099 -6.4775391 -15.87207 7
-0.349823 -6.4873052 -15.775391 7
-0.351578 -6.53125 -15.770996 7
-0.353333 -6.5761719 -15.766113 7
-0.35670501 -6.624023 -15.771484 7
-0.358459 -6.6679692 -15.766602 7
-0.365051 -6.7255859 -15.793457 7
-0.38214099 -6.8105469 -15.890625 7
-0.38793901 -6.8662109 -15.912598 7
-0.38809201 -6.907227 -15.895996 7
-0.38984701 -6.952148 -15.890137 7
-0.38352999 -6.9746089 -15.830566 7
-0.382065 -7.0097661 -15.803223 7
-0.25476101 -9.0224609 -13.680664 7
-0.247757 -9.0654297 -13.593262 7
-0.25033599 -9.1103516 -13.586426 7
-0.25451699 -9.1601562 -13.589355 7
-0.26277199 -9.2255859 -13.617188 7
-0.24144 -11.306641 -11.799805 7
-0.23996 -11.330078 -11.764648 7
-0.249863 -11.40625 -11.790039 7
-0.25894201 -11.478516 -11.810547 7
-0.26886001 -11.555664 -11.835938 7
-0.27470401 -11.614258 -11.838867 7
-0.26832601 -11.613281 -11.776367 7
-0.26521301 -11.628906 -11.731445 7
-0.27513099 -11.707031 -11.755859 7
-0.28749099 -11.795898 -11.79248 7
-0.45907599 -14.806641 -10.194336 7
-0.46575901 -14.871094 -10.1875 7
-0.467545 -14.907227 -10.15918 7
-0.475876 -14.980469 -10.15918 7
-0.48010299 -15.030273 -10.141602 7
-0.56256098 -16.429688 -9.0712891 7
-0.56353801 -16.458984 -9.0356445 7
-0.57843 -16.572266 -9.0517578 7
-0.28570601 -8.9550781 16.050781 7
-0.28819299 -8.9287109 16.087402 7
-0.29234299 -8.9101562 16.133301 7
-0.30316201 -8.9140615 16.219238 7
-0.29896501 -8.8642578 16.215332 7
-0.29896501 -8.8291016 16.236328 7
-0.29894999 -8.7949219 16.256836 7
0.092009999 14.304688 5.7236328 7
0.10022 14.258789 5.6743159 7
0.105972 14.230469 5.629395 7
0.10524 14.245117 5.5976558 7
0.107758 14.238281 5.5595698 7
0.110275 14.231445 5.5219731 7
0.111969 14.229492 5.4848628 7
0.116913 14.205078 5.441895 7
0.078231998 15.019531 2.535156 7
0.079925999 15.010742 2.499512 7
0.081603996 15.000977 2.4633789 7
0.082488999 14.99707 2.4277339 7
0.078506 15.02832 2.394043 7
-0.359451 -5.7607422 -15.150391 7
-0.37060499 -5.8232422 -15.20752 7
-0.380905 -5.8857422 -15.258789 7
-0.382736 -5.9287109 -15.255859 7
-0.38542199 -5.9736328 -15.257812 7
-0.38555899 -6.0126948 -15.243652 7
-0.38230899 -6.0429692 -15.20752 7
-0.243744 -8.3310547 -12.99707 7
-0.259323 -8.4501953 -13.046387 7
-0.261307 -8.5244141 -13.016602 7
-0.254623 -8.5341797 -12.956055 7
-0.244537 -8.53125 -12.876465 7
-0.239685 -8.5800781 -12.806152 7
-0.234009 -10.591797 -11.217285 7
-0.240128 -10.648438 -11.223145 7
-0.24195901 -10.685547 -11.207031 7
-0.230988 -10.665039 -11.124023 7
-0.23881499 -10.728516 -11.138184 7
-0.24493399 -10.785156 -11.143555 7
-0.25532499 -10.859375 -11.17041 7
-0.44375601 -13.964844 -9.5991211 7
-0.44918799 -14.043945 -9.5546885 7
-0.53004497 -15.365234 -8.5571289 7
-0.53364599 -15.408203 -8.5332031 7
-0.53463697 -15.435547 -8.4995117 7
-0.52789301 -15.419922 -8.4384766 7
-0.53233302 -15.466797 -8.4169922 7
-0.537628 -15.519531 -8.3989258 7
-0.539505 -15.552734 -8.3681641 7
-0.55601501 -15.668945 -8.3891602 7
-0.279266 -8.3730469 15.385742 7
0.088211 13.644531 5.4355469 7
0.089980997 13.641602 5.4003911 7
0.085785002 13.679688 5.375977 7
0.079879999 13.727539 5.3544922 7
0.089325003 13.673828 5.3051758 7
0.092834003 13.661133 5.2675781 7
0.09375 13.664062 5.2338872 7
0.095519997 13.661133 5.19873 7
0.097305 13.65918 5.1635742 7
0.099091001 13.65625 5.1289058 7
0.080123998 14.273438 2.2255859 7
0.075149998 14.311523 2.160645 7
0.070998996 14.342773 2.09375 7
0.071929999 14.337891 2.0600591 7
0.075378001 14.31543 2.0258789 7
0.071243003 14.34668 1.959473 7
-0.228912 -7.460938 -12.45166 7
-0.237091 -7.5175781 -12.479492 7
-0.25190699 -7.6914058 -12.487793 7
-0.21061701 -9.6425781 -10.770508 7
-0.21075401 -9.6708984 -10.747559 7
-0.209976 -9.6953115 -10.719727 7
-0.207413 -9.7128906 -10.683105 7
-0.211136 -9.7558594 -10.678223 7
-0.223831 -9.8349609 -10.717285 7
-0.23025499 -9.8886719 -10.725098 7
-0.236664 -9.9423828 -10.73291 7
-0.229599 -9.9414062 -10.67334 7
-0.224335 -9.9472656 -10.623047 7
-0.23074301 -10.000977 -10.629883 7
-0.239868 -10.066406 -10.650879 7
-0.25167799 -10.142578 -10.684082 7
-0.258102 -10.197266 -10.690918 7
-0.254639 -10.210938 -10.649414 7
-0.25025901 -10.219727 -10.603027 7
-0.43107599 -13.165039 -9.0732422 7
-0.43211401 -13.194336 -9.0458984 7
-0.435837 -13.236328 -9.0283203 7
-0.44950899 -13.330078 -9.050293 7
-0.44062799 -13.307617 -8.9833984 7
-0.44528201 -13.355469 -8.9692383 7
-0.50894201 -14.515625 -7.9614258 7
-0.513596 -14.561523 -7.9423828 7
-0.52186602 -14.626953 -7.9355469 7
-0.51025403 -14.585938 -7.8613281 7
-0.52030897 -14.660156 -7.859375 7
-0.24885599 -7.921875 14.501953 7
-0.25160199 -7.9003911 14.535156 7
-0.251587 -7.8691411 14.553711 7
-0.262604 -7.874023 14.632324 7
-0.26809701 -7.860352 14.681152 7
-0.256134 -7.7900391 14.634766 7
-0.257965 -7.765625 14.663086 7
-0.026215 12.447266 8.3085938 7
-0.024338 12.453125 8.2739258 7
-0.026062001 12.478516 8.25 7
-0.018784 12.454102 8.1987305 7
-0.016006 12.455078 8.1611328 7
-0.198532 -9.0595703 -10.21582 7
-0.206177 -9.1152344 -10.230469 7
-0.205597 -9.1923828 -10.160645 7
-0.20195 -9.2050781 -10.120605 7
-0.40530401 -12.334961 -8.6157227 7
-0.39787301 -12.322266 -8.5571289 7
-0.40461701 -12.376953 -8.5532227 7
-0.41325399 -12.44043 -8.5561523 7
-0.40864599 -12.441406 -8.5083008 7
-0.188446 -5.7705078 -11.41748 7
-0.186584 -5.7949219 -11.393066 7
-0.19261201 -5.8398442 -11.411133 7
-0.18878201 -5.860352 -11.375977 7
-0.18988 -5.8925781 -11.367676 7
-0.189987 -5.920898 -11.352539 7
-0.19108599 -5.953125 -11.34375 7
-0.191193 -5.983398 -11.32959 7
-0.19129901 -6.0126948 -11.31543 7
-0.19043 -6.0400391 -11.29541 7
-0.19152801 -6.0732422 -11.286621 7
-0.179276 -8.34375 -9.7285156 7
-0.18531799 -8.390625 -9.7363281 7
-0.1884 -8.4267578 -9.7294922 7
-0.202347 -8.5029297 -9.7734385 7
-0.20047 -8.5205078 -9.7436523 7
-0.18774401 -8.5009766 -9.6645508 7
-0.19279499 -8.5439453 -9.6669922 7
-0.196869 -8.5839844 -9.6650391 7
-0.203903 -8.6337891 -9.6757812 7
-0.38758901 -11.543945 -8.2055664 7
-0.38870201 -11.570312 -8.1821289 7
-0.388809 -11.592773 -8.1542969 7
-0.38893101 -11.615234 -8.1269531 7
-0.395004 -11.663086 -8.1206055 7
-0.38717699 -11.649414 -8.0639648 7
-0.398224 -11.720703 -8.0761719 7
-0.39932299 -11.748047 -8.0517578 7
-0.40043601 -11.774414 -8.0268555 7
-0.405518 -11.818359 -8.0170898 7
-0.213257 -7.0087891 13.176758 7
-0.21021999 -6.9726558 13.178223 7
-0.21324199 -6.953125 13.209961 7
-0.21827701 -6.9404302 13.250977 7
-0.222305 -6.9238281 13.288086 7
-0.219254 -6.8867192 13.289062 7
-0.219238 -6.859375 13.305176 7
-0.22125199 -6.8369141 13.332031 7
-0.22021499 -6.8056641 13.343262 7
-0.229294 -6.8037109 13.404297 7
-0.229279 -6.7753911 13.42041 7
0.067382999 11.994141 4.4750981 7
0.069412 11.990234 4.4443359 7
0.074401997 11.96875 4.4091802 7
0.076447003 11.964844 4.378418 7
0.078475997 11.959961 4.3476558 7
0.078537002 11.966797 4.3198242 7
0.080565996 11.961914 4.289062 7
0.081619002 11.961914 4.2592769 7
0.079696998 11.980469 4.2338872 7
0.080734 11.980469 4.204102 7
0.080794998 11.986328 4.1767578 7
-0.189362 -8.0058594 -9.2866211 7
-0.38670301 -11.112305 -7.6782231 7
-0.38786301 -11.138672 -7.6557622 7
-0.39212 -11.176758 -7.6430659 7
-0.346802 -10.259766 -7.315918 7
-0.34690899 -10.280273 -7.2915039 7
-0.34701499 -10.299805 -7.2670898 7
-0.34820601 -10.324219 -7.2460942 7
-0.34613001 -10.334961 -7.2138672 7
-0.350586 -10.373047 -7.204102 7
-0.35395801 -10.40625 -7.1904302 7
-0.354065 -10.426758 -7.1655269 7
-0.35525501 -10.450195 -7.144043 7
-0.36732501 -10.519531 -7.1591802 7
-0.363083 -10.521484 -7.1196289 7
-0.191025 -6.1005859 12.16748 7
-0.22425801 -8.6279297 9.7460938 7
-0.225403 -8.6132812 9.7705078 7
-0.235779 -8.6103516 9.8476562 7
-0.230042 -8.5498047 9.8681641 7
-0.227753 -8.5019531 9.9003906 7
-0.22660799 -8.4775391 9.9169922 7
-0.180298 -6.061523 11.525391 7
-0.179138 -6.0341802 11.535156 7
-0.181427 -6.016602 11.55957 7
-0.18257099 -5.9960942 11.579102 7
-0.173355 -5.9492192 11.553223 7
-0.1745 -5.9277339 11.572266 7
-0.17218 -5.898438 11.576172 7
-0.175613 -5.8808589 11.605957 7
-0.185959 -5.882812 11.664551 7
-0.188232 -5.8642578 11.688965 7
-0.181335 -5.8232422 11.672852 7
-0.17671201 -5.7880859 11.666504 7
-0.18130501 -5.7744141 11.700684 7
-0.18129 -5.75 11.714355 7
-0.191635 -5.750977 11.772949 7
-0.19851699 -5.7431641 11.816895 7
-0.197357 -5.7167969 11.825195 7
-0.197357 -5.6914058 11.838867 7
-0.212631 -8.3125 9.2524414 7
-0.21264599 -8.2949219 9.2714844 7
-0.182266 -5.5732422 11.237793 7
-0.18585201 -5.5585942 11.266113 7
-0.176239 -5.5126948 11.239746 7
-0.17622399 -5.4902339 11.252441 7
-0.175018 -5.4638672 11.260254 7
-0.176193 -5.4443359 11.27832 7
0.334005 19.304745 8.915411 7
-0.432354 -12.563784 15.734064 7
-0.26519701 -5.9198608 11.775663 7
-0.109376 -8.286294 -9.5301838 7
0.16568001 17.677544 7.806571 7
0.031280998 14.517629 5.7521229 7
0.025712 14.5171 2.3254609 7
0.056864001 12.451338 4.3900189 7
-0.441544 -11.06433 -14.950566 7
