# .PCD v0.7 - Point Cloud Data file format
VERSION 0.7
FIELDS x y z intensity
SIZE 4 4 4 4
TYPE F F F F
COUNT 1 1 1 1
WIDTH 954
HEIGHT 1
VIEWPOINT 0 0 0 1 0 0 0
POINTS 954
DATA ascii
0.73103303 66.860352 32.98584 7
0.73443598 66.624023 32.491211 7
0.76954699 65.107422 31.600098 7
0.797562 65.667969 28.181152 7
0.73243701 70.302734 26.83252 7
0.760315 69.038086 26.194336 7
1.050095 32.791016 -59.626465 7
0.65748602 62.186523 30.101074 7
0.690781 60.916992 29.344238 7
0.61390698 67.337891 25.257812 7
0.63622999 66.458984 24.771973 7
0.66032398 65.501953 24.26416 7
0.679398 64.758789 23.834961 7
0.69871497 64.001953 23.40625 7
0.94488502 30.84375 -56.270996 7
0.92684901 28.370117 -58.640625 7
0.61708099 56.176758 27.462891 7
0.62869298 55.838867 27.147461 7
0.590698 57.28418 27.647949 7
0.661057 56.250977 23.579102 7
0.64753699 56.821289 23.648438 7
0.62547302 57.709961 23.837402 7
0.640701 57.21582 23.491699 7
0.66969299 56.34375 22.700684 7
0.52004999 62.855469 22.977051 7
0.54475403 61.991211 22.518555 7
0.58155799 60.735352 21.774414 7
0.84271199 28.876953 -52.033691 7
0.56633002 52 25.277344 7
0.57455403 51.804688 25.041504 7
0.574844 53.407227 22.214355 7
0.60008198 52.695312 21.652832 7
0.55023199 54.546875 21.919922 7
0.55250502 54.53418 21.769043 7
0.56707799 54.109375 21.466309 7
0.578201 53.798828 21.208008 7
0.58932501 53.487305 20.951172 7
0.61061102 52.833008 20.573242 7
0.72759998 24.575195 -51.538574 7
0.50662202 48.466797 23.501465 7
0.52012599 48.138672 23.21582 7
0.54806501 48.814453 20.147461 7
0.54444897 48.979492 20.078613 7
0.568497 48.31543 19.697266 7
0.528 50.027344 19.139648 7
0.53152502 49.974609 18.98877 7
0.54583699 49.595703 18.725098 7
0.54972798 49.530273 18.571777 7
0.55779999 49.338867 18.375977 7
0.44702101 45.12793 21.866699 7
0.466095 44.689453 21.542969 7
0.49583399 43.972656 21.097168 7
0.46283001 46.142578 19.011719 7
0.498932 45.224609 18.541992 7
0.49645999 45.341797 18.463867 7
0.51133698 44.992188 18.212402 7
0.51579303 44.920898 18.065918 7
0.474823 46.709961 16.995117 7
0.489456 46.356445 16.758301 7
0.504242 46.043945 16.415039 7
0.52026403 45.648438 16.168945 7
0.40446499 49.742188 14.933105 7
0.41416901 49.513672 14.746582 7
0.42448401 49.266602 14.556641 7
0.430145 49.150391 14.402344 7
0.56161499 21.139648 -45.003906 7
0.38591 42.017578 20.330566 7
0.410721 41.490234 19.977539 7
0.42820701 41.131836 19.702148 7
0.402069 43.025391 17.467773 7
0.438568 42.19043 17.045898 7
0.45333901 41.921875 16.723145 7
0.472092 41.511719 16.463867 7
0.41645801 43.638672 15.169922 7
0.41818199 43.636719 15.056152 7
0.42826799 43.427734 14.879395 7
0.439697 43.185547 14.693359 7
0.44140601 43.182617 14.581543 7
0.45397899 42.910156 14.38916 7
0.46202099 42.750977 14.231445 7
0.34458899 46.411133 13.087891 7
0.349686 46.317383 12.94873 7
0.35885599 46.123047 12.785156 7
0.37023899 45.871094 12.609375 7
0.38117999 45.628906 12.4375 7
0.383118 45.615234 12.320312 7
0.32186899 39.723633 19.099121 7
0.35430899 39.079102 18.703613 7
0.36843899 38.824219 18.482422 7
0.37155199 39.917969 16.12207 7
0.39459199 39.452148 15.84668 7
0.397919 39.419922 15.72998 7
0.408218 39.232422 15.557617 7
0.42027301 39.006836 15.373535 7
0.427582 38.884766 15.227539 7
0.428909 38.894531 15.12793 7
0.363419 41.15918 13.672363 7
0.38096601 40.833008 13.367676 7
0.39173901 40.625 13.203613 7
0.39604199 40.563477 13.08252 7
0.40208399 40.460938 12.950195 7
0.41655001 40.166016 12.765137 7
0.36921701 42.136719 10.370605 7
0.433853 17.923828 -38.913574 7
0.35137901 37.144531 14.002441 7
0.36648601 36.908203 13.72998 7
0.370361 36.864258 13.618652 7
0.378326 36.737305 13.481445 7
0.38301101 36.676758 13.366211 7
0.38740501 36.620117 13.25293 7
0.39399701 36.520508 13.126465 7
0.33682299 38.248047 12.009766 7
0.34503201 38.108398 11.875488 7
0.35705599 37.890625 11.720703 7
0.356552 37.931641 11.635742 7
0.369919 37.682617 11.474121 7
0.377029 37.56543 11.348633 7
0.27087399 40.462891 9.6967773 7
0.27987701 40.297852 9.5649414 7
0.28507999 40.213867 9.449707 7
0.30056801 39.911133 9.2919922 7
0.31225601 39.6875 9.1518555 7
0.30960101 39.768555 9.0703115 7
0.30098 39.975586 9.0117188 7
-1.256348 -53.960938 -39.379883 7
-1.283173 -54.472656 -39.564453 7
-1.268646 -54.334961 -39.260742 7
-1.326797 -55.433594 -39.67334 7
-1.377182 -56.322266 -40.124023 7
-1.040817 -52.213867 -34.327637 7
-1.0268101 -52.06543 -34.046387 7
-1.1244349 -53.80957 -34.859863 7
-1.236084 -57.357422 -33.061035 7
-1.2290339 -57.388672 -32.712402 7
0.321426 35.858398 10.75 7
0.32731599 35.773438 10.638672 7
0.32762101 35.794922 10.554199 7
0.33351099 35.708008 10.443359 7
0.34585601 35.496094 10.30127 7
0.35084501 35.425781 10.195312 7
0.23317 38.330078 8.5458984 7
0.23435999 38.329102 8.4521484 7
0.25105301 38.023438 8.3046885 7
0.26132199 37.84375 8.1811523 7
0.26777601 37.739258 8.0712891 7
-1.081161 -45.838867 -35.501465 7
-1.118454 -46.446289 -35.808105 7
-1.143433 -46.881836 -35.975098 7
-1.181091 -47.496094 -36.280762 7
-1.207382 -47.952148 -36.458008 7
-1.242416 -48.53418 -36.729492 7
-1.277496 -49.116211 -36.999512 7
-1.327194 -49.90918 -37.427734 7
-0.83142102 -43.734375 -30.699219 7
-0.87397802 -44.424805 -31.041992 7
-0.89735401 -44.836914 -31.180664 7
-0.92463702 -45.306641 -31.35791 7
-0.94866902 -45.730469 -31.499512 7
-0.98409998 -46.321289 -31.757324 7
-0.81950402 -44.328125 -29.397949 7
-0.91615301 -45.826172 -30.274414 7
-0.891693 -45.53418 -29.915039 7
-0.97242701 -46.799805 -30.620605 7
-1.062119 -49.863281 -28.558105 7
-1.08429 -50.270508 -28.640625 7
0.29811099 33.368164 9.5102539 7
0.30897501 33.199219 9.3876953 7
0.31601 33.098633 9.2807617 7
0.32141101 33.025391 9.1816406 7
0.32488999 32.986328 9.0913086 7
0.33029199 32.912109 8.9926758 7
0.225159 35.40332 6.965332 7
0.23024 35.329102 6.8691411 7
0.23851 35.197266 6.7641602 7
0.244553 35.105469 6.6655269 7
0.25154099 34.996094 6.565918 7
0.26332101 34.799805 6.454102 7
0.25254801 14.386719 -32.453613 7
-0.89871198 -38.999023 -32.199219 7
-0.93260199 -39.503906 -32.47168 7
-0.96229601 -39.957031 -32.695801 7
-0.99375898 -40.43457 -32.9375 7
-1.018204 -40.824219 -33.101074 7
-1.0380861 -41.15625 -33.214844 7
-1.072006 -41.667969 -33.476562 7
-1.0999759 -42.105469 -33.672852 7
-1.128647 -42.553711 -33.875 7
-0.75288397 -38.753906 -28.493652 7
-0.78543103 -39.250977 -28.728027 7
-0.80955499 -39.638672 -28.875488 7
-0.81613201 -39.791992 -28.845215 7
-0.84939599 -40.302734 -29.081543 7
-0.870377 -40.650391 -29.192871 7
-0.74916101 -39.932617 -26.642578 7
-0.82467699 -41.026367 -27.262695 7
-0.79223597 -40.646484 -26.855957 7
-0.86987299 -41.772461 -27.48877 7
-0.996948 -45.222656 -25.787109 7
0.28746 31.213867 8.3041992 7
0.29570001 31.097656 8.2016602 7
0.30253601 31.004883 8.1054688 7
0.30452001 30.991211 8.0263672 7
0.312408 30.880859 7.9272461 7
0.318207 30.804688 7.8364258 7
0.314987 30.875977 7.7753911 7
0.21224999 33.105469 5.7436519 7
0.21354701 33.097656 5.6630859 7
0.22070301 32.991211 5.5712891 7
0.22787499 32.884766 5.4790039 7
0.23332199 32.806641 5.3920898 7
-0.806427 -33.805664 -29.73291 7
-0.83099401 -34.15332 -29.904297 7
-0.853302 -34.478516 -30.05127 7
-0.89352399 -35.006836 -30.381836 7
-0.91850299 -35.363281 -30.552734 7
-0.93891901 -35.668945 -30.675293 7
-0.96565199 -36.12207 -30.773438 7
-0.99102801 -36.487305 -30.943359 7
-1.013733 -36.822266 -31.084473 7
-1.0433199 -37.236328 -31.293457 7
-1.067947 -37.59668 -31.451172 7
-0.68298298 -34.041016 -26.435059 7
-0.695023 -34.24707 -26.468262 7
-0.721573 -34.625977 -26.640625 7
-0.75042701 -35.033203 -26.833008 7
-0.76170301 -35.232422 -26.855469 7
-0.789612 -35.695312 -26.949219 7
-0.67231798 -35.585938 -23.974121 7
-0.70846599 -36.09375 -24.206055 7
-0.69187897 -35.943359 -23.973145 7
-0.73875397 -36.587891 -24.296387 7
-0.78448498 -37.21875 -24.606445 7
-0.86466998 -39.805664 -22.665527 7
-0.88793898 -40.163086 -22.751953 7
0.25993299 29.203125 7.355957 7
0.26092499 29.205078 7.284668 7
0.26719701 29.126953 7.1982422 7
0.26857001 29.124023 7.1269531 7
0.27333099 29.067383 7.0444341 7
0.279984 28.982422 6.9580078 7
0.284363 28.932617 6.8779302 7
0.29138201 28.841797 6.7915039 7
0.29652399 28.779297 6.7099609 7
0.176544 31.057617 4.7324219 7
0.178284 31.041992 4.657227 7
0.186783 30.920898 4.5717769 7
0.190414 30.875 4.4936519 7
0.196289 30.795898 4.4130859 7
0.204422 30.680664 4.3295898 7
0.209167 30.617188 4.2514648 7
0.200775 30.757812 4.1904302 7
-0.764709 -30.522461 -28.095215 7
-0.786865 -30.819336 -28.241211 7
-0.80412298 -31.066406 -28.336914 7
-0.97961402 -33.389648 -29.513184 7
-0.61601299 -31.048828 -24.135742 7
-0.66267401 -31.625977 -24.48291 7
-0.60499603 -31.041992 -23.885742 7
-0.62535101 -32.488281 -22.371094 7
-0.65249598 -32.856445 -22.52002 7
-0.69679302 -33.424805 -22.811523 7
-0.66964698 -33.164062 -22.504395 7
-0.70782501 -33.662109 -22.741699 7
-0.744385 -34.142578 -22.962891 7
0.23237599 27.848633 6.487793 7
0.247925 27.642578 6.3847661 7
0.252808 27.601562 6.2431641 7
0.253418 27.606445 6.1777339 7
0.26210001 27.496094 6.0917969 7
0.26594499 27.455078 6.019043 7
0.27300999 27.367188 5.938477 7
0.152344 29.500977 3.815918 7
0.153778 29.488281 3.7451169 7
0.163635 29.353516 3.6660161 7
0.16987599 29.271484 3.5908201 7
-0.70501697 -26.90625 -26.25293 7
-0.72796601 -27.183594 -26.405762 7
-0.74215698 -27.380859 -26.474609 7
-0.75853002 -27.598633 -26.562988 7
-0.77273601 -27.795898 -26.629395 7
-0.58096302 -28.853516 -21.430176 7
-0.577362 -28.920898 -21.26123 7
-0.55468798 -28.733398 -21.006348 7
-0.55268902 -28.762695 -20.921387 7
-0.53588903 -28.685547 -20.645996 7
-0.53562897 -28.732422 -20.574219 7
-0.56614703 -29.105469 -20.749023 7
-0.54215997 -28.900391 -20.487793 7
-0.55375701 -29.073242 -20.510254 7
-0.58384699 -29.441406 -20.678223 7
-0.58888203 -29.545898 -20.647461 7
-0.64617902 -30.308594 -20.880859 7
-0.75636297 -33.155273 -19.092773 7
-0.772888 -33.386719 -19.126953 7
-0.79911798 -33.729492 -19.226562 7
-0.807693 -33.87207 -19.204102 7
0.221512 25.243164 8.6342773 7
0.21823099 25.304688 8.5878906 7
0.207092 25.46875 8.5688477 7
0.219528 25.327148 8.465332 7
0.22759999 25.242188 8.3789062 7
0.233917 25.179688 8.2978516 7
0.243729 25.070312 8.2055664 7
0.25004601 25.006836 8.1254883 7
0.246323 25.073242 8.0800781 7
0.233841 25.916016 5.4379878 7
0.235779 25.901367 5.3730469 7
0.236862 25.898438 5.3105469 7
0.244003 25.814453 5.2358398 7
0.246811 25.789062 5.1704102 7
0.127579 27.728516 2.875 7
0.131256 27.68457 2.8076169 7
0.138382 27.59375 2.738281 7
0.147247 27.480469 2.6689451 7
0.148743 27.46582 2.6035161 7
0.147232 27.491211 2.539551 7
0.066040002 10.989258 -25.684082 7
0.076110996 10.874023 -25.579102 7
0.093764998 10.719727 -25.376465 7
0.088303 10.683594 -25.472168 7
-0.661789 -24.004883 -24.854492 7
-0.64977998 -23.962891 -24.686035 7
-0.65833998 -24.094727 -24.705566 7
-0.67395002 -24.287109 -24.789551 7
-0.68862897 -24.472656 -24.864258 7
-0.699081 -24.62207 -24.899414 7
-0.50134301 -26.330078 -19.160156 7
-0.53767401 -26.733398 -19.371582 7
-0.55007899 -26.902344 -19.400879 7
-0.55024701 -26.951172 -19.337402 7
-0.561234 -27.105469 -19.35498 7
-0.57457 -27.285156 -19.389648 7
-0.72488397 -30.492188 -17.871582 7
-0.71658301 -30.446289 -17.743164 7
-0.73373401 -30.669922 -17.782227 7
-0.71742201 -30.541016 -17.602051 7
-0.75015301 -30.927734 -17.741211 7
-0.790878 -31.401367 -17.929688 7
0.191956 24.058594 7.9570308 7
0.186096 24.146484 7.9194341 7
0.18956 24.12207 7.8525391 7
0.19815101 24.035156 7.7685552 7
0.203491 23.987305 7.6962891 7
0.211151 23.911133 7.6166992 7
0.217407 23.851562 7.54248 7
0.221802 23.814453 7.473145 7
0.224335 23.800781 7.4101558 7
0.211945 23.967773 7.391602 7
0.20665 24.641602 4.793457 7
0.212418 24.579102 4.726562 7
0.213531 24.575195 4.6669922 7
0.218826 24.518555 4.6010742 7
0.22134399 24.49707 4.5400391 7
0.216904 24.561523 4.4892578 7
0.097473003 26.292969 2.207031 7
0.098601997 26.283203 2.1455081 7
0.104828 26.209961 2.082031 7
0.103638 26.228516 2.0205081 7
0.110764 26.140625 1.957031 7
0.116058 26.077148 1.89502 7
0.121811 26.007812 1.8330081 7
0.117844 26.061523 1.7724611 7
0.032852001 10.180664 -24.33252 7
-0.56835902 -20.751953 -22.98877 7
-0.57905602 -20.889648 -23.032715 7
-0.59025598 -21.03125 -23.080078 7
-0.60195899 -21.176758 -23.131348 7
-0.60963398 -21.291016 -23.146973 7
-0.62133801 -21.4375 -23.197754 7
-0.61293 -21.428711 -23.072266 7
-0.454391 -23.720703 -17.85791 7
-0.44545001 -23.683594 -17.736328 7
-0.45822099 -23.842773 -17.770508 7
-0.47805801 -24.06543 -17.855957 7
-0.482254 -24.147461 -17.828125 7
-0.47937 -24.165039 -17.749023 7
-0.65130597 -27.613281 -16.148438 7
-0.67173803 -27.851562 -16.207031 7
-0.69216901 -28.091797 -16.264648 7
-0.693344 -28.142578 -16.204102 7
0.1987 22.459961 6.8994141 7
0.20491 22.404297 6.8305659 7
0.208084 22.381836 6.7695308 7
0.083557002 24.666016 1.2255861 7
0.088225998 24.612305 1.167969 7
0.092880003 24.557617 1.11084 7
0.096038997 24.521484 1.0537111 7
0.098113999 24.461914 0.99755901 7
0.047683999 12.266602 -20.922852 7
0.046248998 12.22168 -20.966797 7
0.045302998 12.173828 -21.005859 7
-0.417999 -19.740234 -18.835449 7
-0.41918901 -19.795898 -18.796875 7
-0.43009901 -19.925781 -18.833008 7
-0.44367999 -20.076172 -18.888672 7
-0.459961 -20.24707 -18.964844 7
-0.46331799 -20.319336 -18.940918 7
-0.43911701 -21.885742 -16.725586 7
-0.45489499 -22.058594 -16.780273 7
-0.44692999 -22.032227 -16.672363 7
-0.45517001 -22.142578 -16.675293 7
-0.474731 -22.348633 -16.754883 7
-0.67289698 -26.019531 -15.145508 7
-0.669815 -26.02832 -15.06543 7
-0.740601 -27.47168 -14.040527 7
0.15870699 21.456055 6.503418 7
0.159958 21.456055 6.4501948 7
0.170303 21.359375 6.375 7
0.17707799 21.314453 6.2592769 7
0.18261699 21.267578 6.1962891 7
0.184937 21.256836 6.141602 7
0.185638 21.261719 6.090332 7
0.169006 21.938477 3.488281 7
0.16545101 21.984375 3.4399409 7
0.17306501 21.90625 3.3813479 7
0.177505 21.864258 3.3261721 7
0.177689 21.868164 3.2744141 7
0.176788 21.883789 3.2241211 7
0.054825 23.328125 0.586914 7
0.059250001 23.279297 0.53417999 7
0.061005 23.258789 0.48046899 7
0.064361997 23.22168 0.427246 7
0.066666 23.195312 0.37402299 7
0.068435997 23.175781 0.32080099 7
0.014053 11.624023 -19.735352 7
-0.55779999 -16.679688 -21.062988 7
-0.54988098 -16.683594 -20.958008 7
-0.55113202 -16.742188 -20.927734 7
-0.54608202 -16.762695 -20.84668 7
-0.55708301 -16.881836 -20.894043 7
-0.55775499 -16.9375 -20.858887 7
-0.56819201 -17.053711 -20.901855 7
-0.578049 -17.166016 -20.939453 7
-0.58331299 -17.250977 -20.94043 7
-0.58630401 -17.321289 -20.922363 7
-0.38427699 -17.670898 -17.875488 7
-0.378052 -17.671875 -17.786133 7
-0.379318 -17.724609 -17.75293 7
-0.378281 -17.761719 -17.702148 7
-0.390457 -17.889648 -17.749023 7
-0.40722701 -18.050781 -17.82959 7
-0.41366601 -18.140625 -17.833496 7
-0.41032401 -18.161133 -17.764648 7
-0.408142 -18.19043 -17.705078 7
-0.36811799 -19.55957 -15.601562 7
-0.376297 -19.661133 -15.608398 7
-0.38503999 -19.767578 -15.618652 7
-0.40301499 -19.944336 -15.688477 7
-0.41349801 -20.06543 -15.708984 7
-0.40325901 -20.025391 -15.594238 7
-0.41548201 -20.158203 -15.624512 7
-0.43460101 -20.345703 -15.700195 7
-0.443939 -20.458008 -15.711426 7
-0.58955401 -23.456055 -13.994629 7
-0.59489399 -23.536133 -13.967285 7
-0.60888702 -23.69043 -13.987793 7
-0.62518299 -23.863281 -14.02002 7
-0.63284302 -23.962891 -14.003906 7
-0.62605298 -23.94043 -13.909668 7
-0.69842499 -25.366211 -12.862793 7
-0.70147699 -25.424805 -12.816895 7
-0.52690101 -15.075195 23.297852 7
-0.52694702 -15.023438 23.333496 7
0.15991201 20.182617 5.7519531 7
0.16293301 20.163086 5.6982422 7
0.16595501 20.144531 5.6455078 7
0.175842 20.057617 5.5786128 7
0.178864 20.038086 5.5253911 7
0.176743 20.070312 5.4829102 7
0.1689 20.15918 5.4511719 7
0.153854 20.741211 2.8344729 7
0.156296 20.720703 2.7841799 7
0.163284 20.654297 2.7314451 7
0.16572601 20.634766 2.6821289 7
0.160767 20.689453 2.63623 7
0.15921 20.708984 2.5883789 7
0.040511999 21.955078 -0.037108999 7
0.040084999 21.956055 -0.089844003 7
0.038543999 21.969727 -0.14257801 7
0.037018001 21.983398 -0.195801 7
0.043976001 21.90918 -0.241211 7
0.046967 21.876953 -0.29052699 7
-0.48052999 -14.46875 -19.725586 7
-0.47880599 -14.507812 -19.676758 7
-0.486206 -14.597656 -19.699707 7
-0.49481201 -14.692383 -19.731934 7
-0.498566 -14.762695 -19.725586 7
-0.50537097 -14.848633 -19.742676 7
-0.52807599 -15.072266 -19.847168 7
-0.51113898 -15.027344 -19.679199 7
-0.35227999 -16.042969 -16.873535 7
-0.353607 -16.09375 -16.844238 7
-0.36041301 -16.179688 -16.853516 7
-0.370895 -16.289062 -16.88916 7
-0.395477 -16.529297 -16.983887 7
-0.36859101 -18.253906 -14.786133 7
-0.38519299 -18.410156 -14.846191 7
-0.39753699 -18.536133 -14.878906 7
-0.387878 -18.503906 -14.773926 7
-0.394714 -18.589844 -14.771973 7
-0.40705901 -18.716797 -14.803711 7
-0.57141101 -21.891602 -13.055664 7
-0.58502197 -22.032227 -13.07373 7
-0.66200298 -23.415039 -12.146973 7
-0.66091901 -23.436523 -12.085449 7
-0.667831 -23.523438 -12.061523 7
-0.66552699 -23.53418 -11.994629 7
-0.672409 -23.621094 -11.969727 7
-0.66827399 -23.617188 -11.894043 7
-0.53834498 -14.322266 22.089355 7
0.133682 19.260742 5.4282231 7
0.124741 19.355469 5.4003911 7
0.123062 19.381836 5.3579102 7
0.134766 19.28125 5.2915039 7
0.140991 19.233398 5.235352 7
0.145401 19.202148 5.1821289 7
0.149216 19.177734 5.1308589 7
0.131836 19.761719 2.2246089 7
0.134415 19.740234 2.1772461 7
0.134552 19.741211 2.1308589 7
0.13472 19.742188 2.0849609 7
0.139236 19.704102 1.990723 7
0.14421099 19.658203 1.943359 7
0.0085450001 20.910156 -0.64550799 7
0.0050659999 20.939453 -0.69824201 7
0.008835 20.899414 -0.74365199 7
0.013214 20.853516 -0.788086 7
0.013962 20.841797 -0.836914 7
0.01712 20.806641 -0.88232398 7
0.025101 20.726562 -0.921875 7
0.024643 20.725586 -0.97167999 7
0.019989001 20.766602 -1.0263669 7
-0.33424401 -14.40332 -16.147949 7
-0.331085 -14.425781 -16.091309 7
-0.316284 -14.380859 -15.955078 7
-0.31573501 -14.417969 -15.916504 7
-0.325546 -14.514648 -15.94873 7
-0.33989 -14.637695 -16.01123 7
-0.350357 -14.739258 -16.047363 7
-0.352402 -14.791016 -16.025879 7
-0.31434599 -16.338867 -14.012695 7
-0.306656 -16.323242 -13.925781 7
-0.30687001 -16.394531 -13.848145 7
-0.321915 -16.529297 -13.899414 7
-0.336319 -16.65918 -13.946777 7
-0.34551999 -16.755859 -13.961914 7
-0.33653301 -16.731445 -13.867676 7
-0.343124 -16.810547 -13.866699 7
-0.35557601 -16.928711 -13.900879 7
-0.629044 -21.839844 -11.032227 7
-0.63505602 -21.915039 -11.006348 7
0.118439 18.299805 4.862793 7
0.116653 18.325195 4.8227539 7
0.123901 18.269531 4.7685552 7
0.133728 18.191406 4.710938 7
0.13645899 18.175781 4.6635742 7
0.142426 18.132812 4.612793 7
0.145798 18.110352 4.5649409 7
0.151108 18.072266 4.514648 7
-0.0086519998 19.700195 -1.333496 7
-0.006577 19.676758 -1.376465 7
-0.007065 19.675781 -1.42334 7
-0.001678 19.615234 -1.509277 7
0.001663 19.579102 -1.550781 7
0.0037080001 19.554688 -1.594238 7
-0.41316199 -10.984375 -17.893066 7
-0.40640301 -11.000977 -17.816895 7
-0.411255 -11.066406 -17.825684 7
-0.42433199 -11.166992 -17.89502 7
-0.42645299 -11.220703 -17.883301 7
-0.43336499 -11.295898 -17.906738 7
-0.44302401 -11.381836 -17.949219 7
-0.454041 -11.474609 -18.001953 7
-0.45138499 -11.507812 -17.955078 7
-0.29617301 -12.9375 -15.324707 7
-0.28871199 -12.936523 -15.243652 7
-0.28468299 -12.953125 -15.185059 7
-0.28683501 -13.00293 -15.167969 7
-0.29307601 -13.074219 -15.178223 7
-0.30070499 -13.152344 -15.196777 7
-0.31243899 -13.253906 -15.243164 7
-0.313889 -13.299805 -15.220215 7
-0.32016 -13.37207 -15.229004 7
-0.320923 -13.414062 -15.20166 7
-0.31829801 -13.439453 -15.152344 7
-0.263412 -14.919922 -13.09668 7
-0.29107699 -15.155273 -13.186035 7
-0.30215499 -15.256836 -13.214355 7
-0.313934 -15.363281 -13.245605 7
-0.30717501 -15.354492 -13.169434 7
-0.30452001 -15.37207 -13.117188 7
-0.315613 -15.473633 -13.144043 7
-0.32601899 -15.571289 -13.166504 7
-0.33778399 -15.678711 -13.196777 7
-0.615417 -20.536133 -10.305176 7
0.143829 17.194336 4.0551758 7
0.139191 17.240234 4.0205078 7
0.13893101 17.263672 3.8999021 7
0.082168996 17.962891 1.278809 7
0.096573003 17.839844 1.23877 7
0.101471 17.797852 1.197266 7
0.10228 17.791016 1.155762 7
0.094269 17.860352 1.112305 7
0.101196 17.800781 1.072266 7
0.109482 17.729492 1.031738 7
0.107574 17.746094 0.98974597 7
-0.271027 -11.535156 -14.65625 7
-0.25956699 -11.554688 -14.525879 7
-0.256744 -11.577148 -14.479492 7
-0.25972 -11.62793 -14.470703 7
-0.261978 -11.675781 -14.457031 7
-0.275116 -11.776367 -14.513184 7
-0.28027299 -11.837891 -14.518066 7
-0.28106701 -11.87793 -14.494141 7
-0.28114301 -11.916016 -14.46582 7
-0.27615401 -11.927734 -14.405273 7
-0.28887901 -14.130859 -12.529297 7
-0.27516201 -14.084961 -12.418457 7
-0.283966 -14.166992 -12.433594 7
-0.29351801 -14.25293 -12.452148 7
-0.30670199 -14.362305 -12.490723 7
-0.30677801 -14.392578 -12.455566 7
-0.30032301 -14.387695 -12.385742 7
-0.49433899 -17.618164 -10.740234 7
-0.499542 -17.678711 -10.720703 7
-0.51496899 -17.808594 -10.74707 7
-0.50268602 -17.754883 -10.649902 7
-0.50790399 -17.817383 -10.630371 7
-0.51020801 -17.860352 -10.597656 7
-0.57626301 -19.064453 -9.590332 7
-0.58734101 -19.165039 -9.5883789 7
0.110458 16.501953 3.8256841 7
0.116379 16.461914 3.780762 7
0.121689 16.431641 3.6972661 7
0.12471 16.413086 3.655762 7
0.133514 16.348633 3.608887 7
0.135223 16.347656 3.530273 7
-0.032912999 17.477539 -2.578613 7
-0.029205 17.44043 -2.612793 7
-0.026215 17.408203 -2.647949 7
-0.023941001 17.379883 -2.6850591 7
-0.023833999 17.370117 -2.7255859 7
-0.018677 17.322266 -2.7563479 7
-0.022156 17.339844 -2.804199 7
-0.028488001 17.379883 -2.8579099 7
-0.33953899 -7.797852 -16.242676 7
-0.33729601 -7.8320308 -16.208008 7
-0.333527 -7.8613281 -16.162598 7
-0.33587599 -7.9091802 -16.160156 7
-0.33975199 -7.9619141 -16.16748 7
-0.34440601 -8.0185547 -16.180176 7
-0.34828201 -8.0712891 -16.1875 7
-0.352173 -8.125 -16.194824 7
-0.35833699 -8.1855469 -16.216309 7
-0.36605799 -8.2519531 -16.249512 7
-0.37300101 -8.3154297 -16.277344 7
-0.25996399 -10.357422 -14.078613 7
-0.24546801 -10.331055 -13.962891 7
-0.23796099 -10.370117 -13.865234 7
-0.234955 -10.391602 -13.821777 7
-0.23962399 -10.447266 -13.825684 7
-0.245804 -10.508789 -13.838379 7
-0.24830601 -12.806641 -11.907227 7
-0.256073 -12.878906 -11.918457 7
-0.268448 -12.974609 -11.954102 7
-0.25930801 -12.957031 -11.873535 7
-0.25709501 -12.975586 -11.830078 7
-0.267151 -13.05957 -11.853027 7
-0.282608 -13.172852 -11.904297 7
-0.29113799 -13.248047 -11.916992 7
-0.284302 -13.242188 -11.849609 7
-0.467316 -16.385742 -10.130371 7
-0.46896401 -16.421875 -10.097656 7
-0.483704 -16.539062 -10.121582 7
-0.48457301 -16.570312 -10.085449 7
-0.48159799 -16.578125 -10.033203 7
-0.48016399 -16.595703 -9.9873047 7
-0.481812 -16.631836 -9.9545898 7
-0.55770898 -17.905273 -8.9321289 7
-0.55935699 -17.939453 -8.8945312 7
-0.58039898 -18.124023 -8.8862305 7
-0.58360302 -18.168945 -8.8549805 7
-0.58448797 -18.198242 -8.8149414 7
-0.388199 -11.472656 16.480469 7
-0.39848301 -11.483398 16.567871 7
-0.352676 -8.5927734 17.994141 7
-0.35189801 -8.5507812 18.009277 7
-0.35269201 -8.5146484 18.035156 7
-0.358215 -8.4941406 18.091309 7
-0.36058 -8.4619141 18.126953 7
-0.35823101 -8.4150391 18.131348 7
-0.36453199 -8.3955078 18.192871 7
-0.36848399 -8.3691406 18.239258 7
0.092407003 15.768555 3.500488 7
0.092528999 15.773438 3.4633789 7
0.095702998 15.754883 3.4238279 7
0.106537 15.678711 3.3774409 7
0.111237 15.647461 3.335938 7
0.112885 15.640625 3.297852 7
0.115295 15.62793 3.2592771 7
0.117706 15.614258 3.2211909 7
0.084885001 15.961914 0.28710899 7
0.087279998 15.941406 0.25048801 7
0.088913001 15.925781 0.21386699 7
0.085235998 15.953125 0.174316 7
0.084595002 15.955078 0.136719 7
0.083953999 15.957031 0.098145001 7
0.086333998 15.936523 0.0625 7
0.086456001 15.932617 0.024901999 7
-0.231232 -9.2011719 -13.388672 7
-0.227249 -9.2207031 -13.342285 7
-0.216782 -9.2148438 -13.257324 7
-0.21521001 -9.2421885 -13.225586 7
-0.212051 -9.2646484 -13.184082 7
-0.218582 -9.3222656 -13.200684 7
-0.224319 -9.3789062 -13.212402 7
-0.229233 -9.4326172 -13.219238 7
-0.23173501 -9.4765615 -13.211426 7
-0.23097201 -9.5078115 -13.184082 7
-0.23588599 -9.5585938 -13.189941 7
-0.229477 -9.5673828 -13.128418 7
-0.217133 -11.657227 -11.312988 7
-0.221268 -11.707031 -11.305664 7
-0.214844 -11.705078 -11.244629 7
-0.212479 -11.723633 -11.204102 7
-0.22067299 -11.791992 -11.217773 7
-0.229736 -11.894531 -11.20752 7
-0.241989 -11.984375 -11.242676 7
-0.247742 -12.041992 -11.243164 7
-0.42283601 -15.05957 -9.581543 7
-0.428635 -15.119141 -9.5698242 7
-0.414078 -15.058594 -9.4731445 7
-0.423935 -15.140625 -9.4775391 7
-0.42971799 -15.199219 -9.465332 7
-0.43632501 -15.263672 -9.4560547 7
-0.51823401 -16.645508 -8.3164062 7
-0.52323902 -16.698242 -8.2944336 7
-0.52740502 -16.745117 -8.269043 7
-0.53485101 -16.813477 -8.2548828 7
-0.54881299 -16.922852 -8.2636719 7
-0.548096 -16.939453 -8.2202148 7
-0.347855 -10.839844 15.314941 7
-0.314789 -7.9726558 16.893555 7
-0.31147799 -7.9267578 16.891602 7
0.090744004 14.943359 3.1777339 7
0.084412001 14.993164 3.147949 7
0.082107998 15.014648 3.1142581 7
0.087981999 14.981445 3.039551 7
0.098693997 14.912109 2.9619141 7
0.102051 14.893555 2.925293 7
0.105408 14.874023 2.8881841 7
0.070952997 15.155273 -0.014648 7
0.069458 15.163086 -0.051270001 7
0.067153998 15.176758 -0.089354999 7
0.072890997 15.131836 -0.120117 7
0.073792003 15.12207 -0.15527301 7
0.074721999 15.112305 -0.189941 7
0.077225 15.09082 -0.224121 7
0.074936002 15.103516 -0.26074201 7
0.078247003 15.077148 -0.29394501 7
-0.21106 -8.3378906 -12.74707 7
-0.21026599 -8.3671885 -12.722168 7
-0.210327 -8.4003906 -12.702148 7
-0.21548501 -8.4521484 -12.711914 7
-0.221497 -8.5048828 -12.726074 7
-0.225815 -8.5546885 -12.730957 7
-0.231812 -8.6074219 -12.744629 7
-0.229324 -8.6318359 -12.708984 7
-0.21917699 -8.6269531 -12.629395 7
-0.183121 -10.586914 -10.827148 7
-0.187454 -10.634766 -10.82373 7
-0.190918 -10.677734 -10.815918 7
-0.203003 -10.789062 -10.825684 7
-0.212524 -10.888672 -10.820801 7
-0.20832799 -10.896484 -10.773926 7
-0.20327801 -10.902344 -10.722168 7
-0.21017499 -10.960938 -10.72998 7
-0.217926 -11.024414 -10.742188 7
-0.225677 -11.088867 -10.754395 7
-0.232559 -11.148438 -10.762207 7
-0.22921801 -11.160156 -10.71875 7
-0.22845501 -11.185547 -10.687988 7
-0.41894501 -14.333008 -8.9584961 7
-0.50070202 -15.711914 -7.78125 7
-0.50506598 -15.757812 -7.7583008 7
-0.50688201 -15.790039 -7.726562 7
-0.52581799 -15.920898 -7.7519531 7
-0.528503 -15.958008 -7.723145 7
-0.52859497 -15.979492 -7.6850591 7
-0.295578 -7.5654302 16.006348 7
-0.29731801 -7.500977 16.052734 7
-0.29820299 -7.469727 16.075684 7
-0.30343601 -7.4501948 16.124512 7
-0.30957001 -7.4335942 16.177734 7
-0.30519101 -7.3857422 16.169922 7
-0.30870101 -7.3623052 16.208008 7
0.094177 14.235352 2.5361331 7
0.098540999 14.208984 2.5 7
0.100342 14.199219 2.4658201 7
0.104691 14.172852 2.4311521 7
0.104797 14.174805 2.3974609 7
0.101517 14.200195 2.3657229 7
0.101639 14.202148 2.33252 7
0.098357998 14.226562 2.2998049 7
0.098465003 14.228516 2.266602 7
-0.19764701 -10.011719 -10.39502 7
-0.20219401 -10.058594 -10.392578 7
-0.197769 -10.066406 -10.347168 7
-0.192459 -10.072266 -10.297363 7
-0.204163 -10.147461 -10.329102 7
-0.39091501 -13.321289 -8.5712891 7
-0.39996299 -13.390625 -8.5737305 7
-0.47404501 -14.75 -7.3178711 7
-0.480423 -14.804688 -7.3027339 7
-0.480515 -14.824219 -7.2675781 7
-0.490509 -14.899414 -7.2636719 7
-0.506805 -15.010742 -7.280273 7
-0.50778198 -15.035156 -7.2475591 7
-0.27316299 -7.0283198 15.220703 7
-0.279587 -7.0136719 15.273438 7
-0.28050199 -6.984375 15.29541 7
-0.28050199 -6.9511719 15.312012 7
-0.28417999 -6.9287109 15.349609 7
0.081817999 13.624023 2.2246089 7
0.083694004 13.613281 2.191895 7
0.089157 13.580078 2.1582029 7
0.091034003 13.570312 2.125488 7
0.095596001 13.542969 2.092773 7
0.095702998 13.543945 2.0605471 7
0.094925001 13.550781 2.0292971 7
0.091461003 13.576172 1.998535 7
0.088898003 13.59375 1.966797 7
0.089890003 13.589844 1.935059 7
-0.161789 -9.0029297 -10.011719 7
-0.159027 -9.0185547 -9.9765615 7
-0.159088 -9.0449219 -9.9545898 7
-0.170486 -9.1425781 -9.9658203 7
-0.165848 -9.1494141 -9.9213867 7
-0.170609 -9.1953115 -9.921875 7
-0.1763 -9.2431641 -9.9267578 7
-0.36555499 -11.848633 -7.704102 7
-0.36857599 -11.881836 -7.6860352 7
-0.234695 -6.3994141 13.691406 7
-0.23268101 -6.3652339 13.696289 7
-0.230682 -6.3310552 13.701172 7
-0.228668 -6.295898 13.706543 7
-0.233704 -6.280273 13.74707 7
-0.23371901 -6.2519531 13.761719 7
-0.242783 -6.2451172 13.82373 7
-0.24479701 -6.2216802 13.848633 7
-0.237762 -6.1748052 13.82666 7
-0.237762 -6.1445308 13.841797 7
-0.24079899 -6.124023 13.87207 7
-0.24583399 -6.1064448 13.912598 7
-0.24885599 -6.0849609 13.942383 7
-0.044617001 12.478516 5.2949219 7
-0.042541999 12.475586 5.262207 7
-0.039473999 12.467773 5.2280269 7
-0.039368 12.476562 5.19873 7
-0.036316 12.46875 5.1650391 7
-0.032272 12.454102 5.1289058 7
-0.33178699 -11.053711 -7.3535161 7
-0.337006 -11.09668 -7.344727 7
-0.340179 -11.129883 -7.3286128 7
-0.34025601 -11.151367 -7.3022461 7
-0.22471599 -6.0693359 13.123047 7
-0.223663 -6.039062 13.131836 7
-0.22052 -6.0039058 13.130859 7
-0.21737701 -5.967773 13.130371 7
-0.221588 -5.9501948 13.165039 7
-0.22264101 -5.9248052 13.18457 7
-0.231049 -5.9179692 13.239746 7
-0.236313 -5.9033198 13.279297 7
-0.226852 -5.851562 13.24707 7
-0.22790501 -5.8261719 13.266113 7
-0.232117 -5.8085942 13.300781 7
-0.23106401 -5.7773442 13.30957 7
-0.23948701 -5.7695308 13.364746 7
-0.20671099 -5.7363281 12.484863 7
-0.20562699 -5.7080078 12.493164 7
-0.202332 -5.6738281 12.491211 7
-0.204529 -5.6523442 12.515137 7
-0.205643 -5.6298828 12.533691 7
-0.20454399 -5.5996089 12.541992 7
-0.214462 -5.5966802 12.601562 7
-0.21336401 -5.5673828 12.609863 7
-0.20454399 -5.5205078 12.582031 7
-0.208969 -5.4785161 12.628906 7
-0.21778899 -5.4716802 12.683105 7
-0.192902 -5.4150391 11.97998 7
-0.192902 -5.389648 11.992676 7
-0.197495 -5.375 12.026367 7
-0.19751 -5.3496089 12.039551 7
-0.206696 -5.3457031 12.093262 7
-0.20900001 -5.3261719 12.116211 7
-0.20440701 -5.2900391 12.108398 7
-0.203262 -5.2617192 12.116211 7
-0.200958 -5.2314448 12.118652 7
-0.203262 -5.210938 12.141113 7
-0.23191801 -7.9501948 9.7792969 7
-0.22476199 -7.907227 9.7724609 7
-0.22718801 -7.8955078 9.7993164 7
-0.229599 -7.882812 9.8271484 7
-0.23561101 -7.882812 9.8666992 7
-0.239227 -7.874023 9.8984385 7
-0.23327599 -7.8349609 9.8959961 7
-0.233307 -7.8154302 9.9145508 7
-0.183304 -5.1113281 11.513672 7
-0.174622 -4.7753911 11.123535 7
-0.17338599 -4.726562 11.141602 7
-0.18211401 -4.7216802 11.188965 7
-0.17712399 -4.6875 11.179688 7
-0.17337 -4.6337891 11.186035 7
-0.193802 -7.3535161 8.7861328 7
-0.189926 -7.3232422 8.7915039 7
-0.19516 -7.3222661 8.824707 7
-0.204285 -7.3320308 8.8710938 7
-0.205597 -7.3164058 8.8930664 7
-0.199127 -7.2792969 8.8896484 7
-0.19914199 -7.2617192 8.9067383 7
-0.19396999 -7.2294922 8.9077148 7
-0.194031 -7.1943359 8.9418945 7
-0.16320799 -4.7138672 10.561035 7
-0.15152 -4.5830078 10.570312 7
-0.164536 -4.5869141 10.632812 7
-0.163239 -4.5625 10.638672 7
-0.165848 -4.5449219 10.659668 7
-0.154129 -4.500977 10.624512 7
-0.155441 -4.4824219 10.640137 7
-0.165131 -4.4472661 10.246582 7
-0.165131 -4.4267578 10.257324 7
-0.16784699 -4.4101558 10.277832 7
-0.16918901 -4.391602 10.293457 7
-0.17054699 -4.3730469 10.309082 7
-0.16514599 -4.342773 10.299316 7
-0.163803 -4.3193359 10.304199 7
-0.16244499 -4.295898 10.30957 7
-0.166519 -4.2832031 10.334961 7
-0.163803 -4.2558589 10.335449 7
-0.16922 -4.2441411 10.366211 7
-0.173264 -4.2304692 10.391602 7
-0.175964 -4.2128911 10.412598 7
-0.17598 -4.1923828 10.422363 7
-0.173264 -4.1660161 10.421875 7
-0.21673401 -6.311101 13.892014 7
-0.157268 -4.466711 10.417305 7
-0.218926 -11.857777 -11.220551 7
-0.37477601 -13.245721 -8.3841772 7
-0.250514 -5.8046041 12.793524 7
-0.25702101 -7.8722281 9.7608957 7
-0.297077 -7.3188558 8.752203 7
-0.23248699 -4.707459 10.611765 7
-0.16192199 -9.0739222 -9.9377995 7
-0.36945799 -13.344522 -12.063352 7
