# .PCD v0.7 - Point Cloud Data file format
VERSION 0.7
FIELDS x y z intensity
SIZE 4 4 4 4
TYPE F F F F
COUNT 1 1 1 1
WIDTH 1076
HEIGHT 1
VIEWPOINT 0 0 0 1 0 0 0
POINTS 1076
DATA ascii
1.168365 70.625977 25.529297 7
1.183319 69.772461 24.873047 7
1.212463 67.833984 24.045898 7
1.057098 64.709961 23.185547 7
1.062073 64.583984 22.805664 7
1.087616 63.192383 22.182129 7
1.118011 61.513672 21.473145 7
1.032288 69.262695 17.475098 7
1.044983 68.569336 17.14502 7
1.06427 67.474609 16.729004 7
1.077698 66.734375 16.396484 7
0.97012299 58.672852 20.848145 7
0.97995001 58.211914 20.538086 7
1.010895 56.78125 19.922852 7
0.96246302 59.193359 20.549805 7
0.98812902 59.337891 17.253418 7
1.007965 58.413086 16.86084 7
1.0109251 58.324219 16.690918 7
0.99224901 59.311523 16.798828 7
0.99941999 59.012695 16.573242 7
1.005432 58.769531 16.36377 7
1.016022 58.298828 16.098633 7
0.88769501 65.44043 15.930176 7
0.91531402 64.163086 15.33252 7
0.93139601 63.40625 15.012695 7
0.94299299 62.875 14.745117 7
0.865753 56.344727 19.802734 7
0.91918898 54.119141 18.939941 7
0.924438 53.954102 18.746582 7
0.95349097 52.766602 18.230469 7
0.89733899 56.428711 16.21875 7
0.92269897 55.369141 15.803711 7
0.91745001 55.652344 15.736816 7
0.93792701 54.807617 15.383789 7
0.89883399 56.682617 15.432129 7
0.90945399 56.265625 15.189453 7
0.91775501 55.951172 14.973145 7
0.92193598 55.818359 14.802246 7
0.930206 55.500977 14.588379 7
0.85638398 59.674805 12.922852 7
0.79556298 52.287109 18.190918 7
0.82632399 51.183594 17.706055 7
0.848602 50.393555 17.326172 7
0.830872 52.225586 14.702637 7
0.85378999 51.388672 14.362793 7
0.84402502 51.810547 14.338867 7
0.87234497 50.760742 13.95166 7
0.81222498 53.362305 13.791504 7
0.82333398 52.972656 13.570312 7
0.82943702 52.77832 13.395508 7
0.83834797 52.475586 13.197754 7
0.84988397 52.068359 12.978027 7
0.86084002 51.683594 12.766113 7
0.75512701 56.542969 11.46875 7
0.69784498 50.179688 17.416504 7
0.728302 49.202148 16.979004 7
0.75595099 48.31543 16.576172 7
0.78158599 47.496094 16.197754 7
0.75503498 49.482422 13.794434 7
0.77905297 48.692383 13.477539 7
0.77401698 48.908203 13.408203 7
0.79421997 48.246094 13.126953 7
0.80069 48.063477 12.962891 7
0.74624598 50.358398 12.26123 7
0.75595099 50.057617 12.07373 7
0.76449603 49.794922 11.896484 7
0.77258301 49.549805 11.723633 7
0.78469801 49.160156 11.522949 7
0.79391497 48.874023 11.344238 7
0.67590302 53.655273 10.084473 7
0.689484 53.208008 9.8842773 7
0.657013 46.376953 15.952637 7
0.69821203 45.167969 15.459961 7
0.71346998 44.74707 15.214355 7
0.73681599 44.080078 14.896973 7
0.712219 45.828125 12.526855 7
0.735443 45.142578 12.25 7
0.72790498 45.412109 12.201172 7
0.74487299 44.917969 11.973145 7
0.70513898 46.711914 10.548828 7
0.71353102 46.479492 10.390137 7
0.71878099 46.344727 10.251465 7
0.72314501 46.239258 10.119141 7
0.72674602 46.155273 9.9907227 7
0.734375 45.944336 9.8398438 7
0.487946 19.777344 -55.484375 7
0.59973103 43.275391 14.770508 7
0.63647503 42.350586 14.268555 7
0.66668701 41.5625 13.925293 7
0.64504999 43.087891 11.552734 7
0.66598499 42.537109 11.319336 7
0.67098999 42.428711 11.188965 7
0.67132598 42.451172 11.088867 7
0.68710297 42.038086 10.89209 7
0.65521199 43.581055 8.8891602 7
0.65554798 43.598633 8.7866211 7
0.65890503 43.529297 8.6689453 7
0.66754198 43.308594 8.5283203 7
0.67575097 43.099609 8.390625 7
0.53378302 40.600586 13.625488 7
0.55184901 40.191406 13.400879 7
0.56036401 40.016602 13.246582 7
0.59179699 40.132812 10.455566 7
0.59869403 39.989258 10.324707 7
0.60601801 39.832031 10.191895 7
0.61245698 39.697266 10.064453 7
0.618164 39.580078 9.9418945 7
0.62844801 39.347656 9.7958984 7
0.63079798 39.31543 9.6923828 7
0.57275403 41.345703 7.8999019 7
0.58914202 40.970703 7.6445308 7
0.59509301 40.84082 7.526855 7
0.600128 40.733398 7.4130859 7
0.60562098 40.613281 7.2983398 7
0.504242 43.651367 5.5395508 7
0.51129198 43.486328 5.420898 7
0.51904303 43.302734 5.3017578 7
0.52764899 43.095703 5.1811519 7
0.53781098 42.847656 5.0585942 7
0.54373199 42.709961 4.9458008 7
0.574615 41.938477 4.6860352 7
0.30667099 16.885742 -48.295898 7
0.33166501 16.544922 -47.669922 7
0.52511603 37.25 12.355957 7
0.52737403 37.229492 12.255371 7
0.52871698 38.771484 6.8652339 7
0.531982 38.714844 6.764648 7
0.53772002 38.598633 6.6567378 7
0.54495198 38.448242 6.5439448 7
0.55117798 38.321289 6.436523 7
0.453796 41.011719 4.4370122 7
0.455109 40.996094 4.339355 7
0.46575901 40.755859 4.2260742 7
0.47219801 40.616211 4.120605 7
0.48159799 40.40625 4.0117192 7
0.485596 40.324219 3.9121089 7
0.49645999 40.078125 3.8022461 7
0.27081299 18.452148 -43.242676 7
0.27987701 18.15332 -43.118164 7
0.492432 36.177734 5.795898 7
0.49707001 36.09375 5.699707 7
0.49679601 36.116211 5.6166992 7
0.50793499 35.892578 5.5053711 7
0.51281703 35.802734 5.4101558 7
0.51770002 35.713867 5.3154302 7
0.52447498 35.581055 5.2167969 7
0.402466 38.499023 3.4194341 7
0.40301499 38.49707 3.328613 7
0.422241 38.100586 3.1308589 7
0.43063399 37.929688 3.0336909 7
0.434174 37.863281 2.941895 7
0.202484 13.922852 -41.562988 7
0.43237299 34.697266 5.230957 7
0.44406101 34.493164 5.0454102 7
0.45343 34.322266 4.9462891 7
0.456909 34.265625 4.8588872 7
0.46774301 34.064453 4.7587891 7
0.47503701 33.931641 4.6650391 7
0.47909501 33.864258 4.5786128 7
0.351715 36.660156 2.6616211 7
0.35257 36.651367 2.5751951 7
0.36453199 36.419922 2.4824221 7
0.36917099 36.333984 2.394531 7
0.37997401 36.125 2.304688 7
0.38754299 35.980469 2.2172849 7
0.390717 35.923828 2.1313479 7
0.4021 35.704102 2.0439451 7
0.39535499 35.844727 1.960938 7
-1.6407779 -56.672852 -35.137207 7
-1.694855 -57.556641 -35.512695 7
-1.71875 -57.993164 -35.599121 7
-1.780151 -58.989258 -36.037109 7
-1.815002 -59.592773 -36.221191 7
-1.792755 -59.34375 -35.869629 7
-1.840881 -60.145508 -36.174316 7
-1.540558 -56.921875 -31.071289 7
0.43139601 31.866211 4.0830078 7
0.42843601 31.930664 4.0126948 7
0.436371 31.796875 3.9272461 7
0.44110101 31.720703 3.8457029 7
0.44519001 31.65625 3.766602 7
0.446991 31.631836 3.6899409 7
0.45364401 31.520508 3.6079099 7
0.459656 31.418945 3.526855 7
0.35629299 33.509766 1.209473 7
0.361633 33.415039 1.131348 7
0.36633301 33.332031 1.054199 7
0.362122 33.413086 0.97412097 7
-1.559082 -50.647461 -32.990234 7
-1.588684 -51.125977 -33.137695 7
-1.6333621 -51.808594 -33.42041 7
-1.658691 -52.231445 -33.524414 7
-1.692596 -52.771484 -33.704102 7
-1.732635 -53.395508 -33.936523 7
-1.770142 -53.986328 -34.143555 7
-1.27121 -47.986328 -28.297363 7
-1.326263 -48.817383 -28.650879 7
-1.342316 -49.108398 -28.669434 7
-1.359436 -49.414062 -28.695801 7
-1.250641 -48.28125 -27.080078 7
-1.3193361 -49.311523 -27.528809 7
-1.311005 -49.258789 -27.342285 7
-1.3922729 -50.469727 -27.88623 7
-1.467194 -53.092773 -25.351562 7
0.39794901 30.095703 3.304199 7
0.398895 30.088867 3.2329099 7
0.40429699 30.005859 3.157227 7
0.41009501 29.916016 3.081543 7
0.41412401 29.854492 3.007812 7
0.41363499 29.870117 2.938477 7
0.42550701 29.682617 2.789551 7
0.42190599 29.750977 2.722168 7
0.31771901 31.640625 0.411621 7
0.321747 31.574219 0.33935499 7
0.042328 11.101562 -34.520996 7
0.053557999 10.958008 -34.357422 7
-1.327942 -42.678711 -30.021973 7
-1.363068 -43.177734 -30.230469 7
-1.38504 -43.516602 -30.320801 7
-1.415131 -43.955078 -30.480957 7
-1.434021 -44.258789 -30.541016 7
-1.4625551 -44.679688 -30.684082 7
-1.498474 -45.193359 -30.889648 7
-1.535583 -45.72168 -31.103027 7
-1.085236 -40.941406 -26.010742 7
-1.105072 -41.3125 -25.978027 7
-1.142548 -41.845703 -26.1875 7
-1.171906 -42.277344 -26.327637 7
-1.1903991 -42.573242 -26.377441 7
-1.219757 -43.005859 -26.51416 7
-1.0764771 -41.967773 -23.90332 7
-1.135468 -42.78418 -24.255859 7
-1.117035 -42.602539 -24.01123 7
-1.181091 -43.488281 -24.397461 7
-1.280884 -46.28418 -22.204102 7
-1.343872 -47.178711 -22.518066 7
0.364777 28.210938 2.52002 7
0.36761501 28.171875 2.452148 7
0.371582 28.115234 2.3837891 7
0.37820399 28.018555 2.3149409 7
0.38031 27.990234 2.2480471 7
0.26477101 29.862305 -0.23876999 7
0.267609 29.817383 -0.30664101 7
0.27832001 29.650391 -0.36523399 7
0.28305101 29.576172 -0.43017599 7
0.286621 29.518555 -0.49707001 7
0.28891 29.478516 -0.63427699 7
-1.180511 -37.402344 -28.118652 7
-1.2079771 -37.773438 -28.268066 7
-1.2330019 -38.121094 -28.393555 7
-1.253052 -38.413086 -28.475098 7
-1.27887 -38.769531 -28.60498 7
-1.309265 -39.178711 -28.772461 7
-1.337189 -39.560547 -28.91748 7
-1.030334 -37.110352 -24.746094 7
-1.042572 -37.310547 -24.754883 7
-1.0597529 -37.568359 -24.803223 7
-1.078613 -37.844727 -24.863281 7
-1.101166 -38.166992 -24.952637 7
-1.118378 -38.426758 -24.99707 7
-0.98605299 -38.038086 -22.049805 7
-1.025238 -38.560547 -22.245605 7
-1.073975 -39.200195 -22.508301 7
-1.046417 -38.920898 -22.213379 7
-1.120056 -39.863281 -22.652832 7
-1.1836849 -42.125 -20.230957 7
-1.215485 -42.571289 -20.332031 7
-0.672607 -18.157227 36.056641 7
-0.72335798 -18.396484 36.71582 7
0.35394299 26.250977 4.7651372 7
0.358215 26.201172 4.6962891 7
0.364838 26.115234 4.6230469 7
0.36990401 26.053711 4.5541992 7
0.37011701 26.060547 4.4926758 7
0.33413699 26.866211 1.914551 7
0.33917201 26.797852 1.8505861 7
0.34579501 26.704102 1.786621 7
0.34561199 26.710938 1.7236331 7
0.34780899 26.681641 1.660645 7
0.35986301 26.512695 1.535156 7
0.239594 28.272461 -1.004395 7
0.244598 28.196289 -1.064453 7
0.249603 28.121094 -1.124023 7
0.243011 28.213867 -1.199707 7
0.239227 28.265625 -1.2724611 7
-0.055114999 16.398438 -27.829102 7
0.002686 12.280273 -28.856934 7
-1.088623 -32.823242 -26.444336 7
-1.103485 -33.036133 -26.490723 7
-1.127045 -33.401367 -26.527832 7
-1.140594 -33.599609 -26.560547 7
-1.1546021 -33.805664 -26.595703 7
-0.98477203 -33.758789 -22.875488 7
-0.90741003 -32.988281 -22.207031 7
-0.94412202 -33.43457 -22.405273 7
-0.89034998 -32.912109 -21.919434 7
-0.85223401 -32.555664 -21.553711 7
-0.83322102 -32.404297 -21.33252 7
-0.85900903 -33.535156 -20.171875 7
-0.88287401 -33.84668 -20.258789 7
-0.90133703 -34.099609 -20.306152 7
-0.94079602 -34.584961 -20.498535 7
-0.938721 -34.611328 -20.401367 7
-0.95410198 -34.831055 -20.424805 7
-0.990906 -35.289062 -20.594238 7
-1.095673 -37.945312 -18.427246 7
-1.126312 -38.345703 -18.519531 7
0.32916301 24.717773 4.148438 7
0.33627301 24.630859 4.0805659 7
0.34259 24.556641 4.0141602 7
0.347992 24.492188 3.949707 7
0.346863 24.515625 3.8935549 7
0.335724 24.671875 3.8496089 7
0.30609101 25.287109 1.282227 7
0.31454501 25.175781 1.224121 7
0.31991601 25.105469 1.166016 7
0.31835899 25.126953 1.106445 7
0.31896999 25.120117 1.047363 7
0.32351699 25.061523 0.98974597 7
0.197998 26.675781 -1.63623 7
0.20422401 26.586914 -1.688965 7
0.212616 26.46875 -1.738281 7
0.217316 26.396484 -1.85498 7
-0.075836003 15.526367 -25.68457 7
-0.085022002 15.525391 -25.833008 7
-0.064452998 8.6044922 -28.440918 7
-0.057312001 8.5068359 -28.365234 7
-0.043060001 8.3808594 -28.194336 7
-1.011932 -29.291992 -24.942871 7
-1.026825 -29.489258 -24.993164 7
-1.0505069 -29.828125 -25.042969 7
-1.078613 -30.149414 -25.199219 7
-1.082611 -30.245117 -25.158691 7
-0.82840002 -30.544922 -19.403809 7
-0.80950898 -30.400391 -19.20166 7
-0.82348597 -30.588867 -19.223633 7
-0.798401 -30.379883 -18.97998 7
-0.79476899 -30.388672 -18.881836 7
-0.804474 -30.53418 -18.874512 7
-0.82656902 -30.805664 -18.949219 7
-0.84530598 -31.043945 -19.000977 7
-0.85693401 -31.208984 -19.003418 7
-0.86712599 -31.360352 -18.996094 7
-0.89303601 -31.672852 -19.091797 7
-0.92419398 -32.041016 -19.221191 7
-1.050415 -34.959961 -17.102539 7
-1.089783 -35.427734 -17.240723 7
0.28552201 23.672852 3.8310549 7
0.288055 23.649414 3.7724609 7
0.29290801 23.59668 3.711426 7
0.30194101 23.491211 3.6459961 7
0.30767801 23.425781 3.5844729 7
0.3125 23.373047 3.5249021 7
0.28643799 23.883789 0.63964802 7
0.290802 23.828125 0.58544898 7
0.29373199 23.791016 0.53076202 7
0.29623401 23.759766 0.47656199 7
0.297333 23.745117 0.42089799 7
0.300751 23.702148 0.36718801 7
0.178009 25.088867 -2.3330081 7
0.184174 25.003906 -2.3808589 7
0.18808 24.950195 -2.4316411 7
0.18869001 24.93457 -2.4892581 7
-0.940521 -25.810547 -23.521973 7
-0.93862897 -25.851562 -23.444336 7
-0.95053101 -26.005859 -23.475586 7
-0.97464001 -26.264648 -23.602051 7
-0.98651099 -26.419922 -23.631836 7
-1.005524 -26.636719 -23.716797 7
-1.005188 -26.691406 -23.649414 7
-0.70004302 -27.03125 -17.499023 7
-0.71963501 -27.258789 -17.561523 7
-0.738159 -27.474609 -17.615234 7
-0.75006098 -27.629883 -17.625977 7
-0.751221 -27.683594 -17.566895 7
-0.76571703 -27.863281 -17.592285 7
-0.78836101 -28.120117 -17.669922 7
-0.80334502 -28.306641 -17.697266 7
-0.93182403 -31.126953 -15.649414 7
-0.95248401 -31.371094 -15.686523 7
0.26803601 22.272461 3.156738 7
0.276703 22.176758 3.0966799 7
0.282379 22.116211 3.0400391 7
0.285034 22.09082 2.9863279 7
0.29168701 22.018555 2.929688 7
0.293365 22.003906 2.8769529 7
0.29351801 22.007812 2.824707 7
0.26550299 22.422852 -0.0039059999 7
0.26663199 22.408203 -0.055663999 7
0.26681501 22.404297 -0.108887 7
0.26647899 22.40625 -0.162109 7
0.27063 22.354492 -0.21093801 7
0.26330599 22.438477 -0.27050799 7
0.14267001 23.604492 -2.914551 7
0.14532501 23.56543 -2.964844 7
0.14843801 23.519531 -3.0136721 7
0.143646 23.56543 -3.0800779 7
0.140839 23.588867 -3.1425779 7
-0.835114 -22.380859 -22.144043 7
-0.82928503 -22.391602 -22.044434 7
-0.83758497 -22.507812 -22.054688 7
-0.85241699 -22.671875 -22.11377 7
-0.86395299 -22.8125 -22.147949 7
-0.88043201 -22.990234 -22.21875 7
-0.90072602 -23.196289 -22.317871 7
-0.90847802 -23.30957 -22.320801 7
-0.66531402 -24.628906 -16.623535 7
-0.653992 -24.571289 -16.493164 7
-0.67047101 -24.754883 -16.537109 7
-0.686432 -24.93457 -16.57666 7
-0.69531202 -25.051758 -16.571289 7
-0.69546503 -25.09375 -16.512207 7
-0.70214802 -25.193359 -16.493164 7
-0.88220203 -28.564453 -14.522949 7
-0.91516101 -28.908203 -14.624023 7
-0.92352301 -29.022461 -14.597168 7
-0.90835601 -28.916016 -14.450684 7
0.25064099 21.022461 2.8701169 7
0.24115001 21.130859 2.8266599 7
0.24295001 21.117188 2.7763669 7
0.24255399 21.125977 2.727051 7
0.24966399 21.052734 2.672852 7
0.25625601 20.985352 2.6196289 7
0.26013201 20.947266 2.5683589 7
0.23187301 21.297852 -0.32617199 7
0.236816 21.241211 -0.371582 7
0.239105 21.212891 -0.41943401 7
0.24084499 21.191406 -0.46777299 7
0.238342 21.214844 -0.52050799 7
0.239563 21.198242 -0.569336 7
0.243439 21.152344 -0.61523402 7
-0.73980701 -19.350586 -20.884277 7
-0.73877001 -19.395508 -20.82959 7
-0.74819899 -19.509766 -20.853516 7
-0.75643897 -19.616211 -20.868652 7
-0.764099 -19.71875 -20.87793 7
-0.77526897 -19.845703 -20.914062 7
-0.78524798 -19.963867 -20.940918 7
-0.79290801 -20.066406 -20.949219 7
-0.60458398 -20.458984 -17.835938 7
-0.605865 -20.511719 -17.79541 7
-0.61645502 -20.633789 -17.817871 7
-0.62353498 -20.729492 -17.815918 7
-0.59530598 -22.089844 -15.672852 7
-0.596008 -22.134766 -15.624023 7
-0.58508301 -22.085938 -15.504395 7
-0.59277302 -22.186523 -15.498047 7
-0.60702503 -22.37793 -15.476562 7
-0.62747198 -22.581055 -15.54541 7
-0.62234497 -22.578125 -15.460449 7
-0.63470501 -22.716797 -15.479492 7
-0.65347302 -22.90625 -15.535645 7
-0.84292603 -26.329102 -13.529785 7
-0.389465 -9.8662109 24.605957 7
0.23175 19.916016 2.2290039 7
0.23703 19.865234 2.1806641 7
0.24002101 19.836914 2.132812 7
0.243622 19.804688 2.085449 7
0.24890099 19.75293 2.0375979 7
0.25360101 19.707031 1.990234 7
0.25262499 19.719727 1.943848 7
0.215515 20.037109 -0.98486298 7
0.21624801 20.025391 -1.031738 7
0.216949 20.013672 -1.078125 7
0.215973 20.018555 -1.126953 7
0.214386 20.029297 -1.17627 7
0.203766 20.132812 -1.237793 7
0.079865001 20.985352 -3.875488 7
0.075438999 21.016602 -3.937012 7
0.078429997 20.975586 -3.9790039 7
0.079712003 20.952148 -4.0249019 7
0.086060002 20.875977 -4.058105 7
0.087371998 20.852539 -4.1044922 7
0.090332001 20.810547 -4.1455078 7
-0.582367 -18.602539 -17.126953 7
-0.57031202 -18.605469 -16.957031 7
-0.579651 -18.710938 -16.973633 7
-0.59210199 -18.837891 -17.010742 7
-0.59838903 -18.923828 -17.006348 7
-0.605286 -19.012695 -17.005371 7
-0.60907 -19.080078 -16.984375 7
-0.55731201 -20.332031 -14.716309 7
-0.56420898 -20.419922 -14.70752 7
-0.57418799 -20.53125 -14.716797 7
-0.58666998 -20.661133 -14.73877 7
-0.59728998 -20.777344 -14.750488 7
-0.59368902 -20.787109 -14.680176 7
-0.60308802 -20.895508 -14.684082 7
-0.618622 -21.047852 -14.722168 7
-0.63049299 -21.174805 -14.73877 7
-0.774719 -24.046875 -12.705566 7
-0.78970301 -24.202148 -12.718262 7
-0.80221599 -24.334961 -12.71875 7
-0.82711798 -24.570312 -12.776855 7
-0.817352 -24.522461 -12.672363 7
-0.811279 -24.504883 -12.585938 7
-0.81512499 -24.568359 -12.544922 7
-0.86615002 -25.62793 -11.508789 7
-0.88565099 -25.850586 -11.466797 7
-0.91738898 -26.147461 -11.536133 7
-0.41528299 -12.374023 21.965332 7
-0.41531399 -12.326172 21.994629 7
0.200256 19.051758 1.894531 7
0.202209 19.03418 1.849121 7
0.21264599 18.935547 1.8037111 7
0.217041 18.895508 1.758301 7
0.221558 18.854492 1.668945 7
0.22534201 18.821289 1.624512 7
0.186371 19.072266 -1.312988 7
0.187714 19.054688 -1.355957 7
0.183624 19.087891 -1.406738 7
0.183777 19.081055 -1.45166 7
0.18630999 19.049805 -1.4931639 7
0.185242 19.053711 -1.5400389 7
0.184784 19.052734 -1.585449 7
0.053711001 19.745117 -4.4985352 7
0.056244001 19.708008 -4.5385742 7
0.056976002 19.689453 -4.58252 7
0.053528 19.708008 -4.639648 7
0.047028001 19.753906 -4.7050781 7
0.042389002 19.783203 -4.7661128 7
-0.70318598 -15.608398 -19.19043 7
-0.70529199 -15.667969 -19.166992 7
-0.71585101 -15.772461 -19.203613 7
-0.72317499 -15.861328 -19.216797 7
-0.73767102 -15.988281 -19.280273 7
-0.74038702 -16.049805 -19.260254 7
-0.74182099 -16.105469 -19.230957 7
-0.51843297 -16.401367 -16.304199 7
-0.50872803 -16.383789 -16.202148 7
-0.493774 -16.333008 -16.065918 7
-0.506989 -16.454102 -16.111328 7
-0.50643897 -16.490234 -16.067871 7
-0.514404 -16.579102 -16.079102 7
-0.52825898 -16.705078 -16.128418 7
-0.538849 -16.810547 -16.155273 7
-0.54678297 -16.899414 -16.165039 7
-0.54495198 -16.928711 -16.112793 7
-0.53787202 -16.924805 -16.026367 7
-0.48834199 -18.25293 -13.862305 7
-0.498932 -18.359375 -13.878418 7
-0.51150501 -18.481445 -13.905273 7
-0.52209502 -18.588867 -13.919434 7
-0.53530902 -18.713867 -13.94873 7
-0.53347802 -18.736328 -13.893066 7
-0.53817701 -18.803711 -13.874512 7
-0.55139202 -18.930664 -13.902832 7
-0.56201202 -19.039062 -13.915527 7
-0.57458502 -19.162109 -13.938965 7
-0.56430101 -19.160156 -13.790527 7
-0.73522902 -22.139648 -12.022949 7
-0.724823 -22.09082 -11.922852 7
-0.72396898 -22.099609 -11.850586 7
-0.74185199 -22.266602 -11.878418 7
-0.75314301 -22.382812 -11.875 7
-0.76843297 -22.529297 -11.889648 7
-0.81906098 -23.696289 -10.610352 7
-0.81256098 -23.670898 -10.527832 7
-0.86804199 -24.137695 -10.688965 7
-0.85430902 -24.055664 -10.577637 7
0.193268 17.962891 1.565918 7
0.185669 18.03418 1.523438 7
0.188416 18.011719 1.481934 7
0.188538 18.011719 1.439453 7
0.19769301 17.928711 1.3974611 7
0.20297199 17.881836 1.355469 7
0.205688 17.858398 1.313965 7
0.15625 18.113281 -1.619141 7
0.159576 18.077148 -1.656738 7
0.163666 18.02832 -1.735352 7
0.16122399 18.042969 -1.781738 7
0.162659 18.023438 -1.822266 7
0.166748 17.972656 -1.900391 7
0.027832 18.494141 -5.046875 7
0.027313 18.484375 -5.0922852 7
-0.59316999 -13.083008 -18.175781 7
-0.59881598 -13.154297 -18.182617 7
-0.60855103 -13.246094 -18.21875 7
-0.60800201 -13.289062 -18.182129 7
-0.48629799 -14.77832 -15.666504 7
-0.47537199 -14.757812 -15.561523 7
-0.46713299 -14.75 -15.474609 7
-0.46447799 -14.774414 -15.422363 7
-0.46597299 -14.822266 -15.395996 7
-0.468842 -14.875977 -15.37793 7
-0.48001099 -14.977539 -15.411133 7
-0.491882 -15.083008 -15.449219 7
-0.503021 -15.18457 -15.482422 7
-0.50173998 -15.216797 -15.437988 7
-0.46579 -16.712891 -13.414551 7
-0.438416 -16.640625 -13.143066 7
-0.456543 -16.789062 -13.202637 7
-0.46908599 -16.902344 -13.230469 7
-0.48236099 -17.020508 -13.262207 7
-0.49212599 -17.115234 -13.274414 7
-0.49017301 -17.136719 -13.222168 7
-0.49234 -17.183594 -13.192871 7
-0.49868801 -17.257812 -13.185547 7
-0.50848401 -17.355469 -13.196289 7
-0.52590901 -17.500977 -13.248535 7
-0.51849401 -17.520508 -13.124512 7
-0.70163 -20.511719 -11.445801 7
-0.689484 -20.511719 -11.245605 7
-0.70278901 -20.635742 -11.253906 7
-0.70983899 -20.714844 -11.234863 7
0.200073 16.916992 0.82324201 7
0.20156901 16.904297 0.78417999 7
0.20440701 16.878906 0.74560499 7
0.19976801 16.916992 0.70361298 7
-0.41540501 -13.101562 -14.709473 7
-0.415497 -13.138672 -14.678223 7
-0.42507899 -13.224609 -14.705078 7
-0.42956501 -13.28418 -14.700195 7
-0.43771401 -13.362305 -14.717773 7
-0.446594 -13.446289 -14.739746 7
-0.45181301 -13.509766 -14.738281 7
-0.430298 -15.404297 -12.589844 7
-0.43847701 -15.484375 -12.595703 7
-0.43783599 -15.513672 -12.555176 7
-0.43353301 -15.519531 -12.495605 7
-0.44018599 -15.589844 -12.492188 7
-0.45498699 -15.709961 -12.532227 7
-0.463837 -15.793945 -12.541016 7
-0.461761 -15.814453 -12.492188 7
-0.65225202 -18.923828 -10.708496 7
-0.64205903 -18.882812 -10.620117 7
-0.64144897 -18.90625 -10.572754 7
-0.65844703 -19.046875 -10.598633 7
-0.66519201 -19.119141 -10.581055 7
-0.73999 -20.484375 -9.3085938 7
-0.74600202 -20.550781 -9.28125 7
-0.77346802 -20.791016 -9.28125 7
-0.29403701 -7.6660161 19.079102 7
-0.29553199 -7.6289058 19.108398 7
-0.29699701 -7.5908198 19.137207 7
-0.299225 -7.5556641 19.171387 7
0.173004 16.166016 0.61718798 7
0.17746 16.128906 0.58154303 7
0.178284 16.121094 0.54394501 7
0.182007 16.088867 0.50830102 7
0.186462 16.051758 0.47265601 7
0.18945301 16.026367 0.43652299 7
0.190277 16.017578 0.399414 7
0.18536399 16.055664 0.35888699 7
-0.483917 -9.2773438 -16.606445 7
-0.49093601 -9.34375 -16.630371 7
-0.49410999 -9.3964844 -16.628906 7
-0.497284 -9.4501953 -16.626953 7
-0.50125098 -9.5058594 -16.629883 7
-0.50439501 -9.5595703 -16.627441 7
-0.51296997 -9.6318359 -16.660645 7
-0.51770002 -9.6904297 -16.668457 7
-0.52935803 -9.7753906 -16.722168 7
-0.53482097 -9.8369141 -16.734375 7
-0.54107702 -9.9023438 -16.751465 7
-0.538849 -9.9355469 -16.712891 7
-0.532013 -9.9521484 -16.643066 7
-0.40066499 -11.606445 -14.340332 7
-0.39691201 -11.625 -14.289062 7
-0.384644 -11.605469 -14.1875 7
-0.38012701 -11.62207 -14.132324 7
-0.381744 -11.665039 -14.11377 7
-0.38415501 -11.711914 -14.100098 7
-0.38964799 -11.772461 -14.104004 7
-0.392822 -11.823242 -14.094238 7
-0.401398 -11.898438 -14.116699 7
-0.40457201 -11.949219 -14.106934 7
-0.41470301 -12.03125 -14.137695 7
-0.37585399 -13.779297 -12.109863 7
-0.37747201 -13.819336 -12.084961 7
-0.37680101 -13.84668 -12.04834 7
-0.381531 -13.90332 -12.039062 7
-0.38394201 -13.947266 -12.018066 7
-0.39483601 -14.038086 -12.041016 7
-0.40423599 -14.120117 -12.055664 7
-0.41128501 -14.189453 -12.057617 7
-0.40673801 -14.195312 -12.000488 7
-0.40838599 -14.235352 -11.974121 7
-0.41851801 -14.322266 -11.991211 7
-0.61737102 -17.630859 -10.009277 7
-0.62445098 -17.701172 -9.9951172 7
-0.64099097 -17.856445 -9.9765615 7
-0.71368402 -19.206055 -8.6494141 7
-0.730865 -19.341797 -8.6625977 7
-0.276398 -7.3261719 17.968262 7
-0.27950999 -7.2949219 18.007324 7
-0.28106701 -7.2607422 18.035156 7
-0.277924 -7.2119141 18.03125 7
-0.28109699 -7.1826172 18.069336 7
-0.27950999 -7.1386719 18.075684 7
-0.28500399 -7.1152339 18.130371 7
-0.28500399 -7.0751948 18.147461 7
0.158417 15.373047 0.30273399 7
0.16235401 15.34082 0.269043 7
0.162476 15.337891 0.23291001 7
0.164093 15.322266 0.197754 7
0.16879299 15.285156 0.165039 7
0.169678 15.275391 0.12988301 7
0.169769 15.272461 0.09375 7
0.164551 15.308594 0.054198999 7
0.16311599 15.316406 0.01709 7
0.11792 15.163086 -2.9013669 7
0.113495 15.185547 -2.9467771 7
0.113586 15.174805 -2.9824221 7
0.112946 15.168945 -3.019531 7
0.113129 15.147461 -3.0913091 7
0.114014 15.130859 -3.125 7
-0.36373901 -10.267578 -13.690918 7
-0.352478 -10.291016 -13.574707 7
-0.35510299 -10.371094 -13.540039 7
-0.35925299 -10.422852 -13.539062 7
-0.36261001 -10.470703 -13.532715 7
-0.36840799 -10.529297 -13.541504 7
-0.332275 -12.486328 -11.503418 7
-0.32910201 -12.500977 -11.457031 7
-0.33081099 -12.539062 -11.435547 7
-0.34152201 -12.62207 -11.459473 7
-0.347321 -12.680664 -11.458008 7
-0.35476699 -12.748047 -11.464844 7
-0.35156199 -12.760742 -11.417969 7
-0.347565 -12.770508 -11.367188 7
-0.35257 -12.824219 -11.361328 7
-0.361633 -12.900391 -11.375 7
-0.36987299 -12.97168 -11.385254 7
-0.376495 -13.035156 -11.386719 7
-0.38150001 -13.089844 -11.379395 7
-0.373505 -13.107422 -11.277344 7
-0.65463299 -17.602539 -8.3017578 7
-0.658813 -17.650391 -8.2734385 7
-0.65564001 -17.652344 -8.2207031 7
-0.65490699 -17.669922 -8.1762695 7
-0.65911901 -17.71875 -8.1479492 7
-0.66082799 -17.750977 -8.1113281 7
-0.67074603 -17.833008 -8.1015615 7
-0.321136 -9.8642578 15.794922 7
-0.307037 -9.7744141 15.736328 7
-0.31118801 -9.7568359 15.78418 7
-0.318665 -9.7519531 15.850586 7
-0.33285499 -9.7724609 15.955078 7
-0.33535799 -9.7480469 15.992676 7
-0.32287601 -9.6650391 15.943848 7
-0.31707799 -9.609375 15.932617 7
0.14208999 14.616211 -0.022461001 7
0.14541601 14.589844 -0.054687999 7
0.148743 14.5625 -0.086425997 7
0.15203901 14.535156 -0.118164 7
0.152954 14.525391 -0.15136699 7
0.15469401 14.510742 -0.184082 7
0.15960699 14.470703 -0.21435501 7
0.15487701 14.501953 -0.25244099 7
0.150177 14.532227 -0.29101601 7
0.097655997 14.3125 -3.2119141 7
0.096954003 14.307617 -3.2470701 7
0.10025 14.274414 -3.273438 7
0.100342 14.262695 -3.3071289 7
0.098846003 14.262695 -3.344238 7
0.101349 14.233398 -3.3725591 7
0.097442999 14.25 -3.4150391 7
0.098328002 14.232422 -3.4467771 7
0.099243 14.214844 -3.4780271 7
0.100128 14.197266 -3.5097661 7
-0.33642599 -9.1845703 -13.119629 7
-0.33740199 -9.2548828 -13.080566 7
-0.314331 -11.555664 -11.012207 7
-0.321289 -11.616211 -11.018555 7
-0.32824701 -11.678711 -11.024902 7
-0.33175701 -11.722656 -11.013672 7
-0.33096299 -11.748047 -10.981445 7
-0.33017001 -11.771484 -10.949219 7
-0.33282501 -11.8125 -10.933594 7
-0.341492 -11.881836 -10.947266 7
-0.35015899 -11.952148 -10.959961 7
-0.357941 -12.016602 -10.96875 7
-0.356323 -12.038086 -10.932129 7
-0.359833 -12.083008 -10.919922 7
-0.625916 -16.606445 -7.660645 7
-0.63375902 -16.673828 -7.6455078 7
-0.643341 -16.75 -7.6357422 7
-0.65289301 -16.828125 -7.625977 7
-0.65643299 -16.870117 -7.597168 7
-0.65652502 -16.890625 -7.5566411 7
-0.65576202 -16.90625 -7.5141602 7
-0.31329301 -9.5820312 14.892578 7
-0.31155401 -9.5429688 14.905762 7
-0.303711 -9.4804688 14.88623 7
-0.290649 -9.3994141 14.837402 7
-0.294159 -9.3808594 14.878906 7
-0.30114701 -9.3759766 14.938965 7
-0.31164601 -9.3837891 15.018066 7
-0.23431399 -6.3798828 16.111328 7
-0.236908 -6.3525391 16.14209 7
-0.241272 -6.329102 16.18457 7
-0.242157 -6.296875 16.205078 7
-0.237762 -6.25 16.193359 7
-0.243011 -6.1933589 16.254883 7
-0.24649 -6.1669922 16.291016 7
0.13159201 13.947266 -0.010742 7
0.12912001 13.960938 -0.04541 7
0.125854 13.981445 -0.081055 7
0.130219 13.948242 -0.110352 7
0.127777 13.961914 -0.14501999 7
0.12533601 13.975586 -0.180176 7
0.12796 13.953125 -0.21093801 7
0.13146999 13.925781 -0.240723 7
0.13324 13.90918 -0.27197301 7
0.136719 13.881836 -0.30175799 7
-0.29675299 -10.606445 -10.60791 7
-0.306732 -10.676758 -10.630371 7
-0.31130999 -10.724609 -10.626465 7
-0.31500199 -10.768555 -10.618164 7
-0.30517599 -10.753906 -10.54541 7
-0.307037 -10.789062 -10.52832 7
-0.313416 -10.844727 -10.532715 7
-0.34259 -11.083008 -10.563965 7
-0.50912499 -14.094727 -8.6254883 7
-0.51556402 -14.152344 -8.6152344 7
-0.52285802 -14.213867 -8.6083984 7
-0.527466 -14.260742 -8.590332 7
-0.53204298 -14.307617 -8.5732422 7
-0.528687 -14.357422 -8.4580078 7
-0.52966303 -14.384766 -8.4267578 7
-0.59503198 -15.515625 -7.311523 7
-0.59240699 -15.520508 -7.266602 7
-0.59698498 -15.566406 -7.2431641 7
-0.60250902 -15.617188 -7.223145 7
-0.61077899 -15.683594 -7.210938 7
-0.63168299 -15.820312 -7.2368159 7
-0.63629198 -15.866211 -7.2128911 7
-0.63186598 -15.860352 -7.1616211 7
-0.63192701 -15.879883 -7.1235352 7
-0.63110399 -15.895508 -7.0834961 7
-0.63479602 -15.93457 -7.0561519 7
-0.223511 -6.0712891 15.317871 7
-0.22354101 -6.039062 15.332031 7
0.046569999 13.743164 3.016113 7
0.108826 13.356445 -0.33642599 7
0.109802 13.345703 -0.36718801 7
0.108124 13.352539 -0.40039101 7
0.10733 13.353516 -0.43261701 7
0.103851 13.371094 -0.46728501 7
0.102173 13.37793 -0.50048798 7
0.109375 13.327148 -0.52490199 7
0.113922 13.292969 -0.55175799 7
0.114899 13.282227 -0.58154303 7
0.117676 13.260742 -0.60986298 7
0.119537 13.243164 -0.63915998 7
-0.49285901 -13.217773 -8.2919922 7
-0.48913601 -13.222656 -8.2470703 7
-0.481628 -13.207031 -8.1889648 7
-0.495911 -13.299805 -8.2075195 7
-0.49600199 -13.322266 -8.1762695 7
-0.50177002 -13.373047 -8.1645508 7
-0.194977 -5.7587891 14.508789 7
-0.200745 -5.7412109 14.554199 7
-0.19976801 -5.7080078 14.5625 7
-0.195923 -5.6679692 14.555176 7
-0.197845 -5.641602 14.578613 7
-0.209351 -5.6376948 14.655762 7
-0.20648199 -5.6005859 14.65332 7
-0.20553599 -5.5673828 14.661621 7
-0.21319599 -5.5537109 14.717285 7
0.107819 12.672852 -0.65527302 7
0.11908 12.599609 -0.67334002 7
0.104248 12.685547 -0.71923798 7
0.11087 12.639648 -0.74169898 7
0.104431 12.673828 -0.77880901 7
0.110138 12.634766 -0.80175799 7
0.113007 12.611328 -0.82861298 7
0.119598 12.56543 -0.85107398 7
0.11319 12.599609 -0.88818401 7
0.120728 12.548828 -0.90869099 7
0.120819 12.542969 -0.93798798 7
-0.452454 -12.198242 -7.9614258 7
-0.45550501 -12.234375 -7.9428711 7
-0.45355201 -12.245117 -7.90625 7
-0.45062301 -12.25293 -7.8666992 7
-0.451691 -12.279297 -7.8413091 7
-0.463806 -12.378906 -7.82373 7
-0.46893299 -12.444336 -7.7817378 7
-0.18698099 -5.546875 13.792969 7
-0.187988 -5.5205078 13.811035 7
-0.18698099 -5.4892578 13.818848 7
-0.182953 -5.4501948 13.811035 7
-0.180939 -5.4160161 13.813477 7
-0.18292201 -5.390625 13.837402 7
-0.186951 -5.3710942 13.871094 7
-0.195007 -5.360352 13.925781 7
-0.18896499 -5.3173828 13.907227 7
-0.189972 -5.2900391 13.924805 7
-0.19400001 -5.2695308 13.958984 7
-0.192963 -5.2373052 13.966309 7
-0.196991 -5.2158198 14.000488 7
-0.203033 -5.1992192 14.04541 7
-0.204041 -5.171875 14.062988 7
-0.42858899 -11.535156 -7.5039058 7
-0.43594399 -11.586914 -7.5004878 7
-0.435974 -11.607422 -7.473145 7
-0.43814099 -11.637695 -7.4526372 7
-0.453796 -11.727539 -7.4760742 7
-0.455933 -11.756836 -7.4550781 7
-0.44457999 -11.727539 -7.3901372 7
-0.44879201 -11.765625 -7.3754878 7
-0.177948 -5.4257808 13.145508 7
-0.180084 -5.4033198 13.168457 7
-0.17901599 -5.3730469 13.17627 7
-0.17901599 -5.344727 13.188965 7
-0.18215901 -5.3242192 13.217285 7
-0.17901599 -5.2900391 13.214355 7
-0.183228 -5.2705078 13.248047 7
-0.175842 -5.2255859 13.224121 7
-0.177948 -5.203125 13.24707 7
-0.177917 -5.1738281 13.259766 7
-0.181091 -5.1533198 13.287598 7
-0.18423501 -5.132812 13.315918 7
-0.18319701 -5.1025391 13.322754 7
-0.181091 -5.0693359 13.324707 7
-0.181091 -5.0410161 13.336426 7
-0.184204 -4.9912109 13.376465 7
-0.18630999 -4.967773 13.398926 7
-0.158783 -5.0996089 12.509766 7
-0.164307 -5.0849609 12.547852 7
-0.164307 -5.0595698 12.560059 7
-0.166504 -5.0380859 12.582031 7
-0.166473 -5.0107422 12.594727 7
-0.163177 -4.9775391 12.59082 7
-0.16207901 -4.9492192 12.597168 7
-0.16098 -4.9199219 12.604492 7
-0.16095001 -4.8925781 12.616211 7
-0.164276 -4.8730469 12.643555 7
-0.17086799 -4.859375 12.687012 7
-0.169769 -4.8300781 12.692871 7
-0.166473 -4.796875 12.688477 7
-0.16424599 -4.765625 12.689941 7
-0.166473 -4.7441411 12.711426 7
-0.169769 -4.7236328 12.73877 7
-0.17636099 -4.710938 12.782227 7
-0.17636099 -4.6835942 12.793457 7
-0.15771499 -4.7832031 12.082031 7
-0.15884399 -4.7597661 12.098633 7
-0.15081801 -4.71875 12.073242 7
-0.148499 -4.688477 12.074219 7
-0.150787 -4.6679692 12.095703 7
-0.155396 -4.6523442 12.128418 7
-0.15884399 -4.6337891 12.155273 7
-0.153809 -4.4716802 11.652832 7
-0.15023801 -4.4404302 11.647461 7
-0.165802 -4.4462891 11.726562 7
-0.163422 -4.4179692 11.727051 7
-0.153809 -4.375 11.694824 7
-0.154999 -4.3535161 11.710938 7
-0.15618899 -4.3310552 11.727051 7
-0.15978999 -4.313477 11.75293 7
-0.164581 -4.296875 11.784668 7
-0.168152 -4.2792969 11.811035 7
-0.168152 -4.2548828 11.821289 7
-0.14996301 -4.2392578 11.240723 7
-0.14749099 -4.210938 11.240234 7
-0.144989 -4.1845698 11.239746 7
-0.153717 -4.1757808 11.287109 7
-0.124542 -4.1582031 10.633789 7
-0.119354 -4.1269531 10.623047 7
-0.11673 -4.1005859 10.622559 7
-0.118042 -4.0820308 10.637207 7
-0.118042 -4.0605469 10.646973 7
-0.121948 -4.0449219 10.672852 7
-0.131042 -4.039062 10.71875 7
-0.131042 -4.016602 10.728516 7
-0.124542 -3.984375 10.711914 7
-0.120636 -3.9550779 10.705566 7
-0.121918 -3.9355471 10.720703 7
-0.12713601 -3.922852 10.750977 7
-0.124512 -3.8955081 10.75 7
-0.133606 -3.8876951 10.796875 7
-0.137512 -3.8730471 10.821777 7
-0.141418 -3.8574221 10.847168 7
-0.135681 -4.1386719 10.250488 7
-0.135681 -4.1181641 10.260254 7
-0.135712 -4.0976558 10.27002 7
-0.135681 -4.0761719 10.279785 7
-0.13839699 -4.0605469 10.300293 7
-0.13839699 -4.0400391 10.30957 7
-0.132965 -4.0087891 10.298828 7
-0.131622 -3.985352 10.303223 7
-0.131622 -3.964844 10.3125 7
-0.128906 -3.9375 10.312012 7
-0.134308 -3.925781 10.342285 7
-0.142426 -3.9189451 10.383301 7
-0.138367 -3.890625 10.376465 7
-0.14105199 -3.874023 10.396973 7
-0.13699301 -3.8457029 10.390137 7
-0.190033 -6.7119141 8.2255859 7
-0.18301401 -6.6767578 8.2211914 7
-0.16757201 -6.6152339 8.1923828 7
-0.169006 -6.6035161 8.2124023 7
-0.17041001 -6.5917969 8.2319336 7
-0.17181399 -6.579102 8.2519531 7
-0.17184401 -6.563477 8.2675781 7
-0.180298 -6.5712891 8.3076172 7
-0.115082 -3.8330081 9.8574219 7
-0.11084 -3.8056641 9.8505859 7
-0.106598 -3.7783201 9.8447266 7
-0.109406 -3.7636721 9.8637695 7
-0.115051 -3.7529299 9.894043 7
-0.107697 -3.832031 9.4438477 7
-0.113525 -3.8232419 9.4731445 7
-0.107697 -3.792969 9.4619141 7
-0.112061 -3.78125 9.4868164 7
-0.113525 -3.764648 9.5004883 7
-0.107697 -3.735352 9.4892578 7
-0.112061 -3.7236331 9.5136719 7
-0.109161 -3.7001951 9.5126953 7
-0.104767 -3.6738279 9.5058594 7
-0.104767 -3.6542971 9.5146484 7
-0.104767 -3.6357419 9.5234385 7
-0.107697 -3.621094 9.5424805 7
-0.116425 -3.6162109 9.5825195 7
-0.117889 -3.5986331 9.5966797 7
-0.117889 -3.5800779 9.6049805 7
-0.113525 -3.5537109 9.5981445 7
-0.110596 -3.530273 9.5957031 7
-0.101471 -3.5058589 9.1850586 7
-0.101471 -3.4873049 9.1933594 7
-0.095427997 -3.4599609 9.1811523 7
-0.110535 -3.445312 9.2495117 7
-0.109009 -3.4238279 9.2524414 7
-0.110535 -3.389648 9.2744141 7
-0.109009 -3.3681641 9.2773438 7
-0.105865 -3.516602 8.871582 7
-0.104309 -3.496094 8.875 7
-0.108978 -3.484375 8.8989258 7
-0.104309 -3.460938 8.8920898 7
-0.098053001 -3.4345701 8.8798828 7
-0.104309 -3.425781 8.9086914 7
-0.102722 -3.405273 8.9116211 7
-0.104309 -3.390625 8.9248047 7
-0.102753 -3.371094 8.9277344 7
-0.107422 -3.358398 8.9516602 7
-0.108978 -3.342773 8.9648438 7
-0.110535 -3.3261721 8.9780273 7
-0.108978 -3.3066411 8.980957 7
-0.098021999 -3.2744141 8.9526367 7
-0.108978 -3.2714839 8.996582 7
-0.101166 -3.242188 8.9790039 7
-0.102722 -3.2275391 8.9921885 7
-0.107422 -3.2158201 9.0151367 7
-0.25091299 -9.343504 14.771645 7
-0.16843 -5.3562288 13.68527 7
-0.148894 -4.0059428 10.599105 7
-0.087104 -3.6177909 9.4463396 7
-0.121982 -3.4132359 8.7086201 7
-0.124501 -3.220088 8.8540897 7
0.023465 -0.314946 4.097631 7
0.024924999 -0.308 4.13346 7
0.014869 -0.30745 4.1539059 7
0.043866001 -0.27913401 3.9540739 7
0.024817999 -0.293762 3.9689679 7
0.049734 -0.27759001 3.9839311 7
0.026932999 -0.284473 4.003871 7
0.044362001 -0.279091 4.0172849 7
0.042801 -0.27372301 4.0327711 7
0.01199 -0.28822699 4.052114 7
0.039755002 -0.276535 4.064445 7
0.027051 -0.27308601 4.0815001 7
0.033216 -0.269142 4.0955381 7
0.023035999 -0.27062601 4.113039 7
0.015393 -0.261967 4.1286259 7
0.042759001 -0.247618 4.1393118 7
0.015964 -0.252323 4.1582208 7
-0.26657701 -12.524199 -11.458106 7
-0.32180601 -9.7295237 15.661911 7
-0.25547701 -5.6879401 14.232019 7
-0.18801101 -5.0217328 12.667286 7
-0.170597 -4.0963011 10.497217 7
-0.12791701 -3.7788639 9.7511654 7
-0.071209997 -3.3200319 8.6730251 7
0.245093 14.926173 0.024077 7
