# .PCD v0.7 - Point Cloud Data file format
VERSION 0.7
FIELDS x y z intensity
SIZE 4 4 4 4
TYPE F F F F
COUNT 1 1 1 1
WIDTH 1322
HEIGHT 1
VIEWPOINT 0 0 0 1 0 0 0
POINTS 1322
DATA ascii
1.201813 68.96875 22.220703 7
1.18985 69.893555 22.318359 7
1.209625 68.582031 21.751953 7
1.235931 66.810547 21.058105 7
1.233337 68.522461 18.094238 7
1.182404 73.391602 16.364746 7
1.195923 72.473633 16.000977 7
1.10788 62.455078 19.791504 7
1.108673 62.546875 19.498047 7
1.130371 61.350586 18.998047 7
1.1444089 61.907227 15.730469 7
1.143585 62.015625 15.601074 7
1.153564 61.477539 15.32666 7
1.058044 68.036133 14.455078 7
1.068329 67.473633 14.183105 7
1.081421 66.737305 13.882324 7
1.0949709 65.972656 13.57959 7
0.99798602 57.894531 18.146973 7
1.019226 56.913086 17.720703 7
1.025177 57.923828 14.515625 7
1.0448 57.040039 14.035156 7
1.0057369 59.048828 14.32959 7
1.018555 58.455078 14.057129 7
1.026825 58.087891 13.834961 7
1.031464 57.905273 13.653809 7
1.042114 57.418945 13.410156 7
0.92123401 64.113281 12.913574 7
0.930969 63.666992 12.680176 7
0.94625902 62.9375 12.398926 7
0.95544398 62.518555 12.174805 7
0.87750202 56.311523 17.712891 7
0.92224097 54.43457 17.03418 7
0.93682897 53.857422 16.732422 7
0.96301299 52.776367 16.293457 7
0.925354 55.540039 13.863281 7
0.95163 54.47168 13.355957 7
0.96441698 53.949219 13.109375 7
0.99529999 52.668945 12.574219 7
0.91531402 56.304688 13.060059 7
0.93441802 55.5 12.759766 7
0.94641101 55.052734 12.398926 7
0.956177 54.65918 12.187012 7
0.868469 59.328125 10.501953 7
0.88748199 58.547852 10.102051 7
0.836487 51.47168 15.919434 7
0.85497999 50.544922 15.514648 7
0.88348401 49.505859 15.101562 7
0.92086798 48.125977 14.600586 7
0.85675001 51.558594 12.571289 7
0.87506098 50.885742 12.301758 7
0.87231398 51.030273 12.206543 7
0.89105201 50.339844 11.938477 7
0.91626 49.394531 11.621094 7
0.84375 52.488281 11.354004 7
0.85116601 52.235352 11.178711 7
0.86309803 51.803711 10.973145 7
0.86990398 51.572266 10.804688 7
0.87948602 51.230469 10.619141 7
0.77359003 55.996094 9.1635742 7
0.78228801 55.683594 8.987793 7
0.79376203 55.260742 8.7978516 7
0.81091303 54.609375 8.581543 7
0.762573 48.479492 14.849121 7
0.78344703 47.811523 14.543945 7
0.80560303 47.09668 14.230469 7
0.84063703 45.978516 13.695801 7
0.79467797 48.467773 11.459473 7
0.805695 48.119141 11.269531 7
0.80963099 48.015625 11.130859 7
0.82342499 47.567383 10.924316 7
0.767151 49.907227 10.04834 7
0.77468902 49.673828 9.8876953 7
0.78680402 49.276367 9.7016602 7
0.791412 49.146484 9.5610352 7
0.79846197 48.927734 9.4067383 7
0.81039399 48.536133 9.2265615 7
0.81103498 48.541992 9.1098633 7
0.702057 52.874023 7.753418 7
0.71008301 52.616211 7.597168 7
0.71841401 52.344727 7.440918 7
0.48120099 23.475586 -61.079102 7
0.69079602 45.811523 13.865723 7
0.71414202 45.133789 13.569336 7
0.73782301 44.443359 13.272949 7
0.75140399 44.063477 13.061035 7
0.75445598 44.005859 12.935547 7
0.73034698 45.569336 10.625 7
0.74896199 45.016602 10.404785 7
0.75457799 44.870117 10.265625 7
0.75927699 44.75293 10.133301 7
0.77127099 44.405273 9.9580078 7
0.72277802 46.387695 8.5332031 7
0.73004198 46.183594 8.3911133 7
0.73910499 45.922852 8.2416992 7
0.74047899 45.90332 8.128418 7
0.74352998 45.832031 8.0078115 7
0.75311297 45.550781 7.858398 7
0.623474 43.051758 12.910156 7
0.64160198 42.585938 12.679688 7
0.669159 41.858398 12.383789 7
0.681122 41.561523 12.202148 7
0.700867 41.047852 11.967285 7
0.69036901 42.117188 9.5288086 7
0.69616699 41.979492 9.4003906 7
0.69769299 41.963867 9.2954102 7
0.70980799 41.648438 9.1352539 7
0.70581102 41.787109 9.0585938 7
0.66024798 43.564453 7.2744141 7
0.66497803 43.449219 7.1547852 7
0.66894501 43.358398 7.039062 7
0.67510998 43.203125 6.9165039 7
0.680664 43.064453 6.795898 7
0.55822802 40.389648 11.890137 7
0.619385 39.732422 8.5810547 7
0.62509203 39.611328 8.4633789 7
0.63330102 39.425781 8.3354492 7
0.63815302 39.347656 8.1298828 7
0.64950597 39.079102 7.9912109 7
0.65386999 38.991211 7.8823242 7
0.65386999 39.010742 7.7910161 7
0.65798998 38.927734 7.6835942 7
0.59314001 40.983398 6.0405269 7
0.60198998 40.774414 5.9204102 7
0.60992402 40.586914 5.8032231 7
0.61450201 40.485352 5.6962891 7
0.62039202 40.348633 5.585938 7
0.62539703 40.236328 5.4790039 7
0.52804601 43.076172 3.51123 7
0.53573602 42.887695 3.4008789 7
0.54409802 42.681641 3.2915039 7
0.55246001 42.475586 3.1826169 7
0.55654901 42.379883 3.078613 7
0.55346698 42.470703 2.9814451 7
0.538055 37.303711 10.831055 7
0.54031402 37.280273 10.731934 7
0.54705799 37.154297 10.60791 7
0.54776001 38.442383 5.1342769 7
0.55322301 38.328125 5.032227 7
0.56015003 38.178711 4.9282231 7
0.56414801 38.099609 4.8300781 7
0.56961101 37.983398 4.7304692 7
0.57580602 37.851562 4.629395 7
0.48867801 40.18457 2.4438479 7
0.49114999 40.132812 2.348145 7
0.50329602 39.856445 2.249512 7
0.51528901 35.785156 4.1030269 7
0.52124 35.668945 4.0102539 7
0.52227801 35.658203 3.9248049 7
0.528503 35.533203 3.832031 7
0.535797 35.386719 3.7392581 7
0.539307 35.322266 3.6513669 7
0.41711399 38.146484 1.660156 7
0.42031899 38.082031 1.569824 7
0.42950401 37.889648 1.480469 7
0.439758 37.671875 1.39209 7
0.44677699 37.525391 1.304199 7
0.46340901 34.168945 3.441895 7
0.47302201 33.985352 3.351074 7
0.47827101 33.890625 3.266113 7
0.486725 33.731445 3.1782229 7
0.49252301 33.623047 3.093262 7
0.49978599 33.486328 3.008301 7
0.50851399 33.320312 2.921875 7
0.372742 36.168945 0.90820301 7
0.37560999 36.115234 0.82421899 7
0.382294 35.984375 0.74218798 7
0.39041099 35.823242 0.66064501 7
0.39883399 35.657227 0.58056599 7
0.40258801 35.584961 0.49902299 7
0.406647 35.507812 0.41699201 7
0.39428699 35.755859 0.32519501 7
0.033507999 12.486328 -41.373535 7
-1.748138 -59.399414 -34.418457 7
-1.880188 -61.474609 -35.468262 7
-1.931335 -62.330078 -35.780273 7
-1.960602 -62.855469 -35.891113 7
-1.95105 -62.791016 -35.65332 7
-1.813629 -63.427734 -28.726562 7
-1.807709 -63.461914 -28.376465 7
0.42657501 30.924805 8.4614258 7
0.43164101 30.855469 8.3686523 7
0.44616699 31.630859 2.5415039 7
0.45407099 31.493164 2.4624021 7
0.45877099 31.412109 2.38623 7
0.45993 31.397461 2.312012 7
0.46209699 31.364258 2.2373049 7
0.468079 31.260742 2.1616211 7
0.469879 31.232422 2.0874021 7
0.46206701 31.379883 2.015625 7
0.366669 33.19043 -0.305664 7
0.36975101 33.133789 -0.38085899 7
0.37027001 33.123047 -0.458496 7
0.36602801 33.199219 -0.54199201 7
-1.66391 -53.05957 -32.524414 7
-1.713226 -53.814453 -32.82666 7
-1.745026 -54.331055 -32.974121 7
-1.778625 -54.87207 -33.134277 7
-1.806519 -55.335938 -33.242188 7
-1.855865 -56.09668 -33.533691 7
-1.487793 -52.068359 -28.368652 7
-1.531464 -52.75293 -28.59375 7
-1.402771 -51.115234 -27.189453 7
-1.458984 -51.980469 -27.510254 7
-1.446045 -51.858398 -27.283203 7
-1.566162 -55.098633 -24.952148 7
-1.5984499 -55.629883 -25.043945 7
-0.76339698 -19.882812 43.371094 7
0.41464201 29.8125 1.8544919 7
0.421417 29.702148 1.783203 7
0.423035 29.679688 1.713379 7
0.42562899 29.637695 1.643066 7
0.43035901 29.5625 1.5732419 7
0.432953 29.521484 1.503906 7
0.435242 29.486328 1.43457 7
0.42782599 29.615234 1.3642581 7
0.32907099 31.288086 -1.0107419 7
0.33413699 31.200195 -1.077637 7
0.33361799 31.205078 -1.152832 7
0.333832 31.198242 -1.226074 7
-0.017883001 10.194336 -35.470703 7
-1.408783 -44.459961 -29.620605 7
-1.442413 -44.947266 -29.80127 7
-1.464813 -45.293945 -29.882812 7
-1.491852 -45.700195 -30.003418 7
-1.52356 -46.165039 -30.161621 7
-1.557587 -46.661133 -30.337402 7
-1.580811 -47.020508 -30.419434 7
-1.618317 -47.560547 -30.620117 7
-1.689545 -48.59668 -30.982422 7
-1.1882631 -42.981445 -25.674316 7
-1.218811 -43.431641 -25.814453 7
-1.248596 -43.874023 -25.945312 7
-1.2679141 -44.181641 -25.991699 7
-1.2915339 -44.544922 -26.070801 7
-1.313538 -44.886719 -26.134766 7
-1.332062 -45.186523 -26.171387 7
-1.1489871 -43.454102 -23.597168 7
-1.223145 -44.478516 -24.042969 7
-1.2028199 -44.269531 -23.785156 7
-1.274231 -45.258789 -24.20459 7
-1.407379 -48.485352 -22.080078 7
-1.479767 -49.513672 -22.432129 7
0.38925201 27.805664 0.90820301 7
0.39621001 27.697266 0.84570301 7
0.39901701 27.655273 0.78173798 7
0.39581299 27.706055 0.71484399 7
0.38809201 27.827148 0.64550799 7
0.27371201 29.540039 -1.648438 7
0.27801499 29.467773 -1.710938 7
0.28271499 29.389648 -1.7724611 7
0.287781 29.305664 -1.8330081 7
0.29135099 29.246094 -1.895996 7
-1.393829 -40.889648 -28.463379 7
-1.421783 -41.277344 -28.595703 7
-1.446442 -41.62793 -28.699219 7
-1.473175 -42.00293 -28.818359 7
-1.504456 -42.430664 -28.973145 7
-1.5233459 -42.71582 -29.024902 7
-1.5608521 -43.216797 -29.226562 7
-1.119873 -38.835938 -24.518555 7
-1.131287 -39.02832 -24.513184 7
-1.147705 -39.280273 -24.545898 7
-1.16037 -39.487305 -24.548828 7
-1.201599 -40.033203 -24.77002 7
-1.2184139 -40.291016 -24.802734 7
-1.23111 -40.499023 -24.802246 7
-1.062988 -39.46875 -21.824219 7
-1.1138 -40.137695 -22.089355 7
-1.1621701 -40.780273 -22.333496 7
-1.134216 -40.491211 -22.038574 7
-1.215332 -41.53418 -22.508301 7
-1.279633 -43.732422 -20.057617 7
-1.3471071 -44.681641 -20.258301 7
-0.60693401 -16.967773 35.52832 7
-0.63131702 -17.035156 35.866699 7
0.35885599 26.25 3.680176 7
0.35458401 26.319336 3.6230471 7
0.373932 26.054688 3.4785161 7
0.37817401 26.001953 3.413574 7
0.38562 25.900391 3.344238 7
0.390625 25.834961 3.2783201 7
0.374634 26.073242 3.233398 7
0.34127799 26.702148 0.62939501 7
0.35006699 26.574219 0.50830102 7
0.35668901 26.478516 0.45019501 7
0.35968 26.435547 0.38964799 7
0.363464 26.379883 0.32910201 7
0.23056 28.178711 -2.0249021 7
0.22787499 28.200195 -2.230469 7
0.241302 28 -2.2705081 7
0.24890099 27.876953 -2.3881841 7
0.253479 27.803711 -2.4443359 7
0.24682599 27.892578 -2.5244141 7
-0.13565101 15.708008 -29.200195 7
-0.051910002 11.472656 -29.715332 7
-1.116791 -33.753906 -25.924316 7
-1.1383671 -34.037109 -26.019531 7
-1.156372 -34.283203 -26.084473 7
-1.342194 -36.645508 -26.988281 7
-1.362 -36.915039 -27.057129 7
-1.387146 -37.242188 -27.16748 7
-1.409668 -37.541016 -27.256348 7
-1.0335391 -34.674805 -22.702637 7
-1.027069 -34.660156 -22.571289 7
-0.97293103 -34.12793 -22.086914 7
-0.99008203 -34.366211 -22.130859 7
-0.91097999 -33.560547 -21.466797 7
-0.95416301 -35.029297 -20.117188 7
-0.958893 -35.130859 -20.064941 7
-0.98409998 -35.459961 -20.150879 7
-1.022705 -35.941406 -20.325195 7
-1.023834 -36.000977 -20.245605 7
-1.039246 -36.223633 -20.262207 7
-1.137573 -38.766602 -18.081055 7
-1.146301 -38.911133 -18.038574 7
-1.225098 -39.918945 -18.304199 7
0.33081099 24.743164 3.190918 7
0.32571399 24.81543 3.136719 7
0.32547 24.826172 3.079102 7
0.32778901 24.799805 3.0185549 7
0.33886701 24.657227 2.9516599 7
0.34643599 24.5625 2.8881841 7
0.35052499 24.512695 2.827637 7
0.35504201 24.458008 2.766602 7
0.35913101 24.408203 2.706543 7
0.35885599 24.416016 2.6494141 7
0.349426 24.547852 2.598145 7
0.32064801 25.005859 -0.035156 7
0.32644701 24.926758 -0.088867001 7
0.32748401 24.911133 -0.146484 7
0.32632399 24.923828 -0.207031 7
0.33560199 24.797852 -0.256836 7
0.33447301 24.810547 -0.31640601 7
0.202271 26.376953 -2.894531 7
0.207214 26.303711 -2.945312 7
0.210815 26.246094 -2.999512 7
0.214874 26.18457 -3.0522461 7
0.212891 26.202148 -3.1186521 7
0.209167 26.242188 -3.1899409 7
-0.15203901 14.810547 -26.967773 7
-0.157501 14.77832 -27.070312 7
-1.077942 -30.511719 -24.791504 7
-1.1040339 -30.875977 -24.850098 7
-1.1066279 -30.958984 -24.79541 7
-1.1500241 -31.427734 -25.063477 7
-0.92346197 -31.728516 -19.803711 7
-0.91842699 -31.723633 -19.692871 7
-0.89196801 -31.499023 -19.438477 7
-0.87027001 -31.323242 -19.216797 7
-0.862122 -31.332031 -19.01123 7
-0.849976 -31.25293 -18.85498 7
-0.87460297 -31.688477 -18.713867 7
-0.89862102 -31.982422 -18.793457 7
-0.92169201 -32.267578 -18.866211 7
-0.92571998 -32.355469 -18.814453 7
-0.943542 -32.585938 -18.851074 7
-0.96902502 -32.896484 -18.935547 7
-0.99258399 -33.188477 -19.006836 7
-1.08725 -35.661133 -16.754883 7
-1.117584 -36.032227 -16.835449 7
-1.161255 -36.548828 -16.987793 7
-0.50427198 -14.795898 29.795898 7
-0.52630597 -14.849609 30.063965 7
-0.424133 -11.422852 30.306641 7
0.30505401 23.494141 2.5131841 7
0.30941799 23.444336 2.4555659 7
0.31564301 23.371094 2.397949 7
0.32186899 23.297852 2.3408201 7
0.32946801 23.206055 2.2827151 7
0.29025301 23.726562 -0.33105499 7
0.29040501 23.722656 -0.38622999 7
0.28714001 23.746094 -0.44189501 7
0.288239 23.729492 -0.496582 7
0.29302999 23.666992 -0.54736298 7
0.29873699 23.591797 -0.59716803 7
0.29751599 23.604492 -0.65429699 7
0.29904199 23.581055 -0.70800799 7
0.302917 23.530273 -0.758789 7
0.29934701 23.570312 -0.819336 7
0.30041501 23.553711 -0.87304699 7
0.174225 24.833008 -3.5214839 7
0.174835 24.81543 -3.578613 7
0.18423501 24.689453 -3.612793 7
0.181152 24.716797 -3.679199 7
0.178986 24.733398 -3.7436521 7
-0.191498 14.189453 -25.42627 7
-0.98168898 -26.620117 -23.379883 7
-0.97372401 -26.609375 -23.253418 7
-0.991211 -26.8125 -23.324219 7
-1.005676 -26.991211 -23.371094 7
-1.023163 -27.196289 -23.439941 7
-1.036621 -27.368164 -23.477539 7
-1.044952 -27.496094 -23.474609 7
-0.768646 -27.978516 -17.500488 7
-0.76013201 -27.94043 -17.378906 7
-0.782318 -28.193359 -17.45166 7
-0.800385 -28.407227 -17.49707 7
-0.81793201 -28.617188 -17.539062 7
-0.81710798 -28.652344 -17.464355 7
-0.82901001 -28.808594 -17.469727 7
-0.87390101 -29.324219 -17.60791 7
-0.99572802 -32.014648 -15.577637 7
-0.99813801 -32.113281 -15.436523 7
-1.023438 -32.40625 -15.491699 7
0.28680399 22.069336 2.2368159 7
0.281921 22.128906 2.1860349 7
0.27307099 22.235352 2.136719 7
0.27871701 22.172852 2.0830081 7
0.28488201 22.103516 2.0292971 7
0.28903201 22.058594 1.976074 7
0.29367101 22.006836 1.92334 7
0.26019299 22.352539 -0.97607398 7
0.26483199 22.294922 -1.021973 7
0.269104 22.236328 -1.12207 7
0.27124 22.206055 -1.171387 7
0.27239999 22.188477 -1.222168 7
0.270538 22.205078 -1.277344 7
0.140076 23.303711 -4.0834961 7
0.139221 23.300781 -4.141602 7
-0.87496901 -23.172852 -21.992188 7
-0.88705403 -23.318359 -22.027832 7
-0.898651 -23.460938 -22.058594 7
-0.90969801 -23.598633 -22.084961 7
-0.92401099 -23.760742 -22.135254 7
-0.93667603 -23.912109 -22.172852 7
-0.945557 -24.03418 -22.181641 7
-0.72757 -25.457031 -16.609863 7
-0.71356201 -25.374023 -16.462891 7
-0.71316499 -25.411133 -16.399414 7
-0.731354 -25.611328 -16.448242 7
-0.74679601 -25.787109 -16.480469 7
-0.749695 -25.853516 -16.436035 7
-0.754242 -25.933594 -16.400391 7
-0.76425201 -26.0625 -16.397949 7
-0.93011498 -29.276367 -14.316895 7
-0.946136 -29.460938 -14.326172 7
-0.97094703 -29.729492 -14.378418 7
-0.957977 -29.642578 -14.243164 7
-0.96035802 -29.700195 -14.184082 7
0.26730299 20.866211 1.562012 7
0.27172899 20.820312 1.513672 7
0.27453601 20.791016 1.464844 7
0.276306 20.774414 1.416016 7
0.279266 20.744141 1.318359 7
0.242981 20.979492 -1.618652 7
0.24151599 20.988281 -1.670898 7
0.242706 20.96875 -1.71875 7
0.241791 20.972656 -1.77002 7
0.241364 20.970703 -1.820312 7
0.236176 21.020508 -1.878418 7
0.099976003 22.039062 -4.4941411 7
0.101166 22.012695 -4.5429692 7
0.100769 22.003906 -4.5961909 7
0.10675 21.927734 -4.6303711 7
0.109009 21.889648 -4.6757808 7
0.10968 21.870117 -4.7255859 7
0.109253 21.860352 -4.7783198 7
-0.80862403 -20.283203 -21.008301 7
-0.79544097 -20.245117 -20.861328 7
-0.80487102 -20.360352 -20.881836 7
-0.81369001 -20.47168 -20.897461 7
-0.81906098 -20.560547 -20.887207 7
-0.82733202 -20.667969 -20.897949 7
-0.86050397 -20.948242 -21.091309 7
-0.85140997 -20.936523 -20.973633 7
-0.84692401 -20.958008 -20.890137 7
-0.66320801 -21.250977 -17.861328 7
-0.66046101 -21.275391 -17.791504 7
-0.66467297 -21.350586 -17.768066 7
-0.68221998 -21.526367 -17.833984 7
-0.69454998 -21.662109 -17.862793 7
-0.69937098 -21.742188 -17.842773 7
-0.64315802 -22.749023 -15.607422 7
-0.64270002 -22.782227 -15.549805 7
-0.63995397 -22.798828 -15.479004 7
-0.64010602 -22.838867 -15.424805 7
-0.652466 -22.976562 -15.442383 7
-0.66833502 -23.143555 -15.47998 7
-0.67663598 -23.25 -15.472656 7
-0.67678797 -23.290039 -15.417969 7
-0.70208699 -23.572266 -15.452148 7
-0.86300701 -26.65332 -13.407227 7
-0.86550897 -26.708008 -13.355469 7
-0.87966901 -26.865234 -13.359375 7
-0.89263898 -27.010742 -13.356934 7
-0.90408301 -27.177734 -13.280762 7
-0.39563 -12.430664 23.334473 7
-0.37597701 -12.285156 23.197266 7
-0.379547 -12.25 23.256348 7
-0.33599901 -9.2128906 24.257812 7
0.239105 19.827148 1.274902 7
0.236938 19.850586 1.228027 7
0.23651101 19.855469 1.1806639 7
0.240631 19.813477 1.135254 7
0.24587999 19.759766 1.089844 7
0.249451 19.723633 1.043457 7
0.253571 19.681641 0.99853498 7
0.21264599 19.875 -1.938965 7
0.217896 19.814453 -1.976562 7
0.218567 19.800781 -2.0219729 7
0.21359301 19.84375 -2.078125 7
0.217682 19.794922 -2.117188 7
0.22067299 19.756836 -2.1591799 7
0.216217 19.793945 -2.2138669 7
-0.63476598 -19.216797 -17.225586 7
-0.62136799 -19.167969 -17.091309 7
-0.62149 -19.210938 -17.04541 7
-0.61981201 -19.242188 -16.988281 7
-0.623016 -19.305664 -16.962402 7
-0.63610798 -19.438477 -17.000488 7
-0.645477 -19.544922 -17.01416 7
-0.65914899 -19.682617 -17.054688 7
-0.66174299 -19.742188 -17.023926 7
-0.60583502 -20.914062 -14.718262 7
-0.60351598 -20.933594 -14.654297 7
-0.61291498 -21.041016 -14.657715 7
-0.62786901 -21.189453 -14.691895 7
-0.64157099 -21.331055 -14.718262 7
-0.64419597 -21.387695 -14.682129 7
-0.64556903 -21.433594 -14.637695 7
-0.65869099 -21.570312 -14.65918 7
-0.67547601 -21.733398 -14.70166 7
-0.83196998 -24.683594 -12.711426 7
-0.830414 -24.734375 -12.585449 7
-0.84356701 -24.874023 -12.586914 7
-0.86724901 -25.099609 -12.634766 7
-0.87173498 -25.167969 -12.595215 7
-0.92230201 -26.25293 -11.458008 7
-0.90695202 -26.152344 -11.333008 7
-0.93685901 -26.433594 -11.391602 7
-0.931458 -26.416016 -11.306152 7
-0.37029999 -11.751953 21.790527 7
-0.36587501 -11.683594 21.783203 7
-0.38736001 -11.734375 21.982422 7
-0.40566999 -11.767578 22.156738 7
-0.39050299 -11.651367 22.063477 7
-0.37597701 -11.537109 21.974121 7
0.21359301 18.892578 0.94042999 7
0.209442 18.931641 0.89404303 7
0.206543 18.959961 0.84863299 7
0.20971701 18.928711 0.80517602 7
0.218933 18.839844 0.76464802 7
0.224518 18.785156 0.72265601 7
0.22827099 18.749023 0.68017602 7
0.178314 18.931641 -2.2719729 7
0.181458 18.893555 -2.3110349 7
0.187042 18.833984 -2.344727 7
0.18292201 18.864258 -2.3974609 7
0.179993 18.883789 -2.4477539 7
0.184357 18.833984 -2.483887 7
0.186279 18.807617 -2.5244141 7
0.039519999 19.496094 -5.460938 7
0.038451999 19.491211 -5.51123 7
0.042755 19.435547 -5.5429692 7
0.043488 19.413086 -5.5864258 7
0.046021 19.375 -5.6245122 7
0.047332998 19.345703 -5.6660161 7
0.045044001 19.351562 -5.719727 7
-0.75854498 -16.057617 -19.50293 7
-0.76519799 -16.141602 -19.510742 7
-0.76208502 -16.173828 -19.449219 7
-0.74066198 -16.103516 -19.259766 7
-0.74209601 -16.15918 -19.230469 7
-0.747437 -16.236328 -19.228516 7
-0.75933802 -16.350586 -19.272461 7
-0.76794398 -16.446289 -19.29248 7
-0.77658099 -16.541992 -19.312012 7
-0.78454602 -16.633789 -19.32666 7
-0.79708898 -16.751953 -19.373535 7
-0.80441302 -16.841797 -19.382812 7
-0.79473901 -16.834961 -19.275879 7
-0.55819702 -16.974609 -16.26709 7
-0.55242902 -16.980469 -16.189453 7
-0.55059803 -17.009766 -16.13623 7
-0.55334502 -17.067383 -16.112793 7
-0.56396502 -17.172852 -16.138672 7
-0.55331397 -18.981445 -13.890137 7
-0.56787097 -19.118164 -13.924316 7
-0.57797199 -19.257812 -13.887207 7
-0.58203101 -19.321289 -13.863281 7
-0.59594703 -19.454102 -13.892578 7
-0.75616503 -22.506836 -11.758789 7
-0.76946998 -22.638672 -11.762695 7
-0.784729 -22.786133 -11.775879 7
-0.80197102 -22.947266 -11.796387 7
-0.80606103 -23.009766 -11.759277 7
-0.79895002 -22.984375 -11.67334 7
-0.79254198 -22.963867 -11.590332 7
-0.83401501 -23.930664 -10.469238 7
-0.850586 -24.088867 -10.475586 7
-0.846802 -24.084961 -10.40332 7
-0.889099 -24.449219 -10.507812 7
-0.90176398 -24.576172 -10.498047 7
-0.88809198 -24.494141 -10.387207 7
-0.895477 -24.579102 -10.356445 7
-0.89163202 -24.573242 -10.282715 7
-0.29293799 -7.9873052 21.35791 7
-0.297607 -7.9550781 21.414551 7
0.211395 17.745117 0.29541001 7
0.21347 17.725586 0.25439501 7
0.21875 17.675781 0.216309 7
0.221405 17.649414 0.17626999 7
0.222168 17.639648 0.135254 7
0.22228999 17.636719 0.09375 7
0.21661399 17.685547 0.047851998 7
0.21026599 17.740234 0.00097699999 7
0.154388 17.888672 -2.6025391 7
0.15383901 17.884766 -2.6459961 7
0.15524299 17.863281 -2.6850591 7
0.159851 17.8125 -2.717773 7
0.16442899 17.763672 -2.750488 7
0.160706 17.787109 -2.800781 7
0.16271999 17.759766 -2.8383789 7
0.020385999 18.095703 -6.0986328 7
0.021118 18.072266 -6.139648 7
0.018677 18.075195 -6.190918 7
0.013 18.104492 -6.254395 7
0.013123 18.085938 -6.296875 7
0.0055240002 18.131836 -6.367188 7
-0.64086902 -13.583008 -18.342773 7
-0.650635 -13.676758 -18.37793 7
-0.64663702 -13.702148 -18.316406 7
-0.65225202 -13.774414 -18.321777 7
-0.66342199 -13.875 -18.365234 7
-0.68432599 -14.069336 -18.440918 7
-0.51464802 -15.370117 -15.467773 7
-0.52304101 -15.456055 -15.481934 7
-0.53561401 -15.566406 -15.521973 7
-0.54333502 -15.649414 -15.531738 7
-0.53863502 -15.661133 -15.464844 7
-0.54632598 -15.744141 -15.474121 7
-0.50674403 -17.311523 -13.246094 7
-0.518646 -17.419922 -13.268555 7
-0.52432299 -17.490234 -13.256836 7
-0.52856398 -17.551758 -13.237793 7
-0.532166 -17.608398 -13.214355 7
-0.53643799 -17.669922 -13.194336 7
-0.55041498 -17.793945 -13.226074 7
-0.563721 -17.914062 -13.253418 7
-0.72485399 -20.916016 -11.175781 7
-0.73959398 -21.049805 -11.187988 7
-0.80987501 -22.400391 -9.8554688 7
-0.81695598 -22.478516 -9.8276367 7
-0.82681298 -22.576172 -9.8100586 7
-0.273682 -7.640625 20.089844 7
-0.275085 -7.601562 20.118652 7
0.198212 16.842773 -0.064452998 7
0.201721 16.80957 -0.101074 7
0.20526101 16.777344 -0.137695 7
0.20535301 16.773438 -0.177246 7
0.193878 16.867188 -0.22656199 7
0.206238 16.758789 -0.255371 7
0.209106 16.732422 -0.291504 7
0.131317 16.959961 -2.9658201 7
0.138245 16.893555 -2.9902339 7
0.13562 16.905273 -3.0361331 7
0.132324 16.921875 -3.0834961 7
0.138519 16.860352 -3.109375 7
0.142029 16.821289 -3.141113 7
0.135345 16.866211 -3.1967771 7
-0.47049001 -13.457031 -15.007812 7
-0.469116 -13.487305 -14.966797 7
-0.45901501 -13.473633 -14.873047 7
-0.45694 -13.5 -14.827637 7
-0.45556599 -13.529297 -14.786133 7
-0.46588099 -13.621094 -14.815918 7
-0.474884 -13.742188 -14.804199 7
-0.48083499 -13.80957 -14.806641 7
-0.48828101 -13.885742 -14.817871 7
-0.484741 -13.905273 -14.762695 7
-0.463074 -15.727539 -12.631836 7
-0.47051999 -15.804688 -12.633301 7
-0.47576901 -15.868164 -12.622559 7
-0.471497 -15.875 -12.561523 7
-0.47305301 -15.915039 -12.53125 7
-0.480499 -15.992188 -12.53125 7
-0.67193598 -19.226562 -10.542969 7
-0.68457001 -19.338867 -10.54834 7
-0.69497699 -19.436523 -10.544922 7
-0.70172101 -19.508789 -10.526367 7
-0.760773 -20.707031 -9.2583008 7
-0.76675397 -20.773438 -9.2304688 7
-0.77722198 -20.871094 -9.2177734 7
-0.783966 -20.942383 -9.1918945 7
-0.80249 -21.09668 -9.206543 7
-0.79452503 -21.06543 -9.1279297 7
-0.25830099 -7.2548828 18.918457 7
-0.256042 -7.2070308 18.919434 7
-0.251526 -7.1513672 18.904785 7
-0.252258 -7.1123052 18.926758 7
-0.25973499 -7.09375 18.997559 7
-0.25970501 -7.0517578 19.014648 7
0.178772 16.017578 -0.338379 7
0.180328 16.001953 -0.37451199 7
0.18545499 15.957031 -0.40771499 7
0.18847699 15.928711 -0.44189501 7
0.191467 15.901367 -0.47656199 7
0.193726 15.878906 -0.51171899 7
0.19165 15.891602 -0.55127001 7
0.18887299 15.90918 -0.59179699 7
0.18176299 15.961914 -0.63720697 7
-0.53268403 -9.65625 -16.843262 7
-0.52893102 -9.6845703 -16.794434 7
-0.52825898 -9.7246094 -16.766113 7
-0.53530902 -9.7919922 -16.789062 7
-0.53924602 -9.8486328 -16.791016 7
-0.54162598 -9.9003906 -16.783203 7
-0.54711902 -9.9619141 -16.794434 7
-0.554901 -10.032227 -16.821289 7
-0.55963099 -10.092773 -16.828125 7
-0.56820703 -10.166992 -16.859863 7
-0.57751501 -10.243164 -16.895508 7
-0.58532703 -10.31543 -16.921875 7
-0.58926398 -10.37207 -16.922363 7
-0.58703601 -10.40625 -16.882324 7
-0.559448 -10.34375 -16.676758 7
-0.42776501 -11.946289 -14.35498 7
-0.42245501 -11.958984 -14.294434 7
-0.41638201 -11.967773 -14.229004 7
-0.41879299 -12.014648 -14.214355 7
-0.42352301 -12.072266 -14.212891 7
-0.42593399 -12.119141 -14.198242 7
-0.405182 -14.09375 -12.111816 7
-0.41070601 -14.155273 -12.106445 7
-0.415436 -14.211914 -12.09668 7
-0.42327899 -14.286133 -12.102051 7
-0.43035901 -14.355469 -12.104004 7
-0.437408 -14.425781 -12.105469 7
-0.44445801 -14.496094 -12.106934 7
-0.44226101 -14.514648 -12.060547 7
-0.445465 -14.563477 -12.041504 7
-0.44943199 -14.616211 -12.026367 7
-0.462677 -14.719727 -12.057617 7
-0.65539598 -18.006836 -9.9716797 7
-0.67022699 -18.126953 -9.9873047 7
-0.668823 -18.143555 -9.9379883 7
0.161011 15.224609 -0.64111298 7
0.162628 15.207031 -0.67529303 7
0.165039 15.185547 -0.70849597 7
0.169708 15.146484 -0.73877001 7
0.169037 15.145508 -0.77587903 7
0.171417 15.123047 -0.80859399 7
0.17153899 15.118164 -0.84375 7
0.167786 15.140625 -0.88427699 7
0.164093 15.163086 -0.92382801 7
0.108856 14.888672 -3.843262 7
0.110443 14.864258 -3.874023 7
0.109009 14.862305 -3.9130859 7
0.107574 14.859375 -3.952148 7
0.106903 14.852539 -3.9892581 7
0.105469 14.849609 -4.0283198 7
0.106323 14.832031 -4.0610352 7
0.104889 14.829102 -4.1000981 7
0.10498 14.81543 -4.1352539 7
-0.38406399 -10.523438 -13.706055 7
-0.38091999 -10.545898 -13.662598 7
-0.38345301 -10.59082 -13.650879 7
-0.38922101 -10.649414 -13.658691 7
-0.392609 -10.698242 -13.652344 7
-0.40335101 -10.8125 -13.662109 7
-0.36068699 -12.77832 -11.513184 7
-0.36727899 -12.84082 -11.515137 7
-0.37637299 -12.916992 -11.529297 7
-0.38055399 -12.967773 -11.519043 7
-0.37820399 -12.985352 -11.476074 7
-0.37503099 -12.998047 -11.428711 7
-0.38165301 -13.0625 -11.430664 7
-0.59155297 -16.355469 -9.5991211 7
-0.58673102 -16.351562 -9.5415039 7
-0.57782 -16.324219 -9.4672852 7
-0.58285499 -16.378906 -9.4477539 7
-0.58706701 -16.428711 -9.4243164 7
-0.594513 -16.49707 -9.4135742 7
-0.60610998 -16.59082 -9.418457 7
-0.684021 -17.943359 -8.1230469 7
-0.686584 -17.980469 -8.0883789 7
-0.68997198 -18.023438 -8.0561523 7
-0.71142602 -18.178711 -8.0820312 7
-0.710724 -18.196289 -8.0366211 7
-0.30120799 -9.5683594 15.790527 7
-0.29705799 -9.5175781 15.789062 7
-0.276245 -9.4042969 15.690918 7
-0.27957201 -9.3828115 15.732422 7
-0.28707901 -9.3779297 15.79834 7
-0.30206299 -9.3994141 15.908691 7
-0.30127001 -9.3623047 15.925781 7
-0.29208401 -9.2939453 15.894043 7
-0.21347 -6.382812 16.81543 7
-0.214294 -6.3486328 16.835938 7
-0.216766 -6.3183589 16.867676 7
-0.222565 -6.297852 16.92041 7
-0.22589099 -6.2695308 16.956543 7
-0.22088601 -6.219727 16.939453 7
-0.22168 -6.1845698 16.959961 7
0.143158 14.504883 -0.64990199 7
0.13925201 14.52832 -0.68798798 7
0.140137 14.516602 -0.72167999 7
0.13699301 14.53418 -0.75927699 7
0.13952599 14.511719 -0.79052699 7
0.139191 14.500977 -0.85693401 7
0.145721 14.450195 -0.88281202 7
0.14743 14.431641 -0.915039 7
0.149933 14.40918 -0.94580102 7
0.151611 14.391602 -0.97802699 7
0.15573099 14.357422 -1.0068361 7
0.155029 14.357422 -1.041504 7
0.16168199 14.298828 -1.1005861 7
0.15374801 14.342773 -1.1787111 7
0.152252 14.348633 -1.214355 7
0.14910901 14.364258 -1.252441 7
0.091888003 13.958984 -4.1914058 7
0.094391003 13.928711 -4.217773 7
0.094452001 13.915039 -4.250977 7
0.094543003 13.901367 -4.2836909 7
0.093018003 13.898438 -4.3208008 7
0.093902998 13.878906 -4.3510742 7
0.093964003 13.865234 -4.3837891 7
0.091643997 13.866211 -4.4233398 7
0.091735996 13.852539 -4.4555659 7
-0.368835 -9.3017578 -13.324707 7
-0.36373901 -9.3154297 -13.272949 7
-0.35021999 -9.3339844 -13.150879 7
-0.35723901 -9.4267578 -13.14502 7
-0.36340299 -9.5175781 -13.133301 7
-0.32836899 -11.561523 -11.15332 7
-0.33102399 -11.603516 -11.138672 7
-0.334564 -11.648438 -11.12793 7
-0.338074 -11.693359 -11.117188 7
-0.34243801 -11.742188 -11.110352 7
-0.34683201 -11.791992 -11.103516 7
-0.355499 -11.861328 -11.116699 7
-0.35730001 -11.899414 -11.09668 7
-0.35568199 -11.919922 -11.060547 7
-0.35491899 -11.945312 -11.027832 7
-0.360138 -11.998047 -11.023926 7
-0.36624101 -12.055664 -11.024902 7
-0.372345 -12.114258 -11.024902 7
-0.56451398 -15.371094 -9 7
-0.57061797 -15.428711 -8.9858398 7
-0.58105499 -15.510742 -8.987793 7
-0.58547997 -15.55957 -8.9663086 7
-0.64718598 -16.776367 -7.6665039 7
-0.64816302 -16.802734 -7.629395 7
-0.657745 -16.879883 -7.6191411 7
-0.28417999 -9.2666016 14.84375 7
-0.282471 -9.2285156 14.855957 7
-0.27984601 -9.1865234 14.863281 7
-0.27371201 -9.1308594 14.852051 7
-0.26672399 -9.0732422 14.835449 7
-0.26413 -9.0332031 14.842285 7
-0.27111799 -9.0263672 14.902344 7
-0.285126 -9.0458984 15.000977 7
-0.28863499 -9.0263672 15.041992 7
-0.202667 -6.047852 16 7
-0.20526101 -6.0195308 16.030273 7
-0.20526101 -5.985352 16.044922 7
-0.21048 -5.9638672 16.091309 7
-0.20959499 -5.9267578 16.100098 7
-0.20871 -5.890625 16.108887 7
-0.209564 -5.8574219 16.12793 7
-0.21481299 -5.8349609 16.174316 7
-0.21652199 -5.804688 16.199219 7
-0.218292 -5.7744141 16.223633 7
0.13214099 13.746094 -1.191406 7
0.136444 13.710938 -1.217773 7
0.13906901 13.686523 -1.246094 7
-0.31835899 -10.587891 -10.83252 7
-0.31485 -10.600586 -10.789551 7
-0.31134 -10.613281 -10.74707 7
-0.31140101 -10.641602 -10.72168 7
-0.313324 -10.677734 -10.705078 7
-0.32150301 -10.741211 -10.71875 7
-0.326996 -10.791992 -10.71875 7
-0.33248901 -10.84375 -10.71875 7
-0.33795199 -10.896484 -10.718262 7
-0.336243 -10.916016 -10.683594 7
-0.33178699 -10.923828 -10.636719 7
-0.33459499 -10.963867 -10.623047 7
-0.33917201 -11.011719 -10.618164 7
-0.35009801 -11.087891 -10.643066 7
-0.357391 -11.147461 -10.650391 7
-0.36108401 -11.191406 -10.640625 7
-0.54333502 -14.365234 -8.6264648 7
-0.61077899 -15.648438 -7.3051758 7
-0.60995501 -15.663086 -7.2651372 7
-0.61730999 -15.724609 -7.25 7
-0.62466401 -15.785156 -7.234375 7
-0.63470501 -15.861328 -7.2270508 7
-0.646667 -15.967773 -7.1870122 7
-0.64855999 -15.99707 -7.1538091 7
-0.19085699 -5.7539058 15.206543 7
-0.19632 -5.733398 15.252441 7
-0.19265699 -5.6923828 15.244629 7
-0.199982 -5.6777339 15.300781 7
-0.201813 -5.6494141 15.325195 7
-0.19720501 -5.6054692 15.312012 7
-0.19995099 -5.579102 15.341309 7
-0.199921 -5.545898 15.354492 7
0.054382 13.748047 2.2241211 7
0.054474 13.75 2.191895 7
0.055481002 13.746094 2.159668 7
0.057342999 13.735352 2.1264651 7
0.055663999 13.749023 2.0952151 7
0.055725001 13.749023 2.0625 7
0.055023 13.757812 1.998047 7
0.056000002 13.75293 1.964844 7
0.059691999 13.731445 1.9326169 7
0.103882 13.197266 -1.318359 7
0.103943 13.189453 -1.349121 7
0.111237 13.129883 -1.4013669 7
0.112274 13.110352 -1.4619139 7
0.115906 13.081055 -1.487305 7
0.117798 13.061523 -1.515625 7
0.121429 13.032227 -1.540527 7
0.122406 13.019531 -1.569824 7
0.126038 12.989258 -1.594727 7
-0.46804801 -12.310547 -7.9682622 7
-0.46417201 -12.314453 -7.925293 7
-0.46823099 -12.354492 -7.909668 7
-0.47427401 -12.404297 -7.9008789 7
-0.48031601 -12.453125 -7.891602 7
-0.482391 -12.484375 -7.8686519 7
-0.490417 -12.542969 -7.8662109 7
-0.50146502 -12.616211 -7.8735352 7
-0.505615 -12.679688 -7.8266602 7
-0.49475101 -12.648438 -7.7602539 7
-0.503784 -12.711914 -7.7602539 7
-0.49896199 -12.730469 -7.6826172 7
-0.153381 -5.0878911 13.132324 7
-0.155487 -5.0644531 13.154297 7
-0.156525 -5.039062 13.171875 7
-0.15231299 -5.0019531 13.163086 7
-0.151245 -4.9726558 13.169434 7
-0.152283 -4.9472661 13.186523 7
-0.15649401 -4.9277339 13.219727 7
-0.155426 -4.8974609 13.226074 7
-0.160675 -4.8808589 13.264648 7
-0.163818 -4.858398 13.29248 7
-0.158539 -4.820312 13.277344 7
-0.159576 -4.7929692 13.294434 7
-0.16168199 -4.7705078 13.315918 7
-0.16271999 -4.7441411 13.333008 7
-0.169006 -4.7285161 13.376465 7
-0.17218 -4.7070308 13.403809 7
-0.174255 -4.6826172 13.42627 7
-0.140442 -4.765625 12.537109 7
-0.138245 -4.734375 12.538086 7
-0.13601699 -4.704102 12.538574 7
-0.139313 -4.6845698 12.565918 7
-0.140411 -4.6601558 12.58252 7
-0.144806 -4.6435552 12.614746 7
-0.14920001 -4.625 12.646973 7
-0.14587399 -4.5917969 12.642578 7
-0.14257801 -4.5585942 12.637207 7
-0.14254799 -4.532227 12.647949 7
-0.145844 -4.5117192 12.675293 7
-0.152466 -4.4980469 12.717773 7
-0.41711399 -10.865234 8.480957 7
-0.41601601 -10.826172 8.5292969 7
-0.41607699 -10.80957 8.5551758 7
-0.41149899 -10.773438 8.5683594 7
-0.4104 -10.734375 8.6157227 7
-0.406982 -10.703125 8.6318359 7
-0.129181 -4.46875 12.04834 7
-0.129181 -4.4433589 12.059082 7
-0.137238 -4.4335942 12.106934 7
-0.138336 -4.4101558 12.123047 7
-0.134918 -4.3789058 12.117676 7
-0.132599 -4.3496089 12.117188 7
-0.131409 -4.3212891 12.122559 7
-0.133728 -4.2998052 12.144043 7
-0.129913 -4.445312 11.524414 7
-0.128723 -4.4199219 11.529785 7
-0.132294 -4.4023442 11.556152 7
-0.13348401 -4.3808589 11.571777 7
-0.12750199 -4.344727 11.556152 7
-0.12628201 -4.3193359 11.561035 7
-0.12866201 -4.2998052 11.582031 7
-0.12866201 -4.2753911 11.592285 7
-0.137024 -4.265625 11.639648 7
-0.13583399 -4.2402339 11.644531 7
-0.13583399 -4.2158198 11.654297 7
-0.13101199 -4.1835942 11.643555 7
-0.13223299 -4.1611328 11.658691 7
-0.122406 -4.139648 11.132324 7
-0.123657 -4.1181641 11.147461 7
-0.132385 -4.1113281 11.193848 7
-0.12616 -4.077148 11.177734 7
-0.123627 -4.0498052 11.177246 7
-0.123627 -4.0029302 11.196289 7
-0.10202 -3.8330081 10.656738 7
-0.104614 -3.8154299 10.676758 7
-0.103271 -3.7685549 10.689453 7
-0.107178 -3.7529299 10.714844 7
-0.124084 -3.7363279 10.801758 7
-0.120178 -3.7080081 10.794434 7
-0.122772 -3.6904299 10.814453 7
-0.124054 -3.670898 10.828613 7
-0.124023 -3.625977 10.846191 7
-0.126617 -3.6074221 10.865723 7
-0.10675 -3.813477 10.25293 7
-0.113495 -3.8037109 10.288574 7
-0.108063 -3.7744141 10.276855 7
-0.117554 -3.769531 10.322266 7
-0.124298 -3.7587891 10.357422 7
-0.124298 -3.7373049 10.366699 7
-0.118896 -3.7080081 10.354492 7
-0.112122 -3.675781 10.337402 7
-0.114807 -3.6582029 10.356934 7
-0.120209 -3.6455081 10.386719 7
-0.114807 -3.6162109 10.374023 7
-0.122894 -3.608398 10.414551 7
-0.12695301 -3.592773 10.439453 7
-0.128296 -3.5732419 10.453125 7
-0.12692299 -3.5498049 10.456543 7
-0.130981 -3.535156 10.480957 7
-0.174438 -6.484375 8.3413086 7
-0.168823 -6.452148 8.340332 7
-0.16604599 -6.4277339 8.3476562 7
-0.107239 -3.5761721 9.9257812 7
-0.15145899 -6.3818359 7.8222661 7
-0.152954 -6.3710942 7.8413091 7
-0.154388 -6.359375 7.860352 7
-0.152954 -6.3398442 7.871582 7
-0.15591399 -6.3330078 7.89502 7
-0.161743 -6.3330078 7.92627 7
-0.16320799 -6.3222661 7.9448242 7
-0.155945 -6.2871089 7.9399409 7
-0.15448 -6.265625 7.9511719 7
-0.15448 -6.250977 7.9663091 7
-0.15451001 -6.235352 7.980957 7
-0.154541 -6.219727 7.995605 7
-0.089294001 -3.511719 9.5024414 7
-0.089294001 -3.4931641 9.5107422 7
-0.092193998 -3.4785161 9.5297852 7
-0.105316 -3.4794919 9.5844727 7
-0.099486999 -3.4511721 9.5722656 7
-0.098021999 -3.429688 9.5751953 7
-0.090728998 -3.3994141 9.5576172 7
-0.093627997 -3.3847661 9.5761719 7
-0.093627997 -3.3466799 9.5922852 7
-0.174927 -6.3662109 7.4482422 7
-0.182495 -6.3720698 7.483398 7
-0.17495701 -6.3378911 7.4785161 7
-0.150757 -6.2587891 7.4311519 7
-0.147736 -6.2363281 7.4375 7
-0.149261 -6.2255859 7.4570308 7
-0.153809 -6.2226558 7.483398 7
-0.14474501 -6.1845698 7.4741211 7
-0.149323 -6.1826172 7.5014648 7
-0.16595501 -6.2119141 7.5600591 7
-0.169006 -6.2050781 7.58252 7
-0.159943 -6.1669922 7.5732422 7
-0.149353 -6.124023 7.5605469 7
-0.152374 -6.117188 7.5830078 7
-0.159973 -6.1220698 7.6176758 7
-0.15240499 -6.0869141 7.6123052 7
-0.097382002 -3.514648 9.1533203 7
-0.097382002 -3.4970701 9.1616211 7
-0.091339 -3.46875 9.1499023 7
-0.089813001 -3.4482419 9.152832 7
-0.085266002 -3.422852 9.1450195 7
-0.094329998 -3.417969 9.1850586 7
-0.085235998 -3.3857419 9.1616211 7
-0.089752004 -3.374023 9.1860352 7
-0.095825002 -3.3652339 9.2148438 7
-0.103394 -3.3574221 9.2490234 7
-0.091278002 -3.3212891 9.215332 7
-0.097321004 -3.311523 9.2441406 7
-0.092772998 -3.2871089 9.2368164 7
-0.097321004 -3.2744141 9.2602539 7
-0.097290002 -3.2568359 9.2680664 7
-0.094269 -3.233398 9.265625 7
-0.098784998 -3.2207029 9.2885742 7
-0.100281 -3.204102 9.3017578 7
-0.099945001 -3.238281 8.9658203 7
-0.076537997 -3.1982419 8.5429688 7
-0.079802997 -3.186523 8.5605469 7
-0.073302999 -3.160156 8.5478516 7
-0.081421003 -3.1542971 8.581543 7
-0.081390001 -3.1357419 8.5893555 7
-0.083007999 -3.121094 8.6020508 7
-0.087890998 -3.1113279 8.625 7
-0.079742 -3.066406 8.6142578 7
-0.081359997 -3.0517581 8.6264648 7
-0.083007999 -3.0371089 8.6391602 7
-0.069182999 -3.1933589 8.1845703 7
-0.072571002 -3.1826169 8.2026367 7
-0.070862003 -3.164062 8.2050781 7
-0.067505002 -3.1425779 8.2026367 7
-0.075897001 -3.1220701 8.2436523 7
-0.069182999 -3.0966799 8.2304688 7
-0.074219003 -3.0712891 8.2612305 7
-0.077545002 -3.0595701 8.2788086 7
-0.075897001 -3.0419919 8.28125 7
-0.074188001 -3.023438 8.2832031 7
-0.077545002 -2.9951169 8.3081055 7
-0.077545002 -2.9785161 8.3154297 7
-0.079223998 -2.9472661 8.3349609 7
-0.084259003 -2.9375 8.3574219 7
-0.077514999 -2.914062 8.34375 7
-0.077514999 -2.8974609 8.3505859 7
-0.071410999 -2.9238279 8.0141602 7
-0.071410999 -2.9091799 8.0214844 7
-0.076629996 -2.8994141 8.0444336 7
-0.27904999 -9.2431002 15.353622 7
-0.15593401 -4.9683638 13.688234 7
-0.180003 -4.3543601 11.695801 7
-0.21259899 -4.1737309 12.148029 7
-0.148288 -6.5401502 8.4563026 7
-0.12972499 -3.7063291 10.560122 7
-0.119506 -6.1250238 7.3873091 7
-0.075511001 -3.034513 8.1040802 7
-0.52744102 -15.863589 -7.2117019 7
-0.173467 -6.1282291 16.390419 7
-0.233656 -5.2877979 14.238278 7
-0.16301601 -4.662776 12.631873 7
-0.178711 -3.5983939 10.827919 7
-0.087982997 -3.3301821 9.2107363 7
-0.087061003 -3.149344 8.1310558 7
-0.085782997 -2.947695 8.2297726 7
0.18459199 16.760592 -0.188759 7
0.22479001 15.704938 -0.40970901 7
-0.43973401 -11.622136 -11.065684 7
-0.61188102 -15.626627 -7.2281599 7
0.0078250002 -0.26374501 -1.916329 7
0.018820999 -0.280965 -1.889809 7
0.020728 -0.036463 -1.916312 7
0.0078849997 -0.209626 -1.912128 7
0.010119 -0.232499 -1.901729 7
0.017031999 -0.059700999 -1.903055 7
0.015594 -0.083708003 -1.903299 7
0.011293 -0.10848 -1.907563 7
0.018995 -0.13010199 -1.891179 7
0.020839 -0.14508 -1.8853559 7
0.010287 -0.250094 -1.8765 7
0.0098369997 -0.273269 -1.869259 7
0.0065430002 -0.298098 -1.865721 7
0.01514 -0.314652 -1.843125 7
0.026351999 -0.057107002 -1.870309 7
0.012099 -0.167596 -1.877578 7
0.020258 -0.18708301 -1.8591959 7
0.021978 -0.230691 -1.843791 7
0.0083170002 -0.034952 -1.883932 7
0.017291 -0.079603001 -1.866148 7
0.015913 -0.102492 -1.865584 7
0.026839999 -0.114673 -1.8460881 7
-0.0032919999 -0.223114 -1.870943 7
0.013862 -0.25129899 -1.8328381 7
0.010454 -0.28207299 -1.827101 7
0.012147 -0.138 -1.8490781 7
0.017344 -0.15819199 -1.83662 7
0.019517999 -0.17895401 -1.828189 7
0.027345 -0.217618 -1.804361 7
0.00562 -0.29970199 -1.8098201 7
0.011327 -0.033181001 -1.84645 7
0.022154 -0.053833999 -1.828615 7
0.017425001 -0.076038003 -1.833853 7
0.025371 -0.088812001 -1.820123 7
0.020885 -0.111058 -1.823882 7
0.0051020002 -0.202181 -1.828392 7
0.010167 -0.24205101 -1.807488 7
0.022278 -0.25577199 -1.782584 7
0.0094109997 -0.132708 -1.822041 7
0.014649 -0.15211999 -1.810046 7
0.025528001 -0.182188 -1.785798 7
0.017958 -0.27221701 -1.7664061 7
0.014437 -0.293966 -1.762552 7
0.023713 -0.306835 -1.740927 7
0.022358 -0.037799999 -1.7993619 7
0.023779999 -0.051295999 -1.796394 7
0.023784 -0.085238002 -1.79294 7
0.0066229999 -0.172135 -1.801926 7
0.021147 -0.199743 -1.772072 7
0.01725 -0.221283 -1.771053 7
0.0055069998 -0.073030002 -1.806332 7
0.01236 -0.105884 -1.7920949 7
0.017638 -0.124655 -1.781161 7
0.019706 -0.143883 -1.774179 7
0.016388001 -0.236049 -1.751629 7
0.015891001 -0.25530699 -1.744779 7
0.022066001 -0.270293 -1.728669 7
0.028604001 -0.035668001 -1.762543 7
0.020101 -0.049504999 -1.773543 7
0.03004 -0.080416001 -1.756438 7
0.0053019999 -0.158592 -1.777107 7
0.020997001 -0.172263 -1.750855 7
0.023445999 -0.190147 -1.742043 7
0.018378001 -0.28463599 -1.712262 7
0.018216001 -0.30835199 -1.700353 7
0.025519 -0.627464 -1.249446 7
0.015288 -0.068425 -1.7648309 7
0.012081 -0.101428 -1.764871 7
0.024179 -0.111305 -1.746412 7
0.01966 -0.20606899 -1.72813 7
0.022313001 -0.22296 -1.718168 7
0.01822 -0.31869701 -1.678876 7
0.015038 -0.63372999 -1.216464 7
0.014755 -0.63721901 -1.1899379 7
0.024245 -0.625696 -1.163064 7
0.026272999 -0.034345001 -1.739527 7
0.016609 -0.129521 -1.739881 7
0.018866999 -0.147374 -1.732712 7
0.028019 -0.15635499 -1.717773 7
0.0051660002 -0.244873 -1.720099 7
0.021693001 -0.247638 -1.694806 7
0.017843001 -0.27285799 -1.688828 7
0.013889 -0.62725401 -1.130062 7
0.023272 -0.61364299 -1.104833 7
0.011267 -0.047332 -1.745716 7
0.019801 -0.064888999 -1.732891 7
0.021543 -0.076853998 -1.72919 7
0.01055 -0.177386 -1.7225519 7
0.023562999 -0.189834 -1.700726 7
0.014736 -0.28567001 -1.67241 7
0.021334 -0.29772899 -1.655924 7
0.016323 -0.59279698 -1.275766 7
0.023008 -0.58938599 -1.24951 7
0.025684999 -0.590204 -1.224401 7
0.010363 -0.095472001 -1.7284549 7
0.022877 -0.104679 -1.710627 7
0.027254 -0.13275599 -1.699095 7
0.0096779997 -0.209216 -1.699708 7
0.016014 -0.223397 -1.685529 7
0.025955001 -0.23496 -1.666806 7
0.011507 -0.31388199 -1.646618 7
0.025348 -0.319498 -1.621994 7
0.022635 -0.58546603 -1.192722 7
0.025555 -0.58361298 -1.168103 7
0.02263 -0.032494001 -1.707324 7
0.029278999 -0.060865 -1.696653 7
0.0085279997 -0.12369 -1.7129641 7
0.013124 -0.15167201 -1.700345 7
0.019146999 -0.16677199 -1.688218 7
0.032340001 -0.172824 -1.668988 7
0.012394 -0.25359401 -1.663839 7
0.022527 -0.26376 -1.644568 7
0.024888 -0.553819 -1.279635 7
0.015272 -0.58553702 -1.137314 7
0.032071002 -0.56333297 -1.114352 7
0.011261 -0.044424001 -1.708759 7
0.018177001 -0.072672002 -1.6973439 7
0.023654999 -0.083160996 -1.689104 7
0.025648 -0.099716 -1.6839 7
0.028543999 -0.20285 -1.651035 7
0.016371001 -0.277336 -1.632534 7
0.023187 -0.28812101 -1.616635 7
0.025922 -0.54748601 -1.2481689 7
0.014423 -0.56724298 -1.221164 7
0.01495 -0.111301 -1.683206 7
0.024468999 -0.125407 -1.6684231 7
0.0055900002 -0.192618 -1.672287 7
0.018587001 -0.218996 -1.645153 7
0.020852 -0.29811499 -1.600271 7
0.029539 -0.53888899 -1.200562 7
0.028937999 -0.54238099 -1.172344 7
0.017245 -0.030892 -1.679386 7
0.018808 -0.041896999 -1.676816 7
0.027674001 -0.051938001 -1.66548 7
0.035030998 -0.077691004 -1.653598 7
0.0065890001 -0.144472 -1.673887 7
0.023751 -0.149673 -1.651468 7
0.026346 -0.16451401 -1.643738 7
0.016006 -0.231085 -1.630725 7
0.030064 -0.233656 -1.61111 7
0.036598001 -0.50264102 -1.278759 7
0.026092 -0.53547901 -1.149519 7
0.025217 -0.53661001 -1.121397 7
0.016781 -0.068474002 -1.665415 7
0.030166 -0.103135 -1.644084 7
0.036072999 -0.111992 -1.6352431 7
0.016177 -0.175284 -1.641109 7
0.022662001 -0.188016 -1.6285321 7
0.016783001 -0.25536001 -1.605098 7
0.030897999 -0.50540298 -1.251454 7
0.029924 -0.511931 -1.225112 7
0.011558 -0.094682001 -1.656435 7
0.025822001 -0.127666 -1.632779 7
0.012731 -0.203409 -1.6230201 7
0.023248 -0.21325 -1.60578 7
0.031392001 -0.50273502 -1.202309 7
0.030537 -0.506082 -1.181296 7
0.026872 -0.13468499 -1.61903 7
0.025668999 -0.149894 -1.6159329 7
0.035838 -0.49106699 -1.154613 7
0.034735002 -0.492672 -1.133981 7
0.027055999 -0.155947 -1.6018 7
0.030803001 -0.46682101 -1.274489 7
0.02651 -0.478064 -1.250939 7
0.027983001 -0.47082001 -1.228907 7
0.027243 -0.47579199 -1.204304 7
0.021371 -0.474565 -1.1839679 7
0.028209999 -0.469015 -1.159035 7
0.031907 -0.43454599 -1.275516 7
0.02208 -0.46623099 -1.139317 7
0.018526001 -0.44539899 -1.25348 7
0.037195001 -0.43099201 -1.231465 7
0.019616 -0.44382101 -1.209744 7
0.030663 -0.43533301 -1.190245 7
0.029121 -0.429912 -1.167043 7
0.025889 -0.402612 -1.275169 7
0.025142999 -0.409857 -1.254195 7
0.014986 -0.43558699 -1.144226 7
0.035889 -0.395812 -1.23318 7
0.017922999 -0.40831301 -1.213408 7
0.033553999 -0.396649 -1.194845 7
0.021702001 -0.38042599 -1.272411 7
0.028105 -0.395641 -1.173719 7
0.030779 -0.39427501 -1.1571259 7
0.033594999 -0.366294 -1.2553281 7
0.023566 -0.37253299 -1.236079 7
0.030990999 -0.36986199 -1.219352 7
0.043168999 -0.354772 -1.201311 7
0.027595 -0.34115499 -1.271548 7
0.024688 -0.36571601 -1.179319 7
0.036262002 -0.357335 -1.1637551 7
0.0403 -0.32799101 -1.255421 7
0.030285999 -0.33415499 -1.238179 7
0.033349 -0.33550999 -1.22367 7
0.028186001 -0.33611399 -1.205397 7
0.027497999 -0.33227 -1.186938 7
0.039285 -0.324848 -1.172523 7
