# .PCD v0.7 - Point Cloud Data file format
VERSION 0.7
FIELDS x y z intensity
SIZE 4 4 4 4
TYPE F F F F
COUNT 1 1 1 1
WIDTH 976
HEIGHT 1
VIEWPOINT 0 0 0 1 0 0 0
POINTS 976
DATA ascii
2.023376 74.171875 5.8969731 7
2.0258789 73.216797 5.66748 7
2.0274661 72.628906 5.4619141 7
1.872986 63.426758 6.63623 7
1.873962 63.303711 6.4755859 7
1.876587 62.847656 6.2910161 7
1.880005 62.228516 6.0966802 7
1.84259 70.72168 5.043457 7
1.846252 70.052734 4.8442378 7
1.850037 69.345703 4.6469731 7
1.853821 68.645508 4.453125 7
1.8571171 68.043945 4.266602 7
1.858582 67.803711 4.0966802 7
1.864624 66.62793 3.89502 7
1.662903 65.585938 3.6772461 7
1.6661381 65.226562 3.51123 7
1.671692 64.576172 3.339355 7
1.676636 64 3.171875 7
1.679504 63.682617 3.0131841 7
1.588318 55.84668 5.2358398 7
1.59491 55.265625 5.0664058 7
1.597473 55.057617 4.9223628 7
1.6011961 54.743164 4.773438 7
1.611328 53.821289 4.5917969 7
1.589172 56.077148 4.0561519 7
1.594116 55.644531 3.905273 7
1.598816 55.234375 3.757324 7
1.492798 49.834961 7.07373 7
1.502991 49.131836 6.878418 7
1.471252 52.068359 4.4760742 7
1.47876 51.541992 4.32373 7
1.481873 51.338867 4.1914058 7
1.484863 51.146484 4.0605469 7
1.491272 50.700195 3.918457 7
1.461853 53.02832 3.1508789 7
1.466064 52.744141 3.0175779 7
1.467346 52.671875 2.891113 7
1.4703979 52.469727 2.761719 7
1.4761961 52.068359 2.6298831 7
1.3571171 49.180664 7.0053711 7
1.3733521 48.239258 6.785645 7
1.381714 47.767578 6.6201172 7
1.391541 47.208008 6.4477539 7
1.3988039 46.801758 6.2939448 7
1.370605 49.00293 3.9594729 7
1.370605 49.025391 3.844238 7
1.378113 48.592773 3.7089839 7
1.38147 48.410156 3.586426 7
1.385193 48.205078 3.4638669 7
1.392822 47.763672 3.3330081 7
1.385132 48.248047 3.2373049 7
1.356445 50.146484 2.23877 7
1.360229 49.931641 2.117676 7
1.361694 49.863281 2 7
1.364746 49.694336 1.880859 7
1.368958 49.455078 1.762207 7
1.371887 49.291992 1.6455081 7
1.256897 46.474609 6.3618159 7
1.269775 45.849609 6.1879878 7
1.284058 45.157227 6.0092769 7
1.291504 44.805664 5.8676758 7
1.30426 44.185547 5.7026372 7
1.266174 46.540039 3.3876951 7
1.27301 46.211914 3.265137 7
1.282104 45.765625 3.140137 7
1.2824709 45.763672 3.032227 7
1.288574 45.467773 2.9155271 7
1.2948 45.167969 2.7993159 7
1.248535 47.695312 1.406738 7
1.2533571 47.460938 1.29541 7
1.257568 47.254883 1.185059 7
1.2628779 46.996094 1.075684 7
1.265442 46.87793 0.96679699 7
1.272095 46.558594 0.75048798 7
1.1812741 44.428711 5.8452148 7
1.189941 44.066406 5.7045898 7
1.206055 43.371094 5.535645 7
1.21228 43.112305 5.4091802 7
1.221436 42.723633 5.2729492 7
1.189209 44.545898 2.9003911 7
1.199097 44.117188 2.7827151 7
1.2073359 43.762695 2.6699221 7
1.207581 43.765625 2.566895 7
1.2149661 43.446289 2.457031 7
1.220276 43.219727 2.3500979 7
1.214111 43.507812 2.2524409 7
1.171814 45.569336 0.56591803 7
1.178833 45.262695 0.46582001 7
1.180969 45.172852 0.36083999 7
1.185974 44.953125 0.260254 7
1.187256 44.902344 0.155762 7
1.187622 44.892578 0.050292999 7
1.12262 41.508789 5.148438 7
1.114441 42.205078 2.511719 7
1.121887 41.93457 2.3066411 7
1.125793 41.790039 2.2050779 7
1.12915 41.669922 2.105469 7
1.137512 41.348633 2.003418 7
1.144348 41.085938 1.90332 7
1.090088 43.37207 -0.020508001 7
1.087952 43.461914 -0.12646499 7
1.0914921 43.322266 -0.22363301 7
1.0953979 43.170898 -0.31982401 7
1.10022 42.985352 -0.413086 7
1.106384 42.748047 -0.50341803 7
1.111877 42.53125 -0.59375 7
1.126038 41.978516 -0.76464802 7
1.042542 40.350586 1.918457 7
1.049194 40.12207 1.8212889 7
1.050171 40.09375 1.726562 7
1.052734 40.012695 1.6318361 7
1.057922 39.836914 1.537598 7
1.060608 39.749023 1.443359 7
1.0647579 39.608398 1.3505861 7
1.016541 41.414062 -0.711914 7
1.020569 41.274414 -0.80224597 7
1.024719 41.128906 -0.89111298 7
1.024292 41.145508 -0.98925799 7
1.038879 40.630859 -1.149902 7
0.941284 44.081055 -3.160645 7
0.94561797 43.924805 -3.249023 7
0.95141602 43.71582 -3.3300779 7
0.957214 43.506836 -3.410645 7
0.95990002 43.407227 -3.503418 7
0.956177 39.131836 -1.249023 7
-0.361572 -20.755859 64.104492 7
-0.314758 -18.989258 57.023926 7
-0.20941199 -15.287109 55.663574 7
-0.18914799 -15.03125 55.243164 7
0.813232 35.160156 -2.308594 7
0.81951898 34.994141 -2.374023 7
0.82428002 34.869141 -2.4428711 7
0.82897902 34.743164 -2.511719 7
0.83349597 34.623047 -2.5810549 7
0.83727998 34.519531 -2.6508789 7
0.84197998 34.393555 -2.718262 7
0.84533697 34.302734 -2.788574 7
0.73718297 36.87793 -5.1621089 7
-0.39508101 13.594727 -67.235352 7
-0.25366199 -17.347656 51.03125 7
0.77197301 32.866211 -2.9902339 7
0.77758801 32.726562 -3.0498049 7
0.779724 32.668945 -3.1201169 7
0.78826898 32.456055 -3.246094 7
0.78179902 32.600586 -3.3461909 7
0.67401099 34.853516 -5.7207031 7
0.68060303 34.675781 -5.85498 7
0.67956501 34.686523 -5.9428711 7
0.68102998 34.639648 -6.019043 7
0.73040801 30.855469 2.5371089 7
0.73992902 30.65918 2.4580081 7
0.74310303 30.597656 2.3842771 7
0.74548298 30.551758 2.3105471 7
0.70397902 31.338867 -3.2475591 7
0.70574999 31.292969 -3.315918 7
0.70892298 31.216797 -3.379395 7
0.711487 31.15332 -3.445312 7
0.714966 31.072266 -3.507324 7
0.72033697 30.950195 -3.5625 7
0.72320598 30.880859 -3.625488 7
0.725281 30.828125 -3.691406 7
0.72705102 30.78125 -3.758301 7
0.602539 33.120117 -6.112793 7
0.60516399 33.050781 -6.1787109 7
0.61157203 32.902344 -6.2255859 7
0.61419702 32.832031 -6.2915039 7
0.61682099 32.762695 -6.3564448 7
0.65679902 29.803711 -3.5717771 7
0.64575201 30.010742 -3.6806641 7
0.65179402 29.881836 -3.730469 7
0.655518 29.800781 -3.789062 7
0.66101098 29.68457 -3.840332 7
0.66497803 29.597656 -3.8964839 7
0.668091 29.527344 -3.9555659 7
0.67089802 29.460938 -4.015625 7
0.673706 29.396484 -4.074707 7
0.538513 31.625977 -6.4570308 7
0.54046601 31.574219 -6.5224609 7
0.544128 31.487305 -6.5795898 7
0.54815698 31.392578 -6.6347661 7
0.55511498 31.244141 -6.6743159 7
0.55438203 31.241211 -6.7524409 7
0.55602998 31.194336 -6.8183589 7
-0.53607202 10.081055 -53.47168 7
-0.492493 9.7919922 -52.614746 7
0.64733899 27.646484 1.91748 7
0.64257801 27.734375 1.853027 7
0.64599597 27.676758 1.787109 7
0.64904797 27.625 1.72168 7
0.65600598 27.50293 1.655762 7
0.610901 27.959961 -4.2216802 7
0.61554003 27.866211 -4.2714839 7
0.61822498 27.806641 -4.3266602 7
0.61712599 27.81543 -4.3974609 7
0.61950701 27.759766 -4.4545898 7
0.49334699 29.488281 -7.0473628 7
0.49414101 29.457031 -7.1132808 7
0.49456799 29.430664 -7.1816411 7
0.49737501 29.366211 -7.2368159 7
0.497803 29.339844 -7.304688 7
-0.210144 -13.588867 36.506348 7
0.60626203 26.198242 -1.635254 7
0.61199999 26.097656 -1.685059 7
0.61737102 26.00293 -1.73584 7
0.62139899 25.932617 -1.788574 7
0.62322998 25.894531 -1.846191 7
0.630005 25.777344 -1.89209 7
0.564331 26.513672 -4.5097661 7
0.560974 26.555664 -4.5849609 7
0.56500202 26.479492 -4.632812 7
0.56890899 26.401367 -4.6806641 7
0.567505 26.349609 -4.7973628 7
0.443665 27.771484 -7.6933589 7
0.43829301 27.837891 -7.7885742 7
-0.531555 7.7998052 -44.748047 7
0.55389398 24.833984 -1.952148 7
0.55511498 24.808594 -2.008301 7
0.561768 24.702148 -2.0522461 7
0.56567401 24.635742 -2.102051 7
0.56958002 24.568359 -2.1513669 7
0.57391399 24.49707 -2.199707 7
0.51385498 24.945312 -5.0297852 7
0.51434302 24.923828 -5.0874019 7
0.517151 24.868164 -5.1357422 7
0.51843297 24.834961 -5.1899409 7
0.52307099 24.750977 -5.2294922 7
0.522461 24.746094 -5.2905269 7
0.51690698 24.814453 -5.3730469 7
0.37249801 26.418945 -7.7368159 7
0.37261999 26.397461 -7.7988281 7
0.372742 26.375 -7.8613281 7
0.37329099 26.347656 -7.9213872 7
0.37609899 26.287109 -7.9692378 7
0.51165801 23.766602 -2.308594 7
0.52069098 23.630859 -2.343262 7
0.52710003 23.526367 -2.4404299 7
0.53125 23.459961 -2.4858401 7
0.53668201 23.375 -2.527832 7
0.53918499 23.330078 -2.577148 7
0.54016101 23.30957 -2.6298831 7
0.473755 23.650391 -5.5195308 7
0.47229001 23.655273 -5.5820308 7
0.33074999 24.927734 -8.3413086 7
0.33136001 24.899414 -8.3979492 7
0.32702601 24.93457 -8.4804688 7
-0.19805899 -11.759766 29.218262 7
-0.203979 -11.722656 29.316406 7
-0.212219 -11.698242 29.440918 7
-0.208496 -11.614258 29.425293 7
0.472168 22.492188 -2.605469 7
0.47619599 22.430664 -2.6494141 7
0.48199499 22.34668 -2.6875 7
0.48565701 22.291992 -2.7314451 7
0.48877001 22.241211 -2.7758789 7
0.494629 22.15625 -2.8139651 7
0.49731401 22.111328 -2.858887 7
0.50140399 22.049805 -2.9003911 7
0.42553699 22.375 -5.789062 7
0.42645299 22.34668 -5.8378911 7
0.42706299 22.324219 -5.8881841 7
0.42675799 22.3125 -5.9428711 7
0.420715 22.371094 -6.0219731 7
0.27014199 23.576172 -8.6650391 7
0.27459699 23.498047 -8.6972656 7
0.27612299 23.433594 -8.8012695 7
0.273682 23.441406 -8.8706055 7
-0.48449701 12.365234 -32.680176 7
-0.48223901 12.274414 -32.681641 7
-0.49578899 12.255859 -32.886719 7
-0.50762898 12.228516 -33.069824 7
-0.23498499 -11.268555 27.861816 7
0.43206799 21.386719 -2.9086909 7
0.43774399 21.306641 -2.944824 7
0.43926999 21.279297 -2.9912109 7
0.445007 21.200195 -3.0258789 7
0.44653299 21.171875 -3.0727539 7
0.45178199 21.099609 -3.108398 7
0.45703101 21.025391 -3.144531 7
0.45715299 21.013672 -3.1938479 7
0.22113 22.244141 -9.0200195 7
0.22314499 22.198242 -9.0625 7
0.225098 22.151367 -9.1049805 7
0.216858 22.220703 -9.2021484 7
0.21935999 22.168945 -9.2421885 7
-0.49578899 11.825195 -30.431152 7
-0.48883101 11.71875 -30.376465 7
-0.50195301 11.702148 -30.562988 7
-0.51464802 11.680664 -30.744141 7
-1.718384 -37.426758 -21.32666 7
-1.778015 -38.049805 -21.580566 7
-1.778748 -38.107422 -21.493164 7
-1.81073 -38.466797 -21.583984 7
-1.858398 -38.978516 -21.763184 7
-1.885254 -39.289062 -21.820801 7
-1.700256 -38.498047 -18.853516 7
-1.7219239 -38.758789 -18.872559 7
-1.7440799 -39.022461 -18.893066 7
-1.7593991 -39.220703 -18.878418 7
-1.808411 -39.798828 -18.937012 7
-1.8421021 -40.179688 -19.010742 7
-1.839417 -41.334961 -16.263184 7
-1.874146 -41.731445 -16.314453 7
-1.924561 -42.289062 -16.431641 7
-1.9776 -42.875 -16.557617 7
0.4021 20.15625 -3.2099609 7
0.40222201 20.145508 -3.257812 7
0.40832499 20.06543 -3.288574 7
0.412476 20.008789 -3.3251951 7
0.416565 19.951172 -3.3608401 7
0.41918901 19.912109 -3.4003911 7
0.42132601 19.87793 -3.441895 7
0.42041001 19.876953 -3.491699 7
0.34014899 19.941406 -6.4213872 7
0.34179699 19.907227 -6.4619141 7
0.33990499 19.90918 -6.5175781 7
0.341003 19.878906 -6.5595698 7
0.34106401 19.860352 -6.6069341 7
0.32867399 19.974609 -6.7094731 7
0.172607 20.786133 -9.378418 7
0.173218 20.754883 -9.4248047 7
0.17437699 20.71875 -9.4682617 7
0.1745 20.692383 -9.5166016 7
0.172607 20.686523 -9.5766602 7
-0.46929899 7.0371089 -29.041016 7
-0.461853 6.945312 -28.972168 7
-0.58526599 4.217773 -30.977539 7
-0.54925501 4.0117192 -30.574219 7
-1.575195 -33.96582 -18.805664 7
-1.562073 -33.893555 -18.654785 7
-1.5239871 -33.592773 -18.371094 7
-1.513062 -33.537109 -18.233398 7
-1.517395 -33.881836 -17.688477 7
-1.554504 -34.306641 -17.713867 7
-1.57251 -34.515625 -17.722168 7
-1.5799561 -34.626953 -17.676758 7
-1.5996701 -34.849609 -17.692383 7
-1.6237791 -35.115234 -17.729004 7
-1.727905 -37.414062 -15.339844 7
-1.726501 -37.4375 -15.244141 7
-1.746155 -37.663086 -15.236816 7
-0.075195 -6.9667969 23.862305 7
-0.079040997 -6.9248052 23.917969 7
-0.087402001 -6.8974609 24.018066 7
-0.081726 -6.827148 23.979004 7
-0.082764 -6.7753911 24.006348 7
-0.089478001 -6.7431641 24.089355 7
0.371277 19.003906 -3.5532229 7
0.37518299 18.953125 -3.5869141 7
0.378479 18.907227 -3.6230471 7
0.38128701 18.868164 -3.6591799 7
0.38513201 18.816406 -3.6923831 7
0.38360599 18.820312 -3.741699 7
0.38696301 18.773438 -3.776855 7
0.38702399 18.759766 -3.820801 7
0.29785201 18.922852 -6.4282231 7
0.29473901 18.936523 -6.4863281 7
0.29541001 18.912109 -6.5283198 7
0.294983 18.899414 -6.5751948 7
0.299927 18.832031 -6.598145 7
0.30163601 18.795898 -6.63623 7
0.29797399 18.813477 -6.6962891 7
0.299133 18.783203 -6.7363281 7
0.29547101 18.801758 -6.796875 7
0.29455599 18.791992 -6.8461909 7
0.28985599 18.820312 -6.9116211 7
-1.623108 -29.072266 -22.606445 7
-1.638672 -29.246094 -22.633301 7
-1.656006 -29.433594 -22.669922 7
-1.670959 -29.603516 -22.691895 7
-1.680115 -29.727539 -22.67627 7
-1.338501 -29.733398 -16.59082 7
-1.357056 -29.930664 -16.612793 7
-1.37561 -30.12793 -16.634277 7
-1.394775 -30.330078 -16.657715 7
-1.4050291 -30.458008 -16.635742 7
-1.4135129 -30.571289 -16.60498 7
-1.433899 -30.78418 -16.631836 7
-1.457764 -31.02832 -16.675293 7
-1.468628 -31.162109 -16.653809 7
-1.592651 -33.71582 -14.176758 7
-1.6266479 -34.053711 -14.234375 7
-0.16082799 -9.7978516 22.068359 7
0.347473 17.884766 -3.8496089 7
0.34985399 17.849609 -3.8852539 7
0.35107401 17.825195 -3.9238279 7
0.35687301 17.756836 -3.9482419 7
0.35699499 17.743164 -3.9907229 7
0.352478 17.774414 -4.045898 7
0.350281 17.783203 -4.094727 7
0.34582499 17.81543 -4.1508789 7
0.25488299 17.849609 -6.735352 7
0.25439501 17.834961 -6.7797852 7
0.256226 17.799805 -6.8144531 7
0.25970501 17.748047 -6.8413091 7
0.264404 17.686523 -6.862793 7
0.262207 17.688477 -6.914062 7
0.26062 17.683594 -6.9633789 7
0.26013201 17.668945 -7.007812 7
-0.477844 5.969727 -25.274902 7
-1.480896 -25.358398 -21.657227 7
-1.49115 -25.481445 -21.65918 7
-1.507629 -25.648438 -21.699219 7
-1.522827 -25.806641 -21.731445 7
-1.534363 -25.94043 -21.739746 7
-1.549561 -26.099609 -21.770996 7
-1.567261 -26.276367 -21.816406 7
-1.578735 -26.40918 -21.822754 7
-1.564636 -26.363281 -21.672363 7
-1.266479 -27.036133 -15.949707 7
-1.250366 -26.948242 -15.804688 7
-1.263062 -27.087891 -15.802734 7
-1.295837 -27.384766 -15.899414 7
-1.3006589 -27.5 -15.791016 7
-1.3052371 -27.575195 -15.74707 7
-1.326111 -27.779297 -15.782227 7
-1.343201 -27.952148 -15.797852 7
-1.352234 -28.063477 -15.773926 7
-1.459778 -30.412109 -13.371582 7
-1.473755 -30.5625 -13.35498 7
-1.492798 -30.754883 -13.357422 7
-1.5194089 -31.009766 -13.38916 7
-1.5109251 -31.004883 -13.20752 7
-1.507996 -31.011719 -13.12207 7
-0.17077599 -9.5566406 20.834473 7
-0.173889 -9.5234385 20.882812 7
-0.184021 -9.5195312 20.989258 7
-0.19976801 -9.5351562 21.143066 7
-0.19909699 -9.484375 21.160645 7
-0.18005399 -9.3642578 21.025391 7
-0.175598 -9.2998047 21.010742 7
0.30511501 17.147461 -3.840332 7
0.30346701 17.137695 -3.9267581 7
0.295654 17.197266 -3.9902339 7
0.30670199 17.083984 -3.9975591 7
0.30804399 17.060547 -4.034668 7
0.309937 17.03125 -4.0688481 7
0.31243899 16.996094 -4.101562 7
0.31683299 16.944336 -4.128418 7
0.211548 16.860352 -7.0541992 7
0.209839 16.855469 -7.101562 7
0.214783 16.792969 -7.1196289 7
0.21368399 16.78418 -7.1645508 7
0.21075401 16.788086 -7.217773 7
0.212036 16.757812 -7.2514648 7
0.2146 16.716797 -7.2797852 7
0.21283001 16.709961 -7.3276372 7
0.024048001 17.075195 -10.291016 7
0.023499001 17.050781 -10.334473 7
0.028441999 16.985352 -10.347656 7
0.031555001 16.932617 -10.371094 7
0.028625 16.927734 -10.427246 7
0.033569001 16.862305 -10.44043 7
0.027039001 16.885742 -10.517578 7
-1.350464 -21.867188 -20.776367 7
-1.3460079 -21.890625 -20.695801 7
-1.354187 -21.991211 -20.692871 7
-1.367004 -22.121094 -20.71875 7
-1.375854 -22.226562 -20.719238 7
-1.3847049 -22.333008 -20.719727 7
-1.401489 -22.488281 -20.768066 7
-1.417603 -22.640625 -20.812012 7
-1.4277951 -22.754883 -20.819336 7
-1.4306639 -22.824219 -20.780762 7
-1.162659 -22.483398 -17.561523 7
-1.168152 -22.563477 -17.537598 7
-1.171692 -22.629883 -17.502441 7
-1.1266479 -23.916992 -15.016113 7
-1.140808 -24.056641 -15.027344 7
-1.154297 -24.191406 -15.035645 7
-1.1691279 -24.336914 -15.049316 7
-1.171326 -24.388672 -15.001465 7
-1.179504 -24.485352 -14.981445 7
-1.353271 -27.525391 -12.628906 7
-1.369446 -27.682617 -12.625977 7
-1.393616 -27.902344 -12.653809 7
-1.412537 -28.082031 -12.660156 7
-1.421387 -28.183594 -12.626465 7
-1.409485 -28.121094 -12.51416 7
-0.071167 -5.7451172 20.094238 7
-0.074401997 -5.6660161 20.149414 7
0.27636701 16.948242 -0.84716803 7
0.28100601 16.902344 -0.88134801 7
0.28112799 16.897461 -0.92089802 7
0.28442401 16.862305 -0.95654303 7
0.270569 16.225586 -4.1982422 7
0.271301 16.206055 -4.234375 7
0.275269 16.158203 -4.2602539 7
0.28118899 16.095703 -4.2807622 7
0.28259301 16.071289 -4.3144531 7
0.288452 16.007812 -4.3339839 7
0.288513 15.994141 -4.371582 7
0.29187 15.953125 -4.3994141 7
0.29388401 15.921875 -4.4306641 7
0.294617 15.90332 -4.4658198 7
0.176331 15.764648 -7.3681641 7
0.18158001 15.704102 -7.3823242 7
0.18035901 15.693359 -7.4248052 7
0.18042 15.670898 -7.4619141 7
0.182495 15.634766 -7.4897461 7
0.182556 15.613281 -7.5263672 7
0.180664 15.606445 -7.5722661 7
0.181458 15.580078 -7.6064448 7
0.180847 15.563477 -7.6455078 7
-1.256531 -19.236328 -19.962402 7
-1.27002 -19.360352 -19.998047 7
-1.268127 -19.398438 -19.938965 7
-1.342407 -19.865234 -20.346191 7
-1.36499 -20.042969 -20.435547 7
-1.057373 -21.791992 -14.422852 7
-1.07019 -21.914062 -14.432617 7
-1.085083 -22.049805 -14.451172 7
-1.077515 -22.03418 -14.361328 7
-1.09314 -22.175781 -14.382812 7
-1.108093 -22.313477 -14.400879 7
-1.282349 -25.364258 -11.998047 7
-1.294434 -25.482422 -11.98291 7
0.24426299 15.341797 -4.48877 7
0.246399 15.30957 -4.5185552 7
0.25128201 15.257812 -4.5395508 7
0.256165 15.206055 -4.5600591 7
0.25421101 15.207031 -4.6020508 7
0.25018299 15.224609 -4.6513672 7
0.26324499 15.108398 -4.64502 7
0.25579801 15.152344 -4.7045898 7
0.264038 15.073242 -4.7138672 7
0.13433801 14.767578 -7.7827148 7
-0.944031 -17.254883 -16.22168 7
-0.94421399 -17.295898 -16.180176 7
-0.95178199 -17.378906 -16.180664 7
-0.95929003 -17.459961 -16.179688 7
-0.96838403 -17.550781 -16.1875 7
-0.98114002 -17.663086 -16.215332 7
-0.98877001 -17.745117 -16.213867 7
-0.99408001 -17.814453 -16.200195 7
-0.98608398 -17.811523 -16.113281 7
-0.98999 -17.873047 -16.091309 7
-0.91723597 -19.081055 -13.745605 7
-0.92553699 -19.166992 -13.739746 7
-0.93383801 -19.25293 -13.733398 7
-0.94738799 -19.371094 -13.751465 7
-0.95422399 -19.448242 -13.737305 7
-0.96404999 -19.542969 -13.737793 7
-0.96935999 -19.609375 -13.715332 7
-0.98309302 -19.763672 -13.685059 7
-1.172241 -22.883789 -11.471191 7
-1.164917 -22.863281 -11.388672 7
-1.167297 -22.908203 -11.342773 7
-1.188293 -23.081055 -11.366699 7
-1.199646 -23.1875 -11.354004 7
-1.212402 -23.303711 -11.345703 7
-1.211243 -23.353516 -11.229492 7
-1.256775 -24.370117 -9.9018555 7
-1.264343 -24.450195 -9.8676758 7
-1.291321 -24.666992 -9.8959961 7
-1.304871 -24.788086 -9.8803711 7
-1.293152 -24.730469 -9.7836914 7
-1.296265 -24.77832 -9.7348633 7
-0.056885 -5.3837891 17.929688 7
-0.062866002 -5.358398 17.986816 7
-0.067993 -5.2929692 18.050781 7
-0.060486 -5.235352 18.008789 7
-0.062683001 -5.202148 18.037598 7
-0.070068002 -5.139648 18.117676 7
0.220947 14.411133 -4.808105 7
0.110229 13.75293 -7.8925781 7
0.113159 13.711914 -7.9116211 7
0.115417 13.674805 -7.934082 7
0.11261 13.671875 -7.97998 7
0.110535 13.663086 -8.0219727 7
0.113525 13.621094 -8.0405273 7
0.113586 13.599609 -8.0722656 7
0.113647 13.576172 -8.1044922 7
0.112305 13.5625 -8.1430664 7
0.108032 13.568359 -8.1953115 7
0.102356 13.582031 -8.2543945 7
0.100281 13.572266 -8.296875 7
-0.86273199 -15.105469 -15.651367 7
-0.85974097 -15.128906 -15.597656 7
-0.86615002 -15.201172 -15.596191 7
-0.87097198 -15.264648 -15.586426 7
-0.87658697 -15.330078 -15.57959 7
-0.86126697 -17.310547 -13.241211 7
-0.86767602 -17.380859 -13.22998 7
-0.86706501 -17.410156 -13.184082 7
-0.87029999 -17.462891 -13.157715 7
-0.87670898 -17.532227 -13.145508 7
-1.08136 -20.861328 -10.871582 7
-1.089417 -20.94043 -10.850586 7
-1.099731 -21.035156 -10.838867 7
-1.187561 -22.46875 -9.4208984 7
-1.200256 -22.576172 -9.4067383 7
0.188416 13.734375 -4.8173828 7
0.18774401 13.723633 -4.8520508 7
0.187805 13.708984 -4.8842769 7
0.189392 13.683594 -4.9121089 7
0.189514 13.667969 -4.9443359 7
0.19494601 13.615234 -4.9584961 7
0.19653299 13.589844 -4.985352 7
0.198853 13.558594 -5.0097661 7
0.201965 13.521484 -5.0317378 7
0.200562 13.516602 -5.0683589 7
0.204468 13.474609 -5.0874019 7
-0.77362102 -13.025391 -15.028809 7
-0.77710003 -13.078125 -15.015137 7
-0.73877001 -14.999023 -12.765625 7
-0.74237102 -15.082031 -12.709961 7
-0.75506598 -15.211914 -12.696777 7
-0.76098597 -15.275391 -12.687988 7
-0.76690698 -15.338867 -12.679199 7
-0.77612299 -15.418945 -12.685059 7
-0.78369099 -15.490234 -12.683594 7
-0.79797399 -15.628906 -12.674805 7
-1.032043 -19.285156 -10.325195 7
-1.0446171 -19.387695 -10.324707 7
-1.045593 -19.420898 -10.28125 7
-1.096252 -20.549805 -8.8701172 7
-1.105469 -20.630859 -8.8491211 7
-1.121399 -20.753906 -8.8481445 7
-0.053344999 -5.0966802 16.097656 7
-0.053344999 -5.061523 16.109863 7
-0.055785999 -5.0332031 16.138184 7
-0.048218001 -4.9462891 16.113281 7
-0.053955 -4.889648 16.174805 7
-0.060608 -4.867188 16.230957 7
-0.058044001 -4.827148 16.226074 7
-0.051330999 -4.7783198 16.193359 7
-0.055481002 -4.7519531 16.232422 7
-0.063781999 -4.6992192 16.310059 7
0.163635 12.863281 -5.1337891 7
0.16449 12.842773 -5.1611328 7
0.167786 12.805664 -5.1801758 7
0.167053 12.794922 -5.2128911 7
0.171143 12.75293 -5.2294922 7
0.172058 12.731445 -5.2568359 7
0.173706 12.705078 -5.28125 7
0.17456099 12.683594 -5.308105 7
0.175476 12.663086 -5.3349609 7
0.17712399 12.636719 -5.359375 7
0.17804 12.614258 -5.38623 7
0.17645299 12.608398 -5.4213872 7
-0.68432599 -13.442383 -12.433105 7
-0.680237 -13.487305 -12.348145 7
-0.684753 -13.539062 -12.336914 7
-0.69348103 -13.612305 -12.345215 7
-0.702393 -13.716797 -12.320801 7
-0.712219 -13.827148 -12.300293 7
-0.71685803 -13.911133 -12.254395 7
-0.71960402 -13.956055 -12.233398 7
-0.72235101 -14.000977 -12.212402 7
-0.94152802 -17.553711 -9.9199219 7
-0.15924101 -7.9257808 14.688965 7
-0.16095001 -7.9003911 14.717773 7
-0.05957 -4.7988281 15.446777 7
-0.058655001 -4.7626948 15.452637 7
-0.052551001 -4.717773 15.425781 7
-0.064696997 -4.6767578 15.525391 7
-0.052368 -4.5839839 15.470703 7
-0.056701999 -4.5263672 15.520508 7
-0.060120001 -4.499023 15.553223 7
-0.067139 -4.4804692 15.60791 7
0.139832 13.522461 -1.605469 7
0.147644 13.456055 -1.657227 7
0.15118399 13.418945 -1.714844 7
0.15387 13.384766 -1.773926 7
0.15649401 13.360352 -1.80127 7
0.15918 13.335938 -1.828125 7
0.15496799 13.356445 -1.866699 7
0.14996301 13.382812 -1.90625 7
0.149719 12.136719 -5.151855 7
0.159973 12.058594 -5.1464839 7
0.15667699 12.063477 -5.1855469 7
0.154175 12.061523 -5.2226558 7
0.156799 12.03125 -5.2426758 7
0.15515099 12.024414 -5.276855 7
0.154358 12.012695 -5.3076172 7
0.15618899 11.987305 -5.3300781 7
0.154541 11.981445 -5.36377 7
0.15460201 11.964844 -5.3920898 7
0.156372 11.939453 -5.414062 7
-0.640625 -12.195312 -11.95459 7
-0.64166301 -12.230469 -11.929688 7
-0.64904797 -12.292969 -11.934082 7
-0.65466303 -12.347656 -11.930176 7
-0.66021699 -12.402344 -11.92627 7
-0.66400099 -12.449219 -11.913574 7
-0.86969 -16.011719 -9.5898438 7
-0.87158197 -16.045898 -9.5576172 7
-0.889099 -16.163086 -9.5810547 7
-0.89379901 -16.212891 -9.5581055 7
-0.90393102 -16.291016 -9.5546885 7
-0.976318 -17.663086 -8.0820312 7
-0.98651099 -17.742188 -8.0703115 7
-1.004028 -17.861328 -8.0786133 7
-1.006897 -17.898438 -8.0444336 7
-0.82458502 -14.838867 -9.2670898 7
-0.824646 -14.864258 -9.2319336 7
-0.83050501 -14.917969 -9.2167969 7
-0.91290301 -16.352539 -7.7910161 7
-0.92736799 -16.449219 -7.7939448 7
-0.928406 -16.476562 -7.7573242 7
-0.93231201 -16.517578 -7.7294922 7
-0.933411 -16.543945 -7.6933589 7
-0.04541 -4.4785161 14.01709 7
-0.047302 -4.452148 14.038574 7
-0.040527001 -4.4091802 14.01123 7
-0.045288 -4.3876948 14.049316 7
-0.042358 -4.3525391 14.043457 7
-0.040405001 -4.3183589 14.042969 7
-0.052917 -4.313477 14.124512 7
-0.051879998 -4.28125 14.129395 7
-0.028809 -4.2070308 14.007812 7
-0.045104999 -4.2089839 14.111328 7
-0.048950002 -4.1855469 14.143555 7
-0.76617402 -13.5625 -8.9541016 7
-0.76922601 -13.599609 -8.9321289 7
-0.77337599 -13.643555 -8.9140615 7
-0.780518 -13.699219 -8.9052734 7
-0.78466803 -13.742188 -8.8862305 7
-0.039611999 -4.1357422 13.416504 7
-0.037475999 -4.046875 13.435059 7
-0.036499001 -4.139648 12.810547 7
-0.039611999 -4.1191411 12.836426 7
-0.036437999 -4.085938 12.830566 7
-0.041687001 -4.0419922 12.876465 7
-0.040587999 -4.0126948 12.880859 7
-0.042663999 -3.9902339 12.901855 7
-0.047913 -3.9716799 12.938477 7
-0.045775998 -3.9404299 12.937012 7
-0.039429002 -3.902344 12.913574 7
-0.044677999 -3.8847661 12.950684 7
-0.043579001 -3.855469 12.954102 7
-0.03009 -3.816406 11.763184 7
-0.023132 -3.780273 11.739746 7
-0.027771 -3.7636721 11.770996 7
-0.027771 -3.7392581 11.779785 7
-0.024292 -3.7089839 11.772461 7
-0.027649 -3.6904299 11.797852 7
-0.035705999 -3.6787109 11.844727 7
-0.038024999 -3.657227 11.864258 7
-0.026489001 -3.6142581 11.818848 7
-0.026489001 -3.589844 11.827148 7
-0.027588001 -3.5673831 11.841309 7
-0.027588001 -3.542969 11.850098 7
-0.036743 -3.532227 11.902344 7
-0.025939999 -3.5439451 10.883789 7
-0.027161 -3.523438 10.897949 7
-0.41918901 -9.9150391 6.9311519 7
-0.41662601 -9.8916016 6.9492192 7
-0.41796899 -9.8837891 6.9755859 7
-0.41662601 -9.8652344 6.9960942 7
-0.41406199 -9.8427734 7.0141602 7
-0.024840999 -3.5126951 10.408203 7
-0.023560001 -3.4902339 10.411621 7
-0.02478 -3.4707029 10.425293 7
-0.020873999 -3.4433589 10.41748 7
-0.0091549996 -3.4033201 10.378418 7
-0.013062 -3.3876951 10.402344 7
-0.013 -3.3662109 10.410645 7
-0.014343 -3.347656 10.423828 7
-0.018188 -3.3330081 10.447754 7
-0.024658 -3.3212891 10.48291 7
-0.024658 -3.2988279 10.490723 7
-0.022034001 -3.2744141 10.488281 7
-0.014221 -3.2412109 10.463379 7
-0.014221 -3.219727 10.47168 7
-0.026245 -3.170898 10.135742 7
-0.026184 -3.1494141 10.143555 7
-0.026184 -3.128906 10.151855 7
-0.027527001 -3.110352 10.164551 7
-0.027465999 -3.089844 10.171875 7
-0.036926001 -3.0810549 10.216797 7
-0.034240998 -3.0566411 10.213379 7
-0.036865 -3.039062 10.231445 7
-0.010925 -3.1933589 9.6503906 7
-0.015198 -3.1806641 9.6733398 7
-0.010925 -3.1347661 9.6728516 7
-0.027771 -3.140625 9.7441406 7
-0.027771 -3.121094 9.7519531 7
-0.016479 -3.0654299 9.7241211 7
-0.016418001 -3.045898 9.7314453 7
-0.017821999 -3.0283201 9.7441406 7
-0.016357001 -2.9863279 9.753418 7
-0.030456999 -2.9863279 9.8139648 7
-0.031799 -2.967773 9.8266602 7
-0.030396 -2.9267581 9.8354492 7
-0.031799 -2.9082029 9.8481445 7
-0.033142 -2.890625 9.8608398 7
-0.020020001 -3.1826169 9.3383789 7
-0.024413999 -3.1699221 9.3618164 7
-0.01709 -3.140625 9.3422852 7
-0.012695 -3.1152339 9.3344727 7
-0.012695 -3.0966799 9.3417969 7
-0.017029 -3.0839839 9.3657227 7
-0.014099 -3.0605471 9.3623047 7
-0.024292 -3.0566411 9.4067383 7
-0.021361999 -3.0341799 9.4038086 7
-0.022826999 -3.0175779 9.4165039 7
-0.016907001 -2.9902339 9.4023438 7
-0.014038 -2.967773 9.3989258 7
-0.015442 -2.9501951 9.4116211 7
-0.016907001 -2.933594 9.4238281 7
-0.015442 -2.9130859 9.4257812 7
-0.019774999 -2.8994141 9.4487305 7
-0.028503001 -2.8925779 9.487793 7
-0.027100001 -3.175781 9.0039062 7
-0.024048001 -3.1533201 9.0014648 7
-0.024048001 -3.1347661 9.0092773 7
-0.034667999 -3.132812 9.0532227 7
-0.027039001 -3.1035161 9.034668 7
-0.020935001 -3.077148 9.0209961 7
-0.027039001 -3.0673831 9.0498047 7
-0.025451999 -3.046875 9.0517578 7
-0.019409001 -3.0205081 9.0380859 7
-0.023925999 -3.0087891 9.0610352 7
-0.020873999 -2.9863279 9.0576172 7
-0.037537001 -2.9912109 9.1230469 7
-0.034485001 -2.96875 9.1196289 7
-0.02533 -2.936523 9.0957031 7
-0.029846 -2.9248049 9.1181641 7
-0.02832 -2.9042971 9.1201172 7
-0.15582301 -6.0761719 7.183105 7
-0.15893599 -6.070312 7.2055659 7
-0.155762 -6.047852 7.2119141 7
-0.15734901 -6.0380859 7.2304692 7
-0.149536 -6.0039058 7.2255859 7
-0.136902 -5.9570308 7.2080078 7
-0.132263 -5.9316411 7.2104492 7
-0.13537601 -5.9257808 7.2324219 7
-0.132263 -5.9042969 7.23877 7
-0.133789 -5.8935552 7.2573242 7
-0.140076 -5.8955078 7.2871089 7
-0.13696299 -5.875 7.2929692 7
-0.13848899 -5.8632808 7.3110352 7
-0.14636201 -5.8691411 7.3457031 7
-0.140076 -5.8388672 7.3432622 7
-0.130615 -5.8027339 7.3330078 7
-0.133789 -5.795898 7.35498 7
-0.03009 -2.8779299 8.8325195 7
-0.03009 -2.860352 8.8393555 7
-0.025390999 -2.8369141 8.8300781 7
-0.0081179999 -2.797852 8.7788086 7
-0.022217 -2.797852 8.8334961 7
-0.022156 -2.780273 8.840332 7
-0.022156 -2.7626951 8.8466797 7
-0.023743 -2.7470701 8.8588867 7
-0.026854999 -2.733398 8.8764648 7
-0.029967999 -2.719727 8.8935547 7
-0.033080999 -2.7060549 8.9106445 7
-0.025208 -2.6787109 8.890625 7
-0.036194 -2.6748049 8.934082 7
-0.036132999 -2.65625 8.9414062 7
-0.031433001 -2.6318359 8.9311523 7
-0.037659001 -2.621094 8.9594727 7
-0.034485001 -2.5996089 8.9550781 7
-0.013855 -2.8798831 8.4345703 7
-0.013855 -2.863281 8.4414062 7
-0.013794 -2.8457029 8.4482422 7
-0.015442 -2.8300779 8.4604492 7
-0.015381 -2.8144529 8.4672852 7
-0.018677 -2.8017581 8.484375 7
-0.021850999 -2.789062 8.5019531 7
-0.018616 -2.7675779 8.4980469 7
-0.013733 -2.7451169 8.4887695 7
-0.013733 -2.7285161 8.4956055 7
-0.016968001 -2.7158201 8.5126953 7
-0.016907001 -2.699219 8.519043 7
-0.016968001 -2.6826169 8.5263672 7
-0.016907001 -2.6660161 8.5327148 7
-0.016907001 -2.648438 8.5390615 7
-0.020142 -2.6357419 8.5561523 7
-0.024963001 -2.624023 8.578125 7
-0.024963001 -2.6074221 8.5844727 7
-0.026550001 -2.5917971 8.5957031 7
-0.024901999 -2.5722661 8.597168 7
-0.024475001 -2.8779299 8.1538086 7
-0.022826999 -2.860352 8.1557617 7
-0.016052 -2.8349609 8.1420898 7
-0.014343 -2.816406 8.1435547 7
-0.014343 -2.800781 8.1503906 7
-0.017639 -2.789062 8.1679688 7
-0.019347999 -2.7753911 8.1796885 7
-0.010925 -2.749023 8.1601562 7
-0.020996001 -2.7451169 8.1982422 7
-0.024292 -2.733398 8.215332 7
-0.024292 -2.7167971 8.222168 7
-0.024292 -2.7011721 8.2285156 7
-0.01416 -2.671875 8.2041016 7
-0.019165 -2.6621089 8.2260742 7
-0.017517 -2.644531 8.2270508 7
-0.01416 -2.624023 8.2236328 7
-0.015807999 -2.610352 8.2348633 7
-0.017456001 -2.594727 8.246582 7
-0.017456001 -2.579102 8.2524414 7
-0.029236 -2.577148 8.2958984 7
-0.029236 -2.5605471 8.3022461 7
-0.151978 -5.7548828 6.1323242 7
-0.151978 -5.7431641 6.1459961 7
-0.14672901 -5.71875 6.1489258 7
-0.132751 -5.672852 6.1337891 7
-0.132751 -5.6611328 6.1474609 7
-0.125793 -5.6337891 6.1464839 7
-0.127563 -5.6269531 6.1635742 7
-0.12750199 -5.6142578 6.1772461 7
-0.12750199 -5.6025391 6.190918 7
-0.130981 -5.5996089 6.2114258 7
-0.141479 -5.6142578 6.2470698 7
-0.138 -5.594727 6.2529302 7
-0.13623001 -5.578125 6.2626948 7
-0.13623001 -5.5664058 6.2763672 7
-0.130981 -5.5419922 6.277832 7
-0.13623001 -5.5429692 6.3027339 7
-0.13452099 -5.5273442 6.3120122 7
-0.130981 -5.5068359 6.3178711 7
-0.12750199 -5.4873052 6.32373 7
-0.12750199 -5.4755859 6.3369141 7
-0.130981 -5.4726558 6.3574219 7
-0.12750199 -5.4511719 6.362793 7
-0.12750199 -5.4404302 6.375977 7
-0.16577099 -5.7529302 5.7719731 7
-0.156738 -5.7207031 5.769043 7
-0.167542 -5.7363281 5.8027339 7
-0.15856899 -5.704102 5.7998052 7
-0.16394 -5.7070308 5.82373 7
-0.153137 -5.6699219 5.816895 7
-0.158508 -5.671875 5.840332 7
-0.156738 -5.657227 5.8505859 7
-0.14587399 -5.6201172 5.8432622 7
-0.140503 -5.5966802 5.8461909 7
-0.136902 -5.577148 5.8525391 7
-0.142334 -5.579102 5.8764648 7
-0.136902 -5.5556641 5.879395 7
-0.140503 -5.5527339 5.8999019 7
-0.13867199 -5.5380859 5.909668 7
-0.14227299 -5.5351558 5.929688 7
-0.14227299 -5.5253911 5.9433589 7
-0.144104 -5.5185552 5.9604492 7
-0.14227299 -5.5029302 5.969727 7
-0.147705 -5.5058589 5.9936519 7
-0.127869 -5.4472661 5.9672852 7
-0.133301 -5.4492192 5.9912109 7
-0.115417 -7.5743728 13.516699 7
-0.097144 -3.6451211 12.135853 7
-0.059661999 -3.3936391 10.810524 7
-0.015744001 -3.130141 9.6870852 7
-0.033856001 -2.960989 9.9505043 7
-0.023455 -2.820116 8.2598515 7
-0.026518 -2.6489861 8.3858566 7
-0.108817 -5.3872089 5.1771841 7
-0.112424 -5.343832 5.4038172 7
-0.116895 -5.296742 5.6304889 7
0.004617 -2.500469 7.4672499 7
-0.001376 -2.3727961 7.5943561 7
-0.016434001 -2.4386461 7.0424342 7
-0.014778 -2.269973 7.1532559 7
-0.022561001 -3.720145 11.751991 7
0.01114 -3.402885 10.755933 7
-0.46491799 -9.6045341 6.9099302 7
-0.045837998 -3.16783 10.023162 7
-0.052862 -2.9053431 10.194454 7
-0.028809 -2.985297 9.4502373 7
-0.003149 -2.8103321 8.9004745 7
0.0143 -2.8791311 8.3634129 7
0.020231999 -2.6602731 8.4288855 7
-0.13973001 -5.5477028 6.1577868 7
-0.14743499 -5.458488 6.371695 7
-0.14799801 -5.6538129 5.4582219 7
-0.118942 -5.443954 5.5911889 7
-0.096639998 -5.252142 5.2120242 7
-0.099004 -5.1564498 5.4388452 7
0.020667 -2.500237 7.327878 7
0.013508 -2.3422661 7.4330511 7
-0.021691 -2.423851 7.1214948 7
-0.019005001 -2.260828 7.1799841 7
0.051927999 13.436848 -1.75229 7
0.31287399 16.764128 -4.0784788 7
0.31190699 15.391503 -4.5086179 7
