# .PCD v0.7 - Point Cloud Data file format
VERSION 0.7
FIELDS x y z intensity
SIZE 4 4 4 4
TYPE F F F F
COUNT 1 1 1 1
WIDTH 911
HEIGHT 1
VIEWPOINT 0 0 0 1 0 0 0
POINTS 911
DATA ascii
1.92572 63.65625 6.473877 7
1.930603 62.529297 6.237793 7
1.933472 61.90918 6.0439448 7
1.933105 63.609375 3.1564939 7
1.934448 63.338867 3.0002439 7
1.934814 63.324219 2.850342 7
1.937012 62.834961 2.6916499 7
1.75647 58.816406 5.9360352 7
1.775696 56.260742 5.4772949 7
1.77948 55.828125 5.181396 7
1.787598 54.755859 4.9814448 7
1.764526 58.845703 2.3173831 7
1.768188 58.368164 2.1733401 7
1.771179 57.988281 2.032227 7
1.726074 64.929688 -0.207031 7
1.635376 55.845703 5.3415532 7
1.643188 55.089844 5.159668 7
1.650391 54.390625 4.9846191 7
1.657532 53.697266 4.8132319 7
1.6659549 52.869141 4.6374512 7
1.639465 56.212891 2.0437009 7
1.51123 52.196289 4.5820308 7
1.520386 51.506836 4.4199219 7
1.530396 50.759766 4.2575679 7
1.536926 50.275391 4.112793 7
1.545715 49.614258 3.961426 7
1.511108 52.958984 -0.002197 7
1.514587 52.698242 -0.118896 7
1.5178829 52.453125 -0.23535199 7
1.520752 52.239258 -0.351318 7
1.51947 52.357422 -0.47949201 7
1.402161 49.525391 4.0788569 7
1.411438 48.958008 3.934082 7
1.438965 47.672852 0.38110399 7
1.407593 49.779297 -0.84619099 7
1.4085079 49.725586 -0.96142602 7
1.411194 49.5625 -1.070557 7
1.41394 49.391602 -1.178467 7
1.4191279 49.064453 -1.276611 7
1.420532 48.981445 -1.387695 7
1.425476 48.669922 -1.484619 7
1.341553 44.546875 2.9711909 7
1.313416 46.305664 0.40454099 7
1.3234251 45.782227 0.30932599 7
1.328369 45.52832 0.20874 7
1.331055 45.390625 0.105713 7
1.3375241 45.052734 0.0097660003 7
1.30011 47.121094 -1.732422 7
1.306091 46.803711 -1.821533 7
1.309265 46.637695 -1.920166 7
1.312622 46.459961 -2.017334 7
1.313782 46.398438 -2.1230471 7
1.313782 46.401367 -2.233398 7
1.253479 49.594727 -4.503418 7
1.242065 43.797852 2.856689 7
1.253052 43.297852 2.7392581 7
1.2593991 43.013672 2.6296389 7
1.236694 44.283203 0.15356401 7
1.239014 44.178711 0.05249 7
1.245178 43.895508 -0.041747998 7
1.250854 43.634766 -0.135254 7
1.252808 43.547852 -0.235107 7
1.266052 42.936523 -0.413086 7
1.216125 45.302734 -2.130615 7
1.218933 45.170898 -2.2272949 7
1.220459 45.097656 -2.328613 7
1.222473 45.000977 -2.42749 7
1.22821 44.735352 -2.51001 7
1.158142 47.947266 -4.8635249 7
1.1646121 47.634766 -4.936523 7
1.168884 47.427734 -5.0224609 7
1.171936 47.279297 -5.115479 7
1.150757 42.053711 2.487793 7
1.1624759 41.587891 2.3791499 7
1.165344 41.478516 2.279053 7
1.157593 41.961914 -0.28784201 7
1.1604609 41.845703 -0.381836 7
1.166504 41.601562 -0.46875 7
1.1698 41.467773 -0.56030297 7
1.174683 41.269531 -0.64843798 7
1.18042 41.036133 -0.73290998 7
1.1843261 40.878906 -0.82080102 7
1.186035 40.808594 -0.91357398 7
1.133423 42.94043 -2.9794919 7
1.136353 42.819336 -3.0688479 7
1.140503 42.645508 -3.1521001 7
1.144348 42.482422 -3.2358401 7
1.068542 45.451172 -5.5351558 7
1.077148 45.081055 -5.6955571 7
1.0849611 44.741211 -5.8579102 7
1.0919189 44.446289 -5.9165039 7
1.093567 39.819336 -1.021973 7
1.094238 39.794922 -1.114746 7
1.0994869 39.601562 -1.195801 7
1.105286 39.391602 -1.27417 7
1.1055911 39.378906 -1.366699 7
1.107178 39.319336 -1.455566 7
1.110718 39.189453 -1.538818 7
1.114868 39.035156 -1.7119139 7
0.98779303 43.399414 -6.034668 7
0.992737 43.208984 -6.1064448 7
0.99609399 43.075195 -6.1877441 7
1.002563 42.826172 -6.2475591 7
1.008118 42.612305 -6.3125 7
1.033325 37.536133 -2.58252 7
1.033447 37.525391 -2.671387 7
1.034851 37.474609 -2.7548831 7
1.037354 37.389648 -2.8344729 7
0.94018602 36.118164 -4.507812 7
0.94189501 36.057617 -4.5847168 7
0.94164997 36.054688 -4.671875 7
0.94634998 35.907227 -4.7338872 7
0.84735101 38.479492 -7.1672359 7
0.85266101 38.30957 -7.223877 7
0.85668898 38.174805 -7.2878418 7
0.85980201 38.069336 -7.3579102 7
-0.227478 10.93457 -68.558594 7
-0.36675999 -14.060547 59.713135 7
0.86364698 34.227539 -4.9489751 7
0.86840802 34.091797 -5.0063481 7
0.87078899 34.019531 -5.0756841 7
0.87487799 33.899414 -5.135498 7
0.87634301 33.848633 -5.2084961 7
0.88177502 33.695312 -5.2602539 7
0.77380401 36.130859 -7.7260742 7
0.77807599 36 -7.7834468 7
0.78241003 35.871094 -7.8400879 7
0.78185999 35.865234 -7.9291992 7
-0.50177002 -16.613281 56.838867 7
-0.349915 -12.828125 54.55957 7
-0.34051499 -12.65625 54.396729 7
0.80285603 32.411133 -5.2287598 7
0.803406 32.383789 -5.302979 7
0.80889899 32.241211 -5.3520508 7
0.81048602 32.191406 -5.4204102 7
0.815552 32.042969 -5.5473628 7
0.82226598 31.87207 -5.5881348 7
0.82073998 31.87793 -5.7478032 7
0.71508801 33.889648 -8.3432617 7
0.72125202 33.726562 -8.3818359 7
0.71380597 33.875977 -8.5129395 7
-0.418823 -15.319336 50.445312 7
-0.31268299 -11.794922 49.334229 7
-0.338745 -11.689453 49.895752 7
0.74615502 30.473633 -5.8200679 7
0.75054902 30.366211 -5.869873 7
0.753052 30.297852 -5.9287109 7
0.75744599 30.188477 -5.9775391 7
0.64855999 31.947266 -8.6977539 7
0.65588403 31.772461 -8.7243652 7
-0.27197301 10.463867 -50.839355 7
-0.283081 10.385742 -51.098877 7
-0.366272 7.492188 -53.360596 7
0.684021 29.229492 -6.0874019 7
0.69164997 29.063477 -6.1179199 7
0.69757098 28.932617 -6.15625 7
0.700562 28.857422 -6.209229 7
0.70471197 28.760742 -6.2558589 7
0.705688 28.724609 -6.3188481 7
0.57702601 30.516602 -9.0185547 7
0.58001697 30.436523 -9.0710449 7
0.58709699 30.279297 -9.0961914 7
0.58630401 30.270508 -9.1733398 7
-0.302185 9.4433594 -47.451172 7
-0.36071801 -13.50293 42.226562 7
-0.37884501 -13.50293 42.552979 7
-0.40228301 -13.52832 42.963135 7
0.641357 27.262695 -6.4147949 7
0.64361602 27.204102 -6.467773 7
0.645935 27.146484 -6.5197749 7
0.64794898 27.09375 -6.5739751 7
0.64959699 27.045898 -6.6291499 7
0.65283197 26.970703 -6.6760249 7
0.51763898 28.611328 -9.3625488 7
0.52026403 28.541992 -9.4130859 7
0.52447498 28.445312 -9.453125 7
0.52484101 28.413086 -9.5178223 7
0.52429199 28.397461 -9.5891113 7
-0.42169201 5.9003911 -45.828369 7
0.63043201 25.84668 -3.6699221 7
0.63360602 25.783203 -3.7194819 7
0.63641399 25.724609 -3.7709961 7
0.58862299 25.848633 -6.7319341 7
0.591492 25.785156 -6.778564 7
0.59570301 25.698242 -6.817627 7
0.59777802 25.645508 -6.867188 7
0.59857202 25.614258 -6.9240718 7
0.60070801 25.560547 -6.973145 7
0.601807 25.524414 -7.027832 7
0.46734601 26.858398 -9.7944336 7
0.46777299 26.798828 -9.9189453 7
-0.32305899 8.1318359 -40.134033 7
-0.29168701 -11.990234 35.223877 7
-0.336243 -12.042969 35.892822 7
-0.189514 -8.5517578 34.78418 7
0.59277302 24.138672 -4.165771 7
0.59960902 24.022461 -4.197998 7
0.60266101 23.963867 -4.243896 7
0.60388201 23.932617 -4.2961431 7
0.60546899 23.896484 -4.3466802 7
0.60144001 23.945312 -4.418457 7
0.53601098 24.262695 -7.058105 7
0.53833002 24.208984 -7.1030269 7
0.53948998 24.171875 -7.1542969 7
0.54217499 24.112305 -7.1972661 7
0.54486102 24.053711 -7.2399902 7
0.54791301 23.989258 -7.2805181 7
0.546143 23.995117 -7.347168 7
0.40362501 25.178711 -10.157227 7
-0.37365699 11.458984 -36.580078 7
-0.38232401 11.40625 -36.73584 7
-0.485962 4.5371089 -39.671631 7
0.54296899 23.696289 -1.1706541 7
0.54070997 23.253906 -4.179688 7
0.53839099 23.275391 -4.2426758 7
0.538086 23.266602 -4.2993159 7
0.53894001 23.242188 -4.3510742 7
0.543396 23.165039 -4.3898931 7
0.55151403 23.038086 -4.4150391 7
0.55480999 22.978516 -4.45752 7
0.485291 23.076172 -7.368896 7
0.49175999 22.96875 -7.3894038 7
0.49542201 22.897461 -7.4240718 7
0.49670401 22.859375 -7.4719238 7
0.49713099 22.833984 -7.523438 7
0.498413 22.795898 -7.5708008 7
0.49731401 22.790039 -7.6308589 7
0.34765601 23.982422 -10.356201 7
0.352539 23.890625 -10.381348 7
0.351807 23.873047 -10.442871 7
0.35540801 23.797852 -10.475342 7
0.35351601 23.795898 -10.544434 7
-0.39269999 11.052734 -34.269287 7
-0.394409 10.974609 -34.317383 7
-0.40564001 10.9375 -34.499756 7
0.49420199 22.006836 -4.4931641 7
0.49426299 21.992188 -4.545166 7
0.49560499 21.960938 -4.592041 7
0.50341803 21.845703 -4.615479 7
0.50738502 21.779297 -4.6523442 7
0.51092499 21.719727 -4.690918 7
0.51532 21.649414 -4.7258301 7
0.51800501 21.600586 -4.766602 7
0.44341999 21.597656 -7.6994629 7
0.44305399 21.580078 -7.752686 7
0.44653299 21.515625 -7.7849121 7
0.44702101 21.487305 -7.8330078 7
0.450073 21.427734 -7.8674321 7
0.45105001 21.394531 -7.9130859 7
0.44543499 21.441406 -7.9943848 7
-0.39611799 10.398438 -31.626709 7
-0.413452 10.30957 -31.898682 7
0.454346 20.810547 -4.840332 7
0.45904499 20.740234 -4.8720698 7
0.466492 20.634766 -4.8930659 7
0.46520999 20.635742 -4.947021 7
0.46850601 20.582031 -4.9829102 7
0.47460899 20.494141 -5.0080571 7
0.47741699 20.445312 -5.045898 7
0.47937 20.407227 -5.0866699 7
0.40154999 20.335938 -8.0078115 7
0.40338099 20.291992 -8.0454102 7
0.403442 20.268555 -8.0932617 7
0.404419 20.235352 -8.1362305 7
0.39800999 20.286133 -8.2189941 7
0.38928199 20.362305 -8.3154297 7
-0.39990199 5.9941411 -30.351562 7
-0.400024 5.766602 -30.393066 7
-1.88501 -40.932617 -21.503174 7
-1.757385 -40.639648 -18.645264 7
-1.7603149 -40.711914 -18.561523 7
-1.790771 -41.068359 -18.61499 7
-1.811035 -41.320312 -18.616211 7
-1.833374 -41.592773 -18.626465 7
-1.857178 -41.883789 -18.643311 7
-1.882019 -42.183594 -18.66333 7
-1.978271 -44.333984 -16.067627 7
0.42205799 19.554688 -5.1262212 7
0.42712399 19.484375 -5.1530762 7
0.430664 19.428711 -5.185791 7
0.433716 19.378906 -5.2202148 7
0.435242 19.347656 -5.2597661 7
0.437805 19.303711 -5.2956538 7
0.44183299 19.243164 -5.3251948 7
0.44036901 19.243164 -5.3764648 7
0.440918 19.22168 -5.4196782 7
0.18878201 19.494141 -11.389404 7
0.191284 19.439453 -11.418945 7
0.19085699 19.413086 -11.467773 7
0.190369 19.386719 -11.51709 7
-1.954041 -36.979492 -23.904785 7
-1.972839 -37.202148 -23.928467 7
-1.987305 -37.387695 -23.924805 7
-1.613831 -35.508789 -19.04541 7
-1.587708 -35.30957 -18.820068 7
-1.569214 -35.178711 -18.635986 7
-1.557129 -35.108398 -18.486816 7
-1.5374759 -34.967773 -18.29834 7
-1.572083 -35.751953 -17.531982 7
-1.589294 -35.956055 -17.531006 7
-1.602722 -36.124023 -17.510254 7
-1.621033 -36.339844 -17.512939 7
-1.632812 -36.493164 -17.482666 7
-1.657043 -36.765625 -17.512695 7
-1.676514 -36.992188 -17.518311 7
-1.811523 -39.581055 -14.974121 7
-1.883667 -40.365234 -15.072998 7
0.39825401 18.232422 -5.44873 7
0.40148899 18.183594 -5.4787598 7
0.40264899 18.15625 -5.5175781 7
0.40637201 18.100586 -5.545166 7
0.40429699 18.106445 -5.596436 7
0.40118399 18.12207 -5.651855 7
0.39636201 18.15332 -5.7141109 7
0.311829 17.908203 -8.4191895 7
0.31451401 17.859375 -8.4470205 7
0.31457499 17.835938 -8.4890137 7
0.31359899 17.823242 -8.5366211 7
0.31256101 17.80957 -8.5844727 7
0.31201199 17.790039 -8.6291504 7
-1.602905 -30.234375 -22.506348 7
-1.6242681 -30.511719 -22.491211 7
-1.644775 -30.728516 -22.543945 7
-1.658386 -30.891602 -22.552979 7
-1.383484 -31.25 -16.610107 7
-1.386169 -31.313477 -16.547363 7
-1.405579 -31.521484 -16.567871 7
-1.427856 -31.756836 -16.601562 7
-1.440918 -31.911133 -16.588867 7
-1.449097 -32.061523 -16.473877 7
-1.472595 -32.307617 -16.510254 7
-1.502441 -32.610352 -16.575928 7
-1.614441 -34.950195 -14.049316 7
-1.599731 -34.84668 -13.905762 7
-1.62677 -35.12793 -13.929688 7
-1.653259 -35.405273 -13.949951 7
-1.688965 -35.766602 -14.005371 7
-0.13348401 -6.0253911 23.202393 7
-0.138184 -5.985352 23.261719 7
-0.138611 -5.8837891 23.295654 7
-0.14038099 -5.8369141 23.32666 7
0.35424799 17.374023 -5.454834 7
0.35485801 17.351562 -5.4934082 7
0.35437 17.34082 -5.5366211 7
0.35552999 17.3125 -5.572998 7
0.357849 17.274414 -5.6044922 7
0.36297601 17.208008 -5.625 7
0.36419699 17.180664 -5.6611328 7
0.36645499 17.141602 -5.6923828 7
0.369995 17.092773 -5.7189941 7
0.372253 17.053711 -5.75 7
0.268738 16.774414 -8.6401367 7
0.268738 16.75 -8.6796885 7
0.27392599 16.681641 -8.6914062 7
0.275085 16.648438 -8.7246094 7
0.272888 16.643555 -8.7758789 7
0.27172899 16.628906 -8.8212891 7
0.27179 16.603516 -8.8603516 7
0.271851 16.580078 -8.8994141 7
0.26898199 16.580078 -8.9541016 7
0.091370001 16.613281 -12.025635 7
0.091430999 16.547852 -12.10376 7
0.094848998 16.488281 -12.120605 7
-1.4823 -26.523438 -21.708496 7
-1.466797 -26.461914 -21.546631 7
-1.475037 -26.573242 -21.532959 7
-1.500977 -26.813477 -21.628662 7
-1.507385 -26.912109 -21.602783 7
-1.527771 -27.112305 -21.662598 7
-1.540344 -27.255859 -21.673096 7
-1.5430911 -27.327148 -21.623535 7
-1.569031 -27.569336 -21.715088 7
-1.281799 -28.194336 -15.765869 7
-1.2950439 -28.339844 -15.761963 7
-1.314941 -28.539062 -15.790039 7
-1.320801 -28.624023 -15.749268 7
-1.3247679 -28.694336 -15.698975 7
-1.344116 -28.891602 -15.722412 7
-1.3610229 -29.066406 -15.733154 7
-1.498413 -31.669922 -13.247559 7
-1.5354 -32.049805 -13.23877 7
-1.561584 -32.307617 -13.262939 7
-0.149353 -5.773438 22.0896 7
0.31646699 16.411133 -5.7893071 7
0.31768799 16.383789 -5.822998 7
0.324402 16.308594 -5.8349609 7
0.32800299 16.257812 -5.8588872 7
0.333496 16.192383 -5.8747559 7
0.33660901 16.130859 -5.9389648 7
0.340332 16.081055 -5.9621582 7
0.33673099 16.095703 -6.0148931 7
0.33978301 16.050781 -6.0400391 7
0.33984399 16.033203 -6.0778809 7
0.228149 15.65332 -8.9370117 7
0.22821 15.628906 -8.9736328 7
0.22821 15.602539 -9.0102539 7
0.227051 15.587891 -9.0534668 7
0.22644 15.567383 -9.0935059 7
0.227722 15.533203 -9.123291 7
0.23071299 15.483398 -9.1433105 7
0.22894301 15.472656 -9.1896973 7
0.223511 15.489258 -9.2561045 7
-1.323303 -22.633789 -20.811523 7
-1.330078 -22.726562 -20.798096 7
-1.336853 -22.821289 -20.784668 7
-1.344238 -22.917969 -20.774658 7
-1.358765 -23.063477 -20.808838 7
-1.3668211 -23.166016 -20.801758 7
-1.375488 -23.272461 -20.798828 7
-1.3874511 -23.401367 -20.815674 7
-1.405151 -23.566406 -20.866943 7
-1.413879 -23.674805 -20.863037 7
-1.166504 -23.387695 -17.675293 7
-1.167419 -23.4375 -17.623291 7
-1.170959 -23.504883 -17.585693 7
-1.193298 -23.703125 -17.65332 7
-1.201355 -23.801758 -17.640381 7
-1.212036 -23.919922 -17.641357 7
-1.2194819 -24.014648 -17.624023 7
-1.1337889 -24.80957 -15.034912 7
-1.154968 -25.004883 -15.077881 7
-1.171509 -25.164062 -15.097656 7
-1.182434 -25.320312 -15.02832 7
-1.188599 -25.402344 -14.996582 7
-1.2155761 -25.640625 -15.064209 7
-1.230469 -25.827148 -15.010498 7
-1.397522 -28.634766 -12.768799 7
-1.386658 -28.578125 -12.657715 7
-1.373962 -28.505859 -12.539307 7
-1.3847049 -28.62207 -12.511963 7
-1.405884 -28.823242 -12.524414 7
-1.434998 -29.086914 -12.565674 7
-0.24786399 -8.6865234 20.549316 7
-0.259949 -8.6855469 20.665527 7
-0.131348 -5.295898 20.744629 7
0.29205301 16.606445 -2.5527339 7
0.29235801 15.458984 -5.7709961 7
0.29107699 15.452148 -5.8122559 7
0.29370099 15.414062 -5.838623 7
0.28668201 15.454102 -5.9023442 7
0.28674299 15.436523 -5.9389648 7
0.28607199 15.422852 -5.9780269 7
0.289368 15.379883 -6.0012212 7
0.29449499 15.320312 -6.0168462 7
0.29522699 15.297852 -6.0500488 7
0.296509 15.269531 -6.0810552 7
0.299133 15.229492 -6.1062012 7
0.30175799 15.19043 -6.1318359 7
0.304993 15.146484 -6.1540532 7
0.30822799 15.102539 -6.1767578 7
0.30505401 15.110352 -6.2250981 7
0.303101 15.106445 -6.2687988 7
0.302551 15.092773 -6.3068848 7
0.300659 15.09082 -6.3503418 7
0.193665 14.592773 -9.0031738 7
0.191223 14.561523 -9.0859385 7
0.188049 14.560547 -9.137207 7
0.190552 14.515625 -9.1572266 7
0.193848 14.44043 -9.208252 7
0.191284 14.433594 -9.2561045 7
0.191956 14.40332 -9.2861328 7
-1.225281 -19.676758 -20.147949 7
-1.234436 -19.779297 -20.156982 7
-1.229919 -19.801758 -20.080078 7
-1.238403 -19.899414 -20.08374 7
-1.252319 -20.029297 -20.121582 7
-1.260071 -20.123047 -20.120361 7
-1.265137 -20.201172 -20.102051 7
-1.270874 -20.28418 -20.087646 7
-1.061584 -20.711914 -16.943115 7
-1.073547 -20.829102 -16.958984 7
-1.086792 -20.954102 -16.981934 7
-1.094604 -21.045898 -16.974121 7
-1.063477 -22.489258 -14.52832 7
-1.064392 -22.530273 -14.478516 7
-1.081177 -22.682617 -14.504395 7
-1.0869139 -22.757812 -14.477051 7
-1.095459 -22.852539 -14.462402 7
-1.0971071 -22.899414 -14.414795 7
-1.113892 -23.051758 -14.438965 7
-1.128601 -23.19043 -14.452881 7
-1.144714 -23.337891 -14.472168 7
-0.14428701 -5.438477 19.708984 7
-0.134277 -5.329102 19.656738 7
-0.13848899 -5.2949219 19.702881 7
-0.124268 -5.2207031 19.604004 7
-0.127747 -5.1855469 19.644287 7
-0.13195799 -5.1523442 19.69043 7
0.235291 14.748047 -6.1564941 7
0.25238001 14.599609 -6.1235352 7
0.250305 14.59668 -6.1660161 7
0.253113 14.557617 -6.1894531 7
0.25244099 14.544922 -6.2263179 7
0.259949 14.469727 -6.22998 7
0.25860599 14.461914 -6.2697749 7
0.25591999 14.463867 -6.3149409 7
0.266846 14.364258 -6.3039551 7
0.26483199 14.360352 -6.3461909 7
0.271667 14.290039 -6.3518071 7
0.27239999 14.266602 -6.3825679 7
0.14276101 13.560547 -9.4077148 7
0.150269 13.485352 -9.3994141 7
0.155762 13.422852 -9.4013672 7
0.157104 13.387695 -9.4257812 7
0.159119 13.347656 -9.4460449 7
0.152344 13.367188 -9.5146484 7
0.154419 13.327148 -9.534668 7
0.15307599 13.310547 -9.5737305 7
0.15649401 13.260742 -9.5859385 7
-1.065063 -16.180664 -19.36792 7
-1.071106 -16.258789 -19.365723 7
-1.078552 -16.34375 -19.372559 7
-1.0819089 -16.455078 -19.312744 7
-1.089355 -16.540039 -19.318848 7
-1.0996701 -16.640625 -19.342773 7
-1.1309201 -16.845703 -19.496826 7
-1.1535029 -17.008789 -19.596191 7
-1.152344 -17.050781 -19.546875 7
-1.155457 -17.114258 -19.52417 7
-0.93981898 -17.633789 -16.612549 7
-0.93499798 -17.647461 -16.541504 7
-0.93231201 -17.672852 -16.48291 7
-0.92962599 -17.698242 -16.424561 7
-0.92266798 -17.699219 -16.341797 7
-0.92724597 -17.765625 -16.323975 7
-0.93908697 -17.873047 -16.347168 7
-0.944336 -17.942383 -16.332764 7
-0.95550501 -18.047852 -16.351074 7
-0.96508801 -18.142578 -16.360596 7
-0.96820098 -18.201172 -16.33374 7
-0.90741003 -19.543945 -13.893066 7
-0.91638201 -19.634766 -13.889404 7
-0.92675799 -19.734375 -13.89209 7
-0.93646199 -19.831055 -13.891113 7
-0.94976801 -19.950195 -13.907227 7
-0.956604 -20.02832 -13.891357 7
-0.96264601 -20.101562 -13.871582 7
-0.96435499 -20.145508 -13.830566 7
-0.97759998 -20.264648 -13.845215 7
-0.98956299 -20.375977 -13.852539 7
-0.998474 -20.467773 -13.845459 7
-1.004517 -20.539062 -13.824219 7
-1.0062259 -20.584961 -13.782227 7
-1.173035 -23.483398 -11.446533 7
-1.182068 -23.574219 -11.424072 7
-1.197632 -23.711914 -11.425293 7
-1.217651 -23.880859 -11.443115 7
-1.230347 -23.998047 -11.432373 7
-0.124634 -4.889648 18.613525 7
-0.119324 -4.8378911 18.586182 7
0.22399899 13.628906 -6.419189 7
0.22692899 13.59082 -6.439209 7
0.22912601 13.557617 -6.4621582 7
0.231323 13.522461 -6.4851069 7
0.233521 13.489258 -6.507812 7
0.23498499 13.459961 -6.5334468 7
0.239319 13.410156 -6.5471191 7
0.240784 13.381836 -6.5725098 7
0.240784 13.362305 -6.6040039 7
0.24011201 13.347656 -6.6384282 7
0.241577 13.318359 -6.6638179 7
-0.94567901 -13.209961 -18.700195 7
-0.83148199 -15.165039 -15.969727 7
-0.83020002 -15.197266 -15.925049 7
-0.829651 -15.233398 -15.884277 7
-0.829041 -15.270508 -15.84375 7
-0.83233601 -15.327148 -15.824707 7
-0.84777802 -17.629883 -13.443604 7
-0.85412598 -17.700195 -13.431641 7
-0.85430902 -17.734375 -13.389404 7
-0.856812 -17.782227 -13.358154 7
-0.86169398 -17.84375 -13.338135 7
-1.100403 -21.485352 -10.966797 7
-1.11145 -21.585938 -10.955811 7
-1.125549 -21.704102 -10.955811 7
-1.179993 -22.834961 -9.5324707 7
-1.187927 -22.912109 -9.5029297 7
-1.1982419 -23.005859 -9.4804688 7
-1.213135 -23.130859 -9.472168 7
-1.235046 -23.303711 -9.4851074 7
-1.230652 -23.298828 -9.4155273 7
-1.227051 -23.296875 -9.3479004 7
-0.109497 -4.7539058 17.549072 7
-0.11261 -4.7216802 17.582764 7
-0.118896 -4.6972661 17.638672 7
-0.119629 -4.6601558 17.655518 7
-0.112427 -4.6064448 17.616699 7
-0.112366 -4.5673828 17.627686 7
-0.114685 -4.5341802 17.655273 7
-0.121765 -4.5097661 17.716797 7
0.198303 12.791016 -6.5029302 7
0.196777 12.78125 -6.539062 7
0.196045 12.767578 -6.5722661 7
0.19683801 12.743164 -6.598877 7
0.199158 12.708984 -6.619873 7
0.202209 12.669922 -6.6367192 7
0.204529 12.636719 -6.6569819 7
0.204529 12.617188 -6.6867681 7
0.206055 12.587891 -6.7099609 7
-0.74151599 -13.053711 -15.308594 7
-0.73504603 -15.387695 -12.931885 7
-0.738464 -15.438477 -12.911133 7
-0.74352998 -15.498047 -12.897705 7
-0.746948 -15.546875 -12.876465 7
-0.75366199 -15.615234 -12.870361 7
-0.760315 -15.682617 -12.864258 7
-0.76861602 -15.759766 -12.865723 7
-0.77771002 -15.84082 -12.870361 7
-0.78436297 -15.908203 -12.863525 7
-0.79272503 -15.986328 -12.864014 7
-0.98370397 -19.262695 -10.503906 7
-0.99945098 -19.385742 -10.515137 7
-1.006958 -19.458008 -10.496094 7
-1.013672 -19.524414 -10.473877 7
-1.029358 -19.646484 -10.483887 7
-1.041016 -19.744141 -10.47876 7
-1.051025 -19.832031 -10.467041 7
-1.045471 -19.824219 -10.399414 7
-1.0400389 -19.816406 -10.331787 7
-1.032104 -19.792969 -10.255371 7
-0.097534001 -4.4023442 16.628418 7
-0.65271002 -10.926758 -14.847168 7
-0.65814197 -11.022461 -14.823486 7
-0.66436797 -11.12207 -14.803955 7
-0.66626 -11.166992 -14.787109 7
-0.66979998 -11.216797 -14.779297 7
-0.67773402 -11.318359 -14.76416 7
-0.68487501 -11.421875 -14.747803 7
-0.65100098 -13.449219 -12.642822 7
-0.65026897 -13.477539 -12.606689 7
-0.654724 -13.530273 -12.595459 7
-0.66339099 -13.603516 -12.604492 7
-0.66693097 -13.652344 -12.588379 7
-0.67138702 -13.705078 -12.576416 7
-0.67584199 -13.759766 -12.564453 7
-0.68194598 -13.820312 -12.560059 7
-0.68896502 -13.885742 -12.560059 7
-0.68994099 -13.922852 -12.531006 7
-0.69189501 -13.963867 -12.505859 7
-0.69458002 -14.007812 -12.484619 7
-0.69989002 -14.064453 -12.475586 7
-0.70941198 -14.142578 -12.486572 7
-0.91833502 -17.643555 -10.159424 7
-0.927917 -17.723633 -10.1521 7
-0.93328899 -17.780273 -10.128662 7
-0.943726 -17.866211 -10.123779 7
-1.0491329 -19.464844 -8.6293945 7
-0.104004 -4.4775391 15.848145 7
-0.105713 -4.4462891 15.869873 7
-0.096923999 -4.3955078 15.825195 7
-0.098632999 -4.3642578 15.846924 7
-0.097717002 -4.328125 15.852051 7
-0.103821 -4.3056641 15.901123 7
-0.108154 -4.2792969 15.939209 7
-0.101929 -4.233398 15.910645 7
-0.100159 -4.195312 15.909424 7
-0.104553 -4.1699219 15.947266 7
0.147949 13.05957 -3.213623 7
0.151428 13.025391 -3.2363279 7
0.15564001 12.987305 -3.2568359 7
0.15741 12.96582 -3.2832029 7
0.16082799 12.930664 -3.3056641 7
0.16339099 12.904297 -3.3295901 7
0.161743 12.902344 -3.3640139 7
0.166016 12.864258 -3.384033 7
0.16180401 12.879883 -3.424561 7
0.16180401 12.867188 -3.454834 7
0.16271999 12.850586 -3.4831541 7
-0.59143102 -11.874023 -12.306152 7
-0.59869403 -11.936523 -12.3125 7
-0.599792 -11.97168 -12.288086 7
-0.59728998 -11.993164 -12.24707 7
-0.59918201 -12.03125 -12.226807 7
-0.60119599 -12.071289 -12.206787 7
-0.60217297 -12.106445 -12.182129 7
-0.61218297 -12.180664 -12.200195 7
-0.61859101 -12.240234 -12.201416 7
-0.625916 -12.303711 -12.206299 7
-0.62963903 -12.350586 -12.194092 7
-0.633362 -12.397461 -12.181641 7
-0.635315 -12.4375 -12.1604 7
-0.87921101 -16.34082 -9.8193359 7
-0.89013702 -16.422852 -9.8190918 7
-0.90112299 -16.507812 -9.8188477 7
-0.90490699 -16.552734 -9.7924805 7
-0.90417498 -16.574219 -9.7497559 7
-0.903503 -16.595703 -9.7072754 7
-0.89923102 -16.597656 -9.6520996 7
-0.89672899 -16.608398 -9.6027832 7
-0.20117199 -7.4169922 14.398682 7
-0.207642 -7.335938 13.703125 7
-0.211487 -7.3183589 13.740723 7
-0.19989 -7.2529302 13.698242 7
-0.19989 -7.2246089 13.715576 7
-0.211487 -7.2314448 13.79248 7
-0.214294 -7.2099609 13.824951 7
-0.217224 -7.1894531 13.857178 7
-0.226868 -7.1894531 13.924316 7
-0.213379 -7.1191411 13.871338 7
-0.094788 -4.141602 14.434082 7
-0.086060002 -4.0644531 14.404297 7
-0.089844003 -4.0400391 14.435791 7
-0.086914003 -4.0048828 14.429199 7
-0.087890998 -3.9746089 14.444092 7
-0.094543003 -3.9550779 14.492676 7
-0.093566999 -3.921875 14.496582 7
-0.093566999 -3.891602 14.505859 7
-0.092528999 -3.859375 14.509766 7
-0.73736602 -13.477539 -9.2524414 7
-0.74340802 -13.530273 -9.2416992 7
-0.74755901 -13.573242 -9.2233887 7
-0.75457799 -13.628906 -9.215332 7
-0.75970501 -13.676758 -9.2006836 7
-0.77075201 -13.751953 -9.2062988 7
-0.077575997 -3.7626951 13.754639 7
-0.191772 -6.9980469 12.29541 7
-0.185486 -6.9550781 12.282715 7
-0.18859901 -6.9375 12.314209 7
-0.19171099 -6.920898 12.345215 7
-0.19598401 -6.907227 12.381104 7
-0.204346 -6.905273 12.437012 7
-0.208618 -6.891602 12.4729 7
-0.19805899 -6.8349609 12.44043 7
-0.19909699 -6.8125 12.46167 7
-0.19281 -6.7685552 12.448486 7
-0.19171099 -6.7382808 12.459473 7
-0.078125 -3.824219 13.14917 7
-0.077026002 -3.7949221 13.153076 7
-0.079102002 -3.7705081 13.173096 7
-0.079102002 -3.742188 13.182129 7
-0.086425997 -3.726562 13.229492 7
-0.085326999 -3.6962891 13.233154 7
-0.083191 -3.6650391 13.230957 7
-0.080017 -3.6318359 13.223389 7
-0.080017 -3.6044919 13.231934 7
-0.080994003 -3.578125 13.246338 7
-0.084105998 -3.554688 13.271484 7
-0.086181998 -3.530273 13.291016 7
-0.072875999 -3.816406 12.500977 7
-0.070618004 -3.7871089 12.499268 7
-0.071716003 -3.7626951 12.513916 7
-0.070618004 -3.734375 12.517578 7
-0.070556998 -3.7080081 12.526611 7
-0.067199998 -3.675781 12.519043 7
-0.067139 -3.6494141 12.528076 7
-0.070435002 -3.628906 12.553223 7
-0.070435002 -3.6025391 12.562012 7
-0.073729999 -3.5810549 12.586914 7
-0.072571002 -3.5537109 12.590088 7
-0.064879999 -3.496094 12.050537 7
-0.076293997 -3.4863279 12.113525 7
-0.074036002 -3.4589839 12.111084 7
-0.069397002 -3.4267581 12.097656 7
-0.069335997 -3.4003911 12.105957 7
-0.069335997 -3.375 12.114014 7
-0.071594 -3.3535161 12.133057 7
-0.071594 -3.328125 12.141113 7
-0.065734997 -3.5126951 11.538086 7
-0.063293003 -3.484375 11.535889 7
-0.059691999 -3.4550779 11.528076 7
-0.063231997 -3.436523 11.55249 7
-0.063231997 -3.4130859 11.560791 7
-0.062011998 -3.386719 11.563477 7
-0.063170999 -3.3652339 11.577393 7
-0.069153003 -3.3496089 11.612549 7
-0.066711001 -3.3222661 11.609863 7
-0.061889999 -3.2910161 11.596191 7
-0.066650003 -3.273438 11.625977 7
-0.067809999 -3.2519529 11.639404 7
-0.067809999 -3.2275391 11.647217 7
-0.067809999 -3.203125 11.655029 7
-0.063293003 -3.1845701 11.184814 7
-0.062011998 -3.1591799 11.187256 7
-0.049561001 -3.1767581 10.226807 7
-0.053589001 -3.1611331 10.250732 7
-0.054931998 -3.1425779 10.263672 7
-0.053528 -3.1191411 10.266113 7
-0.053528 -3.0986331 10.273438 7
-0.061646 -3.0888669 10.313232 7
-0.064331003 -3.0722661 10.331543 7
-0.062927 -3.0488279 10.33374 7
-0.054809999 -3.016602 10.308594 7
-0.057495002 -2.999023 10.32666 7
-0.057434 -2.9775391 10.333984 7
-0.054749001 -2.954102 10.330322 7
-0.058777001 -2.9375 10.354004 7
-0.061462 -2.9199221 10.371826 7
-0.068236999 -2.907227 10.405762 7
-0.070862003 -2.8886721 10.423828 7
-0.44152799 -9.4609385 6.0932622 7
-0.441589 -9.4511719 6.115479 7
-0.43463099 -9.4023438 6.1477051 7
-0.431885 -9.3808594 6.1647949 7
-0.429138 -9.359375 6.1821289 7
-0.42352301 -9.3154297 6.216064 7
-0.43206799 -9.3339844 6.2541499 7
-0.42925999 -9.3115234 6.2712402 7
-0.055054002 -3.1923831 9.829834 7
-0.052184999 -3.167969 9.8269043 7
-0.053589001 -3.1308589 9.847168 7
-0.050719999 -3.1064451 9.8442383 7
-0.043639999 -3.0566411 9.8322754 7
-0.047851998 -3.042969 9.855957 7
-0.047851998 -3.0224609 9.8635254 7
-0.049194001 -2.984375 9.8830566 7
-0.053406 -2.9707029 9.9064941 7
-0.051941 -2.9482419 9.9082031 7
-0.047729 -2.902344 9.9064941 7
-0.047667999 -2.882812 9.9135742 7
-0.039246 -2.858398 9.1704102 7
-0.043823 -2.8457029 9.1931152 7
-0.058959998 -2.8466799 9.253418 7
-0.055907998 -2.824219 9.2492676 7
-0.055847 -2.8056641 9.2561045 7
-0.042174999 -2.7705081 9.215332 7
-0.043701001 -2.753906 9.2270508 7
-0.048278999 -2.7412109 9.25 7
-0.051208001 -2.7255859 9.267334 7
-0.045166001 -2.7001951 9.2521973 7
-0.040894002 -2.8701169 8.8681641 7
-0.037781 -2.847656 8.864502 7
-0.044006001 -2.8388669 8.8928223 7
-0.044006001 -2.820312 8.8996582 7
-0.044006001 -2.8027339 8.9064941 7
-0.043945 -2.785156 8.9130859 7
-0.048645001 -2.773438 8.9360352 7
-0.048645001 -2.7558589 8.942627 7
-0.048645001 -2.738281 8.9492188 7
-0.048583999 -2.719727 8.9560547 7
-0.039124001 -2.6904299 8.9309082 7
-0.042296998 -2.6767581 8.9477539 7
-0.048523001 -2.6669919 8.9755859 7
-0.048523001 -2.648438 8.9819336 7
-0.046936002 -2.6279299 8.9831543 7
-0.048462 -2.6123049 8.994873 7
-0.057861 -2.6044919 9.0332031 7
-0.053162001 -2.582031 9.0234385 7
-0.059386998 -2.5712891 9.0512695 7
-0.046142999 -2.8652339 8.5517578 7
-0.046142999 -2.847656 8.5585938 7
-0.046142999 -2.8310549 8.5656738 7
-0.047729 -2.816406 8.5776367 7
-0.036377002 -2.7841799 8.5478516 7
-0.037964001 -2.7705081 8.5598145 7
-0.036316 -2.750977 8.5612793 7
-0.037903 -2.735352 8.5732422 7
-0.037903 -2.71875 8.579834 7
-0.042785998 -2.7080081 8.6022949 7
-0.047667999 -2.6972661 8.6247559 7
-0.045959 -2.6777339 8.6262207 7
-0.042725001 -2.657227 8.6218262 7
-0.045959 -2.644531 8.638916 7
-0.036194 -2.6152339 8.6135254 7
-0.042663999 -2.6064451 8.6411133 7
-0.041016001 -2.5869141 8.6420898 7
-0.042663999 -2.5712891 8.6538086 7
-0.160217 -5.7246089 6.6391602 7
-0.155212 -5.7011719 6.6411128 7
-0.15185501 -5.6806641 6.6474609 7
-0.150208 -5.664062 6.6569819 7
-0.146851 -5.6435552 6.6630859 7
-0.15527301 -5.6503911 6.6958008 7
-0.15863 -5.6464839 6.717041 7
-0.049561001 -2.644531 8.331543 7
-0.047791 -2.625977 8.3330078 7
-0.046142999 -2.6074221 8.3339844 7
-0.056212999 -2.6035161 8.3718262 7
-0.042725001 -2.570312 8.3361816 7
-0.17382801 -5.75 6.244873 7
-0.17382801 -5.7373052 6.2585449 7
-0.175598 -5.71875 6.2895508 7
-0.170349 -5.6933589 6.2927251 7
-0.15649401 -5.6376948 6.2902832 7
-0.15478501 -5.609375 6.313477 7
-0.15307599 -5.59375 6.3232422 7
-0.151306 -5.5654302 6.346436 7
-0.156616 -5.5556641 6.3842769 7
-0.16009501 -5.5498052 6.405273 7
-0.15667699 -5.53125 6.4108891 7
-0.15667699 -5.5195308 6.4240718 7
-0.15667699 -5.507812 6.4372559 7
-0.156738 -5.4824219 6.463623 7
-0.15325899 -5.4501948 6.4824219 7
-0.172241 -5.516602 6.0939941 7
-0.156067 -5.4580078 6.0874019 7
-0.156067 -5.445312 6.1008301 7
-0.16149899 -5.4482422 6.1247559 7
-0.204989 -5.033123 18.762899 7
-0.176091 -3.5329709 13.123833 7
-0.070784003 -3.0460169 10.280602 7
-0.14888901 -5.591846 6.5861158 7
-0.072915003 -2.771337 8.6932392 7
-0.079268001 -2.592675 8.8377934 7
-0.137931 -5.413887 5.7268381 7
-0.061342999 -2.5596249 7.2574921 7
-0.064802997 -2.431324 7.3724151 7
-0.061888002 -2.278703 7.4537182 7
-0.51355398 -9.5462408 6.1654782 7
-0.070035003 -3.0002799 9.7338371 7
-0.042589001 -2.822479 9.1541853 7
-0.024922 -2.682215 8.6971684 7
-0.18902799 -5.5897851 6.5367069 7
-0.14916199 -5.3253798 5.5868878 7
-0.13059799 -5.1586251 5.7270908 7
-0.013197 -2.5092969 7.4919462 7
-0.016427999 -2.3389831 7.5811262 7
-0.042318001 -2.4122541 7.219604 7
-0.043703001 -2.250093 7.294044 7
0.27836201 16.529356 -5.8608479 7
0.280049 15.11659 -6.1517539 7
0.27991301 14.006366 -6.4450421 7
