# .PCD v0.7 - Point Cloud Data file format
VERSION 0.7
FIELDS x y z intensity
SIZE 4 4 4 4
TYPE F F F F
COUNT 1 1 1 1
WIDTH 886
HEIGHT 1
VIEWPOINT 0 0 0 1 0 0 0
POINTS 886
DATA ascii
2.3187871 74.428711 -0.071777001 7
2.092407 61.490234 4.6972661 7
2.090637 62.871094 4.6196289 7
2.0921631 62.053711 4.4326172 7
2.0938721 69.349609 -0.95874 7
2.0952151 68.617188 -1.094727 7
2.096252 68.060547 -1.234619 7
2.0983281 66.928711 -1.505127 7
1.932312 60.733398 4.5317378 7
1.937134 59.65918 4.337646 7
1.940918 58.834961 4.1599121 7
1.946533 59.378906 0.678711 7
1.94873 58.90332 0.546143 7
1.942993 60.411133 0.378418 7
1.944885 60.021484 0.24389599 7
1.946411 59.702148 0.110107 7
1.948364 59.283203 -0.020264 7
1.926208 65.632812 -1.738281 7
1.9291379 64.952148 -1.85791 7
1.931152 64.530273 -1.98877 7
1.933167 64.083984 -2.115967 7
1.790588 53.946289 3.281738 7
1.797546 53.037109 3.126709 7
1.802917 52.338867 2.9819341 7
1.781311 56.133789 0.30468801 7
1.7869869 55.380859 0.19043 7
1.790161 54.980469 0.070312001 7
1.794189 54.443359 -0.044188999 7
1.7995 53.743164 -0.150879 7
1.805359 52.955078 -0.251221 7
1.78009 56.556641 -0.63964802 7
1.78241 56.276367 -0.76171899 7
1.786743 55.698242 -0.86987299 7
1.788818 55.44043 -0.98974597 7
1.7935179 54.814453 -1.091309 7
1.796448 54.433594 -1.20166 7
1.6589971 53.146484 3.1560061 7
1.665405 52.535156 3.013428 7
1.672668 51.831055 2.8708501 7
1.67926 51.19043 2.7336431 7
1.685547 50.578125 2.599854 7
1.692627 49.895508 2.467773 7
1.666443 53.110352 -0.10498 7
1.671875 52.580078 -0.21264599 7
1.676392 52.136719 -0.32104501 7
1.680969 51.694336 -0.427246 7
1.683777 51.425781 -0.538818 7
1.688477 50.964844 -0.640625 7
1.660278 53.947266 -1.278564 7
1.665833 53.418945 -1.503906 7
1.6691279 53.101562 -1.611328 7
1.536499 50.071289 2.691895 7
1.547668 49.250977 2.4399409 7
1.55957 48.350586 2.3093259 7
1.570129 47.575195 2.072021 7
1.575439 47.183594 1.9562989 7
1.556458 49.049805 -0.69042999 7
1.561523 48.669922 -0.78833002 7
1.562439 48.612305 -0.90039098 7
1.566467 48.308594 -0.99951202 7
1.57074 47.985352 -1.096436 7
1.565002 48.447266 -1.236328 7
1.440002 47.029297 2.070312 7
1.449585 46.439453 1.954102 7
1.458679 45.87793 1.8405761 7
1.464294 45.540039 1.7312011 7
1.472168 45.058594 1.622559 7
1.479004 44.636719 1.5163569 7
1.4628299 45.949219 -1.197754 7
1.442871 47.316406 -3.076416 7
1.445618 47.148438 -3.1721189 7
1.4472049 47.049805 -3.2744141 7
1.450073 46.869141 -3.367676 7
1.455017 46.554688 -3.4460449 7
1.457764 46.385742 -3.5388179 7
1.459106 46.303711 -3.6403811 7
1.340881 44.464844 1.612061 7
1.348877 44.055664 1.507324 7
1.3384399 44.880859 -3.5978999 7
1.338684 44.868164 -3.703613 7
1.339233 44.839844 -3.807373 7
1.341797 44.704102 -3.898438 7
1.348083 44.365234 -3.963623 7
1.350952 44.213867 -4.0505371 7
1.350708 44.222656 -4.157959 7
1.2607419 42.978516 -4.2937012 7
1.263428 42.849609 -4.3789058 7
1.266785 42.689453 -4.4597168 7
1.2724 42.419922 -4.523438 7
1.270081 42.518555 -4.7424321 7
1.2049561 39.895508 -2.2709961 7
1.208679 39.739258 -2.351074 7
1.2119139 39.607422 -2.432373 7
1.21521 39.470703 -2.5126951 7
1.179443 40.832031 -4.8071289 7
1.183899 40.643555 -4.875977 7
1.1875 40.490234 -4.949707 7
1.19165 40.311523 -5.0187988 7
1.193909 40.21582 -5.1005859 7
1.132385 42.479492 -7.6557622 7
1.133545 38.15918 -3.2697749 7
1.102295 39.172852 -5.0969238 7
1.105957 39.03125 -5.1677251 7
1.109802 38.880859 -5.2365718 7
1.112244 38.785156 -5.3139648 7
1.115417 38.65918 -5.3859859 7
1.052979 36.523438 -5.6401372 7
0.97503698 38.682617 -8.3676758 7
0.97912598 38.53418 -8.4265137 7
0.985291 38.318359 -8.4672852 7
0.98614502 38.272461 -8.5515137 7
0.97570801 34.828125 -5.8154302 7
0.97491503 34.839844 -5.9038091 7
0.97924799 34.702148 -5.9599609 7
0.98736602 34.456055 -5.9919429 7
0.98907501 34.391602 -6.0627441 7
0.98944098 34.367188 -6.1425781 7
0.99200398 34.28125 -6.2080078 7
0.99572802 34.160156 -6.265625 7
0.99145502 34.266602 -6.375 7
0.902771 36.449219 -8.8051758 7
0.90576202 36.345703 -8.8686523 7
0.90649402 36.304688 -8.9494629 7
0.91180402 36.133789 -8.9924316 7
0.822815 34.415039 -9.2980957 7
0.82800299 34.260742 -9.338623 7
0.83215302 34.133789 -9.387207 7
0.83605999 34.013672 -9.4370117 7
0.83844 33.932617 -9.4990234 7
-0.172913 8.0869141 -61.99585 7
-0.155945 7.8798828 -61.555664 7
0.84924299 30.982422 -6.620605 7
0.85089099 30.929688 -6.6845698 7
0.85516399 30.814453 -6.7312012 7
0.85650599 30.766602 -6.7966309 7
0.860291 30.662109 -6.8459468 7
0.86047399 30.641602 -6.9182129 7
0.86499 30.520508 -6.9619141 7
0.86462402 30.510742 -7.037354 7
0.76043701 32.388672 -9.6623545 7
0.764709 32.268555 -9.7055664 7
0.76849401 32.158203 -9.7524414 7
0.76574701 32.197266 -9.8518066 7
-0.441223 -11.363281 52.240234 7
0.78436297 29.323242 -7.092041 7
0.79333502 29.116211 -7.1062012 7
0.79296899 29.107422 -7.1782231 7
0.794128 29.064453 -7.2402339 7
0.79852301 28.954102 -7.2810059 7
0.80133098 28.876953 -7.3322749 7
0.68554699 30.71875 -10.002686 7
0.68969703 30.609375 -10.043945 7
0.69274902 30.521484 -10.093018 7
0.69610602 30.429688 -10.139893 7
0.69567901 30.402344 -10.209717 7
-0.54699701 -14.109375 49.727295 7
-0.58111602 -14.170898 50.367188 7
0.73339802 27.866211 -7.3625488 7
0.73553503 27.804688 -7.4155269 7
0.740906 27.683594 -7.44873 7
0.74450701 27.59668 -7.4916992 7
0.747253 27.524414 -7.5402832 7
0.75085402 27.4375 -7.5830078 7
0.62164301 29.307617 -10.246826 7
0.62383997 29.242188 -10.300293 7
0.62976098 29.104492 -10.325195 7
0.63220203 29.03418 -10.375977 7
0.63952601 28.870117 -10.388184 7
0.63562 28.917969 -10.487793 7
-0.226807 8.59375 -47.277344 7
-0.240417 8.5263672 -47.573975 7
0.68908697 25.96582 -7.720459 7
0.69049102 25.922852 -7.773438 7
0.69030797 25.90625 -7.8366699 7
0.69262701 25.844727 -7.8837891 7
0.694336 25.795898 -7.9345698 7
0.67407203 24.836914 -4.8786621 7
0.67657501 24.78125 -4.927002 7
0.67980999 24.714844 -4.9719238 7
0.684021 24.631836 -5.0119629 7
0.68859899 24.542969 -5.0500488 7
0.69110101 24.488281 -5.0974121 7
0.63641399 24.585938 -8.0166016 7
0.63891602 24.526367 -8.0598145 7
0.64001501 24.487305 -8.1108398 7
0.64050299 24.458984 -8.1665039 7
0.64166301 24.419922 -8.2175293 7
0.64074701 24.413086 -8.2817383 7
0.51178002 25.710938 -10.910156 7
0.51293898 25.666016 -10.962891 7
0.51580799 25.59375 -11.00293 7
0.51660198 25.552734 -11.057861 7
0.51501501 25.549805 -11.131104 7
0.514404 25.530273 -11.196289 7
-0.29858401 -8.2197266 36.597168 7
-0.29675299 -8.0478516 36.613281 7
0.62695301 23.328125 -5.2636719 7
0.63079798 23.255859 -5.3024902 7
0.63501 23.177734 -5.338623 7
0.63958699 23.094727 -5.3730469 7
0.64233398 23.040039 -5.415771 7
0.58453399 22.998047 -8.3554688 7
0.585388 22.964844 -8.4050293 7
0.587708 22.90918 -8.4448242 7
0.58892798 22.870117 -8.4916992 7
0.58868402 22.852539 -8.5478516 7
0.58392298 22.896484 -8.6328115 7
-0.30920401 10.393555 -36.55835 7
-0.38391101 -11.246094 34.602783 7
-0.39361599 -11.208984 34.756836 7
-0.259583 -7.7568359 33.897217 7
0.58490002 22.259766 -5.456543 7
0.58819598 22.199219 -5.4946289 7
0.59387201 22.102539 -5.5222168 7
0.596008 22.058594 -5.5649409 7
0.59966999 21.992188 -5.6008301 7
0.60223401 21.942383 -5.6413569 7
0.59912097 21.969727 -5.7077641 7
0.38775599 22.871094 -11.530273 7
0.391357 22.792969 -11.558105 7
-0.313232 10.151367 -33.972168 7
-0.32232699 10.019531 -34.14917 7
-0.325867 9.9482422 -34.223145 7
-0.318542 6.1533198 -34.933838 7
0.54443401 21.033203 -5.4675288 7
0.53680402 21.115234 -5.5505371 7
0.53558302 21.115234 -5.6057129 7
0.53649902 21.086914 -5.6516109 7
0.53704798 21.064453 -5.6994629 7
0.54315197 20.970703 -5.722168 7
0.54669201 20.908203 -5.7563481 7
0.55071998 20.841797 -5.7880859 7
0.55383301 20.786133 -5.8232422 7
0.55737299 20.725586 -5.856689 7
0.56048602 20.668945 -5.891602 7
0.56054699 20.651367 -5.940186 7
0.55896002 20.65625 -5.9968262 7
0.55212402 20.725586 -6.0776372 7
0.484009 20.673828 -8.6574707 7
0.483215 20.65918 -8.7114258 7
0.48327601 20.635742 -8.7597656 7
0.48638901 20.574219 -8.7902832 7
0.48950201 20.512695 -8.8200684 7
0.48956299 20.489258 -8.8681641 7
0.49096701 20.447266 -8.9084473 7
0.493164 20.396484 -8.9433594 7
-0.32647699 9.5839844 -31.429688 7
-0.338379 9.5507812 -31.609375 7
-0.34265101 9.4882812 -31.687744 7
-0.33923301 9.3974609 -31.664795 7
-0.33172601 5.5498052 -32.391357 7
-0.318115 5.4394531 -32.219727 7
-0.235596 -6.766602 29.450928 7
0.49957299 19.974609 -5.784668 7
0.49786401 19.979492 -5.8400879 7
0.49700901 19.972656 -5.8908691 7
0.49939001 19.927734 -5.9277339 7
0.50317401 19.866211 -5.9580078 7
0.50695801 19.804688 -5.9882808 7
0.51165801 19.731445 -6.013916 7
0.51361102 19.691406 -6.052002 7
0.43621799 19.476562 -8.9814453 7
0.44134501 19.394531 -8.9968262 7
0.44146699 19.370117 -9.0422363 7
0.44152799 19.344727 -9.0878906 7
0.44207799 19.314453 -9.1306152 7
0.443542 19.274414 -9.1672363 7
0.44268799 19.258789 -9.2185059 7
0.27948001 19.892578 -12.183105 7
0.28460699 19.805664 -12.193359 7
0.28515601 19.768555 -12.236572 7
0.28564501 19.730469 -12.279541 7
0.28064001 19.750977 -12.363281 7
0.27575701 19.771484 -12.446777 7
-1.867981 -40.40332 -20.949707 7
-1.884766 -40.618164 -20.943359 7
-1.923035 -41.049805 -21.053223 7
-1.939392 -41.262695 -21.041748 7
-1.946472 -41.380859 -20.97998 7
-1.9771121 -41.737305 -21.043701 7
-1.880798 -41.803711 -18.233154 7
-1.903259 -42.077148 -18.239746 7
-0.36425799 -9.8203115 27.893799 7
-0.37054399 -9.7822266 27.982666 7
0.46020499 18.726562 -6.1481929 7
0.46575901 18.649414 -6.16748 7
0.471802 18.566406 -6.1843262 7
0.47241199 18.542969 -6.2258301 7
0.47546399 18.492188 -6.2558589 7
0.47949201 18.431641 -6.2810059 7
0.48107901 18.396484 -6.317627 7
0.39495799 18.0625 -9.2976074 7
0.39495799 18.036133 -9.340332 7
0.39508101 18.010742 -9.3823242 7
0.393677 18 -9.434082 7
0.39520299 17.958008 -9.4672852 7
0.391357 17.972656 -9.5339355 7
-0.34210199 4.7597661 -27.969238 7
-0.34210199 4.6904302 -27.980225 7
-0.34606901 4.6279302 -28.037354 7
-0.33929399 4.5439448 -27.967285 7
-0.34570301 4.485352 -28.052979 7
-1.678833 -35.919922 -18.823242 7
-1.643616 -35.636719 -18.553955 7
-1.6231689 -35.489258 -18.362549 7
-1.605408 -35.366211 -18.185791 7
-1.596985 -35.330078 -18.057129 7
-1.619324 -35.99707 -17.219971 7
-1.632324 -36.161133 -17.196045 7
-1.662231 -36.484375 -17.252441 7
-1.670776 -36.605469 -17.205322 7
-1.687012 -36.799805 -17.194336 7
-1.7038569 -37 -17.185059 7
-1.727722 -37.268555 -17.208496 7
-1.848328 -39.668945 -14.673828 7
-1.866272 -39.880859 -14.648926 7
-1.896301 -40.209961 -14.67041 7
-0.208923 -6.0751948 25.587891 7
-0.20373499 -5.889648 25.579834 7
0.42761201 17.599609 -6.3193359 7
0.43090799 17.549805 -6.3461909 7
0.43585199 17.463867 -6.407227 7
0.43804899 17.422852 -6.4387212 7
0.43866 17.399414 -6.4772949 7
0.440308 17.363281 -6.5102539 7
0.43988001 17.349609 -6.5537109 7
0.44256601 17.304688 -6.5822749 7
0.43689001 17.323242 -6.6916499 7
0.349792 16.923828 -9.4423828 7
0.34985399 16.897461 -9.4819336 7
0.347839 16.891602 -9.5344238 7
0.346802 16.874023 -9.5808105 7
0.171875 16.941406 -12.752686 7
0.17511 16.881836 -12.77002 7
0.174683 16.852539 -12.813232 7
0.172058 16.839844 -12.87207 7
0.169495 16.828125 -12.930664 7
0.164795 16.833008 -13.004639 7
0.157471 16.859375 -13.097656 7
-1.655457 -30.541992 -22.276855 7
-1.667419 -30.691406 -22.275391 7
-1.679382 -30.837891 -22.272949 7
-1.694824 -31.014648 -22.291504 7
-1.703308 -31.134766 -22.26709 7
-1.71991 -31.322266 -22.29126 7
-1.724304 -31.40918 -22.240967 7
-1.713074 -31.37207 -22.097168 7
-1.425415 -31.381836 -16.481689 7
-1.424866 -31.456055 -16.327148 7
-1.439209 -31.619141 -16.320557 7
-1.45697 -31.813477 -16.330078 7
-1.478333 -32.039062 -16.355469 7
-1.483276 -32.121094 -16.301758 7
-1.504578 -32.34668 -16.325684 7
-1.520142 -32.521484 -16.321045 7
-1.6852421 -35.43457 -13.75708 7
-1.7153929 -35.743164 -13.788086 7
-1.747375 -36.070312 -13.824951 7
-1.771118 -36.320312 -13.828857 7
-0.183228 -5.742188 23.825684 7
-0.186157 -5.6962891 23.867676 7
-0.19738799 -5.6689448 23.98877 7
-0.189575 -5.5986328 23.928711 7
-0.19067401 -5.546875 23.953613 7
0.397888 16.533203 -6.4165039 7
0.39398199 16.550781 -6.473145 7
0.39349401 16.537109 -6.514648 7
0.39239499 16.529297 -6.5585942 7
0.39703399 16.467773 -6.5769038 7
0.39996299 16.421875 -6.6025391 7
0.40338099 16.37207 -6.6254878 7
0.403992 16.34668 -6.6616211 7
0.406921 16.301758 -6.686523 7
0.40985101 16.255859 -6.7116699 7
0.304077 15.822266 -9.6030273 7
0.30584699 15.782227 -9.6296387 7
0.305298 15.758789 -9.670166 7
0.309387 15.700195 -9.6835938 7
0.30548099 15.706055 -9.7443848 7
0.30554199 15.679688 -9.78125 7
0.30895999 15.625 -9.7973633 7
0.309021 15.597656 -9.8344727 7
0.30346701 15.617188 -9.9052734 7
0.125916 15.344727 -13.113037 7
-1.529846 -26.708984 -21.641846 7
-1.508606 -26.607422 -21.446045 7
-1.5230711 -26.762695 -21.469727 7
-1.535706 -26.905273 -21.481445 7
-1.550171 -27.0625 -21.503662 7
-1.566467 -27.231445 -21.536621 7
-1.581543 -27.392578 -21.561279 7
-1.5979 -27.563477 -21.592529 7
-1.598816 -27.62207 -21.530762 7
-1.3006589 -28.125 -15.627686 7
-1.30835 -28.224609 -15.596924 7
-1.3247679 -28.395508 -15.607178 7
-1.3380131 -28.541016 -15.602051 7
-1.350037 -28.674805 -15.590332 7
-1.363281 -28.821289 -15.583984 7
-1.3824461 -29.051758 -15.534424 7
-1.552856 -31.958008 -13.099609 7
-1.547485 -31.943359 -13.002197 7
-1.577026 -32.228516 -13.037354 7
-1.600891 -32.463867 -13.050049 7
-0.202637 -5.4628911 22.720947 7
-0.195557 -5.3457031 22.68457 7
0.35797101 15.579102 -6.7321782 7
0.36102301 15.535156 -6.7548828 7
0.363525 15.495117 -6.780273 7
0.365356 15.459961 -6.8083501 7
0.366638 15.427734 -6.8388672 7
0.36853001 15.392578 -6.867188 7
0.371582 15.347656 -6.8891602 7
0.373474 15.3125 -6.916748 7
0.37292501 15.296875 -6.9555659 7
0.37176499 15.287109 -6.997314 7
0.372437 15.261719 -7.0300288 7
0.259644 14.708984 -9.8823242 7
0.26269501 14.65918 -9.8989258 7
0.26275599 14.632812 -9.9333496 7
0.260986 14.618164 -9.9785156 7
0.26165801 14.585938 -10.009277 7
0.26171899 14.558594 -10.043701 7
0.26361099 14.517578 -10.066895 7
0.26245099 14.499023 -10.108398 7
0.25585899 14.520508 -10.182617 7
-1.377136 -22.959961 -20.703857 7
-1.383301 -23.050781 -20.685547 7
-1.392029 -23.15625 -20.682617 7
-1.40802 -23.30957 -20.723389 7
-1.419434 -23.43457 -20.73584 7
-1.42688 -23.533203 -20.723877 7
-1.4408571 -23.672852 -20.750977 7
-1.447021 -23.762695 -20.730225 7
-1.459778 -23.896484 -20.748535 7
-1.142517 -22.916016 -17.468994 7
-1.151306 -23.019531 -17.462158 7
-1.1574709 -23.104492 -17.440674 7
-1.168213 -23.22168 -17.444092 7
-1.14624 -24.675781 -14.941162 7
-1.158325 -24.800781 -14.939941 7
-1.1750489 -24.961914 -14.960205 7
-1.188416 -25.097656 -14.964111 7
-1.1972049 -25.199219 -14.945557 7
-1.204041 -25.286133 -14.916992 7
-1.214844 -25.40332 -14.906738 7
-1.230835 -25.55957 -14.921143 7
-1.2462161 -25.709961 -14.931641 7
-1.249146 -25.767578 -14.883057 7
-1.258545 -25.874023 -14.864746 7
-1.252869 -25.868164 -14.775879 7
-1.421753 -28.703125 -12.461182 7
-1.432556 -28.819336 -12.432861 7
-1.456543 -29.040039 -12.453857 7
-0.29028299 -8.5224609 21.041992 7
-0.29229701 -8.4833984 21.078369 7
-0.30230701 -8.4707031 21.178711 7
-0.29553199 -8.3544922 21.165283 7
-0.188354 -5.1044922 21.342285 7
-0.185608 -5.0507808 21.331787 7
-0.190918 -5.015625 21.38916 7
0.317444 14.682617 -6.8991699 7
0.32135001 14.631836 -6.9160161 7
0.323975 14.592773 -6.9387212 7
0.32598901 14.557617 -6.9641109 7
0.325378 14.541992 -7.0012212 7
0.329285 14.492188 -7.0178218 7
0.330688 14.462891 -7.0456538 7
0.33392301 14.416016 -7.0646968 7
0.33337399 14.400391 -7.101562 7
0.221008 13.416016 -10.220947 7
-1.233887 -19.505859 -20.058594 7
-1.232788 -19.548828 -20.003906 7
-1.2440799 -19.661133 -20.025391 7
-1.259766 -19.850586 -20.025391 7
-1.2724 -19.97168 -20.054443 7
-1.282288 -20.078125 -20.066162 7
-1.2880861 -20.15918 -20.052246 7
-1.3117681 -20.34668 -20.147461 7
-1.312012 -20.396484 -20.098877 7
-1.0294189 -20.042969 -16.949219 7
-1.045349 -20.266602 -16.891357 7
-1.047668 -20.322266 -16.854736 7
-1.052734 -20.395508 -16.833252 7
-1.070984 -20.551758 -16.884766 7
-1.071167 -20.594727 -16.836182 7
-1.089417 -20.750977 -16.886475 7
-1.047729 -22.089844 -14.479004 7
-1.045166 -22.107422 -14.412842 7
-1.055115 -22.210938 -14.407227 7
-1.066467 -22.324219 -14.407715 7
-1.0743411 -22.414062 -14.391602 7
-1.0919189 -22.570312 -14.421143 7
-1.101868 -22.674805 -14.413818 7
-1.110413 -22.768555 -14.399414 7
-1.114807 -22.834961 -14.36499 7
-1.123413 -22.928711 -14.350098 7
-0.27832001 -8.2548828 19.815186 7
0.29052699 13.717773 -7.1228032 7
0.288513 13.711914 -7.164062 7
0.29333499 13.657227 -7.174561 7
0.290039 13.661133 -7.222168 7
0.29748499 13.585938 -7.219727 7
0.300964 13.541016 -7.2355962 7
0.300354 13.524414 -7.270752 7
0.301025 13.498047 -7.2990718 7
0.30517599 13.448242 -7.3117681 7
0.30389401 13.4375 -7.349854 7
0.183044 12.454102 -10.276611 7
0.18042 12.442383 -10.322021 7
0.18585201 12.380859 -10.319092 7
0.193359 12.306641 -10.303467 7
0.192017 12.286133 -10.340576 7
0.18328901 12.3125 -10.422119 7
0.187378 12.259766 -10.426514 7
0.180664 12.272461 -10.496338 7
0.18206801 12.234375 -10.516846 7
-1.064575 -15.758789 -19.423096 7
-1.045166 -15.711914 -19.26123 7
-1.0476069 -15.770508 -19.237549 7
-1.057251 -15.865234 -19.259521 7
-1.0647579 -15.950195 -19.267578 7
-1.074463 -16.045898 -19.289307 7
-1.080505 -16.12207 -19.287354 7
-1.095337 -16.242188 -19.340332 7
-1.100647 -16.316406 -19.333496 7
-1.107483 -16.397461 -19.335693 7
-1.114929 -16.482422 -19.342041 7
-1.123962 -16.575195 -19.356689 7
-1.127808 -16.641602 -19.340088 7
-1.127319 -16.686523 -19.295898 7
-1.1203001 -16.697266 -19.211182 7
-0.88995397 -17.087891 -16.302246 7
-0.89892602 -17.177734 -16.311279 7
-0.90283197 -17.239258 -16.29126 7
-0.91394001 -17.34082 -16.312012 7
-0.919312 -17.411133 -16.299805 7
-0.93194598 -17.522461 -16.328369 7
-0.93652302 -17.588867 -16.311279 7
-0.900208 -19.236328 -13.871094 7
-0.913086 -19.384766 -13.840088 7
-0.93017602 -19.527344 -13.875732 7
-0.93914801 -19.618164 -13.871826 7
-0.94989002 -19.75293 -13.827637 7
-0.95300299 -19.807617 -13.794922 7
-0.97302198 -19.96875 -13.842529 7
-0.98522902 -20.115234 -13.803223 7
-0.994995 -20.209961 -13.800293 7
-1.225403 -23.75293 -11.370361 7
-1.239624 -23.879883 -11.365479 7
-0.155579 -4.7949219 18.916016 7
-0.158508 -4.7597661 18.950195 7
-0.160706 -4.7226558 18.978271 7
-0.168152 -4.6972661 19.04541 7
-0.15991201 -4.6386719 18.995117 7
-0.164307 -4.6064448 19.039795 7
-0.16424599 -4.5644531 19.051025 7
-0.171692 -4.5361328 19.118164 7
-0.171692 -4.4951172 19.128906 7
0.25970501 12.762695 -7.3496089 7
0.26330599 12.717773 -7.362793 7
0.26416001 12.670898 -7.4194341 7
0.26989701 12.610352 -7.421875 7
0.26995799 12.588867 -7.451416 7
0.268677 12.555664 -7.5175781 7
0.266541 12.548828 -7.5571289 7
0.263733 12.545898 -7.6003418 7
0.26165801 12.515625 -7.6699219 7
-0.94183302 -12.84668 -18.660645 7
-0.945862 -12.910156 -18.654297 7
-0.95227098 -12.982422 -18.662354 7
-0.959351 -13.057617 -18.674805 7
-0.96344 -13.120117 -18.668213 7
-0.97210699 -13.203125 -18.690186 7
-0.97766101 -13.272461 -18.692383 7
-0.97790498 -13.319336 -18.660645 7
-0.79296899 -14.500977 -15.937988 7
-0.78723103 -14.551758 -15.833496 7
-0.79046601 -14.606445 -15.816406 7
-0.795349 -14.670898 -15.808105 7
-0.80651897 -14.803711 -15.799316 7
-0.81366003 -14.87793 -15.803223 7
-0.81542999 -14.926758 -15.776611 7
-0.81585699 -15.006836 -15.705566 7
-0.83514398 -17.287109 -13.435303 7
-0.84307897 -17.366211 -13.431396 7
-0.84948701 -17.436523 -13.420166 7
-0.85198998 -17.484375 -13.389893 7
-0.856812 -17.545898 -13.370361 7
-1.107971 -21.269531 -11.108398 7
-1.1011961 -21.25293 -11.031982 7
-1.0990601 -21.266602 -10.972412 7
-1.107788 -21.350586 -10.953613 7
-1.122009 -21.470703 -10.95459 7
-1.130005 -21.549805 -10.932373 7
-1.144897 -21.673828 -10.935059 7
-1.149841 -21.733398 -10.900635 7
-1.239014 -23.148438 -9.4753418 7
-1.251709 -23.257812 -9.4594727 7
-1.266663 -23.382812 -9.4499512 7
-1.267639 -23.413086 -9.3969727 7
0.22192401 12.02832 -7.39502 7
0.215149 12.049805 -7.4543462 7
0.22583 11.962891 -7.4338379 7
0.22967499 11.917969 -7.4443359 7
0.22821 11.90625 -7.4794922 7
0.22821 11.885742 -7.5073242 7
0.229065 11.858398 -7.5317378 7
0.231323 11.823242 -7.5488281 7
0.235168 11.779297 -7.5585942 7
0.24054 11.725586 -7.561523 7
0.23907501 11.712891 -7.5961909 7
0.239136 11.69043 -7.6235352 7
0.236145 11.6875 -7.6655269 7
-0.70245397 -14.77832 -13.029785 7
-0.70422399 -14.820312 -13.00293 7
-0.71099901 -14.887695 -12.999756 7
-0.71276897 -14.929688 -12.972168 7
-0.71862799 -14.992188 -12.964355 7
-0.723755 -15.050781 -12.952881 7
-0.725586 -15.092773 -12.924561 7
-0.72900403 -15.142578 -12.904541 7
-0.73407 -15.202148 -12.892334 7
-0.74322498 -15.282227 -12.89917 7
-0.74835199 -15.341797 -12.886719 7
-0.99639899 -19.175781 -10.51001 7
-1.005554 -19.257812 -10.497803 7
-1.016479 -19.350586 -10.490967 7
-1.028137 -19.446289 -10.486816 7
-0.14447001 -4.460938 16.971436 7
-0.139465 -4.4150391 16.948975 7
-0.136108 -4.3720698 16.937012 7
-0.13855 -4.3398442 16.964355 7
-0.140991 -4.3076172 16.991455 7
-0.14679 -4.280273 17.041016 7
-0.13592499 -4.2246089 16.978516 7
-0.140076 -4.195312 17.016357 7
-0.14086901 -4.1601558 17.032471 7
0.208435 13.100586 -4.0180659 7
0.208496 13.087891 -4.0490718 7
0.213379 13.042969 -4.0656738 7
0.218262 12.998047 -4.0830078 7
0.215881 13 -4.1203609 7
-0.64361602 -13.162109 -12.669922 7
-0.64465302 -13.198242 -12.642822 7
-0.64910901 -13.250977 -12.63208 7
-0.65100098 -13.291992 -12.608887 7
-0.65795898 -13.356445 -12.610596 7
-0.668396 -13.436523 -12.628418 7
-0.66864002 -13.470703 -12.59668 7
-0.668823 -13.50293 -12.564453 7
-0.67236298 -13.551758 -12.548828 7
-0.67938203 -13.616211 -12.549316 7
-0.691589 -13.707031 -12.574707 7
-0.694336 -13.750977 -12.554199 7
-0.94067401 -17.655273 -10.16333 7
-0.947815 -17.720703 -10.14624 7
-0.966003 -17.850586 -10.169678 7
-0.96704102 -17.881836 -10.130615 7
-0.96899402 -17.918945 -10.093994 7
0.18603501 12.457031 -4.0861821 7
0.186951 12.438477 -4.1130371 7
0.18866 12.414062 -4.1376948 7
-0.87072802 -16.0625 -9.9082031 7
-0.87628198 -16.117188 -9.8896484 7
-0.88732898 -16.200195 -9.890625 7
-0.89202899 -16.25 -9.8684082 7
-1.010376 -17.981445 -8.3620605 7
-1.024231 -18.082031 -8.3601074 7
-0.13708501 -4.15625 15.40625 7
-0.13708501 -4.1230469 15.41626 7
-0.127869 -4.0732422 15.370605 7
-0.127808 -4.0410161 15.380371 7
-0.129639 -4.0117192 15.401367 7
-0.138794 -3.9941411 15.466553 7
-0.13964801 -3.9628911 15.481689 7
-0.132263 -3.9160161 15.446533 7
-0.13403299 -3.886719 15.467285 7
-0.13677999 -3.8574221 15.493408 7
-0.239136 -7.0185552 13.29834 7
-0.23101801 -6.9667969 13.275146 7
-0.231995 -6.9414058 13.296875 7
-0.235046 -6.922852 13.328369 7
-0.23907501 -6.905273 13.364746 7
-0.25018299 -6.9082031 13.436523 7
-0.249146 -6.8769531 13.447998 7
-0.23602299 -6.8125 13.398926 7
-0.23394801 -6.7773442 13.405273 7
-0.231934 -6.7441411 13.411377 7
-0.11908 -3.5371089 14.084717 7
-0.116394 -3.608398 13.451904 7
-0.115356 -3.578125 13.455078 7
-0.113159 -3.546875 13.452637 7
-0.217041 -6.7158198 11.906738 7
-0.214844 -6.6845698 11.913086 7
-0.214844 -6.6591802 11.929199 7
-0.211487 -6.625 11.93042 7
-0.215881 -6.6123052 11.965576 7
-0.231323 -6.6298828 12.050049 7
-0.22692899 -6.59375 12.045898 7
-0.22583 -6.5654302 12.056885 7
-0.220276 -6.5244141 12.048096 7
-0.21917699 -6.4970698 12.058838 7
-0.216919 -6.4648442 12.064697 7
-0.21582 -6.436523 12.074951 7
-0.21575899 -6.4111328 12.090332 7
-0.097717002 -3.515625 12.751465 7
-0.096619003 -3.4873049 12.75415 7
-0.098755002 -3.4638669 12.773682 7
-0.099792004 -3.4111331 12.796143 7
-0.096496999 -3.3798831 12.787354 7
-0.095275998 -3.3496089 12.790283 7
-0.096984997 -3.496094 12.229736 7
-0.100464 -3.476562 12.25415 7
-0.093506001 -3.4404299 12.229736 7
-0.094665997 -3.4160161 12.243652 7
-0.092285 -3.386719 12.240967 7
-0.094604 -3.3652339 12.260254 7
-0.10376 -3.351562 12.312256 7
-0.099120997 -3.320312 12.29834 7
-0.097961001 -3.2919919 12.300781 7
-0.097961001 -3.266602 12.308838 7
-0.096740998 -3.2392581 12.311279 7
-0.096740998 -3.2138669 12.319092 7
-0.077698 -3.1982419 10.770508 7
-0.065917999 -3.1591799 10.729736 7
-0.065857001 -3.1142581 10.744629 7
-0.068480998 -3.0957029 10.762939 7
-0.068480998 -3.074219 10.770264 7
-0.078856997 -3.066406 10.821289 7
-0.077514999 -3.0205081 10.830566 7
-0.069580004 -2.985352 10.805664 7
-0.069580004 -2.941406 10.819824 7
-0.072144002 -2.922852 10.837891 7
-0.069518998 -2.8964839 10.833984 7
-0.085387997 -3.188477 10.390869 7
-0.089478001 -3.171875 10.414551 7
-0.083984002 -3.1425779 10.400879 7
-0.089417003 -3.1298831 10.429688 7
-0.079894997 -3.094727 10.399658 7
-0.075805999 -3.0673831 10.391357 7
-0.078491002 -3.0498049 10.409424 7
-0.078491002 -3.0292971 10.416748 7
-0.079773001 -3.0087891 10.429688 7
-0.081115998 -2.9892581 10.442139 7
-0.093262002 -2.984375 10.498047 7
-0.091918997 -2.960938 10.5 7
-0.079712003 -2.9238279 10.458252 7
-0.082396999 -2.905273 10.476318 7
-0.083740003 -2.8857419 10.48877 7
-0.080994003 -2.8613279 10.484863 7
-0.083678998 -2.84375 10.502686 7
-0.085022002 -2.8232419 10.514893 7
-0.058777001 -2.8691411 9.6166992 7
-0.063110001 -2.8544919 9.6396484 7
-0.063110001 -2.835938 9.6464844 7
-0.068908997 -2.8232419 9.6750488 7
-0.071837999 -2.8076169 9.6923828 7
-0.067382999 -2.782227 9.6833496 7
-0.064452998 -2.7597661 9.6791992 7
-0.062987998 -2.738281 9.6806641 7
-0.062987998 -2.71875 9.6872559 7
-0.062927 -2.699219 9.6936045 7
-0.062927 -2.679688 9.7001953 7
-0.067322001 -2.6650391 9.7231445 7
-0.074584998 -2.6542971 9.7563477 7
-0.073119998 -2.632812 9.7575684 7
-0.074524 -2.6142581 9.7695312 7
-0.075989 -2.5957029 9.78125 7
-0.071594 -2.5712891 9.7709961 7
-0.071227998 -2.8642581 9.2990723 7
-0.063660003 -2.835938 9.2792969 7
-0.066650003 -2.8212891 9.2971191 7
-0.069641002 -2.8066411 9.3144531 7
-0.071167 -2.789062 9.3266602 7
-0.075684004 -2.7763669 9.3493652 7
-0.066588998 -2.746094 9.3239746 7
-0.080200002 -2.7441411 9.3789062 7
-0.080139004 -2.7255859 9.385498 7
-0.065002002 -2.688477 9.3383789 7
-0.065002002 -2.6689451 9.3449707 7
-0.063477002 -2.6494141 9.3461914 7
-0.072509997 -2.640625 9.3847656 7
-0.064940996 -2.6123049 9.3642578 7
-0.069458 -2.5996089 9.3867188 7
-0.083068997 -2.5957029 9.4416504 7
-0.083007999 -2.5761721 9.447998 7
-0.079406999 1.6005861 9.7556152 7
-0.077820003 1.6181639 9.746582 7
-0.082336001 1.641602 9.7595205 7
-0.082275003 1.6611331 9.7558594 7
-0.079223998 1.6787111 9.7407227 7
-0.088257 1.705078 9.7702637 7
-0.086731002 1.7236331 9.7609863 7
-0.082153 1.740234 9.7404795 7
-0.079102002 1.7568361 9.7255859 7
-0.079040997 1.7763669 9.7216797 7
-0.088013001 1.8037111 9.7507324 7
-0.083495997 1.818359 9.7297363 7
-0.081969999 1.837891 9.7202148 7
-0.090942003 1.865234 9.7492676 7
-0.089417003 1.8837889 9.739502 7
-0.080321997 1.894531 9.7019043 7
-0.084839001 1.917969 9.7145996 7
-0.062560998 -2.863281 8.9594727 7
-0.065673999 -2.8496089 8.9770508 7
-0.068787001 -2.8349609 8.9946289 7
-0.0625 -2.8095701 8.9802246 7
-0.054687999 -2.782227 8.9606934 7
-0.062438998 -2.7744141 8.9938955 7
-0.060913 -2.7548831 8.9951172 7
-0.063965 -2.7392581 9.0124512 7
-0.065552004 -2.7236331 9.0244141 7
-0.062438998 -2.7011721 9.0205078 7
-0.070189998 -2.6923831 9.0537109 7
-0.065490998 -2.6689451 9.0444336 7
-0.068604 -2.655273 9.0612793 7
-0.057677999 -2.625 9.0305176 7
-0.060729999 -2.609375 9.0473633 7
-0.06543 -2.597656 9.0698242 7
-0.063842997 -2.577148 9.0710449 7
-0.065369003 -2.5605471 9.0822754 7
-0.060547002 -2.7832029 8.6437988 7
-0.052368 -2.7050779 8.644043 7
-0.052368 -2.688477 8.6506348 7
-0.050719999 -2.6689451 8.6518555 7
-0.055542 -2.65625 8.6743164 7
-0.060424998 -2.6455081 8.6965332 7
-0.066895001 -2.6357419 8.7243652 7
-0.060364 -2.6113279 8.7092295 7
-0.062011998 -2.5957029 8.7211914 7
-0.053833 -2.5693359 8.7009277 7
-0.053040002 -2.5527339 8.0893555 7
-0.054809999 -2.539062 8.1005859 7
-0.059997998 -2.5292971 8.1225586 7
-0.061707001 -2.515625 8.1340332 7
-0.059997998 -2.4980471 8.1347656 7
-0.063415997 -2.485352 8.1518555 7
-0.061707001 -2.467773 8.1520996 7
-0.051208001 -2.4394529 8.126709 7
-0.051208001 -2.4238279 8.1325684 7
-0.054687999 -2.4121089 8.1491699 7
-0.051146999 -2.390625 8.1447754 7
-0.051086001 -2.375 8.1506348 7
-0.056334998 -2.3642581 8.171875 7
-0.065063 -2.358398 8.2041016 7
-0.066771999 -2.34375 8.2150879 7
-0.071533002 -2.3330081 8.2370605 7
-0.061096001 -2.3066411 8.2109385 7
-0.062804997 -2.2919919 8.2219238 7
-0.068053998 -2.28125 8.2434082 7
-0.074951001 -2.2714839 8.2702637 7
-0.069762997 -2.25 8.2597656 7
-0.31700999 -6.892087 13.239714 7
-0.263506 -3.677259 14.110102 7
-0.190404 -3.384979 12.234055 7
-0.119965 -3.1013441 10.74377 7
-0.15412299 -2.9335079 11.144402 7
-0.088382997 -2.718164 9.9185429 7
-0.073974997 1.651974 9.6378231 7
-0.091454998 -2.736773 8.8606033 7
-0.10269 -2.5663209 9.0346527 7
-0.064709 -2.2956941 8.087534 7
-0.073932 -2.351969 7.4846549 7
-0.047913 -2.1454761 7.1844521 7
-0.062586002 -2.050503 7.33146 7
-0.127221 -4.7713861 18.942181 7
-0.099500999 -4.1884398 16.512133 7
-0.96776998 -15.150283 -9.6538782 7
-0.145531 -3.6238251 14.164782 7
-0.098613001 -3.2753639 12.709579 7
-0.10348 -3.070909 10.503578 7
-0.071702003 -2.871676 9.8020191 7
-0.055289999 -2.7232511 9.279892 7
-0.033867002 -2.8078029 8.6965294 7
-0.024607999 -2.5706899 8.7422228 7
-0.058919001 -2.445915 8.3067455 7
-0.162641 -5.3282599 5.7072568 7
-0.025218001 -2.4393921 7.5822368 7
-0.028352 -2.2647469 7.6686769 7
-0.191596 -5.221838 5.1983762 7
-0.044647001 -2.116766 7.1504579 7
-0.050499 -1.960439 7.229466 7
0.26592001 14.516293 -6.9878178 7
0.266305 13.463531 -7.2313719 7
0.26650199 12.521707 -7.45016 7
