# .PCD v0.7 - Point Cloud Data file format
VERSION 0.7
FIELDS x y z intensity
SIZE 4 4 4 4
TYPE F F F F
COUNT 1 1 1 1
WIDTH 739
HEIGHT 1
VIEWPOINT 0 0 0 1 0 0 0
POINTS 739
DATA ascii
2.761658 70.516602 -6.2028809 7
2.7598269 70.225586 -6.338623 7
2.533386 66.452148 -6.8867192 7
2.531677 66.041992 -6.9929199 7
2.529053 65.431641 -7.0705571 7
2.526428 64.841797 -7.148438 7
2.3126221 56.423828 -4.3874512 7
2.3109131 55.186523 -4.651855 7
2.1386721 52.683594 -4.6318359 7
2.1394041 52.275391 -4.7084961 7
2.139771 52.114258 -4.8139648 7
2.1404419 51.704102 -4.8876948 7
2.141113 51.282227 -4.9580078 7
2.142761 57.631836 -8.6931152 7
2.14325 57.359375 -8.7841797 7
2.007935 50.364258 -4.8269038 7
2.009583 49.948242 -4.8937988 7
2.0110469 49.607422 -4.96875 7
2.012085 49.388672 -5.0583501 7
2.007751 51.289062 -6.4272461 7
2.0087891 51.051758 -6.5134282 7
2.0098269 50.818359 -6.5993652 7
2.0107419 50.625 -6.690918 7
1.861572 48.430664 -7.057373 7
1.863892 48.098633 -7.115479 7
1.865784 47.848633 -7.1867681 7
1.86731 47.630859 -7.2634282 7
1.868896 47.426758 -7.3405762 7
1.778381 43.339844 -2.6860349 7
1.7718509 44.43457 -5.4597168 7
1.774048 44.204102 -5.5300288 7
1.776184 43.996094 -5.603271 7
1.6559449 42.375977 -2.6035161 7
1.663757 41.768555 -2.7424321 7
1.666931 41.524414 -2.816406 7
1.65564 42.599609 -5.2849121 7
1.657043 42.490234 -5.3701172 7
1.659729 42.28418 -5.4387212 7
1.662598 42.053711 -5.5024409 7
1.664856 41.875 -5.6760249 7
1.6444089 43.542969 -7.9936519 7
1.56311 40.444336 -5.5224609 7
1.563354 40.426758 -5.6176758 7
1.564453 40.352539 -5.7026372 7
1.567932 40.12793 -5.759521 7
1.5697629 39.999023 -5.9321289 7
1.570923 39.925781 -6.015625 7
1.573181 39.775391 -6.084229 7
1.574707 39.675781 -6.1625981 7
1.5758671 39.594727 -6.2429199 7
1.5755 39.616211 -6.3444819 7
1.47052 38.338867 -6.4741211 7
1.4710079 38.301758 -6.5612788 7
1.4725339 38.213867 -6.6367192 7
1.473572 38.148438 -6.717041 7
1.475342 38.048828 -6.789062 7
1.477295 37.931641 -6.8574219 7
1.4796751 37.796875 -6.9211431 7
1.4805911 37.743164 -7.0024409 7
1.2987061 35.816406 -9.0073242 7
1.299194 35.780273 -9.0883789 7
1.297913 35.817383 -9.1914062 7
1.2996221 35.729492 -9.2573242 7
1.21698 34.720703 -9.2905273 7
1.2205811 34.571289 -9.3337402 7
1.220886 34.539062 -9.4133301 7
1.22522 34.369141 -9.4482422 7
1.227722 34.259766 -9.5021973 7
1.231812 34.09375 -9.5373545 7
1.159546 32.5625 -9.6469727 7
1.163391 32.418945 -9.6833496 7
1.165527 32.331055 -9.7387695 7
1.164856 32.332031 -9.8244629 7
1.1665649 32.255859 -9.8830566 7
1.085083 31.03125 -9.6916504 7
1.087769 30.933594 -9.7387695 7
1.0869139 30.933594 -9.8220205 7
1.090271 30.818359 -9.8620605 7
1.0921021 30.741211 -9.9160156 7
1.092712 30.703125 -9.9846191 7
1.095032 30.616211 -10.03418 7
1.095764 30.572266 -10.100098 7
1.096985 30.516602 -10.161621 7
-0.20666499 -9.046875 57.353027 7
1.010437 29.354492 -9.9606934 7
1.010864 29.322266 -10.027588 7
1.012085 29.266602 -10.085693 7
1.0148931 29.174805 -10.128418 7
1.0159301 29.124023 -10.188721 7
1.018433 29.037109 -10.23291 7
1.019287 28.993164 -10.294678 7
1.021423 28.916992 -10.342773 7
-0.492493 5.3398442 -71.704102 7
0.94299299 27.866211 -10.285645 7
0.94549602 27.785156 -10.328369 7
0.84954798 29.057617 -13.39209 7
0.93005401 26.166016 -7.3762212 7
0.93255597 26.09375 -7.420898 7
0.92614698 26.211914 -7.5305181 7
0.93328899 26.024414 -7.603271 7
0.93396002 25.992188 -7.6603999 7
0.93835402 25.881836 -7.690186 7
0.93713403 25.886719 -7.7609859 7
0.87493902 26.404297 -10.419678 7
0.87402302 26.396484 -10.491211 7
0.87963903 26.234375 -10.566162 7
0.88311797 26.112305 -10.6604 7
0.88372803 26.072266 -10.716553 7
0.76104701 27.793945 -13.510254 7
0.764404 27.695312 -13.541992 7
0.76709002 27.608398 -13.579346 7
0.77075201 27.505859 -13.607422 7
0.77111799 27.463867 -13.669434 7
0.86645502 25.186523 -7.6940918 7
0.87066698 25.088867 -7.724854 7
0.87481701 24.989258 -7.7553711 7
0.87866199 24.895508 -7.7871089 7
0.88281202 24.797852 -7.816895 7
0.88214099 24.791992 -7.8813481 7
0.88171399 24.780273 -7.9443359 7
0.81133997 25.289062 -10.623291 7
0.81683302 25.161133 -10.634277 7
0.81787097 25.116211 -10.685791 7
0.820862 25.03418 -10.719238 7
0.82104498 25.004883 -10.778076 7
0.82397503 24.922852 -10.810791 7
-0.494385 6.1425781 -53.597412 7
0.81457502 23.651367 -7.9060059 7
0.81622303 23.602539 -7.9506841 7
0.82195997 23.481445 -7.9665532 7
0.82372999 23.432617 -8.0107422 7
0.82385302 23.410156 -8.065918 7
0.75927699 23.514648 -10.891113 7
0.76092499 23.458984 -10.932861 7
0.76043701 23.44043 -10.993652 7
0.761841 23.390625 -11.037598 7
0.763794 23.329102 -11.075928 7
0.76049799 23.355469 -11.161621 7
-0.47723401 5.6679692 -48.328857 7
-0.486938 5.5683589 -48.522461 7
0.70391798 22.069336 -11.280518 7
0.70269799 22.05957 -11.344238 7
-0.122314 -5.922852 34.566895 7
0.69995099 21.263672 -8.197998 7
0.70294201 21.198242 -8.2285156 7
0.70611602 21.132812 -8.2583008 7
0.63311797 20.935547 -11.227783 7
0.63543701 20.875 -11.258789 7
0.63586402 20.839844 -11.304688 7
0.63641399 20.802734 -11.35083 7
0.638367 20.748047 -11.384033 7
0.63842797 20.716797 -11.433105 7
0.63854998 20.686523 -11.481934 7
-0.25427201 -9.1826172 33.515381 7
-0.25976601 -9.1269531 33.610352 7
-0.286194 -9.1484385 33.980469 7
-0.277161 -9.0390615 33.884033 7
0.65094 20.307617 -8.3356934 7
0.65069598 20.289062 -8.3859863 7
0.65673798 20.1875 -8.3947754 7
0.66198701 20.095703 -8.4084473 7
0.66290301 20.061523 -8.4506836 7
0.66577101 20.000977 -8.4794922 7
0.66784698 19.951172 -8.5131836 7
0.66760302 19.931641 -8.5629883 7
0.665344 19.939453 -8.6257324 7
0.58252001 19.793945 -11.435547 7
0.584167 19.743164 -11.469482 7
0.58624297 19.6875 -11.499512 7
-0.478333 8.1816406 -37.183838 7
-0.48583999 8.1123047 -37.311523 7
-0.49920699 8.0595703 -37.524902 7
0.60553002 19.125 -8.3342295 7
0.60516399 19.106445 -8.3815918 7
0.60357702 19.103516 -8.4375 7
0.60022002 19.121094 -8.5043945 7
0.60205102 19.076172 -8.5383301 7
0.60852098 18.974609 -8.541748 7
0.61132801 18.895508 -8.6147461 7
0.52105701 18.59082 -11.557129 7
0.52032501 18.569336 -11.607666 7
0.522156 18.519531 -11.637451 7
0.52227801 18.488281 -11.681152 7
0.52191198 18.460938 -11.728027 7
0.523682 18.411133 -11.758057 7
0.52380401 18.379883 -11.801025 7
-0.47345001 7.7070308 -34.141357 7
0.559937 17.990234 -8.6652832 7
0.562805 17.935547 -8.6899414 7
0.56664997 17.84668 -8.7509766 7
0.568542 17.801758 -8.78125 7
0.570557 17.756836 -8.8112793 7
0.57372999 17.696289 -8.8322754 7
0.569763 17.716797 -8.9006348 7
0.470276 17.529297 -11.550049 7
0.46539301 17.549805 -11.629639 7
0.467224 17.5 -11.656982 7
0.46746799 17.436523 -11.739502 7
0.46984899 17.380859 -11.762695 7
0.46765101 17.373047 -11.821289 7
-0.52685499 3.6005859 -32.969971 7
-0.516541 3.422852 -32.853027 7
-0.696899 0.35156199 -34.978516 7
-0.64569098 0.177734 -34.331543 7
0.51403803 16.916992 -8.6523438 7
0.51171899 16.918945 -8.7072754 7
0.51275599 16.883789 -8.7409668 7
0.508362 16.904297 -8.8083496 7
0.51147503 16.848633 -8.8295898 7
0.51501501 16.790039 -8.8479004 7
0.516541 16.750977 -8.8776855 7
0.52008098 16.691406 -8.8955078 7
0.52111799 16.65625 -8.9284668 7
0.40869099 16.248047 -11.840088 7
0.409729 16.207031 -11.870605 7
0.411255 16.161133 -11.897705 7
0.4104 16.138672 -11.943115 7
0.409973 16.110352 -11.984863 7
0.40856901 16.091797 -12.033936 7
0.40960699 16.049805 -12.064453 7
0.40484601 16.061523 -12.140137 7
0.472168 15.724609 -8.9694824 7
0.474792 15.674805 -8.9899902 7
0.47644001 15.635742 -9.0170898 7
0.477173 15.605469 -9.050293 7
0.47930899 15.560547 -9.0742188 7
0.47991899 15.530273 -9.1074219 7
0.47949201 15.509766 -9.1472168 7
0.48004201 15.479492 -9.1801758 7
0.47851601 15.467773 -9.2268066 7
0.477539 15.452148 -9.2700195 7
0.35540801 15.003906 -12.049316 7
0.353333 14.989258 -12.100342 7
0.35504201 14.944336 -12.123779 7
-0.077698 -4.4648442 23.140381 7
-0.081909001 -4.421875 23.190918 7
-0.094910003 -4.34375 23.337891 7
-0.077637002 -4.2597661 23.182617 7
-0.087769002 -4.2275391 23.289795 7
-0.087707996 -4.1748052 23.300293 7
0.42266801 14.8125 -9.0358887 7
0.42572001 14.739258 -9.0881348 7
0.42688 14.704102 -9.1159668 7
0.42919901 14.660156 -9.1367188 7
0.43035901 14.625977 -9.1643066 7
0.43042001 14.600586 -9.1987305 7
0.43176299 14.538086 -9.260498 7
0.30609101 13.775391 -12.179443 7
0.30950901 13.71875 -12.187012 7
0.30737299 13.702148 -12.236084 7
0.306274 13.676758 -12.276367 7
0.30578601 13.647461 -12.3125 7
0.30364999 13.630859 -12.361328 7
0.29858401 13.635742 -12.431152 7
-0.100769 -4.3525391 22.083252 7
-0.098205999 -4.25 22.081055 7
-0.105103 -4.2148442 22.154053 7
0.37921101 13.773438 -9.3015137 7
0.248413 12.799805 -12.266357 7
0.24786399 12.771484 -12.300293 7
0.24731401 12.742188 -12.334961 7
0.249207 12.697266 -12.351807 7
0.24804699 12.671875 -12.390381 7
0.245728 12.654297 -12.437256 7
0.24749801 12.609375 -12.454346 7
0.24884 12.568359 -12.475098 7
-1.845642 -27.795898 -21.179199 7
-1.871399 -28.024414 -21.255371 7
-1.878723 -28.12793 -21.228516 7
-1.889343 -28.253906 -21.219971 7
-1.913757 -28.476562 -21.286621 7
-1.926392 -28.615234 -21.287354 7
-1.944214 -28.791992 -21.316406 7
-1.969299 -29.019531 -21.384277 7
-1.983215 -29.169922 -21.390137 7
-1.717285 -30.169922 -15.464355 7
-1.7305911 -30.311523 -15.448975 7
-1.753662 -30.529297 -15.474854 7
-1.7644041 -30.651367 -15.447021 7
-1.777649 -30.792969 -15.429932 7
-1.802124 -31.020508 -15.458984 7
-1.8199461 -31.197266 -15.459717 7
-1.833252 -31.34082 -15.440674 7
-0.085693002 -4.1113281 20.732178 7
-0.091674998 -4.077148 20.793213 7
-0.094360001 -4.0371089 20.825684 7
-0.09967 -3.999023 20.881104 7
-0.088257 -3.9345701 20.793701 7
-0.093506001 -3.8955081 20.849121 7
-0.102234 -3.8652339 20.932129 7
0.32989499 12.974609 -9.2902832 7
0.32806399 12.961914 -9.3317871 7
0.33129901 12.914062 -9.3435059 7
0.33197001 12.883789 -9.3701172 7
0.33392301 12.844727 -9.3891602 7
0.33715799 12.795898 -9.4003906 7
0.33972201 12.751953 -9.4150391 7
0.33917201 12.730469 -9.4487305 7
0.34057599 12.695312 -9.4709473 7
0.34246799 12.657227 -9.4892578 7
0.341919 12.634766 -9.5229492 7
0.34259 12.603516 -9.5488281 7
0.34393299 12.568359 -9.5705566 7
-1.7246701 -24.266602 -20.831543 7
-1.742188 -24.478516 -20.813477 7
-1.742371 -24.53125 -20.755127 7
-1.758423 -24.681641 -20.786133 7
-1.765442 -24.777344 -20.766357 7
-1.780762 -24.925781 -20.792236 7
-1.7926641 -25.051758 -20.79834 7
-1.81012 -25.212891 -20.834961 7
-1.8173831 -25.362305 -20.753174 7
-1.577515 -26.980469 -14.977539 7
-1.585938 -27.079102 -14.949219 7
-1.601379 -27.226562 -14.950439 7
-1.61261 -27.344727 -14.93335 7
-1.618958 -27.427734 -14.895264 7
-1.6357419 -27.586914 -14.900635 7
-1.653198 -27.750977 -14.908447 7
-1.655396 -27.803711 -14.851562 7
0.293152 12.145508 -9.2832031 7
0.29455599 12.112305 -9.3037109 7
0.294617 12.085938 -9.3325195 7
0.298035 12.039062 -9.3410645 7
0.28601101 12.089844 -9.4399414 7
0.288757 12.046875 -9.4523926 7
0.288757 12.019531 -9.4812012 7
0.291504 11.976562 -9.4931641 7
0.29492199 11.929688 -9.501709 7
0.29235801 11.919922 -9.5456543 7
0.29437301 11.879883 -9.5615234 7
0.29577601 11.844727 -9.581543 7
-1.590881 -20.850586 -20.211914 7
-1.599792 -20.950195 -20.212158 7
-1.609375 -21.053711 -20.216309 7
-1.613098 -21.125 -20.187012 7
-1.641968 -21.386719 -20.24707 7
-1.6398931 -21.424805 -20.183838 7
-1.356873 -21.21875 -17.065918 7
-1.355469 -21.253906 -17.008057 7
-1.371765 -21.393555 -17.040283 7
-1.353088 -23.064453 -14.550537 7
-1.3590699 -23.140625 -14.522217 7
-1.370178 -23.25 -14.516113 7
-1.384216 -23.378906 -14.522705 7
-1.397583 -23.501953 -14.525635 7
-1.412354 -23.636719 -14.534424 7
-1.420532 -23.727539 -14.513428 7
-1.422852 -23.779297 -14.467041 7
-1.435486 -23.898438 -14.464844 7
-1.446594 -24.008789 -14.456055 7
-1.4584351 -24.124023 -14.449463 7
-1.463623 -24.195312 -14.414551 7
-1.691895 -27.670898 -11.758545 7
-0.240051 -7.3222661 18.780762 7
-0.240784 -7.2832031 18.803711 7
-0.23706099 -7.2304692 18.794189 7
-0.21539301 -7.125 18.655762 7
-0.21093801 -7.0712891 18.640625 7
-0.221375 -7.061523 18.732666 7
-0.23632801 -7.0644531 18.857178 7
-0.23925801 -7.03125 18.895752 7
-0.237793 -6.9863281 18.901611 7
-0.075438999 -3.8251951 18.583008 7
-0.081482001 -3.7939451 18.637695 7
-0.084412001 -3.7587891 18.669189 7
-0.091124997 -3.7294919 18.729492 7
-0.079894997 -3.6699221 18.653076 7
-0.083618 -3.6347661 18.690674 7
-0.085083 -3.5966799 18.710449 7
-0.094788 -3.570312 18.793213 7
0.29797399 13.231445 -6.0800781 7
0.298096 13.212891 -6.1108398 7
0.29882801 13.189453 -6.1391602 7
0.30108601 13.157227 -6.161377 7
0.30474901 13.113281 -6.177002 7
0.306274 13.084961 -6.202148 7
0.306335 13.067383 -6.232666 7
0.30419901 13.0625 -6.2727051 7
0.302856 13.053711 -6.3093262 7
0.29797399 13.070312 -6.3613281 7
0.30090299 13.032227 -6.3796391 7
-1.160217 -17.640625 -16.564697 7
-1.164917 -17.707031 -16.547607 7
-1.176636 -17.811523 -16.566895 7
-1.1726069 -19.881836 -14.100342 7
-1.1767581 -19.977539 -14.023438 7
-1.188416 -20.082031 -14.028809 7
-1.2078249 -20.233398 -14.068604 7
-1.215088 -20.347656 -14.003906 7
-1.222839 -20.430664 -13.990234 7
-1.243835 -20.591797 -14.034912 7
-1.2542109 -20.725586 -13.981689 7
-1.536316 -24.734375 -11.393799 7
-1.5480959 -24.842773 -11.374756 7
-0.086792 -3.8330081 17.707764 7
-0.086731002 -3.7949221 17.717041 7
-0.088317998 -3.7587891 17.737305 7
-0.077271 -3.702148 17.667236 7
-0.082764 -3.671875 17.71582 7
-0.086669996 -3.640625 17.75293 7
-0.092956997 -3.6123049 17.806885 7
-0.085876003 -3.5625 17.764648 7
-0.086669996 -3.5253911 17.778809 7
0.26458699 12.476562 -6.199707 7
0.26544201 12.454102 -6.2255859 7
0.26928699 12.411133 -6.239502 7
0.269348 12.391602 -6.2685552 7
0.268677 12.37793 -6.3007808 7
0.267212 12.369141 -6.3361821 7
0.26428199 12.370117 -6.377686 7
-0.99298102 -14.46582 -16.09668 7
-0.99054003 -14.49707 -16.048584 7
-0.99554402 -14.55957 -16.040771 7
-0.99810803 -14.611328 -16.019287 7
-0.99798602 -16.848633 -13.713379 7
-1.002991 -16.910156 -13.696289 7
-1.016174 -17.014648 -13.717529 7
-1.022827 -17.084961 -13.70752 7
-1.027832 -17.146484 -13.689697 7
-1.035278 -17.22168 -13.683105 7
-1.045166 -17.310547 -13.687744 7
-1.0526119 -17.384766 -13.68042 7
-1.059265 -17.456055 -13.669434 7
-1.063416 -17.511719 -13.646484 7
-1.073364 -17.600586 -13.649902 7
-1.079163 -17.666992 -13.634277 7
-1.089905 -17.760742 -13.640625 7
-1.095703 -17.827148 -13.624512 7
-1.10553 -17.914062 -13.626465 7
-1.362976 -21.803711 -11.09375 7
-1.367981 -21.864258 -11.058838 7
-1.381165 -21.973633 -11.05249 7
-1.392761 -22.073242 -11.039795 7
-1.4035029 -22.168945 -11.023926 7
-1.42749 -22.374023 -10.999512 7
-0.90338099 -14.776367 -13.390137 7
-0.90948498 -14.84082 -13.383545 7
-0.91210902 -14.886719 -13.360596 7
-0.92254603 -14.972656 -13.373535 7
-0.92858899 -15.035156 -13.365967 7
-0.93298298 -15.09082 -13.350586 7
-0.934753 -15.132812 -13.322754 7
-0.93743902 -15.179688 -13.298828 7
-0.94012499 -15.227539 -13.274414 7
-0.947083 -15.294922 -13.270264 7
-0.95318598 -15.359375 -13.261475 7
-1.272156 -19.902344 -10.71167 7
-1.286804 -20.015625 -10.714844 7
-0.082580999 -3.515625 16.046387 7
-0.071227998 -3.4628911 15.981445 7
-0.072082996 -3.429688 15.995605 7
-0.073792003 -3.3974609 16.014893 7
-0.080750003 -3.375 16.068359 7
-0.081665002 -3.3417971 16.082031 7
-0.072875999 -3.2939451 16.033447 7
-0.073792003 -3.2607419 16.047363 7
-0.073729999 -3.226562 16.055176 7
-0.080688 -3.2011721 16.108154 7
-0.81262201 -12.802734 -13.10376 7
-0.81451398 -12.84375 -13.082031 7
-0.81634498 -12.885742 -13.060059 7
-0.81823701 -12.926758 -13.037842 7
-0.81652802 -12.953125 -12.998535 7
-0.81927502 -12.999023 -12.980469 7
-0.819336 -13.032227 -12.949463 7
-0.82025099 -13.069336 -12.922607 7
-0.82397503 -13.119141 -12.908447 7
-0.83215302 -13.188477 -12.915283 7
-0.84033197 -13.257812 -12.922119 7
-0.850281 -13.334961 -12.936768 7
-0.86566198 -13.43457 -12.976562 7
-1.143188 -17.678711 -10.549316 7
-1.144226 -17.710938 -10.510254 7
-1.147949 -17.758789 -10.481201 7
-1.1624759 -17.863281 -10.48999 7
-1.290894 -19.696289 -8.9299316 7
-1.295532 -19.74707 -8.8962402 7
-1.307373 -19.837891 -8.8837891 7
-0.064940996 -3.1855471 15.256836 7
-0.070435002 -3.160156 15.29834 7
-0.072205 -3.1298831 15.317383 7
-1.057007 -16.056641 -10.253906 7
-1.064636 -16.121094 -10.242432 7
-1.070374 -16.176758 -10.224365 7
-1.075195 -16.228516 -10.202393 7
-1.083801 -16.297852 -10.194092 7
-0.061156999 -3.1845701 13.891113 7
-0.063170999 -3.157227 13.909912 7
-0.069214001 -3.1064451 13.958496 7
-0.065063 -3.0400391 13.951172 7
-0.063049003 -3.007812 13.947266 7
-0.062987998 -2.9785161 13.954346 7
-0.066040002 -2.953125 13.97876 7
-0.069091998 -2.9277339 14.002441 7
-0.070556998 -2.8886721 13.444336 7
-0.54162598 -9.9794922 11.531494 7
-0.53839099 -9.9433594 11.542969 7
-0.23071299 -6.359375 12.287598 7
-0.229614 -6.3310552 12.297852 7
-0.220764 -6.28125 12.272949 7
-0.20867901 -6.2255859 12.233154 7
-0.20544399 -6.1914058 12.233154 7
-0.210876 -6.1787109 12.272949 7
-0.220825 -6.1533198 12.347656 7
-0.218628 -6.0966802 12.366943 7
-0.065002002 -2.90625 12.804932 7
-0.055114999 -2.8388669 12.768555 7
-0.057250999 -2.8154299 12.786621 7
-0.058350001 -2.7900391 12.798828 7
-0.054198999 -2.8730471 12.24585 7
-0.055298001 -2.847656 12.258545 7
-0.065673999 -2.835938 12.315186 7
-0.058777001 -2.8017581 12.288818 7
-0.056458 -2.7724609 12.284424 7
-0.057617001 -2.7480471 12.296875 7
-0.055298001 -2.7207029 12.29248 7
-0.059813999 -2.7001951 12.321289 7
-0.062194999 -2.6777339 12.339111 7
-0.065613002 -2.65625 12.362061 7
-0.065613002 -2.6298831 12.368408 7
-0.062134001 -2.6005859 12.358398 7
-0.064392 -2.577148 12.375488 7
-0.195862 -6.046875 11.056885 7
-0.19824199 -6.03125 11.081299 7
-0.20306399 -6.0205078 11.115234 7
-0.20904499 -6.0126948 11.153809 7
-0.21264599 -5.9980469 11.182861 7
-0.053040002 -2.8691411 11.744385 7
-0.054260001 -2.8466799 11.75708 7
-0.055481002 -2.824219 11.769287 7
-0.056641001 -2.800781 11.781738 7
-0.062560998 -2.7841799 11.816162 7
-0.060180999 -2.7558589 11.812012 7
-0.051819 -2.7207029 11.779785 7
-0.057739001 -2.704102 11.814209 7
-0.051819 -2.672852 11.792725 7
-0.055358998 -2.6533201 11.815918 7
-0.057799999 -2.6318359 11.833496 7
-0.218445 -6.0761719 10.611572 7
-0.207214 -6.0253911 10.583252 7
-0.204712 -5.9970698 10.588135 7
-0.20098899 -5.9658198 10.588135 7
-0.214783 -5.9580078 10.669434 7
-0.21472199 -5.914062 10.697998 7
-0.20355199 -5.842773 10.682617 7
-0.207275 -5.8300781 10.711182 7
-0.193542 -5.773438 10.671631 7
-0.051392 -2.8691411 11.2854 7
-0.051330999 -2.8457029 11.291992 7
-0.048827998 -2.8193359 11.287842 7
-0.045104999 -2.7910161 11.27832 7
-0.052551001 -2.777344 11.318115 7
-0.052551001 -2.753906 11.324707 7
-0.055054002 -2.7324221 11.342529 7
-0.063781999 -2.7207029 11.387695 7
-0.042541999 -2.671875 11.300293 7
-0.056274001 -2.664062 11.367676 7
-0.057495002 -2.6425779 11.379883 7
-0.052551001 -2.613281 11.364014 7
-0.05249 -2.589844 11.370361 7
-0.053711001 -2.5673831 11.382324 7
-0.041503999 -2.5527339 10.051514 7
-0.054076999 -2.546875 10.106689 7
-0.048523001 -2.5205081 10.091064 7
-0.047118999 -2.4980471 10.091553 7
-0.042847 -2.4736331 10.081543 7
-0.041443001 -2.4511721 10.082031 7
-0.041443001 -2.4306641 10.088135 7
-0.041443001 -2.410156 10.093994 7
-0.04425 -2.3925779 10.11084 7
-0.052673001 -2.3808589 10.149414 7
-0.049865998 -2.3564451 10.144531 7
-0.047058001 -2.3349609 10.138916 7
-0.048401002 -2.3144529 10.150391 7
-0.048401002 -2.2939451 10.155762 7
-0.052611999 -2.277344 10.177979 7
-0.052611999 -2.257812 10.183594 7
-0.031433001 -2.5449221 9.6633301 7
-0.031433001 -2.5253911 9.6694336 7
-0.032898001 -2.507812 9.6809082 7
-0.031433001 -2.4873049 9.6816406 7
-0.043090999 -2.480469 9.730957 7
-0.043090999 -2.460938 9.7370605 7
-0.038695998 -2.436523 9.7268066 7
-0.037230998 -2.4150391 9.7272949 7
-0.034302 -2.3925779 9.722168 7
-0.034302 -2.3730471 9.7282705 7
-0.034240998 -2.3525391 9.7338867 7
-0.035705999 -2.3339839 9.7453613 7
-0.035767 -2.3144529 9.7507324 7
-0.045837 -2.3056641 9.7949219 7
-0.047363002 -2.2880859 9.8056641 7
-0.044434 -2.264648 9.800293 7
-0.044434 -2.2441411 9.8056641 7
-0.043396 -2.5517581 9.3520508 7
-0.038879 -2.527344 9.342041 7
-0.043457001 -2.514648 9.3642578 7
-0.044922002 -2.4970701 9.3757324 7
-0.032776002 -2.4638669 9.338623 7
-0.038879 -2.453125 9.3662109 7
-0.041870002 -2.4375 9.3833008 7
-0.052429002 -2.4287109 9.4267578 7
-0.043396 -2.4013669 9.4001455 7
-0.038818002 -2.3779299 9.3896484 7
-0.044861 -2.3652339 9.4172363 7
-0.044861 -2.3457029 9.4228516 7
-0.037354 -2.320312 9.4018555 7
-0.040344 -2.304688 9.4182129 7
-0.038818002 -2.2841799 9.4182129 7
-0.047913 -2.273438 9.456543 7
-0.052429002 -2.2587891 9.4785156 7
-0.044312 -2.5380859 9.0576172 7
-0.031799 -2.5058589 9.0209961 7
-0.038024999 -2.4941411 9.048584 7
-0.038024999 -2.4580081 9.0605469 7
-0.036437999 -2.4189451 9.0671387 7
-0.04425 -2.3925779 9.105957 7
-0.04425 -2.374023 9.1115723 7
-0.033264 -2.34375 9.079834 7
-0.036437999 -2.311523 9.1018066 7
-0.037964001 -2.2763669 9.1186523 7
-0.039489999 -2.242188 9.1347656 7
-0.039978001 -2.554688 8.7028809 7
-0.033507999 -2.5292971 8.6882324 7
-0.043274 -2.523438 8.7258301 7
-0.036804002 -2.499023 8.7109385 7
-0.033447001 -2.4775391 8.7062988 7
-0.025390999 -2.452148 8.685791 7
-0.030273 -2.4394529 8.7077637 7
-0.036804002 -2.4306641 8.7351074 7
-0.033507999 -2.410156 8.7299805 7
-0.030273 -2.3886721 8.7253418 7
-0.033447001 -2.375 8.7416992 7
-0.03833 -2.363281 8.7636719 7
-0.036743 -2.344727 8.763916 7
-0.040038999 -2.3300779 8.7807617 7
-0.036743 -2.308594 8.7753906 7
-0.031799 -2.2871089 8.7648926 7
-0.033507999 -2.2714839 8.7758789 7
-0.031799 -2.2519529 8.776123 7
-0.039306998 -2.2363279 8.2084961 7
-0.034058001 -2.2158201 8.197998 7
-0.02533 -2.1904299 8.1767578 7
-0.027100001 -2.1767581 8.1877441 7
-0.028809 -2.1464839 8.2036133 7
-0.027039001 -2.1123049 8.2087402 7
-0.044495001 -2.113281 8.2670898 7
-0.040955 -2.09375 8.2617188 7
-0.039246 -2.0761721 8.2614746 7
-0.041016001 -2.061523 8.2719727 7
-0.042725001 -2.046875 8.2822266 7
-0.041016001 -2.0292971 8.2819824 7
-0.039184999 -2.011719 8.2814941 7
-0.040955 -1.996094 8.291748 7
-0.039184999 -1.978516 8.2912598 7
-0.035705999 -1.9599611 8.2856445 7
-0.040894002 -1.947266 8.3063955 7
-0.039184999 -1.929688 8.3059082 7
-0.042479999 -2.2363279 7.9492192 7
-0.035278 -2.2138669 7.9335942 7
-0.037108999 -2.2011721 7.9443359 7
-0.044312 -2.1933589 7.9707031 7
-0.033447001 -2.1660161 7.9445801 7
-0.038879 -2.15625 7.965332 7
-0.042479999 -2.144531 7.9814448 7
-0.037048001 -2.124023 7.9707031 7
-0.038879 -2.110352 7.9812012 7
-0.038879 -2.094727 7.9865718 7
-0.042479999 -2.082031 8.0021973 7
-0.047851998 -2.0732419 8.0231934 7
-0.042419001 -2.0517581 8.012207 7
-0.038818002 -2.0332029 8.0065918 7
-0.044188999 -2.0224609 8.0275879 7
-0.040649001 -2.003906 8.0217295 7
-0.037048001 -1.984375 8.0161133 7
-0.040649001 -1.972656 8.0317383 7
-0.042419001 -1.958984 8.041748 7
-0.04425 -1.943359 8.052002 7
-0.040587999 -1.925781 8.0461426 7
-0.097124003 -3.5948579 17.204115 7
-0.030218 -3.2110541 14.125399 7
-0.019492 -2.740056 12.649603 7
-0.056708999 -2.5739 11.096836 7
-0.25432199 -5.7988911 10.569247 7
-0.040066998 -2.536669 10.187391 7
-0.011233 -2.448406 9.3381166 7
-0.020258 -2.251004 9.4978924 7
-0.57268399 -9.0787687 6.3371191 7
-0.054905999 -2.4114251 8.7349987 7
-0.036658999 -2.1873069 8.3009357 7
-0.028612999 -2.18575 7.8951278 7
-0.022404 -2.0034101 7.9447641 7
-0.012279 -2.1517529 7.4933758 7
-0.011599 -2.0017869 7.5727601 7
-0.041622002 -2.127162 7.157865 7
-0.035128001 -1.975592 7.2123089 7
-0.032308999 -2.111047 6.8745122 7
-0.027773 -1.976542 6.938839 7
0.079314001 -0.31735501 4.0045419 7
0.062484998 -0.313319 4.0912342 7
0.052661002 -0.315712 4.1114988 7
0.058382001 -0.30985001 4.1274352 7
0.069112003 -0.30077299 4.1423068 7
0.078230999 -0.27667099 3.971801 7
0.058851 -0.289929 3.9837921 7
0.072949998 -0.27932701 4.002378 7
0.058363002 -0.28874001 4.0158572 7
0.083076 -0.271402 4.03058 7
0.068181999 -0.27955401 4.047164 7
0.060749002 -0.275401 4.0646658 7
0.07226 -0.26984301 4.0789251 7
0.051456999 -0.27730101 4.0967212 7
0.067956999 -0.267975 4.1101279 7
0.065534003 -0.25859001 4.1225762 7
0.071087003 -0.25202101 4.1380839 7
0.076563999 -0.24551199 4.1504502 7
-0.122955 -3.139174 14.136665 7
-0.098324001 -2.8907659 12.868141 7
-0.193174 -6.05124 10.928246 7
-0.045361001 -2.6410501 11.589931 7
-0.074313 -2.3336251 10.026386 7
-0.53732002 -9.0946226 6.2018342 7
-0.043855 -2.460149 9.3099194 7
-0.031378999 -2.3541169 8.8672733 7
-0.041030001 -2.1530721 8.0308628 7
-0.045733999 -1.959578 8.1171894 7
-0.022487 -2.0760751 7.708612 7
-0.017062001 -2.1913979 7.4104252 7
-0.0076060002 -2.009901 7.431746 7
-0.048666 -2.121053 7.165792 7
-0.041733 -1.952473 7.195538 7
-0.038387001 -2.2145669 6.9033599 7
-0.043466002 -2.0684879 6.9809232 7
-0.031268001 -2.0131309 6.7857542 7
0.30645999 12.877244 -6.262136 7
0.29154801 12.876405 -6.172946 7
0.226432 11.624148 -9.5048103 7
-0.77046901 -13.028466 -12.988403 7
