# .PCD v0.7 - Point Cloud Data file format
VERSION 0.7
FIELDS x y z intensity
SIZE 4 4 4 4
TYPE F F F F
COUNT 1 1 1 1
WIDTH 612
HEIGHT 1
VIEWPOINT 0 0 0 1 0 0 0
POINTS 612
DATA ascii
2.802856 71.310547 -8.0319824 7
2.7966919 70.52832 -8.0959473 7
2.563782 66.388672 -8.5058594 7
2.5618899 65.96582 -8.6008301 7
2.1621699 52.749023 -6.0561519 7
2.1625979 52.458008 -6.140625 7
2.1633301 52.079102 -6.3369141 7
2.029175 50.818359 -6.1306152 7
2.030396 50.499023 -6.204102 7
1.890137 46.016602 -3.5405271 7
1.8937989 45.46875 -3.588623 7
1.8968509 45.032227 -3.6464839 7
1.878723 48.820312 -8.2236328 7
1.88147 48.417969 -8.3808594 7
1.883423 48.131836 -8.4404297 7
1.885437 47.820312 -8.4936523 7
1.8864141 47.682617 -8.5820312 7
1.888306 47.400391 -8.638916 7
1.890137 47.139648 -8.8164062 7
1.778809 45.376953 -3.5566411 7
1.782349 44.999023 -3.621094 7
1.786194 44.584961 -3.680176 7
1.772827 46.580078 -8.6706543 7
1.774597 46.391602 -8.7436523 7
1.776855 46.136719 -8.8017578 7
1.778259 45.981445 -8.8806152 7
1.781006 45.676758 -8.9248047 7
1.7824709 45.515625 -9.0007324 7
1.783142 45.445312 -9.0974121 7
1.660706 43.535156 -9.3151855 7
1.661682 43.447266 -9.4018555 7
1.662415 43.381836 -9.4943848 7
1.6646121 43.19043 -9.5541992 7
1.581421 40.241211 -6.984375 7
1.582947 40.134766 -7.060791 7
1.58429 40.039062 -7.1394038 7
1.586426 39.892578 -7.205811 7
1.588501 39.74707 -7.2719731 7
1.4862061 38.169922 -7.6882319 7
1.486267 38.15918 -7.7810059 7
1.488525 38.021484 -7.842773 7
1.4892581 37.97168 -7.9255371 7
1.162048 32.62793 -10.64502 7
1.1650389 32.510742 -10.688721 7
1.167053 32.422852 -10.742432 7
1.170105 32.298828 -10.783447 7
1.171997 32.21582 -10.838623 7
1.174072 32.126953 -10.891357 7
1.171997 32.166992 -10.994873 7
1.166687 32.3125 -11.13916 7
1.082275 34.485352 -13.527832 7
1.0823359 34.449219 -13.609131 7
1.0849611 34.338867 -13.657227 7
1.094604 30.681641 -10.915527 7
1.096252 30.607422 -10.970215 7
1.097351 30.550781 -11.031006 7
1.099854 30.457031 -11.076172 7
1.100952 30.399414 -11.136719 7
1.014648 29.222656 -10.892334 7
1.009277 29.298828 -11.010254 7
1.01178 29.210938 -11.053467 7
1.011719 29.185547 -11.124756 7
1.0139771 29.101562 -11.170166 7
1.015869 29.02832 -11.219727 7
1.017517 28.960938 -11.271484 7
1.020203 28.866211 -11.311035 7
1.022095 28.792969 -11.360107 7
1.0194089 28.831055 -11.459229 7
-0.55139202 4.0986328 -72.357666 7
0.94274902 27.762695 -11.202881 7
0.94329798 27.722656 -11.263428 7
0.94702101 27.612305 -11.291504 7
0.94805902 27.55957 -11.346924 7
0.95111102 27.466797 -11.381836 7
0.951904 27.419922 -11.438965 7
0.95202601 27.387695 -11.503662 7
-0.26232901 -10.474609 48.9646 7
0.92932099 26.110352 -8.347168 7
0.928101 26.113281 -8.4194336 7
0.93194598 26.013672 -8.4516602 7
0.93151897 26.000977 -8.5168457 7
0.93450898 25.916016 -8.5546885 7
0.93518102 25.881836 -8.6113281 7
0.86230499 25.144531 -8.6518555 7
0.86608899 25.049805 -8.6821289 7
0.87219203 24.911133 -8.6945801 7
0.87512201 24.833008 -8.7304688 7
0.880615 24.706055 -8.7463379 7
0.88220203 24.654297 -8.7929688 7
0.88287401 24.619141 -8.8466797 7
0.88610798 24.535156 -8.8791504 7
0.81182897 25.004883 -11.617676 7
0.814758 24.921875 -11.64917 7
0.81738299 24.844727 -11.68335 7
0.81951898 24.776367 -11.722412 7
0.82269299 24.688477 -11.750244 7
0.82421899 24.630859 -11.794434 7
-0.49749801 5.0068359 -53.218018 7
-0.27105701 -9.4726562 42.110352 7
0.810974 23.59082 -8.682373 7
0.80889899 23.603516 -8.7543945 7
0.81335402 23.50293 -8.7770996 7
0.81310999 23.483398 -8.8349609 7
0.81823701 23.374023 -8.8520508 7
0.82019001 23.316406 -8.8928223 7
0.822815 23.249023 -8.9282227 7
0.757568 23.186523 -11.882568 7
0.75769001 23.155273 -11.937012 7
0.75781202 23.123047 -11.991699 7
0.75567597 23.125977 -12.066895 7
0.75421101 22.414062 -8.8674316 7
0.69512898 22.050781 -11.853516 7
0.69592297 22.009766 -11.899414 7
0.69928002 21.926758 -11.920654 7
0.69976801 21.890625 -11.968994 7
0.69818097 21.882812 -12.036133 7
0.69793701 21.856445 -12.090576 7
0.70104998 21.779297 -12.114014 7
-0.49548301 4.2011719 -44.457031 7
0.62872303 20.547852 -12.172363 7
0.62945598 20.504883 -12.214111 7
-0.634399 0.56347698 -42.856934 7
-0.222717 -8.5341797 33.258545 7
-0.233337 -8.4970703 33.420166 7
-0.26013201 -8.5146484 33.796143 7
-0.276306 -8.4941406 34.031006 7
0.64892602 20.137695 -8.9855957 7
0.64355499 20.18457 -9.0715332 7
0.64477497 20.143555 -9.1105957 7
0.64373797 20.133789 -9.1662598 7
0.64740002 20.0625 -9.1887207 7
0.64935303 20.011719 -9.2224121 7
0.65307599 19.939453 -9.2443848 7
0.65588403 19.87793 -9.2717295 7
0.571289 19.587891 -12.199219 7
0.57012898 19.568359 -12.255371 7
0.57214397 19.510742 -12.284668 7
0.57421899 19.455078 -12.313721 7
0.57476801 19.383789 -12.401855 7
0.57519501 19.345703 -12.443848 7
0.41412401 20.075195 -15.43042 7
0.41265899 20.011719 -15.540283 7
0.413818 19.957031 -15.575928 7
-0.50366199 7.5351558 -37.474121 7
-0.50848401 7.4560552 -37.560303 7
-0.52203399 7.3994141 -37.773193 7
-0.74023402 0.53613299 -41.744385 7
-0.065369003 -4.7060552 29.727051 7
0.592834 18.912109 -9.2836914 7
0.59503198 18.862305 -9.3132324 7
0.59643602 18.821289 -9.3491211 7
0.59814501 18.775391 -9.3813477 7
0.60162401 18.708984 -9.4020996 7
0.60467499 18.646484 -9.425293 7
0.60736102 18.591797 -9.4511719 7
0.61035198 18.530273 -9.4741211 7
0.60913098 18.518555 -9.5266113 7
0.61175501 18.461914 -9.552002 7
0.61395299 18.410156 -9.5805664 7
0.51110798 18.207031 -12.433838 7
0.51208502 18.165039 -12.469482 7
-0.50103801 7.039062 -34.480469 7
-0.54205298 3.1982419 -35.487305 7
-0.52935803 3.0966799 -35.320312 7
-0.54577601 3.027344 -35.54834 7
-0.53521699 2.9277339 -35.409668 7
-0.68316698 -0.40234399 -35.164795 7
0.56018102 17.548828 -9.5588379 7
0.453857 17.125 -12.51001 7
0.45715299 17.060547 -12.524414 7
0.45629901 17.037109 -12.572021 7
0.455383 17.011719 -12.619385 7
-0.22106899 -7.7851558 27.046875 7
-0.231567 -7.757812 27.177002 7
-0.069885001 -4.4755859 26.154785 7
-0.065125003 -4.4082031 26.11377 7
-0.069214001 -4.3574219 26.17041 7
-0.071289003 -4.3017578 26.203613 7
-0.067016996 -4.2363281 26.167969 7
-0.072205 -4.1875 26.235596 7
0.50329602 16.521484 -9.6394043 7
0.50775099 16.451172 -9.6486816 7
0.51086402 16.369141 -9.7060547 7
0.51330602 16.318359 -9.7280273 7
0.51385498 16.287109 -9.7626953 7
0.51300001 16.269531 -9.8078613 7
0.513062 16.214844 -9.8845205 7
-0.52050799 2.5253911 -30.278076 7
-0.24444599 -7.539062 25.619873 7
-0.25054899 -7.5019531 25.698975 7
-0.075195 -4.3701172 24.625977 7
-0.071227998 -4.2529302 24.606689 7
-0.073363997 -4.202148 24.639893 7
0.46228001 15.358398 -9.7727051 7
0.463379 15.322266 -9.8015137 7
0.466003 15.272461 -9.8203115 7
0.46661401 15.241211 -9.8525391 7
0.46929899 15.189453 -9.8706055 7
-0.072509997 -4.1455078 23.162598 7
-0.061096001 -4.0732422 23.063477 7
-0.068176001 -4.0351558 23.14209 7
-0.075866997 -3.9970701 23.226318 7
-0.065125003 -3.9277339 23.132812 7
-0.067443997 -3.878906 23.165039 7
0.41235399 14.378906 -9.8620605 7
0.41571 14.325195 -9.8737793 7
0.41638201 14.293945 -9.9040527 7
0.41754201 14.256836 -9.9301758 7
0.418091 14.224609 -9.9599609 7
0.41986099 14.18457 -9.9821777 7
0.420959 14.147461 -10.008301 7
0.42157 14.115234 -10.037842 7
0.419983 14.100586 -10.082275 7
0.28985599 13.394531 -12.806885 7
0.28820801 13.373047 -12.851074 7
0.28765899 13.342773 -12.886963 7
0.28656 13.316406 -12.926758 7
0.286621 13.282227 -12.958252 7
0.28887901 13.232422 -12.971924 7
0.28887901 13.197266 -13.003174 7
0.28894001 13.163086 -13.03418 7
0.28668201 13.143555 -13.08252 7
0.35571301 13.599609 -9.9313955 7
0.35687301 13.563477 -9.9558105 7
0.357544 13.53125 -9.9836426 7
0.360535 13.482422 -9.996582 7
0.36413601 13.428711 -10.005371 7
0.36596701 13.387695 -10.025391 7
0.36718801 13.350586 -10.049316 7
0.36785901 13.318359 -10.076904 7
0.36908001 13.282227 -10.100342 7
0.37029999 13.246094 -10.123779 7
0.370911 13.213867 -10.151123 7
0.371582 13.182617 -10.177979 7
0.22863799 12.146484 -13.10791 7
0.22808801 12.116211 -13.141113 7
0.23052999 12.03125 -13.179688 7
0.228149 12.010742 -13.226074 7
0.221558 12.015625 -13.303955 7
0.222168 11.977539 -13.327881 7
-1.907349 -28.667969 -21.242188 7
-1.939819 -29.000977 -21.280518 7
-1.972351 -29.333008 -21.316895 7
-1.798828 -31.125 -15.439697 7
-1.8173831 -31.307617 -15.442627 7
-1.837341 -31.501953 -15.450684 7
-1.85199 -31.654297 -15.435791 7
-1.860718 -31.759766 -15.395508 7
-1.880615 -31.955078 -15.401123 7
-1.902527 -32.165039 -15.413818 7
-0.072692998 -3.813477 20.686523 7
-0.07666 -3.7744141 20.730225 7
-0.081969999 -3.738281 20.784912 7
-0.087952003 -3.7011721 20.845215 7
-0.073181003 -3.6318359 20.728271 7
-0.078552 -3.594727 20.782959 7
-0.083801001 -3.5576169 20.837158 7
0.315552 12.47168 -10.095459 7
0.318115 12.427734 -10.108643 7
0.32135001 12.37793 -10.117676 7
0.32141101 12.350586 -10.146729 7
0.32330301 12.30957 -10.163818 7
0.32714799 12.255859 -10.168457 7
0.32910201 12.21582 -10.185059 7
0.325928 12.208984 -10.234131 7
-1.806091 -25.342773 -20.864746 7
-1.813904 -25.442383 -20.84668 7
-1.820312 -25.535156 -20.820557 7
-1.833618 -25.670898 -20.832031 7
-1.8455811 -25.797852 -20.835449 7
-1.654541 -27.791016 -15.038574 7
-1.661682 -27.878906 -15.001953 7
-1.658447 -27.892578 -14.920898 7
-1.691223 -28.167969 -14.991699 7
-1.709473 -28.336914 -15.000244 7
-1.707581 -28.359375 -14.924316 7
0.26532 11.573242 -10.258057 7
0.27740499 11.472656 -10.209961 7
-1.599915 -21.053711 -20.340332 7
-1.5986331 -21.09668 -20.281982 7
-1.608276 -21.201172 -20.285889 7
-1.620911 -21.321289 -20.305664 7
-1.630554 -21.425781 -20.308594 7
-1.6453249 -21.557617 -20.339844 7
-1.654236 -21.65918 -20.337646 7
-1.661011 -21.74707 -20.323242 7
-1.6669919 -21.831055 -20.304199 7
-1.681091 -21.960938 -20.32959 7
-1.684998 -22.033203 -20.297607 7
-1.404114 -21.80957 -17.146973 7
-1.415283 -21.918945 -17.151123 7
-1.420532 -21.993164 -17.125 7
-1.382141 -23.368164 -14.695068 7
-1.3939821 -23.482422 -14.69165 7
-1.393494 -23.515625 -14.632812 7
-1.40387 -23.621094 -14.62207 7
-1.414307 -23.725586 -14.611572 7
-1.424011 -23.825195 -14.596924 7
-1.434448 -23.931641 -14.585449 7
-1.447083 -24.050781 -14.582764 7
-1.455322 -24.141602 -14.560791 7
-1.467163 -24.256836 -14.554443 7
-1.4725339 -24.329102 -14.518799 7
-1.487366 -24.462891 -14.52417 7
-1.4992681 -24.579102 -14.516357 7
-1.507568 -24.670898 -14.492432 7
-1.512085 -24.737305 -14.452637 7
-1.519653 -24.824219 -14.424805 7
-1.5278929 -24.914062 -14.400146 7
-0.23272701 -7.0097661 18.847168 7
-0.22821 -6.9550781 18.831299 7
-0.21246301 -6.8691411 18.734619 7
-0.20800801 -6.8154302 18.71875 7
-0.215454 -6.7949219 18.788818 7
-0.225159 -6.782227 18.875488 7
-0.233337 -6.7626948 18.951172 7
-0.075928003 -3.499023 18.665039 7
-0.084716998 -3.4306641 18.749756 7
-0.070556998 -3.3681641 18.649902 7
-0.070496 -3.328125 18.657715 7
-0.073486 -3.2919919 18.688965 7
-0.084656 -3.266602 18.782227 7
-0.083130002 -3.2236331 18.778809 7
0.281616 13.03125 -6.7351069 7
0.27807599 13.036133 -6.78125 7
0.28241 12.987305 -6.7929692 7
0.28320301 12.962891 -6.8205571 7
0.286865 12.918945 -6.8349609 7
0.28900099 12.884766 -6.8557129 7
0.29266399 12.839844 -6.869873 7
-1.192566 -17.975586 -16.749268 7
-1.191956 -18.013672 -16.702637 7
-1.204468 -18.121094 -16.725098 7
-1.2084351 -18.18457 -16.702637 7
-1.204041 -20.209961 -14.217773 7
-1.215027 -20.30957 -14.218994 7
-1.2205811 -20.379883 -14.195557 7
-1.230774 -20.476562 -14.192383 7
-1.237915 -20.554688 -14.175049 7
-1.248108 -20.652344 -14.171387 7
-1.256775 -20.738281 -14.1604 7
-1.274902 -20.919922 -14.140869 7
-1.288208 -21.035156 -14.149658 7
-1.292969 -21.099609 -14.120117 7
-1.308594 -21.230469 -14.138428 7
-1.314209 -21.299805 -14.111572 7
-1.552246 -24.888672 -11.48877 7
-1.5673831 -25.046875 -11.420654 7
-1.583069 -25.180664 -11.41333 7
-0.075438999 -3.5058589 17.70459 7
-0.073853001 -3.464844 17.701904 7
-0.065186001 -3.4121089 17.647461 7
-0.069824003 -3.3808589 17.689941 7
-0.071410999 -3.3457029 17.709473 7
-0.075317003 -3.3125 17.74585 7
-0.064208999 -3.257812 17.674316 7
-0.070496 -3.2294919 17.727783 7
0.252808 12.130859 -6.943604 7
0.25433299 12.101562 -6.965332 7
0.25591999 12.050781 -7.015625 7
-1.048767 -17.328125 -13.863281 7
-1.056213 -17.40332 -13.856201 7
-1.059631 -17.456055 -13.830078 7
-1.068787 -17.540039 -13.829834 7
-1.074585 -17.606445 -13.814941 7
-1.084534 -17.695312 -13.818115 7
-1.091248 -17.766602 -13.805908 7
-1.10199 -17.860352 -13.8125 7
-1.106995 -17.921875 -13.792236 7
-1.114502 -17.99707 -13.783203 7
-1.119507 -18.05957 -13.762451 7
-1.13269 -18.166016 -13.778809 7
-1.3988039 -22.135742 -11.157715 7
-1.414551 -22.261719 -11.15918 7
-1.421204 -22.331055 -11.128662 7
-0.91107202 -14.767578 -13.606445 7
-0.90948498 -14.793945 -13.562744 7
-0.91986102 -14.878906 -13.576904 7
-0.92602497 -14.942383 -13.570068 7
-0.93041998 -14.999023 -13.554932 7
-0.93225098 -15.041992 -13.527344 7
-0.93835402 -15.104492 -13.519775 7
-0.94366503 -15.165039 -13.508057 7
-0.95233202 -15.242188 -13.512207 7
-0.95593297 -15.292969 -13.492188 7
-0.95605499 -15.328125 -13.455566 7
-0.96301299 -15.396484 -13.451172 7
-0.96911597 -15.460938 -13.442627 7
-0.98126203 -15.553711 -13.461426 7
-0.987427 -15.618164 -13.452148 7
-1.2771 -19.918945 -10.864746 7
-1.288452 -20.013672 -10.856445 7
-1.302368 -20.12207 -10.856934 7
-0.059631001 -3.1699221 15.977783 7
-0.06134 -3.136719 15.996582 7
-1.179016 -17.974609 -10.637695 7
-1.1882319 -18.050781 -10.626953 7
-1.200989 -18.146484 -10.628418 7
-1.2119139 -18.233398 -10.623291 7
-0.064331003 -3.1826169 15.256348 7
-0.058777001 -3.1425779 15.230469 7
-0.059631001 -3.077148 15.250732 7
-0.063293003 -3.050781 15.281006 7
-0.072388001 -3.0292971 15.344727 7
-0.065063 -2.9873049 15.307129 7
-0.054931998 -2.9394529 15.251709 7
-0.060424998 -2.9150391 15.292969 7
-0.060364 -2.882812 15.300049 7
-0.059326001 -2.8730471 13.387939 7
-0.057190001 -2.8408201 13.383545 7
-0.062438998 -2.820312 13.418457 7
-0.062378 -2.7910161 13.425293 7
-0.059204001 -2.7597661 13.415283 7
-0.054993 -2.7255859 13.399658 7
-0.059142999 -2.702148 13.428467 7
-0.058044001 -2.672852 13.429443 7
-0.043396 -2.8486331 12.705322 7
-0.046753 -2.827148 12.729004 7
-0.048889 -2.8027339 12.74707 7
-0.047791 -2.7753911 12.748047 7
-0.057677999 -2.761719 12.80542 7
-0.057677999 -2.734375 12.812012 7
-0.045471001 -2.6904299 12.75708 7
-0.048767 -2.667969 12.780273 7
-0.048705999 -2.641602 12.786865 7
-0.050903 -2.617188 12.804443 7
-0.052002002 -2.5917971 12.816406 7
-0.055298001 -2.5683589 12.839355 7
-0.21539301 -6.0517578 11.762695 7
-0.206177 -6.0039058 11.737305 7
-0.201538 -5.967773 11.732178 7
-0.201599 -5.9433589 11.746338 7
-0.202759 -5.921875 11.765381 7
-0.209656 -5.9150391 11.809326 7
-0.213135 -5.8974609 11.838867 7
-0.19927999 -5.766602 11.834717 7
-0.059204001 -2.8779299 12.273438 7
-0.055725001 -2.8466799 12.263916 7
-0.053406 -2.8193359 12.259521 7
-0.046509001 -2.785156 12.23291 7
-0.047667999 -2.7607419 12.245117 7
-0.047607001 -2.735352 12.251953 7
-0.048705999 -2.710938 12.26416 7
-0.060242001 -2.699219 12.326416 7
-0.053344999 -2.6650391 12.299561 7
-0.053284001 -2.639648 12.305908 7
-0.047485001 -2.6064451 12.284424 7
-0.048645001 -2.5830081 12.296387 7
-0.21539301 -6.045898 11.158447 7
-0.21539301 -6.0224609 11.172852 7
-0.20581099 -5.976562 11.148193 7
-0.199829 -5.9375 11.138184 7
-0.198608 -5.9121089 11.147461 7
-0.198669 -5.8886719 11.161621 7
-0.20581099 -5.8837891 11.205078 7
-0.204651 -5.8574219 11.214111 7
-0.215454 -5.860352 11.272705 7
-0.215454 -5.8369141 11.286865 7
-0.20819101 -5.795898 11.270996 7
-0.204651 -5.764648 11.270264 7
-0.031189 -2.539062 10.817139 7
-0.032471001 -2.5185549 10.829102 7
-0.040282998 -2.503906 10.868164 7
-0.040222 -2.4824221 10.874268 7
-0.038940001 -2.4589839 10.874512 7
-0.032349002 -2.4277339 10.853271 7
-0.032349002 -2.405273 10.858887 7
-0.033629999 -2.3837891 10.870605 7
-0.032288 -2.360352 10.870605 7
-0.531555 -9.3261719 8.0131836 7
-0.52752697 -9.296875 8.0256348 7
-0.04541 -2.5595701 10.471924 7
-0.048096001 -2.5410161 10.489014 7
-0.046691999 -2.5175779 10.489746 7
-0.046691999 -2.496094 10.49585 7
-0.050719999 -2.4794919 10.518311 7
-0.046691999 -2.454102 10.507812 7
-0.052062999 -2.438477 10.535889 7
-0.046691999 -2.4111331 10.519775 7
-0.045226999 -2.3876951 10.520264 7
-0.045288 -2.367188 10.525879 7
-0.045226999 -2.3457029 10.531738 7
-0.045226999 -2.3232419 10.537598 7
-0.054687999 -2.3125 10.581543 7
-0.051941 -2.2880859 10.576416 7
-0.055969 -2.2705081 10.598633 7
-0.051941 -2.2441411 10.587402 7
-0.036681999 -2.5263669 10.040527 7
-0.033875 -2.5029299 10.035889 7
-0.031067001 -2.480469 10.03125 7
-0.031005999 -2.438477 10.042969 7
-0.047913 -2.4375 10.114746 7
-0.045104999 -2.414062 10.109619 7
-0.038024999 -2.3642581 10.09375 7
-0.03241 -2.3378911 10.077881 7
-0.033752002 -2.3193359 10.089111 7
-0.033752002 -2.277344 10.099854 7
-0.046386998 -2.2705081 10.155273 7
-0.046386998 -2.25 10.160889 7
-0.035156 -2.5488279 9.6789551 7
-0.035156 -2.5283201 9.6853027 7
-0.035094999 -2.5087891 9.6914062 7
-0.027771 -2.480469 9.6704102 7
-0.03064 -2.464844 9.6875 7
-0.029236 -2.4443359 9.6877441 7
-0.029236 -2.4238279 9.6938477 7
-0.029175 -2.4042971 9.6999512 7
-0.036499001 -2.3935549 9.732666 7
-0.036499001 -2.374023 9.7387695 7
-0.033569001 -2.351562 9.7333984 7
-0.034972999 -2.3330081 9.7446289 7
-0.033507999 -2.311523 9.744873 7
-0.033507999 -2.2910161 9.7504883 7
-0.027649 -2.266602 9.7338867 7
-0.033447001 -2.2519529 9.7614746 7
-0.041443001 -2.5292971 9.3520508 7
-0.044495001 -2.514648 9.3691406 7
-0.038391002 -2.488281 9.3535156 7
-0.042969 -2.4746089 9.3759766 7
-0.033813 -2.445312 9.3493652 7
-0.032288 -2.425781 9.3500977 7
-0.035339002 -2.410156 9.3666992 7
-0.03833 -2.3955081 9.3835449 7
-0.032288 -2.3691411 9.3674316 7
-0.032226998 -2.3505859 9.373291 7
-0.033752002 -2.3339839 9.3842773 7
-0.039795 -2.3212891 9.4118652 7
-0.038268998 -2.300781 9.4121094 7
-0.030701 -2.2744141 9.3903809 7
-0.042785998 -2.266602 9.4394531 7
-0.04126 -2.246094 9.4396973 7
-0.021300999 -2.234375 8.1494141 7
-0.019592 -2.2167971 8.1496582 7
-0.017883001 -2.199219 8.1496582 7
-0.033507999 -2.1982419 8.2028809 7
-0.036986999 -2.1855471 8.21875 7
-0.036986999 -2.1699221 8.2241211 7
-0.030029001 -2.1464839 8.208252 7
-0.02124 -2.1220701 8.1867676 7
-0.016052 -2.101562 8.1760254 7
-0.02124 -2.0908201 8.1970205 7
-0.015991 -2.0693359 8.1862793 7
-0.024719 -2.061523 8.2180176 7
-0.022949001 -2.0439451 8.2175293 7
-0.028137 -2.0332029 8.2387695 7
-0.033325002 -2.0205081 8.2600098 7
-0.033386 -2.0058589 8.2648926 7
-0.035094999 -1.990234 8.2749023 7
-0.031615999 -1.97168 8.2692871 7
-0.036804002 -1.9599611 8.2902832 7
-0.033325002 -1.94043 8.2841797 7
-0.029846 -1.920898 8.2780762 7
-0.027527001 -2.2216799 7.9064941 7
-0.034790002 -2.2138669 7.9328609 7
-0.031067001 -2.1943359 7.9277339 7
-0.034667999 -2.1826169 7.943604 7
-0.045531999 -2.1777339 7.9807129 7
-0.034667999 -2.1513669 7.9543462 7
-0.041870002 -2.1425779 7.9807129 7
-0.038268998 -2.124023 7.9753418 7
-0.032837 -2.1035161 7.9646001 7
-0.031005999 -2.085938 7.9646001 7
-0.031005999 -2.070312 7.969727 7
-0.034607001 -2.0595701 7.985352 7
-0.034667999 -2.0439451 7.990479 7
-0.031005999 -2.0244141 7.9846191 7
-0.034545999 -2.011719 8.0002441 7
-0.036437999 -1.999023 8.010498 7
-0.034607001 -1.981445 8.0102539 7
-0.029175 -1.960938 7.999023 7
-0.034545999 -1.950195 8.0197754 7
-0.036377002 -1.936523 8.0300293 7
-0.036316 -1.920898 8.034668 7
-0.048485 -2.662473 13.052061 7
-0.25313801 -5.9284229 11.621651 7
-0.063617997 -2.4839461 10.434162 7
-0.074524 -2.2442811 10.618212 7
-0.034127999 -2.412148 9.5583363 7
-0.036543999 -2.1269591 7.9804292 7
-0.037849002 -1.962283 8.0686378 7
-0.014703 -2.0853109 7.547493 7
-0.01496 -1.935967 7.62886 7
0.073605001 -0.319049 3.9972191 7
0.070047997 -0.319065 4.0649948 7
0.057983998 -0.314475 4.1012902 7
0.074722998 -0.30368701 4.1164331 7
0.049082998 -0.31216499 4.138124 7
0.065119997 -0.300015 4.1522379 7
0.084357999 -0.27570599 3.9785581 7
0.061838999 -0.283032 3.9952021 7
0.084236003 -0.27537501 4.0093851 7
0.077344999 -0.273242 4.024466 7
0.067919001 -0.27930099 4.0412922 7
0.090163998 -0.26989499 4.0536308 7
0.066881001 -0.272493 4.0732932 7
0.083635002 -0.26446199 4.0843091 7
0.074074998 -0.2667 4.1013699 7
0.077196002 -0.255492 4.1135898 7
0.093592003 -0.24569 4.125371 7
0.061593998 -0.25334799 4.14713 7
0.088554002 -0.237874 4.1563921 7
-0.25494099 -6.8377452 19.726543 7
0.015374 -3.1357679 15.453169 7
-0.038713001 -2.6029091 12.407203 7
-0.18792801 -5.8041801 11.078053 7
0.0058940002 -2.2853119 10.582441 7
-0.034417 -2.41659 9.7230244 7
-0.03145 -2.1027169 8.2834845 7
-0.016365999 -2.221025 7.881207 7
-0.016496999 -2.0298409 7.947885 7
-8.1999999e-05 -2.141665 7.577487 7
0.001786 -1.960886 7.629941 7
