# .PCD v0.7 - Point Cloud Data file format
VERSION 0.7
FIELDS x y z intensity
SIZE 4 4 4 4
TYPE F F F F
COUNT 1 1 1 1
WIDTH 670
HEIGHT 1
VIEWPOINT 0 0 0 1 0 0 0
POINTS 670
DATA ascii
2.5706789 66.549805 -10.15332 7
2.5689089 66.129883 -10.240723 7
2.5665891 65.613281 -10.307861 7
2.369873 63.553711 -10.39502 7
2.369385 63.208008 -10.484619 7
2.36853 62.743164 -10.549561 7
2.166687 54.890625 -8.5036621 7
2.1671751 54.600586 -8.5839844 7
2.1680911 54.081055 -8.751709 7
2.1690669 53.520508 -8.9074707 7
2.0323491 50.858398 -7.625 7
2.0336909 50.525391 -7.6879878 7
2.034668 50.302734 -7.77002 7
2.0361331 49.905273 -7.8181152 7
2.038574 49.188477 -7.802979 7
2.029541 52.572266 -8.8359385 7
2.030396 52.398438 -8.9299316 7
2.0315549 52.109375 -9 7
2.032593 51.87207 -9.0793457 7
2.033447 51.673828 -9.1662598 7
2.0341799 51.529297 -9.2626953 7
1.881775 48.282227 -7.6489258 7
1.883728 48.012695 -7.7150879 7
1.887146 47.508789 -7.7338872 7
1.888733 47.273438 -7.8034668 7
1.890869 46.969727 -7.8586431 7
1.893494 46.585938 -7.8962402 7
1.894653 46.431641 -7.9790039 7
1.879089 49.201172 -9.5219727 7
1.881531 48.837891 -9.5610352 7
1.77771 46.111328 -7.777832 7
1.781067 45.746094 -7.8161621 7
1.7839971 45.430664 -7.8632808 7
1.785889 45.236328 -7.9343262 7
1.787903 45.012695 -7.9985352 7
1.7911381 44.669922 -8.0354004 7
1.791016 44.692383 -8.1508789 7
1.775574 46.615234 -9.9624023 7
1.777649 46.394531 -10.02417 7
1.778748 46.28125 -10.112061 7
1.77948 46.202148 -10.208252 7
1.673035 42.666016 -8.0393066 7
1.674011 42.585938 -8.1269531 7
1.67749 42.293945 -8.1655273 7
1.295593 36.197266 -11.319824 7
1.223083 34.629883 -11.577637 7
1.079651 31.077148 -11.770508 7
1.080811 31.019531 -11.832031 7
1.084412 30.890625 -11.863037 7
1.085022 30.847656 -11.931396 7
1.086975 30.768555 -11.982666 7
1.0875241 30.724609 -12.050537 7
1.000122 29.421875 -11.897461 7
1.001404 29.336914 -12.026367 7
1.004822 29.225586 -12.05835 7
1.006653 29.150391 -12.107178 7
1.0081789 29.085938 -12.161133 7
1.0093991 29.027344 -12.217041 7
1.008545 29.020508 -12.298096 7
0.909302 30.790039 -15.069336 7
0.91314697 30.664062 -15.094238 7
0.91650403 30.547852 -15.124512 7
0.91235399 30.575195 -15.328369 7
-0.13091999 -6.5019531 51.312988 7
0.93310499 27.800781 -12.191162 7
0.93518102 27.727539 -12.236084 7
0.936768 27.663086 -12.285645 7
0.93817103 27.603516 -12.337646 7
0.93927002 27.549805 -12.39209 7
0.93988001 27.505859 -12.45166 7
0.85876501 26.362305 -12.275879 7
0.85833699 26.339844 -12.343506 7
0.85955799 26.285156 -12.394531 7
0.86157203 26.21582 -12.437256 7
0.865417 26.111328 -12.460205 7
0.86712599 26.047852 -12.505127 7
0.86804199 25.998047 -12.557861 7
0.86828601 25.964844 -12.619385 7
0.86450201 26.007812 -12.722656 7
0.748779 27.553711 -15.406006 7
0.75 27.493164 -15.45874 7
0.75402802 27.378906 -15.477051 7
0.75396699 27.34375 -15.544678 7
0.75360101 27.3125 -15.615234 7
0.84515399 25.34375 -9.4399414 7
0.84924299 25.243164 -9.467041 7
0.85229498 25.162109 -9.5029297 7
0.85553002 25.077148 -9.5358887 7
0.86352497 24.880859 -9.5893555 7
0.79949999 25.166016 -12.24292 7
-0.55242902 4.3964839 -55.495361 7
-0.66607702 1.139648 -56.727051 7
-0.22674599 -8.8261719 41.465576 7
-0.243164 -8.7910156 41.760742 7
-0.081542999 -5.342773 39.635498 7
0.79247999 23.694336 -9.6079102 7
0.79547101 23.621094 -9.6411133 7
0.798706 23.541992 -9.6716309 7
0.80102497 23.477539 -9.7094727 7
0.80334502 23.413086 -9.7470703 7
0.80535901 23.355469 -9.7866211 7
0.80981398 23.255859 -9.8054199 7
0.81060803 23.217773 -9.8552246 7
0.81170702 23.173828 -9.9020996 7
0.739685 23.333008 -12.64209 7
0.74139398 23.274414 -12.681641 7
0.74023402 23.260742 -12.748779 7
0.740417 23.226562 -12.803467 7
0.742737 23.157227 -12.836426 7
0.744385 23.097656 -12.875488 7
0.73901403 23.15332 -12.986328 7
0.73175001 23.237305 -13.115723 7
-0.52069098 3.9433589 -49.73877 7
0.741638 22.387695 -9.7070312 7
0.74182099 22.361328 -9.7600098 7
0.74566698 22.277344 -9.7832031 7
0.74682599 22.234375 -9.8278809 7
0.74963403 22.166016 -9.8583984 7
0.75146502 22.112305 -9.8974609 7
0.68225098 21.895508 -12.849121 7
0.68243402 21.861328 -12.900879 7
0.681885 21.836914 -12.95874 7
0.68298298 21.788086 -13.000488 7
0.68011498 21.796875 -13.081055 7
-0.52654999 3.530273 -45.798828 7
-0.088561997 -4.8251948 34.25415 7
-0.062011998 -4.6933589 33.884277 7
-0.077941999 -4.6494141 34.126709 7
0.61218297 20.459961 -13.045898 7
0.61413598 20.400391 -13.076904 7
-0.53539997 3.1318359 -41.907471 7
-0.52325398 3.014648 -41.716309 7
-0.53613299 2.9267581 -41.92749 7
-0.208923 -7.9580078 33.197266 7
-0.096619003 -4.5507808 32.352783 7
0.64355499 19.739258 -10.124756 7
0.644409 19.701172 -10.165283 7
0.64611799 19.654297 -10.199463 7
0.64904797 19.59082 -10.224609 7
0.556458 19.504883 -12.995361 7
0.55700701 19.46582 -13.037598 7
0.559021 19.408203 -13.066162 7
0.55908197 19.373047 -13.111572 7
0.55883801 19.342773 -13.160889 7
0.55896002 19.307617 -13.206299 7
0.56140101 19.244141 -13.230469 7
0.55102497 19.333984 -13.372314 7
-0.51458699 6.8183589 -38.324219 7
-0.55358899 2.8505859 -39.27417 7
-0.55517602 2.6582029 -39.304443 7
0.58203101 18.810547 -9.9475098 7
0.58093297 18.797852 -10.001221 7
0.57763702 18.80957 -10.069824 7
0.57733202 18.787109 -10.117432 7
0.57867402 18.743164 -10.152344 7
0.57879603 18.71582 -10.196045 7
0.58270299 18.644531 -10.212158 7
0.58624297 18.576172 -10.230957 7
0.58850098 18.524414 -10.259033 7
0.59155297 18.460938 -10.280273 7
0.59289598 18.417969 -10.314453 7
0.59423798 18.375 -10.348145 7
0.59655797 18.323242 -10.375488 7
0.59155297 18.352539 -10.457275 7
0.59002697 18.34375 -10.513428 7
0.493103 18.136719 -13.149902 7
0.49151599 18.121094 -13.20752 7
0.49334699 18.068359 -13.235352 7
0.49511701 18.014648 -13.263184 7
0.49224901 18.010742 -13.331299 7
0.49737501 17.921875 -13.328857 7
-0.51055902 6.4511719 -35.184082 7
-0.537781 6.3398442 -35.582275 7
-0.55682403 2.539062 -36.201416 7
-0.55468798 2.3564451 -36.177734 7
-0.72686797 -0.92675799 -35.669434 7
-0.69244403 -1.001953 -35.229248 7
-0.696899 -1.175781 -35.276123 7
-0.053649999 -4.2060552 27.834473 7
0.53375202 17.618164 -10.26001 7
0.53527802 17.576172 -10.29126 7
0.54126 17.485352 -10.290039 7
0.53918499 17.453125 -10.38916 7
0.54333502 17.380859 -10.400391 7
0.54705799 17.313477 -10.414551 7
0.54492199 17.30957 -10.472168 7
0.545959 17.271484 -10.505859 7
0.439026 16.910156 -13.30835 7
0.43774399 16.887695 -13.359863 7
0.43695101 16.861328 -13.407471 7
0.43835399 16.8125 -13.435547 7
-0.061523002 -4.1074219 26.111572 7
-0.059875 -4.046875 26.104248 7
-0.056152001 -3.9814451 26.07373 7
-0.064025998 -3.938477 26.169922 7
-0.055054002 -3.863281 26.081055 7
0.48938 16.270508 -10.453613 7
0.491882 16.217773 -10.474365 7
0.49200401 16.189453 -10.512695 7
0.491577 16.164062 -10.554199 7
0.37695301 15.654297 -13.36792 7
0.37701401 15.619141 -13.404541 7
0.377563 15.579102 -13.437256 7
0.377197 15.547852 -13.478027 7
0.375732 15.524414 -13.526855 7
0.37579301 15.487305 -13.563232 7
0.37451199 15.427734 -13.648438 7
0.36682099 15.458984 -13.750488 7
-0.231445 -7.2685552 25.550049 7
-0.22192401 -7.1826172 25.472168 7
-0.229187 -7.148438 25.562012 7
-0.24200401 -7.1289058 25.70752 7
-0.066588998 -3.804688 24.625488 7
-0.058104999 -3.6806641 24.557129 7
0.4375 15.357422 -10.408691 7
0.43810999 15.294922 -10.477295 7
0.44189501 15.234375 -10.487549 7
0.443542 15.192383 -10.512695 7
0.44574001 15.145508 -10.533691 7
0.44787601 15.098633 -10.554688 7
0.448975 15.060547 -10.583008 7
0.319031 14.417969 -13.476807 7
0.31957999 14.37793 -13.506592 7
0.32226601 14.323242 -13.519287 7
0.319763 14.270508 -13.60791 7
0.31823701 14.246094 -13.654297 7
0.31567401 14.229492 -13.709229 7
0.317871 14.178711 -13.725342 7
0.39032 14.210938 -10.583496 7
0.39263901 14.165039 -10.601807 7
0.394409 14.123047 -10.623535 7
0.395569 14.085938 -10.64917 7
0.39624 14.052734 -10.678467 7
0.39794901 14.009766 -10.699951 7
0.39910901 13.97168 -10.725098 7
0.40081799 13.928711 -10.746338 7
0.40148899 13.895508 -10.775391 7
0.40045199 13.875 -10.815674 7
0.39886501 13.858398 -10.859863 7
0.27221701 13.112305 -13.48291 7
0.27227801 13.076172 -13.513672 7
0.26568601 13.085938 -13.597412 7
0.26739499 13.039062 -13.61499 7
0.26800501 12.999023 -13.641113 7
0.26800501 12.962891 -13.671875 7
0.27136201 12.90332 -13.675293 7
0.26812699 12.889648 -13.732422 7
-1.938843 -34.754883 -16.035645 7
-1.99292 -35.25 -16.178467 7
-1.975769 -35.220703 -15.853271 7
-1.993958 -35.412109 -15.843262 7
0.33319101 13.414062 -10.625 7
0.335632 13.368164 -10.640625 7
0.336243 13.334961 -10.668213 7
0.336914 13.300781 -10.695557 7
0.33642599 13.276367 -10.730957 7
0.338806 13.230469 -10.74585 7
0.340637 13.188477 -10.765381 7
0.34375 13.137695 -10.776367 7
0.345581 13.095703 -10.795166 7
0.34619099 13.0625 -10.821777 7
0.345642 13.037109 -10.856689 7
0.35162401 12.964844 -10.846924 7
0.204956 11.90332 -13.762939 7
0.208496 11.845703 -13.763184 7
0.20800801 11.813477 -13.795654 7
0.205688 11.791016 -13.841797 7
0.203918 11.764648 -13.883301 7
0.20629901 11.713867 -13.892578 7
0.20336901 11.695312 -13.943359 7
0.200562 11.675781 -13.994385 7
0.201721 11.630859 -14.011963 7
-1.898254 -28.585938 -21.178223 7
-1.904358 -28.680664 -21.142578 7
-1.923584 -28.866211 -21.177979 7
-1.936218 -29.006836 -21.177246 7
-1.949524 -29.152344 -21.179443 7
-1.958984 -29.269531 -21.159668 7
-1.976135 -29.443359 -21.182129 7
-1.9940799 -29.62207 -21.207031 7
-1.6947629 -30.098633 -15.351807 7
-1.704163 -30.209961 -15.31958 7
-1.714844 -30.331055 -15.292725 7
-1.730225 -30.488281 -15.284668 7
-1.742859 -30.623047 -15.264648 7
-1.762817 -30.817383 -15.274902 7
-1.77356 -30.938477 -15.245361 7
-1.794189 -31.135742 -15.256836 7
-1.806213 -31.268555 -15.231689 7
-1.824829 -31.451172 -15.233154 7
-1.828979 -31.520508 -15.174805 7
-0.064879999 -3.480469 20.672363 7
-0.070862003 -3.445312 20.732422 7
-0.078185998 -3.410156 20.803955 7
-0.072754003 -3.3574221 20.766113 7
-0.068726003 -3.3056641 20.739746 7
-0.071350001 -3.2636721 20.770752 7
-0.080017 -3.230469 20.853027 7
0.298462 12.102539 -10.824707 7
0.29980499 12.06543 -10.844971 7
0.30047601 12.03125 -10.868896 7
0.30175799 11.994141 -10.888672 7
0.303101 11.956055 -10.908691 7
0.305664 11.912109 -10.919434 7
0.303772 11.893555 -10.960205 7
0.30450401 11.859375 -10.984131 7
0.30078101 11.854492 -11.037354 7
-1.7624511 -24.894531 -20.787354 7
-1.77301 -25.011719 -20.785889 7
-1.782227 -25.121094 -20.776123 7
-1.800354 -25.286133 -20.815918 7
-1.80957 -25.395508 -20.80542 7
-1.818054 -25.5 -20.791016 7
-1.849609 -25.802734 -20.839844 7
-1.855347 -25.891602 -20.808594 7
-1.566162 -26.975586 -14.90625 7
-1.570557 -27.043945 -14.860352 7
-1.579102 -27.142578 -14.831787 7
-1.588318 -27.24707 -14.805664 7
-1.607239 -27.418945 -14.820557 7
-0.083984002 -3.4589839 19.776855 7
-0.071167 -3.3525391 19.690186 7
-0.078247003 -3.320312 19.755615 7
-0.07959 -3.2783201 19.775146 7
-0.070373997 -3.2216799 19.708496 7
0.25262499 11.129883 -10.946045 7
0.25543201 11.083984 -10.954346 7
0.252747 11.069336 -10.998047 7
0.253479 11.036133 -11.019775 7
0.249451 11.02832 -11.071777 7
0.25354001 10.975586 -11.071045 7
0.25024399 10.963867 -11.118896 7
-1.302246 -20.714844 -17.17041 7
-1.309692 -20.800781 -17.159912 7
-1.3171999 -20.887695 -17.148682 7
-1.3253779 -20.979492 -17.141357 7
-1.333618 -21.072266 -17.133301 7
-1.309082 -22.654297 -14.685791 7
-1.306396 -22.673828 -14.618408 7
-1.3182369 -22.788086 -14.61792 7
-1.317688 -22.820312 -14.560303 7
-1.326721 -22.915039 -14.545898 7
-1.339294 -23.03418 -14.547363 7
-1.354187 -23.166992 -14.557861 7
-1.364624 -23.271484 -14.548828 7
-1.3809201 -23.416016 -14.565186 7
-1.388428 -23.5 -14.541992 7
-1.395203 -23.581055 -14.515137 7
-1.404968 -23.681641 -14.501221 7
-1.417603 -23.801758 -14.499512 7
-1.427307 -23.900391 -14.484375 7
-1.426025 -23.928711 -14.421387 7
-1.4408571 -24.063477 -14.427979 7
-0.231262 -6.7138672 18.944336 7
-0.220764 -6.6435552 18.884277 7
-0.20581099 -6.561523 18.791504 7
-0.20800801 -6.5263672 18.82373 7
-0.21698 -6.5087891 18.904297 7
-0.226685 -6.4951172 18.990723 7
-0.22741701 -6.454102 19.011719 7
-1.1917109 -14.407227 -19.820312 7
-1.180359 -14.407227 -19.714355 7
-1.183594 -14.469727 -19.698975 7
-1.189941 -14.545898 -19.702881 7
-1.198486 -14.631836 -19.720459 7
-1.205566 -14.711914 -19.728516 7
-1.2103879 -14.78125 -19.72168 7
-1.217407 -14.861328 -19.729248 7
-1.220703 -14.924805 -19.712646 7
-1.230103 -15.014648 -19.733643 7
-1.238647 -15.100586 -19.75 7
-1.238831 -15.150391 -19.713867 7
-1.2466429 -15.234375 -19.724609 7
-1.236145 -15.235352 -19.622803 7
-1.112 -17.081055 -16.772217 7
-1.120667 -17.166992 -16.777588 7
-1.1277471 -17.24707 -16.774658 7
-1.125549 -17.276367 -16.720947 7
-1.138855 -19.523438 -14.288818 7
-1.145142 -19.595703 -14.27124 7
-1.14856 -19.6875 -14.192383 7
-1.157227 -19.773438 -14.185059 7
-1.169067 -19.879883 -14.191406 7
-1.169189 -19.916016 -14.144043 7
-1.178589 -20.007812 -14.13916 7
-1.18573 -20.084961 -14.123535 7
-1.193665 -20.167969 -14.111084 7
-1.2138669 -20.325195 -14.154053 7
-1.223511 -20.453125 -14.099365 7
-1.530884 -24.723633 -11.404053 7
-1.5411381 -24.821289 -11.379883 7
-1.551453 -24.916992 -11.355225 7
-0.060669001 -3.175781 17.654297 7
-0.061400998 -3.1376951 17.66748 7
-0.068480998 -3.110352 17.726318 7
-0.077087 -3.0830081 17.796631 7
-0.069214001 -3.0341799 17.74707 7
-0.066771999 -2.992188 17.737061 7
-0.069153003 -2.957031 17.761475 7
-0.072205 -2.921875 17.791504 7
-0.080077998 -2.8935549 17.855713 7
-0.96051002 -16.358398 -14.005615 7
-0.963135 -16.408203 -13.978516 7
-0.96984899 -16.477539 -13.970703 7
-0.96832299 -16.505859 -13.923828 7
-0.974976 -16.575195 -13.915771 7
-0.98083502 -16.641602 -13.903809 7
-0.98584002 -16.702148 -13.887451 7
-0.99169898 -16.768555 -13.874756 7
-0.995911 -16.826172 -13.854248 7
-1.008301 -16.926758 -13.872314 7
-1.010132 -16.970703 -13.839844 7
-1.0183721 -17.049805 -13.837646 7
-1.023499 -17.112305 -13.820312 7
-1.031006 -17.1875 -13.813965 7
-1.0401 -17.271484 -13.814941 7
-1.048401 -17.349609 -13.812012 7
-1.059937 -17.446289 -13.82373 7
-1.0625 -17.495117 -13.793701 7
-1.069275 -17.566406 -13.782471 7
-1.346802 -21.683594 -11.177246 7
-0.061462 -3.1513669 16.762695 7
-0.056458 -3.1074221 16.736084 7
-0.057250999 -3.0722661 16.749512 7
-0.058899 -3.0380859 16.768311 7
-0.062987998 -3.007812 16.803955 7
-0.062987998 -2.9345701 16.818359 7
-0.057128999 -2.890625 16.7854 7
-0.85510302 -14.113281 -13.711182 7
-0.85687298 -14.15625 -13.685791 7
-0.86303699 -14.219727 -13.681396 7
-0.867432 -14.275391 -13.668457 7
-0.87439001 -14.342773 -13.667725 7
-0.878784 -14.396484 -13.654541 7
-0.884094 -14.456055 -13.645264 7
-0.88854998 -14.512695 -13.631348 7
-0.89209002 -14.563477 -13.613525 7
-0.89392102 -14.607422 -13.586914 7
-0.90344203 -14.686523 -13.597656 7
-1.238892 -19.572266 -10.910156 7
-1.246887 -19.646484 -10.891357 7
-1.263306 -19.767578 -10.902344 7
-0.063415997 -3.1386721 16.000488 7
-0.061707001 -3.1025391 15.996582 7
-0.063415997 -3.0712891 16.015869 7
-0.053711001 -2.9902339 15.968262 7
-0.060669001 -2.9287109 16.027832 7
-0.061462 -2.8964839 16.040283 7
-1.143433 -17.635742 -10.718262 7
-1.156189 -17.731445 -10.72168 7
-1.162659 -17.793945 -10.702148 7
-1.177307 -17.899414 -10.711182 7
-1.170288 -17.916992 -10.600586 7
-0.073913999 -2.5800779 14.779297 7
-0.058044001 -2.5878911 13.441406 7
-0.054076999 -2.5673831 12.82666 7
-0.047485001 -2.5332029 12.799316 7
-0.045288 -2.503906 12.794189 7
-0.22259501 -5.9667969 11.843994 7
-0.22259501 -5.9423828 11.858643 7
-0.20251501 -5.7724609 11.843018 7
-0.049621999 -2.545898 11.811279 7
-0.049621999 -2.5205081 11.817627 7
-0.048462 -2.4951169 11.818115 7
-0.044739 -2.3925779 11.825195 7
-0.040282998 -2.550781 11.319336 7
-0.046448 -2.5341799 11.353271 7
-0.041565001 -2.5058589 11.336914 7
-0.040222 -2.480469 11.337646 7
-0.046509001 -2.4638669 11.371338 7
-0.062683001 -2.4589839 11.449707 7
-0.036499001 -2.40625 11.338867 7
-0.055114999 -2.402344 11.428223 7
-0.045166001 -2.3681641 11.389404 7
-0.042603001 -2.3417971 11.384033 7
-0.036437999 -2.313477 11.362061 7
-0.045104999 -2.297852 11.406738 7
-0.053771999 -2.2832029 11.451172 7
-0.050048999 -2.2558589 11.440186 7
-0.194824 -5.7246089 10.124268 7
-0.179199 -5.6455078 10.093994 7
-0.175354 -5.6162109 10.093262 7
-0.179199 -5.5830078 10.134766 7
-0.18573 -5.5576172 10.185303 7
-0.192261 -5.5527339 10.222656 7
-0.18963601 -5.5048828 10.239746 7
-0.18573 -5.4746089 10.238525 7
-0.039978001 -2.547852 10.848633 7
-0.038635001 -2.523438 10.849365 7
-0.038635001 -2.500977 10.855469 7
-0.032104 -2.4716799 10.833984 7
-0.028198 -2.445312 10.823242 7
-0.032104 -2.4287109 10.845947 7
-0.030762 -2.4042971 10.846436 7
-0.032104 -2.382812 10.857666 7
-0.041138001 -2.3701169 10.902344 7
-0.038513001 -2.344727 10.896973 7
-0.037230998 -2.3212891 10.897217 7
-0.034545999 -2.295898 10.891846 7
-0.033264 -2.2724609 10.891846 7
-0.030701 -2.2480471 10.885986 7
-0.21661399 -5.7460942 9.7194824 7
-0.215271 -5.7226558 9.7285156 7
-0.213928 -5.6992192 9.7375488 7
-0.213989 -5.6806641 9.7509766 7
-0.215271 -5.6630859 9.7697754 7
-0.20306399 -5.6142578 9.7404795 7
-0.20318601 -5.5957031 9.7539062 7
-0.204468 -5.578125 9.7722168 7
-0.201721 -5.5517578 9.7758789 7
-0.20581099 -5.5419922 9.8034668 7
-0.20855699 -5.5292969 9.8266602 7
-0.207214 -5.5058589 9.8349609 7
-0.204468 -5.4794922 9.8383789 7
-0.199036 -5.4472661 9.8325195 7
-0.043517999 -2.235352 10.547119 7
-0.040771 -2.210938 10.541504 7
-0.043274 -2.5537109 10.054932 7
-0.044617001 -2.5136721 10.07251 7
-0.047424 -2.4970701 10.0896 7
-0.046021 -2.4746089 10.090332 7
-0.039000999 -2.4267581 10.074951 7
-0.033325002 -2.3994141 10.058838 7
-0.034729 -2.3798831 10.070312 7
-0.034667999 -2.339844 10.081787 7
-0.041687001 -2.327148 10.11499 7
-0.044495001 -2.3095701 10.131592 7
-0.043090999 -2.266602 10.136963 7
-0.043030001 -2.246094 10.142578 7
-0.033569001 -2.234375 9.1108398 7
-0.033507999 -2.2167971 9.1164551 7
-0.031920999 -2.1972661 9.1164551 7
-0.042908002 -2.1904299 9.159668 7
-0.036621001 -2.1650391 9.1433105 7
-0.036621001 -2.1464839 9.1486816 7
-0.027283 -2.1201169 9.1210938 7
-0.031860001 -2.105469 9.1428223 7
-0.033507999 -2.089844 9.1530762 7
-0.035034001 -2.0732419 9.1640615 7
-0.033447001 -2.0527339 9.1635742 7
-0.033447001 -2.035156 9.1687012 7
-0.039673001 -2.0224609 9.1953115 7
-0.041198999 -2.0048831 9.2058105 7
-0.041198999 -1.986328 9.2106934 7
-0.045898002 -1.972656 9.2321777 7
-0.045898002 -1.954102 9.2368164 7
-0.036499001 -1.927734 9.2087402 7
-0.025635 -2.226562 8.7575684 7
-0.025635 -2.2089839 8.7631836 7
-0.025635 -2.1923831 8.7685547 7
-0.023987001 -2.172852 8.7685547 7
-0.025574001 -2.157227 8.7790527 7
-0.028809 -2.1435549 8.795166 7
-0.033691 -2.1298831 8.8166504 7
-0.033691 -2.1123049 8.8217773 7
-0.022278 -2.0849609 8.7893066 7
-0.027161 -2.0722661 8.8105469 7
-0.027100001 -2.054688 8.8156738 7
-0.025513001 -2.035156 8.8151855 7
-0.027100001 -2.019531 8.8256836 7
-0.028748 -2.0029299 8.8359385 7
-0.028687 -1.985352 8.8408203 7
-0.035216998 -1.974609 8.8674316 7
-0.038451999 -1.9599611 8.8833008 7
-0.033507999 -1.9375 8.871582 7
-0.021606 -2.2207029 8.4353027 7
-0.028259 -2.2089839 8.4624023 7
-0.029967999 -2.195312 8.4729004 7
-0.029906999 -2.1777339 8.4785156 7
-0.026550001 -2.1582029 8.4729004 7
-0.026550001 -2.141602 8.4782705 7
-0.036621001 -2.1347661 8.515625 7
-0.041687001 -2.1220701 8.5371094 7
-0.028259 -2.092773 8.4990234 7
-0.026550001 -2.074219 8.4987793 7
-0.028198 -2.0595701 8.5095205 7
-0.026550001 -2.0419919 8.5092773 7
-0.024840999 -2.023438 8.5085449 7
-0.028198 -2.0097661 8.5244141 7
-0.029846 -1.994141 8.534668 7
-0.028137 -1.9755861 8.5341797 7
-0.026489001 -1.957031 8.5336914 7
-0.038208 -1.950195 8.576416 7
-0.034851 -1.9306639 8.5700684 7
-0.030944999 -2.226562 8.1799316 7
-0.022217 -2.203125 8.1586914 7
-0.022217 -2.186523 8.1640615 7
-0.022217 -2.170898 8.1694336 7
-0.022156 -2.1542971 8.1748047 7
-0.022156 -2.1386721 8.1799316 7
-0.022156 -2.1220701 8.1850586 7
-0.027404999 -2.1113279 8.206543 7
-0.037842002 -2.105469 8.2436523 7
-0.027344 -2.079102 8.2165527 7
-0.030884 -2.0673831 8.2324219 7
-0.023925999 -2.0439451 8.2160645 7
-0.023864999 -2.027344 8.2209473 7
-0.022095 -2.0097661 8.2207031 7
-0.020324999 -1.992188 8.2202148 7
-0.020324999 -1.9755861 8.2250977 7
-0.022034001 -1.9619139 8.2353516 7
-0.018616 -1.943359 8.2294922 7
-0.027344 -1.93457 8.2609863 7
-0.035583001 -2.2294919 7.9260249 7
-0.032042999 -2.210938 7.9206538 7
-0.035583001 -2.1982419 7.9367681 7
-0.028380999 -2.175781 7.9211431 7
-0.028441999 -2.1611331 7.92627 7
-0.028380999 -2.1455081 7.9316411 7
-0.028380999 -2.1298831 7.9367681 7
-0.028380999 -2.1142581 7.941895 7
-0.028380999 -2.0986331 7.947021 7
-0.037354 -2.0917971 7.9790039 7
-0.033752002 -2.0722661 7.9733891 7
-0.026550001 -2.0517581 7.9572749 7
-0.037354 -2.045898 7.9941411 7
-0.031982001 -2.0244141 7.9829102 7
-0.03009 -2.0068359 7.9829102 7
-0.02832 -1.990234 7.9824219 7
-0.031920999 -1.978516 7.9980469 7
-0.031860001 -1.962891 8.0026855 7
-0.031920999 -1.947266 8.0075684 7
-0.031920999 -1.931641 8.012207 7
-0.037230998 -1.920898 8.0334473 7
-0.070703 -2.8254189 14.833578 7
-0.095669001 -2.3136821 11.58391 7
-0.179538 -5.6005478 9.8407211 7
-0.075892001 -2.3176301 10.607939 7
-0.067564003 -2.1969409 8.9286213 7
-0.073775001 -2.005347 9.0514402 7
-0.046107002 -2.1700389 8.3776779 7
-0.047398999 -1.988632 8.4674406 7
-0.017986 -2.113065 7.8596468 7
-0.023998 -1.966484 7.9731498 7
-0.0059549999 -2.0959649 7.4835672 7
-0.013281 -1.969062 7.6009588 7
0.06899 -0.319004 4.0415411 7
0.067855 -0.31174701 4.0747418 7
0.068683997 -0.31021801 4.0910239 7
0.069348998 -0.307432 4.1104102 7
0.080340996 -0.29971001 4.1222992 7
0.049414001 -0.30944401 4.14785 7
0.072642997 -0.28682399 4.154995 7
0.083904997 -0.27315 3.9698391 7
0.096023001 -0.27204299 3.986017 7
0.068227001 -0.281468 4.0018592 7
0.095971003 -0.271054 4.0162392 7
0.073168002 -0.27616099 4.0328312 7
0.090157002 -0.26965901 4.0479722 7
0.083053999 -0.26563701 4.0620699 7
0.057121001 -0.27627099 4.0820408 7
0.084562004 -0.26323399 4.092577 7
0.060881998 -0.26335099 4.1092448 7
0.072043002 -0.255891 4.1220269 7
0.083049998 -0.247142 4.136766 7
0.067694999 -0.24906699 4.1516151 7
-0.038389001 -2.994139 16.251816 7
-0.109387 -2.675149 14.177504 7
-0.070869997 -2.46013 12.767302 7
-0.044353001 -2.297972 11.704137 7
-0.015259 -2.4647281 10.688172 7
-0.27904499 -5.5751238 10.367514 7
-0.064310998 -2.3211989 9.9619942 7
-0.016602 -2.1066201 8.8633986 7
-0.049598999 -2.016489 8.4076195 7
-0.038242999 -2.1499889 8.0177841 7
-0.037055999 -1.951664 8.0759296 7
-0.019576 -2.0730209 7.695642 7
-0.023205001 -2.1985919 7.4361129 7
-0.012391 -2.014677 7.4520478 7
