# .PCD v0.7 - Point Cloud Data file format
VERSION 0.7
FIELDS x y z intensity
SIZE 4 4 4 4
TYPE F F F F
COUNT 1 1 1 1
WIDTH 627
HEIGHT 1
VIEWPOINT 0 0 0 1 0 0 0
POINTS 627
DATA ascii
1.1735229 38.256836 -15.599243 7
1.087341 41.068359 -18.280396 7
0.94702101 32.480469 -15.564697 7
0.94641101 32.460938 -15.652466 7
0.94769299 32.389648 -15.712402 7
0.94982898 32.296875 -15.761108 7
0.952393 32.194336 -15.803955 7
0.95349097 32.126953 -15.865845 7
-0.33477801 -7.1435552 60.795166 7
0.86828601 30.430664 -15.703613 7
0.87133801 30.324219 -15.737793 7
0.87432897 30.216797 -15.771606 7
0.87603801 30.140625 -15.822144 7
0.877258 30.074219 -15.878662 7
0.87390101 30.114258 -15.996826 7
-0.280334 -7.0419922 54.582031 7
0.800659 28.625977 -15.666748 7
0.80078101 28.584961 -15.734009 7
0.80517602 28.416992 -15.816895 7
0.809937 28.282227 -15.825684 7
0.80694598 28.305664 -15.932373 7
-0.55719 -2.277344 -59.671265 7
-0.178406 -3.410156 48.460327 7
-0.15069599 -3.2597661 47.919922 7
0.72412097 26.974609 -15.744019 7
0.72338903 26.947266 -15.817261 7
0.72674602 26.847656 -15.842407 7
0.72949201 26.757812 -15.873901 7
0.73309302 26.652344 -15.895142 7
-0.46508801 0.88769501 -57.651733 7
-0.29791301 -6.578125 46.939941 7
-0.32525599 -6.5419922 47.458984 7
-0.49737501 0.66992199 -54.144043 7
-0.61639398 -2.601562 -51.263184 7
-0.59924299 -2.7080081 -50.929565 7
0.61199999 23.225586 -16.026123 7
0.61273199 23.173828 -16.073853 7
0.61499 23.098633 -16.103394 7
0.61578399 23.047852 -16.150879 7
-0.48339799 0.75488299 -48.509155 7
-0.249146 -6.3144531 39.405518 7
-0.27679399 -6.295898 39.853027 7
0.61859101 22.399414 -13.019531 7
0.62213099 22.317383 -13.040283 7
-0.652466 -2.8613279 -43.651001 7
0.56890899 20.578125 -13.192627 7
0.57019001 20.529297 -13.230713 7
0.485596 20.037109 -16.062622 7
0.48681599 19.981445 -16.098022 7
0.48840299 19.922852 -16.129639 7
0.48919699 19.87207 -16.168701 7
-0.493835 4.4560552 -40.652222 7
-0.49340799 4.3544922 -40.656738 7
0.501831 19.795898 -13.124756 7
0.50628698 19.709961 -13.132812 7
0.50439501 19.698242 -13.196899 7
0.50964397 19.602539 -13.197388 7
0.512146 19.540039 -13.222412 7
0.51538098 19.466797 -13.23999 7
0.52032501 19.376953 -13.243286 7
0.52355999 19.304688 -13.260376 7
0.52404797 19.264648 -13.302368 7
0.52294898 19.243164 -13.358398 7
0.52343798 19.203125 -13.400024 7
0.428711 18.828125 -16.044556 7
0.427246 18.803711 -16.104858 7
0.43011501 18.732422 -16.120972 7
0.432129 18.668945 -16.144897 7
0.43103001 18.639648 -16.200928 7
0.43310499 18.575195 -16.224609 7
0.436768 18.496094 -16.231812 7
0.435669 18.46582 -16.287598 7
-0.53125 0.29980499 -39.091187 7
-0.653687 -3.113281 -37.490112 7
-0.597839 -3.2294919 -36.706665 7
-0.208252 -6.0605469 31.295898 7
-0.20629901 -5.984375 31.287354 7
-0.22503699 -5.9599609 31.536377 7
-0.23962399 -5.9248052 31.734009 7
-0.210205 -5.78125 31.381104 7
-0.108826 -2.6669919 30.571045 7
0.37390101 17.203125 -16.047241 7
0.37353501 17.165039 -16.092163 7
0.37066701 17.151367 -16.161987 7
0.371582 17.101562 -16.193848 7
0.37078899 17.067383 -16.242554 7
0.37304699 17.005859 -16.261597 7
0.37823501 16.914062 -16.250488 7
0.37744099 16.878906 -16.299072 7
-0.077209003 -2.4716799 28.38147 7
0.40741 16.989258 -13.220703 7
0.411621 16.915039 -13.226074 7
0.413086 16.867188 -13.254395 7
0.41363499 16.827148 -13.290039 7
0.418762 16.743164 -13.287109 7
0.418823 16.708008 -13.326294 7
0.42394999 16.625 -13.322876 7
0.42449999 16.585938 -13.358154 7
0.42547601 16.541992 -13.38916 7
0.42511001 16.509766 -13.432007 7
0.317139 15.628906 -16.266479 7
0.318115 15.579102 -16.294189 7
-0.068053998 -2.469727 26.435059 7
-0.077820003 -2.3613279 26.557129 7
0.36755401 15.318359 -13.380493 7
0.37255901 15.240234 -13.375366 7
0.374634 15.188477 -13.39502 7
0.37371799 15.161133 -13.438843 7
0.375305 15.113281 -13.462158 7
0.37835699 15.052734 -13.4729 7
0.25482199 14.047852 -16.347778 7
0.25634801 13.994141 -16.367065 7
0.256897 13.948242 -16.395264 7
0.258423 13.894531 -16.414307 7
0.25555399 13.873047 -16.474609 7
0.255615 13.831055 -16.507202 7
0.25366199 13.801758 -16.558472 7
-1.7774661 -38.112305 -16.878662 7
-1.697937 -37.385742 -16.423706 7
-1.751282 -37.938477 -16.575928 7
-0.078002997 -2.547852 24.942871 7
-0.077941999 -2.492188 24.949219 7
-0.085083 -2.4433589 25.030396 7
-0.075011998 -2.3779299 24.932007 7
-0.077698 -2.269531 24.97229 7
0.32135001 14.051758 -13.358887 7
0.32458499 13.992188 -13.366333 7
0.326233 13.944336 -13.386475 7
0.32733199 13.900391 -13.410522 7
0.32952899 13.849609 -13.426147 7
0.329041 13.817383 -13.462891 7
0.33178699 13.762695 -13.473877 7
0.201416 12.52832 -16.332764 7
0.200928 12.489258 -16.367065 7
0.20043901 12.450195 -16.401123 7
0.20098899 12.404297 -16.425537 7
0.200562 12.364258 -16.459473 7
0.197998 12.337891 -16.512695 7
0.19909699 12.289062 -16.53186 7
0.19757099 12.255859 -16.575439 7
-1.853699 -33.59082 -21.404785 7
-1.864441 -33.732422 -21.383423 7
-1.875244 -33.873047 -21.361572 7
-1.885376 -34.007812 -21.33606 7
-1.906006 -34.231445 -21.367798 7
-1.487366 -32.673828 -15.443604 7
-1.497498 -32.801758 -15.411011 7
-1.51123 -32.960938 -15.393677 7
-1.5289921 -33.15625 -15.393799 7
-1.536865 -33.262695 -15.349243 7
-1.546448 -33.385742 -15.311768 7
-1.567688 -33.613281 -15.325439 7
-1.58374 -33.792969 -15.314941 7
-1.596863 -33.947266 -15.291016 7
-1.620483 -34.196289 -15.312256 7
-1.6277471 -34.297852 -15.261475 7
-1.6403199 -34.448242 -15.232788 7
-1.6353149 -34.439453 -15.12854 7
-1.642639 -34.541992 -15.076782 7
-0.20770299 -5.7392578 24.134033 7
-0.204041 -5.6757808 24.113892 7
-0.215332 -5.6494141 24.234863 7
-0.221191 -5.608398 24.304932 7
-0.21106 -5.53125 24.222168 7
-0.196106 -5.4433589 24.093506 7
-0.07959 -2.545898 23.48877 7
-0.07959 -2.4941411 23.494751 7
-0.071777001 -2.433594 23.425537 7
-0.076476999 -2.3876951 23.477783 7
-0.088867001 -2.347656 23.605225 7
-0.075745001 -2.282227 23.483398 7
0.27343801 12.756836 -13.411987 7
0.275208 12.710938 -13.428467 7
0.277466 12.65918 -13.440674 7
0.27978501 12.608398 -13.452393 7
0.28045699 12.569336 -13.477661 7
0.28045699 12.533203 -13.50708 7
0.146118 10.835938 -16.433105 7
0.14563 10.796875 -16.463379 7
0.14569101 10.753906 -16.48877 7
0.147949 10.699219 -16.493896 7
0.14910901 10.650391 -16.508911 7
0.141296 10.648438 -16.60437 7
-1.459778 -26.262695 -21.194336 7
-1.493835 -26.560547 -21.339478 7
-1.515625 -26.768555 -21.408203 7
-1.495056 -26.670898 -21.217041 7
-1.5124511 -26.849609 -21.258301 7
-1.516418 -26.929688 -21.216919 7
-1.521057 -27.014648 -21.179077 7
-1.539124 -27.196289 -21.222534 7
-1.549255 -27.321289 -21.216919 7
-1.5526119 -27.397461 -21.170532 7
-1.563904 -27.532227 -21.171631 7
-1.3486331 -27.280273 -18.005127 7
-1.362427 -27.431641 -18.013916 7
-1.342041 -28.804688 -15.322632 7
-1.351562 -28.919922 -15.297729 7
-1.357971 -29.008789 -15.257812 7
-1.373047 -29.168945 -15.258057 7
-1.386292 -29.31543 -15.248657 7
-1.392761 -29.405273 -15.20752 7
-1.404114 -29.535156 -15.188721 7
-1.417297 -29.680664 -15.178101 7
-1.426819 -29.795898 -15.149658 7
-1.443787 -29.972656 -15.154541 7
-1.457642 -30.124023 -15.144653 7
-1.464111 -30.214844 -15.101074 7
-1.47113 -30.30957 -15.05957 7
-0.086121 -2.5087891 22.275635 7
-0.094299003 -2.467773 22.356689 7
-0.081603996 -2.405273 22.24707 7
-0.091003001 -2.3662109 22.3396 7
-0.099792004 -2.3251951 22.426514 7
-0.085876003 -2.261719 22.30481 7
-0.089538999 -2.2158201 22.344971 7
-0.089417003 -2.117188 22.355713 7
0.223022 11.612305 -13.44397 7
0.22259501 11.544922 -13.503296 7
0.225586 11.490234 -13.507324 7
0.226868 11.448242 -13.525024 7
0.230469 11.391602 -13.523926 7
0.23052999 11.355469 -13.550537 7
0.233032 11.304688 -13.558594 7
0.235413 11.254883 -13.566162 7
0.23736601 11.172852 -13.60498 7
0.236816 11.139648 -13.636108 7
0.232666 11.12793 -13.695068 7
0.23327599 11.087891 -13.716675 7
-1.383057 -22.667969 -21.095825 7
-1.377441 -22.682617 -21.005249 7
-1.381653 -22.760742 -20.975708 7
-1.391724 -22.875977 -20.982422 7
-1.4030761 -22.999023 -20.996948 7
-1.407227 -23.077148 -20.966187 7
-1.416016 -23.18457 -20.963745 7
-1.432861 -23.395508 -20.953613 7
-1.4402471 -23.493164 -20.941895 7
-1.14856 -24.644531 -15.111816 7
-1.160522 -24.770508 -15.111084 7
-1.164001 -24.833008 -15.068237 7
-1.17804 -24.975586 -15.07605 7
-1.185486 -25.067383 -15.051636 7
-1.19751 -25.193359 -15.049072 7
-1.2069089 -25.299805 -15.033325 7
-1.217651 -25.416992 -15.02356 7
-1.219849 -25.470703 -14.97229 7
-1.2305911 -25.587891 -14.961792 7
-1.243958 -25.724609 -14.963013 7
-1.256592 -25.856445 -14.960815 7
-0.081726 -2.214844 21.023438 7
-0.080383003 -2.1669919 21.017212 7
-0.084351003 -2.124023 21.057129 7
-0.085510001 -2.032227 21.078979 7
-1.04303 -16.24707 -20.752808 7
-0.99707001 -21.216797 -15.041138 7
-1.005798 -21.348633 -14.9823 7
-1.025574 -21.554688 -14.978882 7
-1.027161 -21.603516 -14.934326 7
-1.035645 -21.696289 -14.924927 7
-1.038818 -21.791992 -14.835571 7
-1.045288 -21.87207 -14.814697 7
-1.061401 -22.017578 -14.841553 7
-1.078247 -22.169922 -14.871338 7
-1.086731 -22.263672 -14.859619 7
-1.098022 -22.376953 -14.861084 7
-0.82348597 -17.613281 -14.917847 7
-0.826599 -17.668945 -14.891846 7
-0.834167 -17.75 -14.888916 7
-0.834351 -17.788086 -14.84668 7
-0.839661 -17.856445 -14.831421 7
-0.84716803 -17.9375 -14.827881 7
-0.85394299 -18.015625 -14.819824 7
-0.85998499 -18.087891 -14.807861 7
-0.86383098 -18.147461 -14.784058 7
-0.87060499 -18.223633 -14.775513 7
-0.87664801 -18.296875 -14.762695 7
-0.88781703 -18.400391 -14.776489 7
-0.89630097 -18.504883 -14.789917 7
-0.90380901 -18.586914 -14.783813 7
-0.90765399 -18.647461 -14.758545 7
-0.91509998 -18.727539 -14.752075 7
-0.924133 -18.819336 -14.752563 7
-1.20752 -23.429688 -11.7854 7
-1.220947 -23.552734 -11.780396 7
-0.081909001 -2.2294919 18.926636 7
-0.090026997 -2.1962891 18.995361 7
-0.085510001 -2.1503911 18.966187 7
-0.080261 -2.1044919 18.930908 7
-0.083922997 -2.0654299 18.964966 7
-0.089905001 -2.030273 19.016235 7
-0.087585002 -1.987305 19.003906 7
-0.087523997 -1.945312 19.008545 7
-0.73852497 -15.15625 -14.717041 7
-0.74255401 -15.213867 -14.702026 7
-0.74658197 -15.271484 -14.686646 7
-0.75140399 -15.333984 -14.675415 7
-0.75164801 -15.37207 -14.638794 7
-0.75866699 -15.445312 -14.639771 7
-0.76501501 -15.515625 -14.636353 7
-0.77160603 -15.623047 -14.595215 7
-1.091431 -20.84082 -11.675171 7
-1.093201 -20.881836 -11.631714 7
-1.107361 -21.001953 -11.636841 7
-1.119141 -21.106445 -11.632324 7
-0.084167004 -2.2314451 17.997803 7
-0.084899999 -2.1923831 18.008911 7
-0.093506001 -2.1230471 18.082886 7
-0.084045 -2.0751951 18.019043 7
-0.090942003 -2.0029299 18.080688 7
-0.098021999 -1.96875 18.137573 7
-0.096436001 -1.9287111 18.130859 7
-0.96453899 -18.243164 -11.622192 7
-0.96630901 -18.282227 -11.585449 7
-0.97796601 -18.380859 -11.588623 7
-0.98144501 -18.429688 -11.557983 7
-0.99383497 -18.533203 -11.563599 7
-0.17865001 -5.4091802 16.958008 7
-0.079285003 -2.2167971 17.05957 7
-0.080077998 -2.1816411 17.070801 7
-0.083374001 -2.1464839 17.098999 7
-0.087462999 -2.1142581 17.133057 7
-0.089111 -2.079102 17.14978 7
-0.078185998 -2.03125 17.080078 7
-0.084839001 -2 17.130981 7
-0.086487003 -1.96582 17.147461 7
-0.093018003 -1.9326169 17.197998 7
-0.88885498 -16.326172 -11.531616 7
-0.89587402 -16.393555 -11.521362 7
-0.077575997 -2.214844 16.275024 7
-0.066161998 -2.167969 16.205933 7
-0.073119998 -2.140625 16.25708 7
-0.072205 -2.1044919 16.25647 7
-0.081786998 -2.079102 16.324829 7
-0.080871999 -2.042969 16.324097 7
-0.071227998 -1.999023 16.266113 7
-0.075499997 -1.966797 16.299438 7
-0.078125 -1.93457 16.321655 7
-0.072448999 -2.233398 15.49292 7
-0.074280001 -2.2011721 15.509644 7
-0.068726003 -2.1621089 15.480835 7
-0.064087003 -2.125 15.457397 7
-0.069580004 -2.097656 15.49707 7
-0.073242001 -2.0683589 15.525024 7
-0.072265998 -2.0341799 15.524414 7
-0.070373997 -1.998047 15.517822 7
-0.065734997 -1.960938 15.494141 7
-0.069397002 -1.931641 15.521729 7
-0.057921998 -1.916016 12.478516 7
-0.055542 -1.862305 12.476685 7
-0.050903 -1.832031 12.458496 7
-0.052062999 -1.806641 12.46875 7
-0.052002002 -1.780273 12.473145 7
-0.053833 -1.904297 11.970825 7
-0.063415997 -1.887695 12.02063 7
-0.057372998 -1.857422 11.99707 7
-0.057372998 -1.832031 12.001587 7
-0.054931998 -1.8056639 11.994873 7
-0.056090999 -1.78125 12.005005 7
-0.057250999 -1.7568361 12.014771 7
-0.057250999 -1.732422 12.019165 7
-0.064392 -1.712891 12.057373 7
-0.064392 -1.688477 12.061646 7
-0.065552004 -1.662109 12.071533 7
-0.065552004 -1.637695 12.075562 7
-0.063049003 -1.610352 12.068359 7
-0.054320998 -1.949219 11.524902 7
-0.046813998 -1.917969 11.496216 7
-0.050537001 -1.8974611 11.5177 7
-0.040649001 -1.9169919 11.00293 7
-0.040587999 -1.894531 11.007568 7
-0.040587999 -1.87207 11.012207 7
-0.043152001 -1.851562 11.028076 7
-0.049621999 -1.833984 11.060669 7
-0.049621999 -1.811523 11.065186 7
-0.044372998 -1.785156 11.047241 7
-0.040465999 -1.757812 11.034668 7
-0.040405001 -1.735352 11.03894 7
-0.045593001 -1.716797 11.065796 7
-0.045531999 -1.6943361 11.069946 7
-0.0495 -1.674805 11.090942 7
-0.052062999 -1.654297 11.106445 7
-0.052002002 -1.630859 11.110474 7
-0.050659001 -1.606445 11.108765 7
-0.051146999 -1.916016 10.652344 7
-0.05249 -1.894531 10.662598 7
-0.052429002 -1.873047 10.667236 7
-0.053771999 -1.8525389 10.677368 7
-0.063231997 -1.8388669 10.721191 7
-0.059142999 -1.813477 10.708862 7
-0.055054002 -1.7880861 10.696655 7
-0.050964002 -1.761719 10.68396 7
-0.053649999 -1.7431639 10.699707 7
-0.057677999 -1.7236331 10.720581 7
-0.056334998 -1.701172 10.71936 7
-0.057617001 -1.6806639 10.729248 7
-0.067078002 -1.6650389 10.772705 7
-0.061646 -1.639648 10.754272 7
-0.062927 -1.6181639 10.763916 7
-0.155884 -5.110352 9.3444824 7
-0.15722699 -5.094727 9.3613281 7
-0.15722699 -5.0751948 9.3735352 7
-0.160034 -5.061523 9.3953857 7
-0.16149899 -5.046875 9.4124756 7
-0.168457 -5.0419922 9.4483643 7
-0.169861 -5.0263672 9.4655762 7
-0.174072 -5.016602 9.4920654 7
-0.167053 -4.9824219 9.4799805 7
-0.165649 -4.9599609 9.4869385 7
-0.16284201 -4.9355469 9.4892578 7
-0.159973 -4.9101558 9.491333 7
-0.16558801 -4.9033198 9.5227051 7
-0.161377 -4.875 9.5198975 7
-0.155762 -4.84375 9.5119629 7
-0.155762 -4.8251948 9.5236816 7
-0.041382 -1.9111331 10.214355 7
-0.041382 -1.890625 10.218872 7
-0.041320998 -1.8701169 10.223633 7
-0.044128001 -1.851562 10.23938 7
-0.164124 -5.117188 8.9569092 7
-0.156799 -5.0830078 8.9456787 7
-0.036986999 -1.917969 9.8533936 7
-0.035461001 -1.896484 9.8527832 7
-0.038391002 -1.878906 9.8682861 7
-0.036926001 -1.857422 9.8674316 7
-0.036926001 -1.837891 9.8719482 7
-0.039795 -1.8193361 9.8876953 7
-0.045593001 -1.8037111 9.9141846 7
-0.047058001 -1.785156 9.9241943 7
-0.044066999 -1.762695 9.9174805 7
-0.041198999 -1.7412111 9.9107666 7
-0.039673001 -1.719727 9.9093018 7
-0.038208 -1.6982419 9.9082031 7
-0.041138001 -1.6806639 9.9234619 7
-0.044006001 -1.662109 9.9385986 7
-0.049805 -1.646484 9.9650879 7
-0.049743999 -1.625977 9.9691162 7
-0.043945 -1.6025389 9.9509277 7
-0.17077599 -5.1191411 8.5460215 7
-0.16320799 -5.085938 8.5352783 7
-0.160217 -5.0625 8.5383301 7
-0.15411399 -5.032227 8.5318604 7
-0.158691 -5.0253911 8.5581055 7
-0.167786 -5.0273442 8.5979004 7
-0.16320799 -5.000977 8.5960693 7
-0.17077599 -5 8.6312256 7
-0.175354 -4.992188 8.6572266 7
-0.173767 -4.9716802 8.6645508 7
-0.16473401 -4.9355469 8.6484385 7
-0.16626 -4.921875 8.6647949 7
-0.16168199 -4.8955078 8.6628418 7
-0.17077599 -4.8955078 8.7026367 7
-0.166199 -4.8710942 8.7004395 7
-0.16168199 -4.84375 8.6977539 7
-0.166199 -4.835938 8.7235107 7
-0.16473401 -4.8154302 8.7304688 7
-0.041992001 -1.90332 9.5251455 7
-0.038940001 -1.880859 9.5187988 7
-0.041931 -1.865234 9.5344238 7
-0.044983 -1.8486331 9.5499268 7
-0.041931 -1.826172 9.5437012 7
-0.037354 -1.8037111 9.5314941 7
-0.043396 -1.7900389 9.5579834 7
-0.037292 -1.764648 9.5402832 7
-0.044861 -1.750977 9.5722656 7
-0.047851998 -1.734375 9.5876455 7
-0.040344 -1.710938 9.564209 7
-0.044799998 -1.693359 9.5849609 7
-0.046326 -1.674805 9.5948486 7
-0.041747998 -1.652344 9.5822754 7
-0.043212999 -1.6337889 9.5919189 7
-0.046204001 -1.617188 9.6069336 7
-0.059813999 -1.608398 9.6610107 7
-0.159668 -5.0957031 8.137207 7
-0.153442 -5.0654302 8.1314697 7
-0.158142 -5.0595698 8.1569824 7
-0.153442 -5.0332031 8.1556396 7
-0.15496799 -5.0205078 8.1723633 7
-0.159668 -5.0136719 8.197998 7
-0.161255 -5.0019531 8.2145996 7
-0.159668 -4.9824219 8.2220459 7
-0.170654 -4.9726558 8.2779541 7
-0.16442899 -4.9443359 8.2716064 7
-0.164368 -4.9267578 8.2833252 7
-0.161255 -4.9042969 8.2858887 7
-0.161255 -4.8886719 8.2979736 7
-0.159668 -4.8681641 8.3049316 7
-0.15496799 -4.8417969 8.3029795 7
-0.153381 -4.8222661 8.3098145 7
-0.158142 -4.8164058 8.3354492 7
-0.040894002 -1.910156 9.2252197 7
-0.037781 -1.889648 9.2189941 7
-0.031493999 -1.865234 9.2015381 7
-0.039306998 -1.853516 9.2337646 7
-0.036194 -1.8330081 9.2272949 7
-0.034545999 -1.8125 9.2261963 7
-0.036072001 -1.795898 9.2362061 7
-0.042358 -1.783203 9.2628174 7
-0.042358 -1.764648 9.2672119 7
-0.040771 -1.744141 9.2658691 7
-0.04541 -1.7294919 9.2867432 7
-0.032898001 -1.700195 9.2469482 7
-0.037597999 -1.686523 9.2677002 7
-0.037537001 -1.667969 9.2718506 7
-0.039124001 -1.650391 9.2814941 7
-0.037537001 -1.630859 9.2801514 7
-0.043761998 -1.6162111 9.3059082 7
-0.053100999 -1.6044919 9.3432617 7
-0.036621001 -1.919922 8.8828115 7
-0.033386 -1.900391 8.8765869 7
-0.026854999 -1.876953 8.859375 7
-0.03009 -1.862305 8.8748779 7
-0.031738002 -1.84668 8.8850098 7
-0.033325002 -1.829102 8.8948975 7
-0.031677 -1.793945 8.8984385 7
-0.038146999 -1.780273 8.9248047 7
-0.042969 -1.766602 8.9456787 7
-0.033202998 -1.7236331 8.9213867 7
-0.02832 -1.702148 8.9091797 7
-0.034790002 -1.688477 8.9353027 7
-0.034790002 -1.65332 8.9437256 7
-0.033142 -1.634766 8.9423828 7
-0.036377002 -1.619141 8.9571533 7
-0.038268998 -1.9169919 8.5809326 7
-0.034912001 -1.896484 8.5748291 7
-0.031493999 -1.875977 8.5687256 7
-0.026489001 -1.8544919 8.5570068 7
-0.031493999 -1.842773 8.5777588 7
-0.031493999 -1.825195 8.5823975 7
-0.031433001 -1.808594 8.586792 7
-0.028076001 -1.789062 8.5805664 7
-0.033142 -1.7763669 8.6011963 7
-0.034729 -1.759766 8.6109619 7
-0.038086001 -1.7451169 8.6260986 7
-0.039795 -1.7294919 8.6359863 7
-0.043152001 -1.71582 8.6512451 7
-0.039733998 -1.695312 8.6444092 7
-0.031311002 -1.672852 8.6212158 7
-0.032958999 -1.657227 8.6309814 7
-0.03125 -1.638672 8.6295166 7
-0.03125 -1.621094 8.6335449 7
-0.032898001 -1.6044919 8.6429443 7
-0.029053001 -1.902344 8.2709961 7
-0.037719999 -1.893555 8.3026123 7
-0.039489999 -1.8798831 8.3128662 7
-0.030762 -1.8544919 8.2902832 7
-0.028991999 -1.8369139 8.2896729 7
-0.032471001 -1.824219 8.3049316 7
-0.023743 -1.800781 8.2823486 7
-0.028930999 -1.789062 8.3029795 7
-0.028930999 -1.7724611 8.307373 7
-0.037597999 -1.763672 8.3388672 7
-0.039368 -1.748047 8.3487549 7
-0.039368 -1.732422 8.3529053 7
-0.032349002 -1.7099611 8.3355713 7
-0.039306998 -1.699219 8.3614502 7
-0.027100001 -1.672852 8.3276367 7
-0.032349002 -1.6611331 8.3480225 7
-0.028809 -1.641602 8.3414307 7
-0.032288 -1.62793 8.3562012 7
-0.032288 -1.612305 8.3603516 7
-0.033691 -1.916016 8.0178223 7
-0.031860001 -1.8994139 8.0172119 7
-0.044434 -1.894531 8.0593262 7
-0.040833 -1.875 8.0531006 7
-0.033629999 -1.853516 8.0362549 7
-0.039000999 -1.842773 8.0570068 7
-0.033629999 -1.8232419 8.0454102 7
-0.042603001 -1.813477 8.0766602 7
-0.033569001 -1.791016 8.0543213 7
-0.040771 -1.78125 8.0802002 7
-0.040709998 -1.765625 8.0847168 7
-0.038879 -1.748047 8.0836182 7
-0.040709998 -1.734375 8.0933838 7
-0.035278 -1.7138669 8.0812988 7
-0.04425 -1.705078 8.1126709 7
-0.042479999 -1.688477 8.1114502 7
-0.031677 -1.664062 8.083252 7
-0.042479999 -1.657227 8.1196289 7
-0.04425 -1.641602 8.1293945 7
-0.044188999 -1.625977 8.1333008 7
-0.038757 -1.606445 8.1212158 7
-0.142874 -2.0914409 16.047279 7
-0.112686 -2.0378621 11.831102 7
-0.131751 -1.749935 12.089298 7
-0.078349002 -1.763829 10.786815 7
-0.132863 -5.0434189 8.8478222 7
-0.042311002 -1.778886 9.8459415 7
-0.065334998 -1.773054 9.0701351 7
-0.036545999 -1.774024 8.4763317 7
-0.045628998 -1.606039 8.5986614 7
-0.020863 -1.791155 8.0303125 7
-0.025804 -1.6331559 8.1259995 7
-0.0049020001 -1.795468 7.6332941 7
-0.034386002 -1.6647739 7.373136 7
0.047237001 -0.318914 4.1085138 7
0.038444001 -0.316522 4.1425748 7
0.079130001 -0.28278199 3.9664891 7
0.05164 -0.293246 3.982806 7
0.074267998 -0.28577 3.9978409 7
0.056912001 -0.28890699 4.0126991 7
0.042481001 -0.29806799 4.0300789 7
0.056575999 -0.28460699 4.0437508 7
0.041786999 -0.29184601 4.0614882 7
0.061037999 -0.27491799 4.0762062 7
0.051302999 -0.278038 4.0909071 7
0.052299999 -0.275233 4.1082592 7
0.066095002 -0.25897601 4.1198192 7
0.039763998 -0.26561701 4.1387591 7
0.056219 -0.25460699 4.1504622 7
-0.083861999 -2.1141319 19.556068 7
-0.146936 -5.384232 16.492371 7
-0.063534997 -1.941362 17.015888 7
-0.120239 -1.775092 14.595585 7
-0.035277002 -1.9411089 11.738544 7
-0.013482 -1.846023 10.87322 7
-0.205504 -5.0202951 9.5012989 7
-0.058722001 -1.758714 10.091356 7
-0.17308 -4.9401202 8.7214565 7
-0.029960999 -1.689563 9.4595394 7
-0.14411099 -4.8093548 8.0958729 7
-0.020440999 -1.877732 8.9551201 7
-0.01187 -1.635547 8.9668512 7
-0.048195001 -1.8016239 8.4617119 7
-0.033766001 -1.749055 8.1162424 7
-0.0046089999 -1.834059 7.473146 7
-0.0080350004 -1.660707 7.535439 7
