# .PCD v0.7 - Point Cloud Data file format
VERSION 0.7
FIELDS x y z intensity
SIZE 4 4 4 4
TYPE F F F F
COUNT 1 1 1 1
WIDTH 580
HEIGHT 1
VIEWPOINT 0 0 0 1 0 0 0
POINTS 580
DATA ascii
1.047852 33.415039 -16.388794 7
1.0495 33.331055 -16.445557 7
1.051514 33.237305 -16.495972 7
1.0537111 33.137695 -16.543701 7
1.055786 33.043945 -16.59375 7
0.971008 34.763672 -19.628662 7
0.96972698 34.758789 -19.738159 7
0.97192401 31.455078 -16.399658 7
0.97607398 31.30957 -16.415527 7
0.976318 31.267578 -16.48938 7
0.98168898 31.09375 -16.486572 7
0.982544 31.03418 -16.551025 7
0.98376501 30.966797 -16.609497 7
0.89636201 29.436523 -16.377808 7
0.89373797 29.458984 -16.487061 7
0.89575201 29.375 -16.53186 7
0.898193 29.283203 -16.570312 7
0.90167201 29.166016 -16.593018 7
0.90478498 29.058594 -16.621338 7
0.908081 28.945312 -16.646118 7
0.90783697 28.912109 -16.720825 7
0.90545702 28.927734 -16.826782 7
-0.220459 -6.2402339 53.280029 7
-0.26001 -6.21875 54.148682 7
0.82800299 27.482422 -16.639771 7
-0.252258 -6.0214839 46.090942 7
-0.28631601 -5.9980469 46.731201 7
-0.57397503 0.17089801 -54.081421 7
-0.59570301 0.039062001 -54.508423 7
-0.55779999 0.119141 -51.270508 7
-0.56317103 -0.0068359999 -51.375854 7
-0.19396999 -5.811523 38.56897 7
-0.239014 -5.7431641 39.301392 7
0.637573 21.631836 -13.812378 7
0.63842797 21.585938 -13.856567 7
0.64276099 21.492188 -13.866333 7
0.64526403 21.422852 -13.893066 7
0.648193 21.347656 -13.915894 7
-0.54956102 4.0107422 -46.688232 7
0.57519501 20.164062 -13.800537 7
0.57678199 20.108398 -13.83374 7
0.578857 20.048828 -13.863403 7
0.58050501 19.993164 -13.896362 7
0.58288598 19.929688 -13.921631 7
0.53515601 18.694336 -13.972534 7
0.53894001 18.618164 -13.982544 7
0.54260302 18.541016 -13.992554 7
0.54046601 18.53125 -14.05896 7
0.44854701 17.859375 -16.908813 7
0.44909701 17.811523 -16.946899 7
-0.57214397 -0.19043 -36.858887 7
-0.56030297 -0.46289101 -36.692505 7
-0.70550501 -3.636719 -37.342407 7
-0.166016 -5.671875 30.819214 7
-0.176514 -5.6279302 30.9646 7
-0.197998 -5.6074219 31.247559 7
0.38134801 16.358398 -16.963379 7
0.42352301 16.286133 -13.895752 7
0.42321801 16.25293 -13.93811 7
0.42517099 16.199219 -13.960205 7
0.42712399 16.145508 -13.982056 7
0.43231201 16.0625 -13.975342 7
0.43243399 16.025391 -14.013062 7
0.434448 15.972656 -14.034424 7
0.43463099 15.935547 -14.072144 7
0.320068 15.030273 -16.981567 7
0.321594 14.975586 -17.003296 7
0.31945801 14.949219 -17.061157 7
0.325073 14.862305 -17.041626 7
0.31616199 14.890625 -17.167969 7
0.31579599 14.849609 -17.207642 7
-0.03833 -2.199219 26.108643 7
-0.029906999 -2.132812 26.02124 7
-0.029846 -2.074219 26.026245 7
-0.038695998 -2.0244141 26.130127 7
-0.035521999 -1.962891 26.099976 7
0.377808 14.703125 -14.005249 7
0.37744099 14.669922 -14.044312 7
0.381042 14.605469 -14.048828 7
0.38415501 14.544922 -14.057617 7
0.38574201 14.496094 -14.078735 7
0.387817 14.443359 -14.095703 7
0.38848901 14.402344 -14.125488 7
0.25988799 13.422852 -16.983765 7
0.25903299 13.385742 -17.024658 7
0.26062 13.332031 -17.042114 7
0.260315 13.291016 -17.078003 7
0.262878 13.230469 -17.085449 7
0.259583 13.208984 -17.149902 7
0.25531 13.194336 -17.223999 7
-0.036743 -2.2236331 24.524902 7
-0.041138001 -2.1738279 24.576782 7
-0.051697001 -2.128906 24.692261 7
-0.037659001 -2.0605471 24.552246 7
-0.043212999 -2.011719 24.615234 7
-0.054320998 -1.96582 24.73645 7
0.32769799 13.398438 -14.035767 7
0.33050501 13.341797 -14.045044 7
0.33062699 13.304688 -14.076538 7
0.33178699 13.260742 -14.098755 7
0.33245799 13.21875 -14.125488 7
0.33471701 13.167969 -14.138672 7
0.33374 13.137695 -14.178589 7
0.201538 11.930664 -16.963623 7
0.202209 11.883789 -16.986572 7
0.201782 11.842773 -17.019653 7
0.201904 11.798828 -17.047241 7
0.20043901 11.763672 -17.089844 7
0.200073 11.722656 -17.122314 7
0.196045 11.703125 -17.189575 7
0.19769301 11.649414 -17.202026 7
-1.9721071 -34.293945 -21.649902 7
-1.97937 -34.40625 -21.6073 7
-1.989868 -34.597656 -21.498169 7
-1.998291 -34.719727 -21.460693 7
-0.17865001 -5.4550781 23.910278 7
-0.040222 -2.1923831 23.128906 7
-0.044372998 -2.144531 23.174683 7
-0.052673001 -2.1005859 23.26123 7
-0.046082001 -2.042969 23.202515 7
-0.042479999 -1.988281 23.172729 7
-0.047118999 -1.94043 23.223877 7
0.27728301 12.081055 -14.083618 7
0.28076199 12.021484 -14.084229 7
0.281982 11.977539 -14.103027 7
0.28326401 11.933594 -14.12207 7
0.28448501 11.888672 -14.140625 7
0.286255 11.84082 -14.154663 7
0.284729 11.814453 -14.196411 7
0.2854 11.773438 -14.219482 7
0.283813 11.746094 -14.261108 7
0.27948001 11.735352 -14.326294 7
0.28295901 11.677734 -14.325684 7
-1.5880131 -27.24707 -21.27002 7
-1.624207 -27.560547 -21.419922 7
-1.618835 -27.573242 -21.321289 7
-1.623413 -27.65918 -21.281494 7
-1.840027 -30.086914 -21.417236 7
-1.838379 -30.126953 -21.335327 7
-1.898315 -30.785156 -21.376099 7
-1.507751 -28.526367 -18.188599 7
-1.510437 -28.59082 -18.133789 7
-1.524963 -28.749023 -18.140869 7
-1.531311 -28.842773 -18.105103 7
-1.547729 -29.013672 -18.120728 7
-1.534973 -30.435547 -15.411621 7
-1.541321 -30.526367 -15.36731 7
-1.559631 -30.712891 -15.375122 7
-1.564819 -30.793945 -15.324463 7
-1.57373 -30.905273 -15.289795 7
-1.590759 -31.083008 -15.290283 7
-1.597839 -31.178711 -15.246582 7
-0.053649999 -2.2255859 21.991455 7
-0.051146999 -2.1748049 21.973755 7
-0.057312001 -2.0839839 22.042114 7
-0.063538 -2.039062 22.10498 7
-0.055969 -1.985352 22.040405 7
-0.054687999 -1.935547 22.033691 7
0.220093 11.007812 -14.095459 7
0.223206 10.955078 -14.097534 7
0.22448701 10.911133 -14.113647 7
0.224609 10.874023 -14.13916 7
0.225952 10.830078 -14.155029 7
0.229004 10.776367 -14.156372 7
0.227356 10.748047 -14.196045 7
0.22979701 10.697266 -14.202026 7
0.22930899 10.663086 -14.231934 7
0.23120099 10.616211 -14.242554 7
0.23016401 10.584961 -14.2771 7
-1.4505 -22.895508 -21.227539 7
-1.4569089 -23.039062 -21.155029 7
-1.4761961 -23.213867 -21.217407 7
-1.486938 -23.333008 -21.227051 7
-1.499023 -23.462891 -21.244019 7
-1.508057 -23.623047 -21.184326 7
-1.527344 -23.798828 -21.244141 7
-1.53241 -23.93457 -21.158691 7
-1.256348 -23.3125 -18.114502 7
-1.282288 -25.53125 -15.359497 7
-1.289062 -25.619141 -15.330322 7
-1.2965699 -25.711914 -15.304321 7
-1.2987061 -25.766602 -15.252441 7
-1.3128051 -25.908203 -15.256958 7
-1.320251 -26.001953 -15.229736 7
-1.3323359 -26.128906 -15.223755 7
-1.34375 -26.250977 -15.214355 7
-1.348572 -26.325195 -15.173584 7
-1.3573 -26.427734 -15.150879 7
-1.372131 -26.576172 -15.155396 7
-1.378906 -26.664062 -15.122559 7
-1.392944 -26.806641 -15.123047 7
-0.058410998 -2.050781 20.8302 7
-0.052979 -1.90918 20.798584 7
-1.1359251 -16.683594 -21.0271 7
-1.147217 -16.792969 -21.06189 7
-1.157776 -16.896484 -21.091187 7
-1.096985 -21.787109 -15.23938 7
-1.118103 -21.96582 -15.29248 7
-1.112671 -21.967773 -15.212524 7
-1.1246949 -22.085938 -15.219238 7
-1.124878 -22.125 -15.166748 7
-1.141113 -22.271484 -15.193604 7
-1.14679 -22.347656 -15.168335 7
-1.146973 -22.386719 -15.115112 7
-1.16394 -22.539062 -15.144165 7
-1.171021 -22.625 -15.124634 7
-1.1726069 -22.671875 -15.077759 7
-1.183228 -22.78125 -15.074585 7
-1.189636 -22.862305 -15.050903 7
-1.199585 -22.967773 -15.043701 7
-1.210938 -23.083008 -15.042725 7
-1.227844 -23.234375 -15.068115 7
-1.230103 -23.288086 -15.022827 7
-0.067566 -1.951172 19.869385 7
-0.90667701 -18.006836 -15.132324 7
-0.91052198 -18.067383 -15.109009 7
-0.91729701 -18.145508 -15.100952 7
-0.92040998 -18.201172 -15.073364 7
-0.92938203 -18.291016 -15.076538 7
-0.93542498 -18.364258 -15.063843 7
-0.94000202 -18.429688 -15.043091 7
-0.94976801 -18.524414 -15.049316 7
-0.95806903 -18.611328 -15.047241 7
-0.96630901 -18.698242 -15.045044 7
-0.97454798 -18.785156 -15.042358 7
-0.982849 -18.871094 -15.039551 7
-0.98962402 -18.950195 -15.028564 7
-0.99646002 -19.02832 -15.017578 7
-1.003235 -19.105469 -15.006104 7
-1.007812 -19.170898 -14.983154 7
-1.010193 -19.223633 -14.948853 7
-1.019897 -19.319336 -14.951782 7
-1.025269 -19.388672 -14.931763 7
-1.029846 -19.454102 -14.907837 7
-1.03363 -19.513672 -14.880005 7
-0.056763001 -2.202148 18.723999 7
-0.058228001 -2.1630859 18.740967 7
-0.055236999 -2.1191411 18.723145 7
-0.058166999 -2.0810549 18.751343 7
-0.048462 -2.03125 18.681396 7
-0.052855998 -1.994141 18.720947 7
-0.061035 -1.960938 18.789307 7
-0.78363001 -15.060547 -15.006958 7
-0.78924602 -15.125977 -15.000732 7
-0.79327399 -15.183594 -14.986084 7
-0.79888898 -15.250977 -14.97937 7
-0.80365002 -15.3125 -14.968384 7
-0.80920398 -15.378906 -14.961426 7
-0.81561297 -15.450195 -14.958374 7
-0.81732202 -15.495117 -14.929688 7
-0.82372999 -15.566406 -14.926392 7
-0.82617199 -15.617188 -14.901855 7
-0.83404499 -15.695312 -14.906372 7
-0.84045398 -15.765625 -14.9021 7
-0.846008 -15.832031 -14.893799 7
-0.85003698 -15.890625 -14.876587 7
-0.853333 -15.945312 -14.855347 7
-0.058166999 -1.855469 17.846558 7
-0.062073 -1.818359 17.879883 7
-0.066771999 -1.783203 17.918823 7
-0.19000199 -5.4355469 17.03418 7
-0.190735 -5.3632808 17.06543 7
-0.185791 -5.3154302 17.04541 7
-0.17077599 -5.2451172 16.959229 7
-0.17157 -5.2099609 16.977295 7
-0.182373 -5.1972661 17.061401 7
-0.187317 -5.170898 17.106812 7
-0.18652301 -5.1318359 17.11377 7
-0.060547002 -1.94043 16.962402 7
-0.052979 -1.824219 16.924561 7
-0.18774401 -5.4121089 16.172729 7
-0.18859901 -5.3798828 16.190918 7
-0.18335 -5.3330078 16.171265 7
-0.168457 -5.264648 16.091431 7
-0.162292 -5.2158198 16.065796 7
-0.16491701 -5.186523 16.094604 7
-0.167542 -5.1582031 16.123535 7
-0.179749 -5.1494141 16.212402 7
-0.18585201 -5.1279302 16.263062 7
-0.045715 -1.916016 14.71936 7
-0.043761998 -1.8837889 14.712402 7
-0.039917 -1.8505861 14.694336 7
-0.038940001 -1.818359 14.693115 7
-0.027404999 -1.7763669 14.628784 7
-0.039856002 -1.7236331 14.712036 7
-0.037415002 -1.90625 14.014526 7
-0.040405001 -1.878906 14.036377 7
-0.039368 -1.8486331 14.035278 7
-0.046386998 -1.8232419 14.079712 7
-0.044372998 -1.792969 14.072632 7
-0.036254998 -1.755859 14.031372 7
-0.038268998 -1.7275389 14.046997 7
-0.040222 -1.699219 14.062866 7
-0.042236 -1.670898 14.078491 7
-0.043945 -1.9150389 13.489502 7
-0.040709998 -1.8837889 13.477173 7
-0.040709998 -1.8544919 13.481689 7
-0.039611999 -1.825195 13.480591 7
-0.051208001 -1.8056639 13.547729 7
-0.043823 -1.771484 13.512207 7
-0.041687001 -1.7412111 13.505005 7
-0.040587999 -1.7119139 13.503662 7
-0.043761998 -1.685547 13.525024 7
-0.044799998 -1.658203 13.534912 7
-0.047913 -1.630859 13.556152 7
-0.047913 -1.6025389 13.560303 7
-0.034851 -1.8974611 12.856567 7
-0.037048001 -1.87207 12.872803 7
-0.037048001 -1.844727 12.877441 7
-0.038086001 -1.791016 12.891846 7
-0.040282998 -1.765625 12.907593 7
-0.041320998 -1.7392581 12.917603 7
-0.033569001 -1.705078 12.88208 7
-0.035767 -1.679688 12.897461 7
-0.033507999 -1.6513669 12.890381 7
-0.039000999 -1.601562 12.92688 7
-0.036621001 -1.896484 12.370483 7
-0.033142 -1.8681639 12.358154 7
-0.034240998 -1.842773 12.368408 7
-0.035399999 -1.818359 12.37854 7
-0.034240998 -1.791016 12.377319 7
-0.042296998 -1.771484 12.421387 7
-0.044495001 -1.748047 12.437134 7
-0.03418 -1.712891 12.390381 7
-0.033020001 -1.686523 12.388916 7
-0.035278 -1.662109 12.404419 7
-0.037597999 -1.637695 12.419922 7
-0.039856002 -1.6142581 12.435059 7
-0.040709998 -1.916016 11.903442 7
-0.039551001 -1.890625 11.902466 7
-0.032349002 -1.861328 11.873291 7
-0.037108999 -1.839844 11.900391 7
-0.037048001 -1.814453 11.905029 7
-0.037048001 -1.7900389 11.909424 7
-0.044188999 -1.7705081 11.947754 7
-0.040587999 -1.7431639 11.934937 7
-0.044188999 -1.72168 11.956421 7
-0.033386 -1.6875 11.909546 7
-0.033386 -1.6630861 11.913818 7
-0.036926001 -1.641602 11.934937 7
-0.036865 -1.615234 11.938843 7
-0.031067001 -1.878906 11.427002 7
-0.031067001 -1.832031 11.436157 7
-0.033507999 -1.787109 11.456177 7
-0.039733998 -1.768555 11.488647 7
-0.039673001 -1.744141 11.493164 7
-0.035889 -1.669922 11.488892 7
-0.031615999 -1.910156 10.963135 7
-0.034240998 -1.889648 10.979004 7
-0.031615999 -1.8642581 10.972412 7
-0.023804 -1.8349611 10.943237 7
-0.022461001 -1.810547 10.942139 7
-0.025024001 -1.791016 10.957764 7
-0.025085 -1.768555 10.962402 7
-0.030212 -1.749023 10.989014 7
-0.035399999 -1.731445 11.015991 7
-0.035399999 -1.708984 11.02002 7
-0.02887 -1.6806639 10.996094 7
-0.023682 -1.655273 10.977783 7
-0.024901999 -1.632812 10.987427 7
-0.028809 -1.612305 11.008423 7
-0.18042 -5.1035161 9.9482422 7
-0.173645 -5.070312 9.9361572 7
-0.16687 -5.0361328 9.9238281 7
-0.17230199 -5.0273442 9.9554443 7
-0.16955601 -5.000977 9.9576416 7
-0.172241 -4.9863281 9.9793701 7
-0.176331 -4.9736328 10.006226 7
-0.183044 -4.96875 10.042847 7
-0.17901599 -4.9394531 10.040039 7
-0.176331 -4.914062 10.04187 7
-0.172241 -4.8847661 10.03894 7
-0.16888399 -4.859375 10.040527 7
-0.167542 -4.835938 10.047363 7
-0.16888399 -4.8173828 10.063965 7
-0.040465999 -1.90625 10.607178 7
-0.043152001 -1.887695 10.623047 7
-0.043212999 -1.865234 10.627441 7
-0.035034001 -1.8369139 10.598633 7
-0.036377002 -1.81543 10.608765 7
-0.036377002 -1.793945 10.613159 7
-0.036316 -1.7724611 10.617554 7
-0.039062001 -1.75293 10.632935 7
-0.047118999 -1.736328 10.671021 7
-0.044372998 -1.7119139 10.664062 7
-0.043030001 -1.689453 10.66272 7
-0.036254998 -1.664062 10.638794 7
-0.039000999 -1.643555 10.654175 7
-0.038940001 -1.621094 10.658081 7
-0.040282998 -1.6005861 10.667847 7
-0.177063 -5.1191411 9.4395752 7
-0.169983 -5.0839839 9.4279795 7
-0.164307 -5.0537109 9.4207764 7
-0.158691 -5.0029302 9.4256592 7
-0.158691 -4.984375 9.4377441 7
-0.16149899 -4.9716802 9.4594727 7
-0.16009501 -4.9492192 9.4666748 7
-0.16571 -4.9414058 9.4976807 7
-0.171326 -4.9335942 9.5291748 7
-0.171326 -4.9150391 9.5410156 7
-0.164307 -4.8623052 9.5400391 7
-0.16284201 -4.8388672 9.5469971 7
-0.161438 -4.8173828 9.5537109 7
-0.039917 -1.90918 10.207886 7
-0.035705999 -1.8857419 10.195801 7
-0.039856002 -1.8681639 10.217285 7
-0.037048001 -1.844727 10.210693 7
-0.030029001 -1.818359 10.187378 7
-0.025818 -1.794922 10.175049 7
-0.025757 -1.7744139 10.179565 7
-0.028564001 -1.7548831 10.194946 7
-0.027161 -1.733398 10.19397 7
-0.038391002 -1.72168 10.242676 7
-0.039733998 -1.701172 10.252563 7
-0.035521999 -1.677734 10.239868 7
-0.032715 -1.654297 10.233032 7
-0.027039001 -1.628906 10.2146 7
-0.028441999 -1.609375 10.224365 7
-0.173096 -5.1191411 8.9962158 7
-0.17163099 -5.0976558 9.0039062 7
-0.167236 -5.070312 9.0019531 7
-0.161377 -5.039062 8.9952393 7
-0.161377 -5.0205078 9.0072021 7
-0.156982 -4.9931641 9.005127 7
-0.158447 -4.9794922 9.0218506 7
-0.158447 -4.960938 9.0339355 7
-0.158447 -4.9423828 9.0456543 7
-0.16571 -4.9404302 9.0814209 7
-0.170105 -4.9306641 9.107666 7
-0.17157 -4.9150391 9.1243896 7
-0.16571 -4.8857422 9.1168213 7
-0.167236 -4.8701172 9.1334229 7
-0.164307 -4.8466802 9.135498 7
-0.15838601 -4.8154302 9.1279297 7
-0.172424 -5.1064448 8.5618896 7
-0.166382 -5.0761719 8.555542 7
-0.172424 -5.0722661 8.5861816 7
-0.164795 -5.0380859 8.5753174 7
-0.154236 -5 8.5550537 7
-0.154236 -4.9824219 8.5670166 7
-0.154175 -4.9658198 8.5789785 7
-0.161743 -4.9638672 8.6141357 7
-0.16027801 -4.9443359 8.62146 7
-0.15875199 -4.922852 8.62854 7
-0.172363 -4.9355469 8.6824951 7
-0.17541499 -4.9248052 8.7037354 7
-0.161743 -4.8779302 8.6733398 7
-0.163269 -4.8642578 8.6898193 7
-0.160217 -4.8408198 8.6920166 7
-0.169312 -4.842773 8.7319336 7
-0.16784699 -5.0957031 8.1706543 7
-0.174133 -5.09375 8.2009277 7
-0.16784699 -5.0644531 8.1951904 7
-0.16156 -5.0341802 8.189209 7
-0.158447 -5.0117192 8.1921387 7
-0.150574 -4.9785161 8.1815186 7
-0.152161 -4.9658198 8.1981201 7
-0.152161 -4.9492192 8.2098389 7
-0.15527301 -4.9404302 8.230957 7
-0.15685999 -4.9277339 8.2473145 7
-0.15685999 -4.9121089 8.2592773 7
-0.160034 -4.9023442 8.2800293 7
-0.163086 -4.8925781 8.3012695 7
-0.16626 -4.8818359 8.3221436 7
-0.163147 -4.859375 8.3248291 7
-0.160034 -4.8369141 8.3271484 7
-0.158447 -4.8173828 8.3342295 7
-0.15838601 -4.8007808 8.3455811 7
-0.026977999 -1.916016 9.1706543 7
-0.031677 -1.9013669 9.1917725 7
-0.034790002 -1.8857419 9.2073975 7
-0.026977999 -1.862305 9.1844482 7
-0.031615999 -1.84668 9.2056885 7
-0.026916999 -1.825195 9.1936045 7
-0.023804 -1.8037111 9.1871338 7
-0.023804 -1.785156 9.1915283 7
-0.019104 -1.763672 9.1795654 7
-0.026916999 -1.75 9.2113037 7
-0.030029001 -1.734375 9.2266846 7
-0.023743 -1.710938 9.2087402 7
-0.025269 -1.6943361 9.21875 7
-0.033142 -1.681641 9.2502441 7
-0.031555001 -1.662109 9.2490234 7
-0.031555001 -1.643555 9.2530518 7
-0.026854999 -1.62207 9.2408447 7
-0.026794 -1.6025389 9.2446289 7
-0.171387 -5.1191411 7.7468262 7
-0.171326 -5.1035161 7.7591548 7
-0.171326 -5.0878911 7.7714839 7
-0.17297401 -5.061523 7.8001709 7
-0.16973899 -5.0400391 7.8035889 7
-0.164856 -5.0136719 7.8023682 7
-0.161621 -4.992188 7.8056641 7
-0.153503 -4.9589839 7.795166 7
-0.156738 -4.9501948 7.8161621 7
-0.156738 -4.9355469 7.8282471 7
-0.16156 -4.9160161 7.8651118 7
-0.164795 -4.907227 7.8858638 7
-0.17297401 -4.9091802 7.920166 7
-0.166504 -4.8798828 7.91394 7
-0.16156 -4.8535161 7.9119868 7
-0.16320799 -4.8417969 7.9283452 7
-0.158325 -4.8164058 7.9265141 7
-0.021850999 -1.912109 8.2442627 7
-0.021850999 -1.894531 8.2489014 7
-0.018371999 -1.875977 8.2427979 7
-0.025390999 -1.867188 8.269043 7
-0.021850999 -1.8486331 8.2629395 7
-0.018371999 -1.829102 8.2564697 7
-0.020081 -1.814453 8.2664785 7
-0.020081 -1.797852 8.270752 7
-0.016602 -1.779297 8.2646484 7
-0.014893 -1.761719 8.2634277 7
-0.014832 -1.744141 8.2677002 7
-0.014832 -1.728516 8.2720947 7
-0.014832 -1.712891 8.2764893 7
-0.014832 -1.6962889 8.2805176 7
-0.020020001 -1.683594 8.3011475 7
-0.023499001 -1.669922 8.31604 7
-0.020020001 -1.6181639 8.3175049 7
-0.01825 -1.6005861 8.31604 7
-0.035339002 -1.917969 8.0223389 7
-0.028137 -1.896484 8.0057373 7
-0.028076001 -1.8798831 8.010376 7
-0.028137 -1.865234 8.0150146 7
-0.031738002 -1.8525389 8.0302734 7
-0.028076001 -1.833984 8.0241699 7
-0.028076001 -1.8173831 8.0285645 7
-0.020873999 -1.795898 8.0115967 7
-0.024475001 -1.78418 8.0268555 7
-0.028076001 -1.771484 8.0419922 7
-0.029846 -1.755859 8.0515137 7
-0.029846 -1.740234 8.0560303 7
-0.028076001 -1.7236331 8.0548096 7
-0.026245 -1.707031 8.0537109 7
-0.026184 -1.691406 8.0579834 7
-0.029785 -1.677734 8.072998 7
-0.031615999 -1.664062 8.0825195 7
-0.042419001 -1.65625 8.1190186 7
-0.022583 -1.625977 8.0635986 7
-0.024352999 -1.610352 8.072998 7
-0.090857998 -1.724274 15.33271 7
-0.044776998 -1.791149 13.193895 7
-0.064865001 -1.871645 10.633963 7
-0.16295201 -5.1163092 9.124527 7
-0.150075 -4.8135672 9.2417068 7
-0.196373 -4.8874402 8.1475897 7
-0.060511999 -1.866426 9.0025167 7
-0.062463 -1.660699 9.084774 7
-0.019456999 -1.703442 8.0570669 7
-0.032607999 -1.590423 7.3975492 7
-0.033760998 -1.450446 7.4637618 7
-0.040465001 -1.317861 7.5509038 7
0.048609 -0.313934 4.1316161 7
0.043875001 -0.31212401 4.1485238 7
0.054319002 -0.297261 3.971597 7
0.073728003 -0.283865 3.9888041 7
0.064893 -0.29142699 4.0028448 7
0.052687 -0.292245 4.021493 7
0.069847003 -0.28575099 4.0347648 7
0.052090999 -0.287054 4.0525899 7
0.058460999 -0.28426701 4.067668 7
0.056531999 -0.276528 4.0820522 7
0.046617001 -0.27902299 4.0998502 7
0.068640999 -0.26767999 4.1100841 7
0.042381 -0.274598 4.1320858 7
0.061420001 -0.25596401 4.1391501 7
0.045804001 -0.25685999 4.157186 7
-0.168623 -5.3372922 16.827494 7
0.0040790001 -1.676573 10.78012 7
-0.20765699 -4.9813032 10.219151 7
-0.18963601 -4.9058328 9.4650497 7
-0.053562 -1.895082 10.020014 7
-0.042702001 -1.607708 10.019991 7
-0.149167 -4.9634848 8.5165234 7
-0.14040101 -4.8913298 7.9918618 7
-0.028364999 -1.844852 8.0633879 7
-0.02235 -1.641095 8.0861425 7
0.001484 -1.566404 7.5150681 7
0.0072329999 -1.3862031 7.5265508 7
