# .PCD v0.7 - Point Cloud Data file format
VERSION 0.7
FIELDS x y z intensity
SIZE 4 4 4 4
TYPE F F F F
COUNT 1 1 1 1
WIDTH 384
HEIGHT 1
VIEWPOINT 0 0 0 1 0 0 0
POINTS 384
DATA ascii
-0.051270001 -5.1132808 45.727966 7
-0.080871999 -5.0751948 46.326965 7
-0.80950898 -1.0068361 -59.226929 7
-0.91693097 -4.296875 -61.206055 7
0.79589802 24.290039 -15.231445 7
0.79876697 24.202148 -15.255249 7
0.805664 24.041992 -15.228516 7
0.80877697 23.949219 -15.248047 7
0.81274402 23.842773 -15.257324 7
0.72863799 23.967773 -18.130249 7
0.73034698 23.893555 -18.164429 7
0.73425299 23.783203 -18.168457 7
0.73596197 23.708984 -18.201904 7
0.735291 23.676758 -18.269165 7
0.73773199 23.588867 -18.291016 7
0.73754901 23.546875 -18.350586 7
0.73632801 23.521484 -18.425049 7
0.66058302 21.974609 -18.123657 7
0.659729 21.941406 -18.187256 7
0.66064501 21.880859 -18.227051 7
0.66314697 21.799805 -18.247192 7
-0.76318401 -0.836914 -48.978027 7
0.67388898 21.015625 -15.208374 7
0.67559803 20.952148 -15.239502 7
0.67700201 20.894531 -15.27417 7
0.68029797 20.808594 -15.286743 7
0.59204102 20.268555 -18.302979 7
0.59307897 20.208008 -18.338257 7
-0.73992902 -0.96679699 -45.082764 7
-0.89764398 -4.3310552 -46.701904 7
-0.87298602 -4.407227 -46.307373 7
0.076964997 -1.7880861 32.205994 7
0.07666 -1.643555 32.220337 7
-0.71337903 3.1142581 -44.796631 7
-0.73040801 3.023438 -45.071777 7
0.54333502 18.519531 -15.093872 7
0.54223597 18.492188 -15.148926 7
0.542786 18.40918 -15.232178 7
0.54394501 18.356445 -15.263672 7
0.54901099 18.259766 -15.255371 7
0.55053699 18.202148 -15.282349 7
0.55261201 18.101562 -15.348267 7
0.559937 17.979492 -15.314697 7
0.45074499 17.30957 -18.273804 7
0.45306399 17.239258 -18.288086 7
0.446594 17.256836 -18.403809 7
-0.71112102 3.1142581 -41.657471 7
-0.72466999 3.0263669 -41.862915 7
-0.72674602 -1.0205081 -38.46814 7
-0.74115002 -1.121094 -38.657959 7
-0.72662401 -1.210938 -38.450806 7
-0.089782998 -5.0908198 29.976379 7
-0.076416001 -4.9941411 29.821655 7
-0.090576001 -4.9580078 30.012085 7
-0.099182002 -4.9082031 30.133118 7
-0.082275003 -4.804688 29.931824 7
0.064636 -1.5693361 28.452515 7
0.379944 15.691406 -18.246948 7
0.42608601 15.625 -15.257446 7
0.42828399 15.564453 -15.272949 7
0.431458 15.49707 -15.279297 7
0.43109101 15.460938 -15.32019 7
0.43511999 15.385742 -15.317505 7
0.43505901 15.344727 -15.35376 7
0.30572501 14.447266 -18.251221 7
0.31231701 14.348633 -18.214111 7
0.36840799 14.043945 -15.317017 7
0.37231401 13.974609 -15.313965 7
0.374268 13.919922 -15.329102 7
0.37616 13.865234 -15.343506 7
0.37762499 13.813477 -15.362549 7
0.378113 13.768555 -15.390503 7
0.23535199 12.72168 -18.256104 7
0.236755 12.666016 -18.271118 7
0.237671 12.612305 -18.29126 7
0.236206 12.574219 -18.335693 7
0.234253 12.540039 -18.384888 7
0.23272701 12.5 -18.429077 7
0.052184999 -1.768555 23.657776 7
0.050476 -1.717773 23.679504 7
0.051757999 -1.611328 23.676086 7
0.30822799 12.78125 -15.279663 7
0.310303 12.726562 -15.290894 7
0.312866 12.667969 -15.297607 7
0.31396499 12.62207 -15.317993 7
0.31542999 12.570312 -15.333618 7
0.314392 12.538086 -15.372314 7
0.31695601 12.480469 -15.37854 7
0.164612 11.126953 -18.259399 7
0.16449 11.079102 -18.2854 7
0.165466 11.026367 -18.30127 7
0.160767 11.004883 -18.373169 7
0.157166 10.977539 -18.434814 7
0.157654 10.926758 -18.455322 7
-0.107788 -5.039062 23.319458 7
-0.106628 -4.985352 23.32019 7
0.040282998 -1.816406 22.391296 7
0.045104999 -1.762695 22.349182 7
0.042663999 -1.714844 22.376892 7
0.042236 -1.6162111 22.39093 7
0.042236 -1.566406 22.394775 7
0.25671399 11.194336 -15.335083 7
0.25781199 11.147461 -15.35144 7
-0.13964801 -5.014648 22.303467 7
-0.137695 -4.9619141 22.298401 7
-0.133911 -4.9042969 22.276306 7
-0.136353 -4.8095698 22.322327 7
0.185791 10.222656 -15.298584 7
0.18981899 10.162109 -15.28772 7
0.190979 10.116211 -15.301392 7
0.190369 10.079102 -15.3302 7
0.192688 10.026367 -15.333618 7
0.191467 9.9921885 -15.367188 7
0.194336 9.9365234 -15.365601 7
0.193115 9.8623047 -15.422119 7
0.193665 9.8193359 -15.440308 7
0.195923 9.7666016 -15.442871 7
0.197144 9.7207031 -15.455933 7
0.197083 9.6806641 -15.478516 7
0.198181 9.6347656 -15.491333 7
0.193481 9.6162109 -15.554321 7
-1.784058 -27.18457 -21.719849 7
-1.835693 -27.753906 -21.75415 7
-1.8566279 -27.953125 -21.806519 7
-1.866455 -28.075195 -21.795654 7
-1.954163 -28.738281 -22.225952 7
-1.738525 -29.004883 -18.573364 7
0.030212 -1.75 20.099426 7
0.026916999 -1.7099611 20.132874 7
0.027649 -1.575195 20.139282 7
-1.624878 -22.498047 -21.968384 7
-1.673889 -23.333008 -21.712891 7
-1.677368 -23.407227 -21.677734 7
-1.689819 -23.537109 -21.69519 7
-1.699463 -23.649414 -21.695923 7
-1.703735 -23.729492 -21.663696 7
-1.717468 -23.866211 -21.68811 7
-1.723145 -23.954102 -21.663452 7
-1.732788 -24.067383 -21.662598 7
-1.745239 -24.197266 -21.67749 7
-1.741943 -24.231445 -21.599854 7
-1.759216 -24.390625 -21.641846 7
-1.495605 -24.15332 -18.477051 7
-1.5012209 -24.236328 -18.448853 7
-1.496521 -24.250977 -18.365723 7
0.02417 -1.537109 19.167603 7
-1.129944 -17.734375 -18.501099 7
-1.144592 -17.90625 -18.502563 7
-1.209229 -21.168945 -15.707153 7
-1.215149 -21.245117 -15.685547 7
-1.226868 -21.358398 -15.692993 7
-1.235718 -21.454102 -15.685303 7
-1.248047 -21.572266 -15.695312 7
-1.259216 -21.719727 -15.646118 7
-1.268738 -21.819336 -15.640747 7
-1.275391 -21.901367 -15.620972 7
-1.282715 -21.987305 -15.604126 7
-1.2900389 -22.074219 -15.587036 7
-1.295959 -22.149414 -15.562744 7
-1.314941 -22.310547 -15.600952 7
-1.034485 -17.516602 -15.664551 7
-1.038391 -17.577148 -15.643066 7
-1.042297 -17.637695 -15.621338 7
-1.049255 -17.71582 -15.615234 7
-1.053955 -17.78125 -15.597168 7
-1.058655 -17.845703 -15.578491 7
-0.147827 -5.0908198 16.85675 7
-0.141968 -5.0419922 16.830505 7
-0.132874 -4.9863281 16.781921 7
-0.122009 -4.9257808 16.722046 7
-0.120361 -4.8867192 16.723022 7
-0.12207 -4.8535161 16.745605 7
-0.125366 -4.8251948 16.77948 7
-0.151489 -5.09375 16.046204 7
-0.15325899 -5.063477 16.069519 7
-0.14978001 -5.0205078 16.059631 7
-0.139282 -4.9648442 16.006042 7
-0.132324 -4.9150391 15.973938 7
-0.13055401 -4.8769531 15.974731 7
-0.13574199 -4.8535161 16.019287 7
-0.14361601 -4.8349609 16.080566 7
-0.14550801 -5.0976558 15.201233 7
-0.14550801 -5.0654302 15.213562 7
-0.138184 -5.016602 15.182129 7
-0.12902801 -4.9638672 15.139771 7
-0.119812 -4.9121089 15.09729 7
-0.120789 -4.8798828 15.114624 7
-0.130798 -4.8691411 15.186157 7
-0.13726801 -4.851562 15.236084 7
-0.146484 -4.8369141 15.302307 7
-0.0040890002 -1.8193361 14.486572 7
0.0073850001 -1.779297 14.422485 7
-0.000244 -1.7548831 14.472595 7
0.0045170002 -1.720703 14.448181 7
0.0084229996 -1.625977 14.437927 7
-0.00116 -1.6025389 14.499207 7
0.0059810001 -1.839844 13.777832 7
0.0059810001 -1.811523 13.78241 7
0.0059810001 -1.78125 13.786804 7
0.0050050002 -1.753906 13.796753 7
0.0070190001 -1.722656 13.789795 7
0.011108 -1.6611331 13.77533 7
0.01416 -1.628906 13.762207 7
0.0090939999 -1.603516 13.7948 7
0.011353 -1.592773 12.665039 7
0.010376 -1.566406 12.6745 7
0.002625 -1.545898 12.718384 7
0.0081789996 -1.514648 12.693604 7
0.0071410001 -1.4892581 12.703064 7
0.012634 -1.4580081 12.678101 7
0.012695 -1.431641 12.681824 7
0.012634 -1.405273 12.685364 7
0.0038449999 -1.384766 12.73468 7
0.00054899999 -1.359375 12.755066 7
0.002808 -1.330078 12.747009 7
0.00177 -1.304688 12.755981 7
-0.000183 -1.589844 11.76709 7
-0.000183 -1.56543 11.771057 7
-0.002563 -1.542969 11.786194 7
0.002258 -1.514648 11.767517 7
0.001038 -1.492188 11.776855 7
0.0058590001 -1.4638669 11.757935 7
0.0046390002 -1.44043 11.767273 7
0.002319 -1.4169919 11.782043 7
0.0035399999 -1.391602 11.779968 7
-0.0048219999 -1.37207 11.823242 7
-0.002502 -1.34668 11.815125 7
-0.0036009999 -1.322266 11.824219 7
-0.0036009999 -1.297852 11.827454 7
0.0036619999 -1.59375 11.32019 7
-0.002563 -1.5732419 11.352539 7
0.0061650001 -1.544922 11.316772 7
-0.001282 -1.5263669 11.354736 7
0.0037229999 -1.5 11.335815 7
0.0074459999 -1.4736331 11.322388 7
0.001221 -1.454102 11.35437 7
0.002502 -1.429688 11.352417 7
0.002502 -1.40625 11.355713 7
0.0062259999 -1.380859 11.342529 7
0.001343 -1.360352 11.36853 7
-0.002441 -1.339844 11.388916 7
0.0075679999 -1.308594 11.346802 7
0.012573 -1.28418 11.327515 7
-0.001709 -1.595703 10.505005 7
-0.0056759999 -1.575195 10.525879 7
-0.0070799999 -1.5556639 10.535278 7
-0.0070190001 -1.533203 10.539062 7
-0.0056150001 -1.5107419 10.537354 7
-0.001587 -1.486328 10.52417 7
0.002441 -1.462891 10.510986 7
0.002441 -1.441406 10.514648 7
-0.001587 -1.421875 10.535034 7
-0.002869 -1.402344 10.544312 7
0.0059810001 -1.5849611 10.088135 7
0.010193 -1.5625 10.075562 7
0.003174 -1.546875 10.1073 7
0.003174 -1.525391 10.111206 7
0.00042699999 -1.5068361 10.126099 7
0.001831 -1.485352 10.124268 7
0.0075070001 -1.460938 10.105347 7
0.0060419999 -1.441406 10.114868 7
0.0060419999 -1.420898 10.118164 7
0.0046999999 -1.4013669 10.127441 7
-0.00091599999 -1.384766 10.153442 7
-0.00091599999 -1.3642581 10.156738 7
-0.00091599999 -1.34375 10.160156 7
-0.00085399998 -1.322266 10.163574 7
-0.00085399998 -1.3017581 10.16687 7
-0.0079349997 -1.285156 10.198242 7
0.0045779999 -1.5869139 9.760376 7
0.0046390002 -1.5673831 9.7645264 7
0.0075070001 -1.544922 9.7570801 7
-0.0069579999 -1.535156 9.8166504 7
0.00177 -1.5087889 9.7868652 7
-0.0040890002 -1.4931639 9.8132324 7
0.00030499999 -1.470703 9.8000488 7
0.003235 -1.4482419 9.7924805 7
0.00177 -1.429688 9.8017578 7
0.0047610002 -1.407227 9.7940674 7
0.001831 -1.389648 9.8087158 7
0.003296 -1.369141 9.8067627 7
-0.0040279999 -1.3544919 9.8380127 7
-0.002502 -1.3330081 9.8358154 7
-0.001038 -1.3125 9.8336182 7
-0.002502 -1.293945 9.8425293 7
0.002869 -1.582031 9.4268799 7
-0.0061650001 -1.570312 9.4639893 7
0.001404 -1.544922 9.4401855 7
-0.0046390002 -1.530273 9.4661865 7
-0.015259 -1.518555 9.5089111 7
-0.019774999 -1.50293 9.5291748 7
-0.001587 -1.47168 9.4663086 7
-6.0999999e-05 -1.451172 9.4644775 7
0.0045170002 -1.429688 9.451416 7
-0.0045779999 -1.416016 9.4881592 7
-0.0060419999 -1.3974611 9.4974365 7
-0.001526 -1.376953 9.4841309 7
-0.012085 -1.363281 9.5264893 7
-0.016602 -1.347656 9.5466309 7
-0.010559 -1.324219 9.52771 7
-0.010559 -1.3056639 9.5310059 7
-0.010559 -1.2861331 9.5343018 7
0.0036619999 -1.581055 9.1378174 7
0.0036009999 -1.5625 9.1418457 7
-0.002625 -1.548828 9.1678467 7
-0.001099 -1.529297 9.1662598 7
-0.0073239999 -1.516602 9.1920166 7
-0.0089109996 -1.499023 9.2012939 7
-0.0057370001 -1.4775389 9.1939697 7
0.0067750001 -1.451172 9.1533203 7
-0.001038 -1.438477 9.1845703 7
-0.00097699999 -1.419922 9.1882324 7
0.00054899999 -1.400391 9.1861572 7
-0.00097699999 -1.382812 9.1953115 7
-0.002502 -1.347656 9.2077637 7
-0.0056759999 -1.331055 9.2220459 7
-0.0056150001 -1.3125 9.2254639 7
-0.49408001 -8.5566406 -2.5588379 7
-0.494019 -8.5644531 -2.5383301 7
-0.50213599 -8.5996094 -2.5292971 7
-0.50219703 -8.6074219 -2.5087891 7
-0.499084 -8.6083984 -2.483398 7
-0.49749801 -8.6123047 -2.460815 7
-0.49755901 -8.6220703 -2.4399409 7
-0.50079298 -8.6396484 -2.424072 7
-0.139832 -4.7900391 7.8823242 7
-0.139771 -4.7744141 7.8937988 7
-0.141479 -4.7626948 7.9099121 7
-0.15118399 -4.765625 7.94873 7
-0.159363 -4.766602 7.9827881 7
-0.156128 -4.7451172 7.985229 7
-0.151245 -4.71875 7.9827881 7
-0.14965799 -4.7001948 7.989624 7
-0.146484 -4.6787109 7.9918208 7
-0.14483599 -4.6591802 7.9984131 7
-0.131653 -4.4873052 7.6862788 7
-0.121578 -4.809165 15.018312 7
0.002658 -1.40547 12.647707 7
-0.059491999 -1.518842 11.398252 7
-0.017889 -1.5595731 10.272985 7
-0.033551 -1.3259521 10.467003 7
0.0031930001 -1.380625 9.5607224 7
0.01204 -1.505972 7.9263902 7
0.028104 -1.52784 7.5443301 7
0.021003 -1.394329 7.6401129 7
-0.0095880004 -1.297228 7.3907599 7
0.065711997 -0.318331 4.1052299 7
0.086682998 -0.28674001 3.9652159 7
0.068423003 -0.306207 4.12012 7
0.053445 -0.309223 4.140902 7
0.069922 -0.296749 4.154717 7
0.080103002 -0.28693101 3.981602 7
0.0735 -0.286127 3.997751 7
0.085619003 -0.28288001 4.0110011 7
0.057707999 -0.29104799 4.0310202 7
0.090639003 -0.27664301 4.0417471 7
0.067795001 -0.280101 4.0588932 7
0.079458997 -0.27462101 4.0735059 7
0.093491003 -0.25991401 4.0868011 7
0.072988003 -0.266745 4.1042228 7
0.089643002 -0.257034 4.1168299 7
0.074441999 -0.259527 4.134459 7
0.088246003 -0.242586 4.1438541 7
-0.043939002 -1.61373 13.839636 7
-0.018568 -1.540218 12.55541 7
0.0083189998 -1.479229 11.48776 7
-0.018335 -1.3873 9.9038658 7
0.003639 -1.3542 9.3216295 7
-0.156573 -4.7936778 6.478322 7
-0.133734 -4.5884938 6.572474 7
0.0060689999 -1.452908 7.7411361 7
-0.1663 -4.5125289 -0.31030801 7
-0.175405 -4.673831 -0.17495801 7
0.028223 -1.594548 7.388258 7
0.024793999 -1.423331 7.4408321 7
-0.16572499 -4.7111378 0.32926801 7
-0.157225 -4.6253109 0.634247 7
-0.145702 -4.6831241 0.820149 7
-0.177966 -4.5476432 1.0648071 7
-0.19232599 -4.6904378 1.234826 7
-0.205955 -4.805943 1.373863 7
-0.213194 -4.8957229 1.528199 7
-0.171414 -4.891727 4.3033061 7
-0.167492 -4.8310871 4.461277 7
