# .PCD v0.7 - Point Cloud Data file format
VERSION 0.7
FIELDS x y z intensity
SIZE 4 4 4 4
TYPE F F F F
COUNT 1 1 1 1
WIDTH 1313
HEIGHT 1
VIEWPOINT 0 0 0 1 0 0 0
POINTS 1313
DATA ascii
0.284325 -1.466064 -71.248047 7
0.164139 -1.550537 -67.358398 7
0.18504301 -1.695557 -66.635742 7
0.138458 5.3135991 -67.345703 7
0.142021 5.1407471 -67.229492 7
0.12772401 -1.702026 -60.979492 7
0.16181201 -1.81897 -59.932617 7
0.122986 -2.0018311 -61.098633 7
0.13871001 5.178833 -59.90332 7
0.210449 4.8563228 -57.758789 7
0.155426 4.8469238 -59.414062 7
0.087173 4.860229 -61.467773 7
0.063216999 -1.838257 -56.001953 7
0.133911 -1.908325 -54.079102 7
0.163765 -2.01001 -53.261719 7
0.115326 -2.1904299 -54.560547 7
-0.85098302 -3.1690669 73.78418 7
-0.85170698 -2.9985349 73.814453 7
0.19315299 5.0107422 -51.870117 7
0.16514599 4.9523931 -52.626953 7
0.214119 4.7067871 -51.321289 7
0.176094 4.6695561 -52.34668 7
0.12520599 4.6567378 -53.71582 7
0.050331 -2.0466311 -50.898438 7
0.084259003 -2.135864 -50.056641 7
0.128914 -2.209595 -48.952148 7
0.074065998 -2.3907471 -50.285156 7
0.112305 -2.4675291 -49.337891 7
0.171059 4.941772 -47.393555 7
0.13443799 4.9133301 -48.291016 7
0.204803 4.6303711 -46.588867 7
0.156746 4.508667 -47.769531 7
0.122284 4.466187 -48.614258 7
0.002907 -2.10498 -46.522461 7
0.058754001 -2.161865 -45.283203 7
0.11721 -2.34021 -44.488281 7
0.045929 -2.5332029 -46.058594 7
0.083153002 -2.5996089 -45.224609 7
0.145363 -2.6295171 -43.833984 7
-0.69619 -0.336182 59.165039 7
-0.67583501 -0.197754 58.761719 7
0.160034 4.819458 -43.036133 7
0.13028701 4.7884521 -43.739258 7
0.102394 4.744751 -44.359375 7
0.157471 4.512939 -43.154297 7
0.132751 4.4605708 -43.707031 7
0.090057001 4.4437261 -44.655273 7
-0.0078809997 -2.1821289 -43.485352 7
0.031044001 -2.247803 -42.679688 7
0.065711997 -2.3140869 -41.961914 7
0.090384997 -2.38855 -41.448242 7
0.026268 -2.5661621 -42.75 7
0.062057 -2.626343 -42.008789 7
0.091293 -2.6912839 -41.400391 7
0.102547 -2.7775879 -41.161133 7
-0.651016 -0.17688 54.198242 7
-0.597534 0.072021 53.210938 7
0.121162 4.7357178 -40.386719 7
0.099831 4.684082 -40.829102 7
0.060752999 4.6694341 -41.629883 7
0.127075 4.4243159 -40.291992 7
0.103729 4.374146 -40.773438 7
0.066338003 4.3504639 -41.540039 7
0.0097120004 -2.7419429 -39.143555 7
0.029883999 -2.8114009 -38.757812 7
0.056800999 -2.9638669 -38.237305 7
-0.58945501 -2.8608401 48.777344 7
-0.61594403 -2.7750239 49.239258 7
-0.50417298 0.059937 47.479492 7
-0.52857202 0.170654 47.900391 7
-0.483345 0.276245 47.126953 7
0.084472999 4.7672119 -37.365234 7
0.066451997 4.7149658 -37.708008 7
0.048758999 4.6602778 -38.043945 7
0.014107 4.6405029 -38.694336 7
0.176872 1.1073 -35.827148 7
0.154732 1.030151 -36.238281 7
0.15244301 0.762573 -36.280273 7
0.176834 0.665039 -35.825195 7
0.192589 0.48425299 -35.530273 7
-0.0028919999 -2.8999021 -36.191406 7
-0.0037229999 -2.9901121 -36.196289 7
0.018851999 -3.047241 -35.797852 7
0.028884999 -3.120605 -35.616211 7
0.041297998 -3.189697 -35.393555 7
-0.530518 -2.804199 44.451172 7
-0.53552997 -2.7072749 44.541016 7
-0.55856299 -2.627197 44.914062 7
-0.46949801 0.059204001 43.604492 7
-0.49491099 0.26171899 44.011719 7
0.049881 4.9914551 -34.904297 7
0.057579 4.8873291 -34.782227 7
0.034363002 4.8535161 -35.188477 7
0.020996001 4.795898 -35.425781 7
-0.013786 4.783936 -36.027344 7
-0.027176 4.7235112 -36.266602 7
0.137123 1.29248 -33.634766 7
0.15505201 1.198608 -33.329102 7
0.123589 1.133545 -33.868164 7
0.144234 1.039062 -33.514648 7
0.134094 0.37817401 -34.029297 7
0.17749 0.20581099 -33.275391 7
0.15821099 -0.035889 -30.381836 7
-0.035934001 -3.111572 -33.535156 7
-0.027206 -3.181519 -33.388672 7
-0.015121 -3.2458501 -33.189453 7
0.000267 -3.304199 -32.935547 7
-0.44477099 -2.7779541 39.842773 7
-0.46178401 -2.704468 40.099609 7
-0.474823 -2.6257319 40.297852 7
-0.43166399 0.14160199 39.814453 7
0.055762999 4.9545898 -31.716797 7
0.043427002 4.9039311 -31.919922 7
0.024413999 4.86731 -32.225586 7
0.002815 4.8349609 -32.572266 7
-0.022133 4.8084722 -32.97168 7
-0.037811 4.7601318 -33.226562 7
0.143921 1.562134 -30.606445 7
0.14640801 1.484131 -30.569336 7
0.126625 1.421753 -30.883789 7
0.151741 1.328735 -30.488281 7
0.103615 1.204834 -31.248047 7
0.12635 0.27050799 -30.888672 7
0.15448 0.19103999 -30.446289 7
0.117577 0.117554 -31.025391 7
0.137527 0.040038999 -30.708984 7
0.118439 -0.035399999 -29.154297 7
0.116745 -0.107666 -29.176758 7
-0.066734001 -3.2592771 -31.649414 7
-0.054588001 -3.3193359 -31.460938 7
-0.038086001 -3.3720701 -31.208984 7
-0.026726 -3.431396 -31.032227 7
-0.39106801 0.47045901 36.875 7
-0.35317999 0.54650903 36.354492 7
-0.35602599 0.630005 36.394531 7
0.043136999 5.0308838 -29.68457 7
0.068816997 4.8972168 -29.321289 7
0.049309 4.8686519 -29.615234 7
0.031761002 4.834106 -29.880859 7
-0.015503 4.8641362 -30.579102 7
-0.036697 4.7570801 -30.90918 7
0.14785001 1.599121 -28.436523 7
0.119835 1.477173 -28.851562 7
0.13642099 1.393921 -28.609375 7
0.123253 -0.164185 -26.546875 7
0.13389599 -0.229248 -26.399414 7
0.119072 -0.36413601 -26.597656 7
0.115959 -0.431274 -26.637695 7
-0.07756 -3.3927 -29.282227 7
-0.053551 -3.571655 -28.924805 7
0.059303001 5.0239258 -27.0625 7
0.053229999 4.9703369 -27.15625 7
0.039429002 4.9338379 -27.351562 7
0.022644 4.9033198 -27.587891 7
0.001144 4.8824458 -27.886719 7
-0.018646 4.8563228 -28.164062 7
0.112167 1.572632 -26.69043 7
0.137383 1.487427 -26.351562 7
0.117104 1.435547 -26.62793 7
0.102425 1.37854 -26.829102 7
0.124214 1.297485 -26.536133 7
0.076706 -0.22192401 -25.510742 7
0.089867003 -0.28393599 -25.339844 7
0.11264 -0.34326199 -25.046875 7
0.109154 -0.53210402 -25.083984 7
-0.103989 -3.4772949 -27.537109 7
-0.100449 -3.5401609 -27.480469 7
-0.088638 -3.5896001 -27.321289 7
-0.072250001 -3.6312261 -27.105469 7
-0.063210003 -3.6837161 -26.980469 7
-0.077552997 -3.774658 -27.151367 7
0.029312 5.0161128 -25.509766 7
0.026481999 4.9584961 -25.555664 7
0.013115 4.924561 -25.733398 7
-0.0039220001 4.8979492 -25.957031 7
-0.022803999 4.8745122 -26.204102 7
-0.031592999 4.8277588 -26.326172 7
0.098021999 1.667114 -24.988281 7
0.106674 1.597656 -24.881836 7
0.114853 1.529053 -24.78125 7
0.097747996 -0.32104501 -23.331055 7
0.097649001 -0.37951699 -23.330078 7
0.080321997 -0.44165 -23.533203 7
0.097465999 -0.496582 -23.328125 7
0.106728 -0.55261201 -23.21582 7
0.075599998 -0.62011701 -23.583008 7
0.099068001 -0.73022503 -23.298828 7
-0.066849001 -3.550415 -24.978516 7
-0.091666996 -3.6524661 -25.258789 7
-0.087348998 -3.708374 -25.197266 7
-0.076599002 -3.753418 -25.061523 7
-0.067824997 -3.801147 -24.948242 7
-0.063492 -3.855835 -24.886719 7
0.0099950004 5.0562739 -23.730469 7
0.013374 4.9885249 -23.701172 7
0.005409 4.9467769 -23.804688 7
-0.0050280001 4.9100342 -23.9375 7
-0.018433001 4.879395 -24.102539 7
-0.03923 4.8641362 -24.355469 7
0.11293 1.5949709 -22.922852 7
0.097526997 1.54834 -23.107422 7
0.084083997 1.499756 -23.267578 7
0.101311 1.4293211 -23.067383 7
0.109138 1.365845 -22.977539 7
0.109047 1.307861 -22.980469 7
0.084876999 -0.68603498 -21.816406 7
0.055794001 -0.75134301 -22.135742 7
0.070473 -0.80151403 -21.97168 7
0.076714002 -0.85437 -21.899414 7
0.066086002 -0.91406202 -22.013672 7
-0.091728002 -3.703979 -23.445312 7
-0.104538 -3.783813 -23.575195 7
-0.098311998 -3.832397 -23.49707 7
-0.088890001 -3.8752439 -23.383789 7
-0.087433003 -3.93103 -23.356445 7
-0.087531999 -3.9897461 -23.347656 7
-0.111458 -4.0908198 -23.597656 7
-0.108925 -4.1451421 -23.558594 7
-0.017075 5.1192632 -22.285156 7
-0.00076299999 5.025146 -22.120117 7
-0.010315 4.9908452 -22.235352 7
-0.016197 4.9477539 -22.310547 7
-0.026306 4.9135742 -22.429688 7
-0.044845998 4.897583 -22.640625 7
-0.057076 4.8666992 -22.78418 7
0.084686004 1.893311 -21.595703 7
0.095711 1.829102 -21.477539 7
0.086121 1.782715 -21.586914 7
0.099274002 1.7169189 -21.446289 7
0.096023999 1.665283 -21.485352 7
0.085899003 1.61853 -21.599609 7
0.063079998 -0.64807099 -20.540039 7
0.05452 -0.70288098 -20.625 7
0.066292003 -0.750732 -20.500977 7
0.074088998 -0.79980499 -20.417969 7
0.050322998 -0.86096197 -20.660156 7
0.059829999 -0.90905797 -20.558594 7
0.065392002 -0.95849597 -20.499023 7
-0.108307 -3.875854 -21.939453 7
-0.099372998 -3.915771 -21.838867 7
-0.092697002 -3.9589839 -21.760742 7
-0.088844001 -4.0068359 -21.710938 7
-0.091216996 -4.0655522 -21.723633 7
-0.107712 -4.1500239 -21.880859 7
-0.0028230001 5.0715332 -20.539062 7
-0.010216 5.0362549 -20.624023 7
-0.016479 4.9979248 -20.698242 7
-0.023314999 4.9605708 -20.77832 7
-0.035209998 4.9342041 -20.910156 7
-0.052779999 4.9195561 -21.098633 7
-0.062438998 4.8869629 -21.207031 7
0.084076002 1.874023 -20.105469 7
0.066490002 1.838257 -20.289062 7
0.090157002 1.766602 -20.049805 7
0.082168996 1.721802 -20.135742 7
0.069107004 1.680908 -20.272461 7
0.07412 1.62561 -20.224609 7
0.030716 -0.81616199 -19.522461 7
0.036911 -1.0606689 -19.447266 7
0.042815998 -1.106934 -19.386719 7
0.030144 -1.1630861 -19.505859 7
-0.113167 -3.8579099 -20.544922 7
-0.13258401 -3.994873 -20.709961 7
-0.127296 -4.0378418 -20.648438 7
-0.11898 -4.0751948 -20.558594 7
-0.1185 -4.1260991 -20.542969 7
-0.110771 -4.16394 -20.458984 7
-0.023521001 5.1088872 -19.341797 7
-0.027779 5.0690918 -19.392578 7
-0.039237998 5.0454102 -19.511719 7
-0.043488 5.005249 -19.563477 7
-0.053153999 4.976562 -19.666016 7
-0.07 4.963501 -19.836914 7
-0.076049998 4.9259028 -19.90625 7
-0.050896 4.8210449 -19.678711 7
0.040771 1.8963619 -19.217773 7
0.032508999 -0.997437 -18.207031 7
0.029175 -1.091797 -18.231445 7
0.030379999 -1.137695 -18.217773 7
-0.122002 -4.1702881 -19.167969 7
-0.12659501 -4.2271729 -19.197266 7
-0.055031002 5.0983891 -18.286133 7
-0.058265999 5.0588379 -18.326172 7
-0.059593 5.014771 -18.348633 7
-0.066657998 4.9832759 -18.422852 7
-0.077575997 4.9599609 -18.532227 7
-0.075066 4.9068599 -18.520508 7
-0.052756999 4.8114009 -18.333984 7
0.047821 2.0496831 -17.861328 7
0.054779001 1.99707 -17.802734 7
0.055367 1.950928 -17.800781 7
0.046982002 1.912598 -17.880859 7
0.039886001 1.872925 -17.948242 7
0.057739001 1.811523 -17.791016 7
0.055755999 1.767578 -17.813477 7
0.047371 1.728394 -17.892578 7
0.054352 1.677124 -17.833008 7
0.052368 1.63269 -17.854492 7
0.014328 -0.99365199 -17.266602 7
0.033867002 -1.028442 -17.095703 7
-0.00067899999 -1.0896 -17.388672 7
0.0059969998 -1.130371 -17.328125 7
0.0052339998 -1.175171 -17.331055 7
0.011253 -1.216064 -17.276367 7
-0.00030499999 -1.266968 -17.37207 7
-0.15096299 -4.1726069 -18.222656 7
-0.15036 -4.217773 -18.207031 7
-0.144371 -4.2531738 -18.145508 7
-0.13632999 -4.2845459 -18.068359 7
0.030777 1.907349 -16.930664 7
0.036827002 1.858398 -16.882812 7
0.042197999 1.810425 -16.841797 7
0.031982001 1.775391 -16.932617 7
0.041389 1.724121 -16.855469 7
0.043373 1.678955 -16.842773 7
0.013931 -0.978149 -16.199219 7
0.016731 -1.018677 -16.173828 7
0.018821999 -1.059204 -16.15332 7
0.0065839998 -1.107056 -16.25 7
0.001495 -1.1513669 -16.288086 7
0.0050050002 -1.1912839 -16.255859 7
0.0099489996 -1.230347 -16.212891 7
-0.16169 -4.171021 -17.135742 7
-0.158188 -4.2084961 -17.098633 7
-0.153961 -4.2443848 -17.054688 7
-0.15119199 -4.2827148 -17.021484 7
-0.153442 -4.3303218 -17.027344 7
-0.163597 -4.3928218 -17.09668 7
-0.174454 -4.4570308 -17.170898 7
-0.040451001 5.0463872 -15.857422 7
-0.039055001 5.0019531 -15.857422 7
-0.049164001 4.941895 -15.959961 7
-0.0041660001 -0.97143602 -15.362305 7
0.00563 -1.006592 -15.285156 7
0.0078429999 -1.044922 -15.265625 7
0.0070110001 -1.084839 -15.268555 7
-0.011986 -1.133911 -15.411133 7
-0.0075229998 -1.171387 -15.373047 7
-0.0053019999 -1.209717 -15.353516 7
-0.0031049999 -1.248047 -15.333008 7
-0.180557 -4.1806641 -16.204102 7
-0.17531601 -4.212769 -16.155273 7
-0.170853 -4.2460942 -16.110352 7
-0.169411 -4.28479 -16.089844 7
-0.16797601 -4.3234859 -16.068359 7
-0.173393 -4.3746338 -16.097656 7
-0.183365 -4.4344478 -16.15918 7
-0.061347999 5.0865479 -14.973633 7
-0.050018001 5.0218511 -14.902344 7
-0.054595999 4.9932861 -14.947266 7
-0.059928998 4.966064 -14.999023 7
-0.063750997 4.9354248 -15.038086 7
-0.069862001 4.9093022 -15.09375 7
-0.086562999 4.9061279 -15.227539 7
-0.090384997 4.8745122 -15.266602 7
-0.075278997 4.8027339 -15.166992 7
0.024894999 1.586792 -14.976562 7
0.033188 1.5419919 -14.916992 7
0.045265 1.494385 -14.827148 7
0.049011 1.453369 -14.801758 7
0.050476 1.4136961 -14.793945 7
0.03373 1.385864 -14.924805 7
0.039742 1.343262 -14.881836 7
0.049545001 1.298584 -14.808594 7
0.0084840003 -0.98657203 -14.339844 7
0.0044100001 -1.025879 -14.367188 7
0.014778 -1.058228 -14.289062 7
0.014717 -1.095215 -14.286133 7
0.007431 -1.135986 -14.334961 7
-0.010246 -1.182861 -14.460938 7
-0.005508 -1.217773 -14.422852 7
-0.00075499999 -1.252441 -14.385742 7
0.004776 -1.286499 -14.341797 7
-0.180969 -4.1853032 -15.174805 7
-0.184273 -4.2303472 -15.1875 7
-0.177109 -4.2564702 -15.12793 7
-0.175583 -4.292603 -15.106445 7
-0.172462 -4.3259282 -15.073242 7
-0.17256901 -4.3648682 -15.0625 7
-0.183083 -4.4234619 -15.125 7
-0.191208 -4.4777832 -15.169922 7
0.038596999 1.269775 -13.987305 7
0.052184999 1.22522 -13.891602 7
0.058510002 1.14917 -13.850586 7
0.045616001 1.119385 -13.946289 7
0.045563001 1.082764 -13.949219 7
0.053528 1.042358 -13.893555 7
0.061516002 1.002075 -13.838867 7
0.066261001 0.96362299 -13.806641 7
0.01152 -0.97082502 -13.523438 7
0.0055470001 -1.0087889 -13.560547 7
0.0021289999 -1.045898 -13.582031 7
0.010506 -1.077271 -13.521484 7
0.0096049998 -1.113037 -13.525391 7
0.0027920001 -1.151733 -13.568359 7
-0.0082240002 -1.1932369 -13.641602 7
-0.0057600001 -1.227295 -13.620117 7
-0.003304 -1.261597 -13.599609 7
-0.19270299 -4.2176509 -14.357422 7
-0.191093 -4.2519531 -14.335938 7
-0.185265 -4.2784419 -14.287109 7
-0.18279999 -4.3110352 -14.260742 7
-0.184113 -4.348877 -14.25 7
-0.184204 -4.3857422 -14.239258 7
-0.19189499 -4.4370122 -14.27832 7
0.049865998 0.92248499 -13.147461 7
0.048973002 0.888062 -13.155273 7
0.053970002 0.85144001 -13.12207 7
0.054756001 0.81664997 -13.118164 7
0.053870998 0.78222698 -13.125977 7
0.051277 0.74853498 -13.144531 7
0.051238999 0.71386701 -13.146484 7
0.061324999 0.67602497 -13.079102 7
0.067176998 0.63964802 -13.040039 7
0.067955002 0.60497999 -13.035156 7
0.072975002 0.56921399 -13.000977 7
0.063643999 0.53735399 -13.067383 7
0.0071950001 -0.99072301 -12.797852 7
-0.002625 -1.029053 -12.859375 7
0.003517 -1.059814 -12.81543 7
0.0034709999 -1.093384 -12.814453 7
0.0078509999 -1.124756 -12.782227 7
0.00069399999 -1.162231 -12.825195 7
-0.010887 -1.202026 -12.897461 7
-0.0083010001 -1.234497 -12.87793 7
-0.0092320004 -1.2687989 -12.880859 7
-0.192169 -4.1812739 -13.515625 7
-0.201149 -4.2324219 -13.560547 7
-0.20301101 -4.2709961 -13.561523 7
-0.195076 -4.2919922 -13.501953 7
-0.19161201 -4.3209229 -13.46875 7
-0.191673 -4.3560791 -13.459961 7
-0.186424 -4.3813481 -13.415039 7
-0.196281 -4.4346919 -13.466797 7
-0.199921 -4.476562 -13.477539 7
-0.086425997 5.0500488 -12.475586 7
-0.058090001 4.9543462 -12.313477 7
-0.055496 4.882935 -12.320312 7
-0.052864 4.844604 -12.31543 7
-0.067947 4.8443599 -12.420898 7
0.044043999 0.61425799 -12.464844 7
0.043983001 0.58129901 -12.464844 7
0.058990002 0.51147503 -12.370117 7
0.065102004 0.44445801 -12.330078 7
0.065940998 0.41174299 -12.326172 7
0.059677001 0.38012701 -12.368164 7
0.052528001 0.348389 -12.415039 7
0.059586 0.31457499 -12.370117 7
0.067474 0.247803 -12.318359 7
0.069153003 0.18225101 -12.307617 7
0.068207003 0.14965799 -12.313477 7
0.061928 0.117432 -12.353516 7
0.053001001 0.084960997 -12.413086 7
0.048514999 0.052124001 -12.442383 7
-0.002563 -1.300903 -12.150391 7
-0.197144 -4.19104 -12.769531 7
-0.199165 -4.2614751 -12.760742 7
-0.20296501 -4.3017578 -12.773438 7
-0.200249 -4.3300781 -12.746094 7
-0.19193999 -4.3483891 -12.685547 7
-0.197594 -4.3918462 -12.708984 7
-0.189285 -4.409668 -12.647461 7
-0.205208 -4.4728999 -12.732422 7
-0.086104997 5.0921631 -11.706055 7
-0.087990001 5.065063 -11.728516 7
-0.076858997 5.0091548 -11.675781 7
-0.064788997 4.9511719 -11.618164 7
-0.065750003 4.9223628 -11.635742 7
-0.067626998 4.8952641 -11.657227 7
-0.069527 4.868042 -11.679688 7
-0.071387999 4.8408198 -11.702148 7
-0.081642002 4.8314209 -11.773438 7
-0.087233998 4.8118901 -11.817383 7
-0.099349998 4.8057861 -11.899414 7
0.064873002 0.174072 -11.80957 7
0.061110999 0.143188 -11.832031 7
0.043471999 -0.102783 -11.279297 7
0.052200001 -0.132202 -11.225586 7
0.053130999 -0.16198701 -11.219727 7
0.056015 -0.19165 -11.202148 7
0.051086001 -0.22192401 -11.230469 7
0.046158001 -0.252563 -11.258789 7
0.0383 -0.28332499 -11.304688 7
0.044121001 -0.31262201 -11.268555 7
-0.00093099999 -0.99133301 -11.493164 7
-0.0029450001 -1.022827 -11.50293 7
0.003792 -1.080566 -11.458008 7
0.0037459999 -1.110962 -11.455078 7
0.00074799999 -1.142822 -11.469727 7
0.00070199999 -1.173462 -11.466797 7
-0.0072860001 -1.269165 -11.503906 7
-0.010277 -1.301636 -11.517578 7
-0.19670101 -4.1739502 -12.012695 7
-0.197769 -4.20752 -12.008789 7
-0.203712 -4.2497559 -12.03125 7
-0.208664 -4.2901611 -12.048828 7
-0.206863 -4.3172612 -12.022461 7
-0.201065 -4.338501 -11.979492 7
-0.201149 -4.3699951 -11.96875 7
-0.19927201 -4.3979492 -11.946289 7
-0.199356 -4.429565 -11.93457 7
-0.20040099 -4.4628911 -11.929688 7
0.028449999 -0.32958999 -10.791016 7
0.02227 -0.359375 -10.824219 7
0.026320999 -0.387573 -10.800781 7
0.02832 -0.41613799 -10.788086 7
0.032356001 -0.44396999 -10.763672 7
0.038445 -0.47143599 -10.727539 7
0.036346 -0.50060999 -10.738281 7
0.027115 -0.53149402 -10.789062 7
0.018913001 -0.56262201 -10.834961 7
0.019874999 -0.59130901 -10.827148 7
0.025947999 -0.61840802 -10.791016 7
0.014648 -0.64660603 -10.257812 7
0.024246 -0.671143 -10.203125 7
0.026351999 -0.69775403 -10.19043 7
0.026299 -0.72522002 -10.188477 7
0.019814 -0.755005 -10.220703 7
0.01442 -0.784302 -10.249023 7
0.0068740002 -0.81457502 -10.287109 7
0.011101 -0.84082001 -10.262695 7
0.016418001 -0.86596698 -10.230469 7
0.016364999 -0.89355499 -10.228516 7
0.013115 -0.922607 -10.244141 7
0.010918 -0.95104998 -10.253906 7
-0.30903599 -6.0939941 -10.460938 7
-0.30265799 -6.1060791 -10.414062 7
-0.30489299 -6.1392822 -10.40918 7
-0.307129 -6.1726069 -10.40625 7
-0.30936399 -6.2059331 -10.401367 7
-0.31698599 -6.252686 -10.421875 7
-0.33000201 -6.3129878 -10.467773 7
-0.32900199 -6.338501 -10.448242 7
-0.33663201 -6.3856201 -10.46875 7
-0.10891 0.64477497 13.408203 7
-0.091309004 0.668091 13.317383 7
-0.087952003 0.69531202 13.297852 7
-0.087852001 0.75158697 13.293945 7
-0.087814003 0.77978498 13.292969 7
-0.088844001 0.80822802 13.295898 7
-0.088813998 0.83642602 13.294922 7
-0.090949997 0.86547899 13.304688 7
-0.090903997 0.89355499 13.301758 7
-0.087546997 0.92040998 13.283203 7
0.015701 -0.644409 -9.7421885 7
0.013405 -0.67126501 -9.7519531 7
0.013367 -0.69763201 -9.75 7
0.0099640004 -0.72522002 -9.7666016 7
0.002083 -0.75427198 -9.8056641 7
0.003174 -0.780518 -9.7978516 7
0.0087360004 -0.804932 -9.7675781 7
0.014275 -0.829346 -9.7363281 7
0.015343 -0.85510302 -9.7275391 7
0.010834 -0.88317901 -9.7490234 7
0.0040589999 -0.912476 -9.78125 7
-0.0071640001 -0.94360399 -9.8369141 7
-0.0027310001 -0.96838403 -9.8125 7
0.001694 -0.99291998 -9.7861328 7
0.001648 -1.019287 -9.7841797 7
0.0038300001 -1.044678 -9.7705078 7
0.00042699999 -1.072754 -9.7841797 7
-0.016403001 -1.107666 -9.8662109 7
-0.0052800002 -1.128418 -9.8066406 7
-0.01091 -1.157959 -9.8330078 7
-0.010963 -1.184692 -9.8300781 7
-0.0087740002 -1.209839 -9.8154297 7
-0.02224 -1.244019 -9.8808594 7
-0.026764 -1.273315 -9.9013672 7
-0.31172901 -6.1018071 -9.8125 7
-0.307327 -6.117188 -9.7783203 7
-0.30290201 -6.13269 -9.7441406 7
-0.30860099 -6.1729741 -9.7548828 7
-0.31317899 -6.2104492 -9.7597656 7
-0.31887099 -6.250977 -9.7705078 7
-0.32120499 -6.282959 -9.765625 7
-0.33365601 -6.3406978 -9.8056641 7
-0.33374 -6.367065 -9.7910156 7
-0.33607501 -6.399292 -9.7851562 7
-0.089599997 0.74755901 12.799805 7
-0.089530997 0.774414 12.797852 7
-0.088356003 0.80102497 12.790039 7
-0.088294998 0.82800299 12.788086 7
-0.090545997 0.855591 12.796875 7
-0.091553003 0.93713403 12.796875 7
0.0022130001 -0.97460902 -9.296875 7
0.0033420001 -0.999268 -9.2880859 7
0.0044559999 -1.024048 -9.2802734 7
-0.014267 -1.05835 -9.3701172 7
-0.018990001 -1.08606 -9.390625 7
-0.010841 -1.107422 -9.3486328 7
-0.012054 -1.133545 -9.3515615 7
-0.0097730001 -1.157715 -9.3369141 7
-0.012154 -1.1843261 -9.3457031 7
-0.011017 -1.209106 -9.3378906 7
-0.012245 -1.2351069 -9.3388672 7
-0.025146 -1.267944 -9.3984385 7
-0.324471 -6.0944819 -9.2539062 7
-0.32100701 -6.111084 -9.2246094 7
-0.31404099 -6.118896 -9.1806641 7
-0.31294999 -6.1408691 -9.1611328 7
-0.318878 -6.180542 -9.171875 7
-0.32132 -6.2114258 -9.1660156 7
-0.324913 -6.2451172 -9.1660156 7
-0.323807 -6.2672119 -9.1464844 7
-0.3274 -6.3010249 -9.1464844 7
-0.33335099 -6.3406978 -9.15625 7
-0.33812699 -6.377563 -9.1611328 7
-0.096825004 0.66626 12.351562 7
-0.108749 0.69592297 12.407227 7
-0.088379003 0.71545398 12.308594 7
-0.087142996 0.74084502 12.301758 7
-0.08828 0.76709002 12.304688 7
-0.088257 0.79272503 12.303711 7
-0.090599 0.81945801 12.3125 7
-0.090561002 0.84521502 12.310547 7
-0.088134997 0.87023902 12.298828 7
-0.090484999 0.89697301 12.307617 7
-0.090430997 0.922607 12.304688 7
-0.091582999 0.94897503 12.308594 7
-0.068099998 4.7886958 -8.5214844 7
-0.066947997 4.7623291 -8.5273438 7
-0.066955999 4.73877 -8.5380859 7
-0.066970997 4.7149658 -8.5498047 7
-0.072815001 4.7033691 -8.5869141 7
-0.084495999 4.7037349 -8.6513672 7
-0.0078509999 -0.96215802 -8.8925781 7
-0.006668 -0.98596197 -8.8847656 7
-0.015228 -1.01416 -8.921875 7
-0.0080030002 -1.059448 -8.8828115 7
-0.011711 -1.0855711 -8.8964844 7
-0.011742 -1.109985 -8.8945312 7
-0.021568 -1.163818 -8.9345703 7
-0.014297 -1.1843261 -8.8974609 7
-0.019218 -1.2113039 -8.9179688 7
-0.019317999 -1.260132 -8.9121094 7
-0.123703 -2.1811521 11.801758 7
-0.102516 -2.1368411 11.712891 7
-0.126114 -2.1094971 11.829102 7
-0.126083 -2.084717 11.833984 7
-0.118507 -1.9794919 11.819336 7
-0.118477 -1.955078 11.824219 7
-0.114693 -1.927124 11.810547 7
-0.101814 0.64050299 11.927734 7
-0.091820002 0.662476 11.880859 7
-0.099243 0.68957502 11.914062 7
-0.102928 0.715698 11.929688 7
-0.1091 0.74255401 11.956055 7
-0.111549 0.76831102 11.96582 7
-0.106537 0.79174799 11.941406 7
-0.106491 0.81652802 11.938477 7
-0.11142 0.84326202 11.959961 7
-0.108879 0.86730999 11.946289 7
-0.108849 0.89233398 11.945312 7
-0.101326 0.91406202 11.907227 7
-0.10128 0.93908697 11.905273 7
-0.002106 -0.962524 -8.4003906 7
-0.0047070002 -0.98706102 -8.4091797 7
-0.0022130001 -1.009033 -8.3955078 7
-0.0047840001 -1.033447 -8.4052734 7
-0.0099029997 -1.05896 -8.4248047 7
-0.0061340001 -1.080566 -8.4052734 7
0.00017499999 -1.100342 -8.3740234 7
0.000145 -1.1237791 -8.3720703 7
0.000107 -1.146729 -8.3691406 7
-0.0024870001 -1.1711431 -8.3769531 7
-0.0037990001 -1.1949461 -8.3798828 7
-0.0051190001 -1.218872 -8.3828115 7
-0.005142 -1.241943 -8.3808594 7
-0.015381 -1.270874 -8.4228516 7
-0.210007 -4.424561 -8.3837891 7
-0.21007501 -4.4475098 -8.3730469 7
-0.21012899 -4.4707031 -8.3632812 7
-0.303635 -5.1094971 11.067383 7
-0.29841599 -5.0759282 11.05957 7
-0.29579899 -5.047729 11.060547 7
-0.29579201 -5.0249019 11.073242 7
-0.29188499 -4.9941411 11.069336 7
-0.29187801 -4.9710689 11.081055 7
-0.29577601 -4.9560552 11.108398 7
-0.304901 -4.9510498 11.157227 7
-0.30226901 -4.922852 11.158203 7
-0.295753 -4.8869629 11.144531 7
-0.294449 -4.8612061 11.151367 7
-0.28793299 -4.8256841 11.136719 7
-0.28922299 -4.8051758 11.15332 7
-0.067276001 4.7868652 -7.4628911 7
-0.066024996 4.763062 -7.467773 7
-0.068558 4.7470698 -7.4902339 7
-0.067307003 4.7232671 -7.4951172 7
-0.066040002 4.6993408 -7.5019531 7
-0.067322001 4.6806641 -7.5175781 7
-0.069862001 4.6645508 -7.539062 7
-0.085114002 4.6746831 -7.6113281 7
-0.088950999 4.6610112 -7.6367192 7
-0.090209998 4.6419678 -7.6533198 7
-0.080069996 4.5996089 -7.624023 7
-0.076263003 4.570435 -7.6201172 7
-0.072463997 4.5411382 -7.6152339 7
-0.071204998 4.5168462 -7.6210942 7
-0.072471999 4.4981689 -7.6367192 7
-0.232216 -4.41748 -8.0097656 7
-0.10479 -1.94043 10.879883 7
-0.100708 -1.914551 10.868164 7
-0.100677 -1.892212 10.87207 7
-0.114159 -1.880859 10.932617 7
-0.107384 -1.852905 10.910156 7
-0.101959 -1.82605 10.891602 7
-0.091124997 -1.795166 10.851562 7
-0.092445001 -1.773926 10.861328 7
-0.089729004 -1.74939 10.854492 7
-0.085639998 -1.723999 10.841797 7
-0.096419998 -1.709839 10.889648 7
-0.096382 -1.687378 10.893555 7
-0.092316002 -1.661865 10.882812 7
-0.086898997 -1.635498 10.864258 7
-0.088225998 -1.614014 10.874023 7
-0.168457 4.1643071 10.491211 7
-0.16302501 4.176147 10.460938 7
-0.150879 4.1760249 10.405273 7
-0.148132 4.1925049 10.384766 7
-0.146713 4.2113042 10.369141 7
-0.146667 4.2322998 10.359375 7
-0.146606 4.25354 10.349609 7
-0.143852 4.2697749 10.329102 7
-0.14244799 4.2883301 10.313477 7
-0.14105999 4.3070068 10.298828 7
-0.13965601 4.3253169 10.283203 7
-0.15036 4.3665771 10.314453 7
-0.165077 4.4151611 10.359375 7
-0.171745 4.4492192 10.374023 7
-0.16901401 4.4654541 10.354492 7
-0.314827 -5.1009521 10.131836 7
-0.30496201 -5.0603032 10.109375 7
-0.30496201 -5.0395508 10.12207 7
-0.30495501 -5.0189209 10.132812 7
-0.303543 -4.9953609 10.139648 7
-0.30213901 -4.9719238 10.147461 7
-0.30074301 -4.9483638 10.154297 7
-0.30916601 -4.944458 10.195312 7
-0.31056201 -4.9265141 10.211914 7
-0.30352801 -4.891602 10.199219 7
-0.304932 -4.8736572 10.21582 7
-0.307724 -4.8582759 10.236328 7
-0.30210099 -4.826416 10.228516 7
-0.094489999 -1.916626 10.4375 7
-0.094452001 -1.895264 10.441406 7
-0.08461 -1.865723 10.40918 7
-0.098632999 -1.855835 10.467773 7
-0.092987001 -1.8299561 10.450195 7
-0.097176 -1.81189 10.470703 7
-0.084510997 -1.7805181 10.425781 7
-0.078873001 -1.754639 10.408203 7
-0.081665002 -1.735718 10.423828 7
-0.078818999 -1.712036 10.416992 7
-0.077399999 -1.689575 10.416016 7
-0.084403999 -1.673584 10.447266 7
-0.077353999 -1.647095 10.422852 7
-0.080132 -1.627808 10.4375 7
-0.077308998 -1.604248 10.430664 7
-0.31301901 -5.103271 9.6806641 7
-0.30425999 -5.0657959 9.6640615 7
-0.30670199 -5.052856 9.6855469 7
-0.30815101 -5.0360112 9.7021484 7
-0.30960801 -5.0194092 9.71875 7
-0.30522901 -4.9908452 9.7167969 7
-0.30522901 -4.9711909 9.7285156 7
-0.30668601 -4.9543462 9.7451172 7
-0.308144 -4.9375 9.7617188 7
-0.308128 -4.917603 9.7734385 7
-0.30375701 -4.8894038 9.7695312 7
-0.30375701 -4.8696289 9.78125 7
-0.30664799 -4.8553472 9.8027344 7
-0.30519101 -4.83252 9.8095703 7
-0.30519101 -4.8126221 9.8212891 7
-0.086296 -1.9198 10.051758 7
-0.087723002 -1.9005131 10.060547 7
-0.08625 -1.8787839 10.05957 7
-0.092055999 -1.863281 10.085938 7
-0.092041001 -1.842773 10.09082 7
-0.094925001 -1.824585 10.105469 7
-0.083251998 -1.794678 10.066406 7
-0.077408001 -1.769531 10.048828 7
-0.074470997 -1.7468261 10.041992 7
-0.074447997 -1.72644 10.045898 7
-0.070052996 -1.702759 10.03418 7
-0.077339001 -1.687622 10.066406 7
-0.078750998 -1.668335 10.075195 7
-0.080177002 -1.6488039 10.084961 7
-0.077248 -1.6262209 10.078125 7
-0.074326001 -1.603394 10.071289 7
-0.2295 -4.484375 -6.6210942 7
-0.237 -4.517334 -6.6347661 7
-0.23706099 -4.5362549 -6.624023 7
-0.231171 -4.5438228 -6.59375 7
-0.24015801 -4.579834 -6.6123052 7
-0.23872399 -4.5959468 -6.5966802 7
-0.232811 -4.603394 -6.5664058 7
-0.235847 -4.6278081 -6.5644531 7
-0.237389 -4.6496582 -6.5585942 7
-0.256805 -4.705811 -6.610352 7
-0.246437 -4.7045898 -6.5654302 7
-0.250954 -4.7320561 -6.5693359 7
-0.256973 -4.7624512 -6.578125 7
-0.252563 -4.7727051 -6.5517578 7
-0.25263199 -4.7915039 -6.5400391 7
-0.30561799 -5.0776372 9.2167969 7
-0.31016499 -5.0682368 9.2441406 7
-0.307129 -5.0435791 9.2460938 7
-0.299568 -5.0097661 9.234375 7
-0.30108601 -4.9941411 9.2509766 7
-0.298058 -4.9694819 9.2529297 7
-0.304115 -4.9630132 9.2841797 7
-0.30107901 -4.938354 9.2861328 7
-0.29804999 -4.9135742 9.2880859 7
-0.31317899 -4.9249272 9.3476562 7
-0.31166101 -4.9030762 9.3544922 7
-0.29955301 -4.8604741 9.3271484 7
-0.302582 -4.8476558 9.3496094 7
-0.30409199 -4.8317871 9.3652344 7
-0.30410001 -4.8128662 9.3779297 7
-0.090271004 -1.907715 9.7158203 7
-0.084220998 -1.882812 9.6992188 7
-0.091751002 -1.869507 9.7304688 7
-0.093239002 -1.850952 9.7402344 7
-0.090195 -1.828735 9.734375 7
-0.097740002 -1.815063 9.765625 7
-0.087135002 -1.7869869 9.7314453 7
-0.081055 -1.762573 9.7128906 7
-0.079529002 -1.741699 9.7128906 7
-0.074959002 -1.718506 9.7001953 7
-0.076453999 -1.700073 9.7099609 7
-0.083984002 -1.686157 9.7412109 7
-0.080948003 -1.664062 9.7333984 7
-0.086975001 -1.6488039 9.7607422 7
-0.083922997 -1.6268311 9.7529297 7
-0.31336999 -5.1094971 8.8359385 7
-0.30086499 -5.0662842 8.8115234 7
-0.30555001 -5.058228 8.8378906 7
-0.30242199 -5.0344238 8.8408203 7
-0.29771399 -5.0073242 8.8378906 7
-0.29302999 -4.980103 8.8359385 7
-0.29928601 -4.9752202 8.8662109 7
-0.297737 -4.9543462 8.875 7
-0.29775199 -4.936646 8.8867188 7
-0.30243701 -4.9282231 8.9121094 7
-0.30242899 -4.910522 8.9228516 7
-0.30242899 -4.8925781 8.9355469 7
-0.31027201 -4.8900151 8.9697266 7
-0.30086499 -4.8538818 8.9541016 7
-0.301994 -4.8396001 8.9697266 7
-0.076843001 -1.904663 9.359375 7
-0.087784 -1.89502 9.4033203 7
-0.089332998 -1.877563 9.4130859 7
-0.089302003 -1.8586431 9.4169922 7
-0.083022997 -1.834717 9.3994141 7
-0.098647997 -1.828125 9.4599609 7
-0.084549002 -1.7980959 9.4140615 7
-0.079833999 -1.775391 9.4013672 7
-0.072013997 -1.750366 9.3798828 7
-0.073546998 -1.732666 9.3896484 7
-0.075103998 -1.714844 9.3984385 7
-0.079764999 -1.699585 9.4189453 7
-0.076629996 -1.678223 9.4121094 7
-0.079727001 -1.661621 9.4267578 7
-0.085975997 -1.646973 9.453125 7
-0.078139998 -1.622437 9.4296885 7
-0.081244998 -1.605713 9.4443359 7
-0.059273001 0.97363299 9.4824219 7
-0.062346999 0.99401897 9.4912109 7
-0.057631999 1.01123 9.4726562 7
-0.057594001 1.030273 9.4707031 7
-0.057564002 1.049316 9.4677734 7
-0.055962 1.067627 9.4599609 7
-0.062187001 1.0896 9.4794922 7
-0.062134001 1.108765 9.4765615 7
-0.063666999 1.128662 9.4794922 7
-0.057372998 1.144531 9.4550781 7
-0.068282999 1.169312 9.4912109 7
-0.065117002 1.186646 9.4765615 7
-0.068207003 1.20752 9.4853516 7
-0.071289003 1.228271 9.4941406 7
-0.066559002 1.244751 9.4746094 7
-0.072761998 1.267334 9.4931641 7
-0.23461901 -4.490479 -5.8466802 7
-0.233078 -4.5045171 -5.8310552 7
-0.22994199 -4.5157471 -5.8095698 7
-0.225189 -4.5236821 -5.7851558 7
-0.230042 -4.5498052 -5.789062 7
-0.233299 -4.572876 -5.7871089 7
-0.236549 -4.5958252 -5.7861328 7
-0.233421 -4.606689 -5.765625 7
-0.24637599 -4.6821289 -5.7705078 7
-0.25283101 -4.7115479 -5.7773442 7
-0.256134 -4.751709 -5.764648 7
-0.30452001 -5.1101069 8.3671885 7
-0.30287901 -5.09021 8.3740234 7
-0.304535 -5.0770259 8.3916016 7
-0.296417 -5.0439448 8.3828115 7
-0.298042 -5.0306401 8.3984385 7
-0.28993201 -4.9976811 8.3876953 7
-0.28830001 -4.9777832 8.3945312 7
-0.29319799 -4.9711909 8.4208984 7
-0.29318199 -4.9545898 8.4316406 7
-0.29480699 -4.9411621 8.4482422 7
-0.29482299 -4.924438 8.4609385 7
-0.28995499 -4.8979492 8.4580078 7
-0.291565 -4.8843989 8.4746094 7
-0.29157299 -4.8677979 8.4863281 7
-0.299683 -4.8669429 8.5195312 7
-0.29644799 -4.84375 8.5234385 7
-0.29482299 -4.8236079 8.5302734 7
-0.294815 -4.8067632 8.5410156 7
-0.074013002 -1.900391 9.0234385 7
-0.074005 -1.882202 9.0283203 7
-0.078841999 -1.868408 9.0488281 7
-0.073967002 -1.846191 9.0371094 7
-0.070702001 -1.825439 9.03125 7
-0.082038999 -1.81665 9.0722656 7
-0.085274003 -1.801025 9.0888672 7
-0.073898003 -1.773926 9.0537109 7
-0.072258003 -1.754517 9.0527344 7
-0.06089 -1.727661 9.0195312 7
-0.060867 -1.709717 9.0234385 7
-0.064087003 -1.694214 9.0380859 7
-0.060814001 -1.673584 9.03125 7
-0.060798999 -1.6555181 9.0351562 7
-0.067253001 -1.642334 9.0605469 7
-0.075347997 -1.630249 9.0917969 7
-0.070464998 -1.608521 9.0791016 7
-0.059142999 0.972534 9.1640615 7
-0.051018 0.98730499 9.1337891 7
-0.049362 1.0048831 9.1259766 7
-0.046089001 1.021729 9.1132812 7
-0.047667999 1.040405 9.1162109 7
-0.046021 1.057983 9.1083984 7
-0.044365 1.075439 9.0996094 7
-0.047568999 1.095215 9.1083984 7
-0.055633999 1.1175539 9.1337891 7
-0.062073 1.139038 9.1533203 7
-0.057174999 1.154785 9.1337891 7
-0.062011998 1.1756589 9.1484385 7
-0.063575998 1.1949461 9.1503906 7
-0.061942998 1.212402 9.1425781 7
-0.061905 1.2305911 9.1396484 7
-0.061873998 1.248901 9.1367188 7
-0.068320997 1.270874 9.15625 7
-0.233238 -4.5419922 -5.4150391 7
-0.23826601 -4.5675049 -5.4189448 7
-0.23831899 -4.583374 -5.407227 7
-0.24334 -4.6090088 -5.4111328 7
-0.25501299 -4.6473389 -5.4326172 7
-0.30056801 -5.1116939 7.9375 7
-0.30056801 -5.096313 7.9492192 7
-0.31067699 -5.1013179 7.9873052 7
-0.300583 -5.0653081 7.9726558 7
-0.288818 -5.0256348 7.9550781 7
-0.28544599 -5.0031738 7.9580078 7
-0.28546101 -4.987793 7.969727 7
-0.28714001 -4.975708 7.9863281 7
-0.28378299 -4.9533691 7.9892578 7
-0.28379101 -4.9376221 8.0009766 7
-0.28884101 -4.9321289 8.0263672 7
-0.28884101 -4.9163818 8.0380859 7
-0.27873999 -4.8806152 8.0224609 7
-0.28884101 -4.8851318 8.0605469 7
-0.29220599 -4.875854 8.0820312 7
-0.29390001 -4.8634028 8.0966797 7
-0.29560101 -4.8508301 8.1132812 7
-0.28885701 -4.8217769 8.1074219 7
-0.297279 -4.8222661 8.140625 7
-0.072052002 -1.89563 8.7089844 7
-0.073715001 -1.879761 8.71875 7
-0.075378001 -1.86377 8.7285156 7
-0.068634003 -1.840942 8.7119141 7
-0.068626001 -1.82373 8.7158203 7
-0.075324997 -1.81189 8.7421885 7
-0.087081999 -1.803833 8.7841797 7
-0.070251003 -1.772949 8.734375 7
-0.070229001 -1.755615 8.7382812 7
-0.065163001 -1.734497 8.7275391 7
-0.060097001 -1.713379 8.7148438 7
-0.058417998 -1.694702 8.7138672 7
-0.061760001 -1.679932 8.7285156 7
-0.068458997 -1.66748 8.7529297 7
-0.065071002 -1.647827 8.7460938 7
-0.065056004 -1.630371 8.75 7
-0.065033004 -1.612915 8.7548828 7
-0.061813001 0.97216803 8.8740234 7
-0.055046 0.98681599 8.8486328 7
-0.049995001 1.002319 8.8300781 7
-0.049957 1.019775 8.8271484 7
-0.049919002 1.037354 8.8251953 7
-0.048202999 1.053955 8.8173828 7
-0.051537 1.07312 8.8261719 7
-0.046471 1.088379 8.8066406 7
-0.054816999 1.109985 8.8320312 7
-0.048073001 1.124146 8.8066406 7
-0.066513002 1.151001 8.8662109 7
-0.066482998 1.1687011 8.8632812 7
-0.064765997 1.185303 8.8544922 7
-0.068069004 1.204834 8.8623047 7
-0.061324999 1.21875 8.8369141 7
-0.064658999 1.2381589 8.8457031 7
-0.064621001 1.2557369 8.8427734 7
-0.06459 1.273315 8.8398438 7
-0.079147004 4.7658691 -4.5830078 7
-0.065932997 4.723877 -4.5585942 7
-0.065932997 4.7095952 -4.5693359 7
-0.067596003 4.6986079 -4.5849609 7
-0.070891999 4.6912842 -4.6044922 7
-0.067580998 4.6699219 -4.6064448 7
-0.075836003 4.6726069 -4.640625 7
-0.070877001 4.6480708 -4.6376948 7
-0.067580998 4.626709 -4.639648 7
-0.069228999 4.615479 -4.65625 7
-0.070868999 4.6044922 -4.670898 7
-0.075828999 4.5999761 -4.6962891 7
-0.082428001 4.5987549 -4.7255859 7
-0.095633999 4.6108398 -4.7714839 7
-0.093987003 4.5926509 -4.7783198 7
-0.087364003 4.5645752 -4.7714839 7
-0.080757 4.5366211 -4.764648 7
-0.082413003 4.525146 -4.7792969 7
-0.077468999 4.5003662 -4.7763672 7
-0.080765001 4.492188 -4.795898 7
-0.29513499 -5.1179199 7.515625 7
-0.30036199 -5.1141362 7.5410161 7
-0.28643799 -5.0710449 7.5195308 7
-0.30036899 -5.085083 7.5654302 7
-0.295174 -5.059814 7.5654302 7
-0.28471401 -5.0238042 7.5517578 7
-0.28124201 -5.0024409 7.554688 7
-0.28124201 -4.987793 7.5664058 7
-0.28474399 -4.980103 7.5869141 7
-0.28125799 -4.9584961 7.5898442 7
-0.28475201 -4.9508061 7.610352 7
-0.28126499 -4.9290771 7.6132808 7
-0.28128099 -4.9145508 7.625 7
-0.279533 -4.8963618 7.6318359 7
-0.28127301 -4.8850098 7.648438 7
-0.288261 -4.8839111 7.6767578 7
-0.290001 -4.872437 7.6923828 7
-0.28302801 -4.8438721 7.6875 7
-0.28826901 -4.8391109 7.710938 7
-0.08326 -1.9180911 8.453125 7
-0.074538998 -1.894043 8.4306641 7
-0.076270998 -1.878906 8.4404297 7
-0.074509002 -1.86084 8.4394531 7
-0.070998996 -1.841431 8.4326172 7
-0.065765001 -1.820435 8.4208984 7
-0.083159998 -1.817871 8.4794922 7
-0.079666004 -1.798218 8.4736328 7
-0.063971996 -1.769165 8.4277344 7
-0.070923001 -1.7581789 8.4541016 7
-0.060478002 -1.733276 8.4267578 7
-0.062180001 -1.7180181 8.4355469 7
-0.062164001 -1.7012939 8.4394531 7
-0.058669999 -1.682129 8.4335938 7
-0.058655001 -1.6656491 8.4375 7
-0.056885 -1.647705 8.4355469 7
-0.07254 -1.642334 8.4882812 7
-0.060341001 -1.6168211 8.453125 7
-0.060325999 -1.600098 8.4580078 7
-0.050163001 0.96545398 8.5576172 7
-0.055344 0.98461902 8.5712891 7
-0.046622999 0.99768102 8.5410156 7
-0.044853002 1.013672 8.5332031 7
-0.041343998 1.028809 8.5195312 7
-0.041320998 1.045776 8.5175781 7
-0.044762 1.0643311 8.5263672 7
-0.042975999 1.0802 8.5175781 7
-0.044684999 1.097778 8.5205078 7
-0.042931002 1.113647 8.5126953 7
-0.046363998 1.132202 8.5205078 7
-0.051552001 1.151733 8.5351562 7
-0.048027001 1.16687 8.5205078 7
-0.058440998 1.189209 8.5527344 7
-0.063621998 1.2088619 8.5664062 7
-0.060097001 1.223877 8.5517578 7
-0.053116001 1.237061 8.5273438 7
-0.061783001 1.2587889 8.5527344 7
-0.056519002 1.272705 8.5322266 7
-0.084801003 4.776001 -4.2255859 7
-0.074532002 4.7410889 -4.2099609 7
-0.076233 4.7312012 -4.226562 7
-0.074524 4.7139888 -4.233398 7
-0.072800003 4.6968989 -4.2402339 7
-0.072806999 4.6833501 -4.2519531 7
-0.071098 4.6663818 -4.257812 7
-0.071091004 4.652832 -4.2685552 7
-0.069374003 4.6356201 -4.2753911 7
-0.069366001 4.6220698 -4.2861328 7
-0.067649998 4.6047359 -4.2939448 7
-0.072783999 4.601685 -4.3164058 7
-0.083045997 4.6086431 -4.3554692 7
-0.093307003 4.6158452 -4.391602 7
-0.088165 4.5915532 -4.389648 7
-0.089873999 4.5811772 -4.405273 7
-0.084747002 4.5568848 -4.4023442 7
-0.077904001 4.5292969 -4.3964839 7
-0.081306003 4.5222168 -4.4150391 7
-0.081306003 4.5081792 -4.4267578 7
-0.077887997 4.4875488 -4.4287109 7
-0.083022997 4.4836431 -4.452148 7
-0.30150601 -4.8624272 7.3818359 7
-0.069983996 -1.9021 8.1435547 7
-0.075363003 -1.890625 8.1630859 7
-0.077147998 -1.8762209 8.1728516 7
-0.078933999 -1.861694 8.1835938 7
-0.075309999 -1.842773 8.1767578 7
-0.075317003 -1.82666 8.1816406 7
-0.077087 -1.812012 8.1904297 7
-0.080688 -1.7987061 8.2070312 7
-0.073463 -1.776978 8.1884766 7
-0.066246003 -1.755493 8.1708984 7
-0.060837001 -1.7351069 8.1591797 7
-0.064423002 -1.722046 8.1748047 7
-0.062606998 -1.70459 8.1728516 7
-0.064392 -1.689941 8.1826172 7
-0.060782999 -1.671265 8.1757812 7
-0.058959998 -1.653809 8.1748047 7
-0.060752999 -1.63916 8.1835938 7
-0.069739997 -1.629517 8.2158203 7
-0.064315997 -1.609619 8.203125 7
-0.055702001 0.96582001 8.3144531 7
-0.048477001 0.97900403 8.2900391 7
-0.053833 0.99755901 8.3046885 7
-0.059188999 1.016235 8.3183594 7
-0.050186001 1.028564 8.2880859 7
-0.050156001 1.0448 8.2851562 7
-0.048317 1.060181 8.2783203 7
-0.051895 1.078247 8.2871094 7
-0.051865 1.0944819 8.2841797 7
-0.050011002 1.109741 8.2753906 7
-0.053589001 1.127808 8.2841797 7
-0.053557999 1.144165 8.28125 7
-0.066101 1.16687 8.3173828 7
-0.058883999 1.1793211 8.2919922 7
-0.062431 1.19751 8.3007812 7
-0.066009998 1.21582 8.3095703 7
-0.058784001 1.2281491 8.2841797 7
-0.055153001 1.2425539 8.2695312 7
-0.062309001 1.262817 8.2890615 7
-0.064071998 1.279907 8.2910156 7
-0.13799299 4.164185 7.3505859 7
-0.132576 4.1682129 7.327148 7
-0.136108 4.1888428 7.3261719 7
-0.13606299 4.2028809 7.3164058 7
-0.14496601 4.2329102 7.328125 7
-0.159233 4.2729492 7.3544922 7
-0.14308199 4.2574458 7.3037109 7
-0.137657 4.2614751 7.280273 7
-0.132248 4.2653809 7.2568359 7
-0.12862401 4.2727051 7.2373052 7
-0.13037901 4.2896729 7.2324219 7
-0.126755 4.296875 7.2138672 7
-0.12849399 4.3139648 7.2080078 7
-0.133827 4.337769 7.2119141 7
-0.128418 4.341187 7.188477 7
-0.128365 4.3548579 7.1777339 7
-0.12831099 4.3684082 7.1669922 7
-0.12648 4.3786621 7.1523442 7
-0.124649 4.3887939 7.1376948 7
-0.131767 4.4161382 7.1455078 7
-0.13529199 4.4362788 7.1435552 7
-0.135254 4.4498291 7.132812 7
-0.138771 4.4702148 7.1308589 7
-0.090484999 4.780396 -3.8886721 7
-0.086944997 4.7602539 -3.891602 7
-0.079887003 4.7329102 -3.8847661 7
-0.076332003 4.712646 -3.8876951 7
-0.074561998 4.6964111 -3.894531 7
-0.076324001 4.6872559 -3.9091799 7
-0.078087002 4.6782231 -3.9248049 7
-0.076324001 4.6618652 -3.9316411 7
-0.072783999 4.6418462 -3.933594 7
-0.072783999 4.6289058 -3.9443359 7
-0.076324001 4.623291 -3.9638669 7
-0.076301999 4.610352 -3.9746089 7
-0.076301999 4.5975342 -3.9863279 7
-0.085135996 4.6026611 -4.0195308 7
-0.090438999 4.6003418 -4.0429692 7
-0.097503997 4.60144 -4.0712891 7
-0.095748998 4.5847168 -4.077148 7
-0.090438999 4.5610352 -4.0751948 7
-0.088653997 4.544312 -4.0820308 7
-0.083351001 4.5205078 -4.0800781 7
-0.079819001 4.5004878 -4.0810552 7
-0.083351001 4.4943848 -4.101562 7
-0.093956001 4.5020752 -4.1376948 7
-0.137909 0.735888 12.302687 7
-0.113579 -1.77069 11.112674 7
-0.326814 -4.9616909 10.965052 7
-0.100855 -1.855354 10.326687 7
-0.067506999 -1.864799 9.5098534 7
-0.056793001 -1.610449 9.500267 7
-0.034143001 1.002345 9.4688063 7
-0.034364 1.229287 9.4283371 7
-0.377902 -4.942245 9.8460665 7
-0.33933699 -5.0715828 8.674427 7
-0.34496999 -4.890367 8.8990564 7
-0.089649998 -1.853714 8.8173828 7
-0.085106 -1.64185 8.8584785 7
-0.059921 1.095204 8.8425207 7
-0.30800799 -5.109169 7.6505909 7
-0.290732 -4.8577652 7.787519 7
-0.080773003 -1.8966841 8.3835735 7
-0.057932999 -1.661633 8.3249969 7
-0.052515998 1.0133981 8.4854059 7
-0.053904999 1.200938 8.4508057 7
-0.132487 4.2995391 6.9501958 7
-0.118591 4.3527842 6.72858 7
-0.25049201 -4.934957 6.6073799 7
-0.25703099 -4.8145332 6.8736229 7
-0.052723002 -1.714694 7.9692392 7
-0.025010999 1.083055 8.0202303 7
-0.040584002 1.276147 8.0599346 7
-0.017304 1.163378 7.7068462 7
-0.28802001 -4.840723 5.8312011 7
-0.104985 -1.7886781 7.7135959 7
-0.090017997 -1.601977 7.712091 7
-0.061092999 1.01229 7.7610788 7
-0.085089996 -1.7934411 7.3656569 7
-0.072857 -1.625903 7.3816261 7
-0.078786999 -1.819973 7.103488 7
-0.063428 -1.655614 7.1120119 7
-0.072011001 -1.837584 6.8599882 7
-0.062419001 -1.695485 6.8956351 7
0.093358003 -1.272248 -13.743953 7
0.008963 -1.18556 -8.3460398 7
0.024828 -1.523132 -5.76406 7
-0.018528 0.80986398 11.990578 7
0.043446001 -1.467013 -4.7837381 7
-0.118288 -2.1055069 11.628507 7
-0.039278999 -1.428194 -4.1428709 7
-0.37366799 -4.8560538 10.912549 7
-0.149764 -1.976146 10.651226 7
-0.10662 -1.6441621 10.443838 7
0.001877 -1.3824511 -3.3336811 7
-0.329844 -5.030869 9.8206081 7
-0.10155 -1.873688 9.8653269 7
-0.30242801 -4.9482012 9.1172047 7
-0.078708 -1.802577 9.3216 7
-0.34324899 -4.8507628 8.484539 7
-0.099535003 -1.727037 8.7513199 7
-0.330264 -5.043673 7.7797999 7
-0.326987 -4.8500781 7.9454188 7
-0.106758 -1.908653 8.4383526 7
-0.068158001 -1.669279 8.3076096 7
-0.069935001 -1.834576 8.0095501 7
-0.053489 -1.627017 7.984282 7
-0.27039501 -4.9459009 6.6819501 7
-0.273509 -4.814682 6.8599119 7
-0.057999998 -1.785774 7.7285371 7
-0.33579701 -5.0519142 6.2165828 7
-0.30865401 -4.8485579 6.3233328 7
-0.100411 -1.744856 7.499269 7
-0.30155501 -4.8945432 5.856678 7
-0.097117998 -1.877895 7.2588472 7
-0.080380999 -1.7004139 7.24226 7
-0.015961001 -1.385125 -0.58855301 7
-0.034100998 -1.55258 -0.624533 7
-0.07051 -1.821817 6.9991598 7
-0.053484999 -1.655306 6.9806018 7
-0.0074069998 -1.366277 -0.397811 7
-0.016767999 -1.521155 -0.400985 7
-0.047782999 -1.917456 6.7267652 7
-0.059324998 -1.781262 6.8121271 7
-0.038734 -1.620779 6.7810302 7
-0.044300001 4.6944919 -3.7429931 7
-0.208323 4.1884332 10.339661 7
-0.040665001 1.222771 9.572588 7
-0.083531998 1.202545 9.0606279 7
-0.054358002 0.962129 8.6268349 7
-0.060617998 1.242794 8.6044254 7
-0.033794999 0.96486199 8.2369881 7
-0.047417998 1.226761 8.2551718 7
-0.16331901 4.1626539 7.2110062 7
-0.160275 4.299727 7.0445018 7
-0.150443 4.4089231 6.8526912 7
-0.022761 1.015853 7.9226971 7
-0.030717 1.211697 7.9239368 7
-0.020773999 4.9572611 -14.694842 7
0.058166001 0.67486697 -12.85506 7
-0.21127699 -4.4029942 -12.796022 7
-0.151467 4.7998462 -11.48595 7
-0.020282 -1.113629 -8.4238577 7
-0.091738001 4.658936 -8.5730581 7
-0.010619 -1.200339 -7.2645831 7
-0.001837 -1.432011 -7.1114311 7
-0.314619 -6.1421461 -9.8808746 7
0.010533 -1.440635 -6.2042141 7
-0.031381998 -1.40606 -5.551671 7
-0.25888601 -4.4810019 -6.5012059 7
-0.084834002 4.7429371 -3.9838309 7
-0.090680003 4.6381769 -4.191896 7
-0.094688997 4.5100632 -4.3859591 7
-0.022177 -1.42308 -5.0347991 7
-0.232623 -4.5412178 -5.362309 7
-0.017183 -1.442111 -4.627687 7
-0.214046 -4.5473661 -4.4101982 7
-0.20595101 -4.6497622 -4.1970348 7
0.00056299998 -1.282391 -4.2423658 7
-0.014178 -1.459294 -4.2899389 7
-0.026466999 -1.29663 -3.939198 7
-0.042637002 -1.462356 -3.978837 7
-0.018948 -1.306067 -3.676441 7
-0.034244999 -1.458937 -3.7035079 7
-0.039611999 -1.5855581 -3.673233 7
-0.012959 -1.313327 -3.448595 7
-0.020943001 -1.435519 -3.43437 7
-0.025660999 -1.548839 -3.3994551 7
-0.0051970002 -1.310318 -3.2350531 7
