# .PCD v0.7 - Point Cloud Data file format
VERSION 0.7
FIELDS x y z intensity
SIZE 4 4 4 4
TYPE F F F F
COUNT 1 1 1 1
WIDTH 243
HEIGHT 1
VIEWPOINT 0 0 0 1 0 0 0
POINTS 243
DATA ascii
-0.203857 -4.2441411 58.162781 7
-0.53143299 -2.063477 -67.033752 7
-0.70172101 -5.2587891 -70.818665 7
-0.67633098 -5.3808589 -70.152344 7
-0.59814501 -2.0488279 -59.134338 7
-0.70550501 -5.2294922 -64.02655 7
-0.68310499 -5.3417969 -63.494873 7
-0.59179699 -1.891602 -56.849487 7
-0.60156202 -2.0371089 -57.037354 7
-0.546875 2.3613279 -48.567139 7
-0.55255097 2.246094 -48.67749 7
-0.58715802 -1.814453 -47.403687 7
-0.54400599 2.3994141 -44.665344 7
-0.54974401 2.2939451 -44.770081 7
-0.18414301 -4.4619141 35.777039 7
-0.22699 -4.3769531 36.424072 7
-0.575378 2.226562 -41.338928 7
-0.60778803 -1.7587889 -40.592163 7
0.373779 13.391602 -20.911133 7
0.36975101 13.367188 -20.992981 7
0.374695 13.279297 -20.963867 7
0.36871299 13.269531 -21.070862 7
0.43621799 12.69043 -18.103455 7
0.43450901 12.655273 -18.152893 7
0.43109101 12.633789 -18.222168 7
-0.030151 -1.1630861 27.973816 7
-0.043152001 -1.106445 28.134033 7
-0.042479999 -0.98046899 28.133606 7
0.357788 11.833008 -17.962219 7
0.35833699 11.736328 -18.012634 7
0.36169401 11.668945 -18.00531 7
0.36450201 11.604492 -18.002319 7
0.36492899 11.554688 -18.024475 7
-0.040833 -1.264648 26.273743 7
-0.040587999 -1.0888669 26.282837 7
-0.024231 -1.232422 24.535828 7
-0.017395001 -1.172852 24.468933 7
-0.025696 -1.12207 24.559265 7
-0.029479999 -1.0693361 24.6026 7
-0.026062001 -1.013672 24.570496 7
-0.0177 -1.201172 23.03772 7
-1.407715 -20.226562 -23.7995 7
-1.413879 -20.318359 -23.791809 7
-1.41748 -20.395508 -23.765991 7
-0.22430401 -4.7236328 20.683655 7
-0.202393 -4.6357422 20.519897 7
-0.201599 -4.5898442 20.525513 7
-0.211426 -4.5625 20.615601 7
-0.21777301 -4.5292969 20.677429 7
-0.226807 -4.5 20.762024 7
-0.040955 -1.582031 14.093079 7
-0.040894002 -1.5517581 14.097046 7
-0.044861 -1.523438 14.12384 7
-0.041747998 -1.4912111 14.110657 7
-0.038635001 -1.429688 14.100647 7
-0.038573999 -1.369141 14.107605 7
-0.041503999 -1.34082 14.128113 7
-0.045531999 -1.314453 14.154602 7
-0.045471001 -1.283203 14.15802 7
-0.20013399 -4.789062 13.555725 7
-0.195923 -4.7519531 13.545654 7
-0.18640099 -4.704102 13.508667 7
-0.18432599 -4.671875 13.509338 7
-0.183167 -4.640625 13.515259 7
-0.188416 -4.6230469 13.553345 7
-0.19360401 -4.6025391 13.591248 7
-0.19989 -4.585938 13.634827 7
-0.195618 -4.5488281 13.624268 7
-0.184021 -4.4980469 13.575806 7
-0.18158001 -4.7988281 12.777649 7
-0.180481 -4.7695308 12.783875 7
-0.170471 -4.7216802 12.747559 7
-0.167114 -4.6904302 12.743164 7
-0.162659 -4.6533198 12.732971 7
-0.162659 -4.6269531 12.744263 7
-0.16595501 -4.6064448 12.771301 7
-0.040527001 -1.577148 12.944702 7
-0.040465999 -1.549805 12.948669 7
-0.038268998 -1.5205081 12.94104 7
-0.041503999 -1.4951169 12.961975 7
-0.042541999 -1.46875 12.971375 7
-0.035889 -1.4375 12.940918 7
-0.038024999 -1.412109 12.95575 7
-0.039124001 -1.3857419 12.965088 7
-0.04126 -1.358398 12.979919 7
-0.044555999 -1.3330081 13.000305 7
-0.044495001 -1.3056639 13.003784 7
-0.033569001 -1.269531 12.462402 7
-0.033507999 -1.217773 12.46875 7
-0.034363002 -1.59082 11.933899 7
-0.034363002 -1.566406 11.937744 7
-0.035461001 -1.5419919 11.947266 7
-0.036559999 -1.517578 11.956726 7
-0.033020001 -1.490234 11.943542 7
-0.031799 -1.464844 11.941589 7
-0.035278 -1.441406 11.962036 7
-0.032837 -1.416016 11.954651 7
-0.032837 -1.390625 11.957825 7
-0.035156 -1.367188 11.972961 7
-0.039978001 -1.345703 11.999146 7
-0.041076999 -1.3212889 12.008179 7
-0.036254998 -1.292969 11.988586 7
-0.029967999 -1.594727 11.481384 7
-0.033629999 -1.549805 11.506165 7
-0.027344 -1.521484 11.48175 7
-0.033507999 -1.4775389 11.517456 7
-0.029724 -1.451172 11.504272 7
-0.027283 -1.425781 11.49646 7
-0.027161 -1.402344 11.500183 7
-0.026062001 -1.589844 11.003601 7
-0.028564001 -1.568359 11.018738 7
-0.028503001 -1.545898 11.022583 7
-0.025878999 -1.499023 11.01886 7
-0.021973001 -1.4736331 11.005737 7
-0.019286999 -1.425781 11.001709 7
-0.017944001 -1.402344 10.999695 7
-0.017944001 -1.3798831 11.003113 7
-0.024352999 -1.360352 11.034973 7
-0.025574001 -1.31543 11.047119 7
-0.024231 -1.2919919 11.044983 7
-0.026611 -1.5888669 9.885437 7
-0.026611 -1.5693361 9.8895874 7
-0.026550001 -1.548828 9.8933716 7
-0.026489001 -1.529297 9.8973389 7
-0.026550001 -1.509766 9.9011841 7
-0.023560001 -1.486328 9.8936768 7
-0.022095 -1.46582 9.8919067 7
-0.022034001 -1.445312 9.8952637 7
-0.0177 -1.422852 9.8822632 7
-0.017639 -1.40332 9.8860474 7
-0.017578 -1.3818361 9.8892212 7
-0.021911999 -1.365234 9.909668 7
-0.02179 -1.304688 9.9195557 7
-0.035828002 -1.359375 9.6174316 7
-0.037354 -1.339844 9.6265259 7
-0.03125 -1.3173831 9.6075439 7
-0.03125 -1.298828 9.6108398 7
-0.027100001 -1.594727 8.9296885 7
-0.022217 -1.5732419 8.9171143 7
-0.022156 -1.554688 8.9208374 7
-0.022156 -1.5380861 8.9249268 7
-0.022156 -1.5205081 8.9287109 7
-0.022095 -1.501953 8.9325562 7
-0.022095 -1.484375 8.9361572 7
-0.017212 -1.462891 8.9232788 7
-0.017151 -1.4443361 8.927002 7
-0.017151 -1.427734 8.930603 7
-0.018738 -1.410156 8.9395752 7
-0.020324999 -1.393555 8.9487305 7
-0.017029 -1.374023 8.9411011 7
-0.016968001 -1.302734 8.9545898 7
-0.012024 -1.282227 8.9413452 7
-0.026977999 -1.5849611 8.6260376 7
-0.021911999 -1.563477 8.6135864 7
-0.026854999 -1.532227 8.6375732 7
-0.030212 -1.518555 8.6525879 7
-0.025146 -1.49707 8.6397715 7
-0.015076 -1.4736331 8.6106567 7
-0.020020001 -1.443359 8.6345205 7
-0.020020001 -1.4267581 8.6379395 7
-0.019958001 -1.390625 8.6449575 7
-0.036743 -1.3857419 8.7037964 7
-0.026611 -1.361328 8.6742554 7
-0.019835999 -1.339844 8.6553345 7
-0.014832 -1.304688 8.6456909 7
-0.013123 -1.2861331 8.6434326 7
-0.50140399 -8.5498047 0.011414 7
-0.50146502 -8.5566406 0.052429002 7
-0.49645999 -8.5478516 0.116211 7
-0.496521 -8.5498047 0.13659699 7
-0.48962399 -8.5302734 0.159973 7
-0.50012201 -8.5673828 0.176208 7
-0.49664301 -8.5585938 0.19812 7
-0.500305 -8.5800781 0.27880901 7
-0.50213599 -8.5878906 0.29864499 7
-0.022583 -1.5888669 8.3323364 7
-0.022583 -1.5712889 8.3363037 7
-0.019043 -1.552734 8.3292847 7
-0.024292 -1.5400389 8.3495483 7
-0.019043 -1.519531 8.3370972 7
-0.019043 -1.503906 8.3406982 7
-0.017273 -1.486328 8.3391113 7
-0.012024 -1.46582 8.326355 7
-0.015442 -1.452148 8.3408203 7
-0.011963 -1.4326169 8.3336182 7
-0.015381 -1.418945 8.3481445 7
-0.015381 -1.40332 8.3517456 7
-0.015381 -1.387695 8.3554688 7
-0.029297 -1.378906 8.4025879 7
-0.025757 -1.360352 8.3950806 7
-0.020508001 -1.341797 8.3820801 7
-0.020508001 -1.324219 8.385498 7
-0.01178 -1.302734 8.3612671 7
-0.015259 -1.289062 8.3756714 7
-0.0097519998 -1.430884 12.802811 7
-0.064690001 -1.529389 11.44914 7
-0.0030749999 -1.393243 9.6109047 7
-0.025126001 -1.514635 8.4874535 7
-0.026134999 -1.328871 8.5499105 7
-0.131023 -4.74962 5.3073788 7
-0.134627 -4.7018242 5.5078011 7
-0.138262 -4.6458731 5.706512 7
-0.14482901 -4.5978289 5.9095998 7
-0.14654 -4.514729 6.0997758 7
-0.001912 -1.597231 7.702127 7
0.0060439999 -1.425553 7.7200599 7
0.066421002 -0.296386 3.9616921 7
0.073728003 -0.29678899 3.9753499 7
0.066868 -0.30425301 4.133049 7
0.03633 -0.31285101 4.1593142 7
0.082845002 -0.28800899 3.991035 7
0.050209999 -0.30002999 4.010684 7
0.083356999 -0.28583601 4.0227389 7
0.060897999 -0.29039401 4.0403419 7
0.067569003 -0.28802401 4.0557451 7
0.071171001 -0.27846101 4.0706348 7
0.051134001 -0.28636399 4.088706 7
0.070552997 -0.26822799 4.1015501 7
0.060773 -0.26999801 4.116261 7
0.061494999 -0.26575199 4.133038 7
0.078139 -0.25473201 4.1448112 7
-0.01646 -1.442664 12.560729 7
0.020412 -1.388973 11.40539 7
-0.024148 -1.597126 9.8969574 7
-0.015126 -1.31701 9.896246 7
0.016651001 -1.502617 8.828371 7
0.033743002 -1.4651819 8.4048777 7
0.016958 -1.401886 7.699883 7
-0.22383 -4.7855849 6.2073169 7
-0.213434 -4.6322889 6.3412352 7
-0.204274 -4.7784991 5.7207818 7
-0.18488599 -4.6159348 5.8369179 7
-0.18475699 -4.5083871 5.989531 7
-0.171872 -4.7004008 5.2476902 7
-0.16750599 -4.6026459 5.3946218 7
-0.173853 -4.5321598 5.5587091 7
-0.176476 -4.9404802 4.18469 7
-0.17409401 -4.8893909 4.3465681 7
-0.170726 -4.7735939 4.6645198 7
-0.153634 -4.6572919 4.79848 7
-0.157391 -4.6025772 4.9568319 7
-0.14662001 -4.496686 5.0897908 7
-0.18173601 -4.530664 4.572742 7
