# .PCD v0.7 - Point Cloud Data file format
VERSION 0.7
FIELDS x y z intensity
SIZE 4 4 4 4
TYPE F F F F
COUNT 1 1 1 1
WIDTH 225
HEIGHT 1
VIEWPOINT 0 0 0 1 0 0 0
POINTS 225
DATA ascii
-0.235229 -4.2861328 49.533997 7
-0.253052 -4.203125 49.899597 7
-0.28515601 -4.1435552 50.550537 7
-0.55047601 -1.8193361 -54.694458 7
-0.58850098 -1.978516 -55.461121 7
-0.53826898 -1.7724611 -49.556824 7
-0.25671399 -4.2861328 42.849121 7
-0.51373303 2.2373049 -48.751343 7
-0.52410901 2.125977 -48.943237 7
-0.56536901 -1.875977 -46.086975 7
0.57257098 16.180664 -21.576965 7
0.56884801 16.162109 -21.667908 7
0.56878698 16.106445 -21.705811 7
-0.53326398 2.191406 -45.181763 7
-0.545044 2.0888669 -45.385254 7
-0.56268299 -1.921875 -42.095703 7
-0.20214801 -4.4121089 36.031189 7
-0.557495 -1.695312 -39.175964 7
-0.54846197 -1.8818361 -39.026917 7
-0.75396699 -5.0761719 -41.692139 7
-0.25085399 -4.3037109 34.56665 7
-0.068847999 -1.1357419 32.379517 7
0.53649902 14.079102 -18.660339 7
0.54144299 13.987305 -18.631104 7
0.408508 13.074219 -21.514587 7
0.40960699 13.009766 -21.529846 7
0.40374801 12.998047 -21.63678 7
0.39862099 12.979492 -21.733948 7
0.403198 12.888672 -21.703003 7
0.456604 12.970703 -18.460022 7
0.457764 12.914062 -18.475647 7
0.45477301 12.888672 -18.540527 7
0.45733601 12.822266 -18.541199 7
0.45892301 12.760742 -18.551575 7
-0.048278999 -1.107422 28.157593 7
0.387573 11.495117 -18.491699 7
0.39166301 11.422852 -18.473206 7
0.38934299 11.388672 -18.52533 7
0.393372 11.314453 -18.506165 7
0.390991 11.28125 -18.558289 7
0.393677 11.216797 -18.554077 7
0.39679 11.149414 -18.544739 7
-0.19049101 -4.5273442 27.515381 7
-0.218628 -4.4560552 27.847656 7
-0.22644 -4.4082031 27.94458 7
-0.041443001 -1.264648 26.25647 7
-0.052306999 -1.2119139 26.38208 7
-0.036072001 -1.144531 26.204346 7
-0.043823 -1.089844 26.294678 7
-0.051575001 -1.03418 26.384705 7
-0.044188999 -0.97167999 26.305786 7
0.312195 9.5419922 -18.598816 7
0.317505 9.4677734 -18.563049 7
0.317444 9.4199219 -18.585388 7
0.32080099 9.3535156 -18.57019 7
0.319763 9.3105469 -18.602844 7
0.31579599 9.2822266 -18.667114 7
-0.033142 -1.345703 24.599304 7
-0.031920999 -1.2900389 24.59082 7
-0.029541001 -1.1787111 24.573669 7
-0.034485001 -1.125977 24.62915 7
-0.040649001 -1.265625 23.244019 7
-0.038208 -1.212891 23.223999 7
-0.030456999 -1.15625 23.151428 7
-0.035156 -1.109375 23.200806 7
-0.041625999 -1.060547 23.2677 7
-0.037475999 -1.007812 23.229553 7
-1.949158 -33.974609 -18.138489 7
-1.956848 -34.083008 -18.092224 7
-1.975525 -34.28125 -18.096985 7
-0.050232001 -1.248047 22.08136 7
-1.491089 -20.839844 -24.314636 7
-0.031860001 -1.208984 20.697449 7
-0.040771 -1.3662111 19.729919 7
-0.053406 -1.332031 19.837524 7
-0.051941 -1.287109 19.829285 7
-0.253479 -4.7792969 19.770996 7
-0.243774 -4.7167969 19.70929 7
-0.232544 -4.6523442 19.636536 7
-0.21606401 -4.577148 19.52356 7
-0.22277801 -4.546875 19.585388 7
-0.23168901 -4.5195308 19.66394 7
-0.23461901 -4.4824219 19.697327 7
-0.060180999 -1.5068361 17.916138 7
-0.060120001 -1.467773 17.919983 7
-0.057739001 -1.4267581 17.906128 7
-0.051330999 -1.384766 17.863647 7
-0.051270001 -1.344727 17.867004 7
-0.053649999 -1.3076169 17.887573 7
-0.042174999 -1.37793 16.911926 7
-0.046264999 -1.342773 16.944275 7
-0.047058001 -1.306641 16.953247 7
-0.042785998 -1.1943361 16.933899 7
-0.220459 -4.7763672 13.690979 7
-0.214111 -4.734375 13.670471 7
-0.20678701 -4.6904302 13.644348 7
-0.198303 -4.6445308 13.612427 7
-0.198303 -4.6162109 13.623535 7
-0.199402 -4.5888672 13.640076 7
-0.20562699 -4.5732422 13.683472 7
-0.21197499 -4.5566411 13.72699 7
-0.203491 -4.5097661 13.694458 7
-0.207642 -4.7724609 12.945312 7
-0.213135 -4.7558589 12.983582 7
-0.206543 -4.7158198 12.963013 7
-0.192139 -4.6601558 12.905029 7
-0.189941 -4.6289058 12.905579 7
-0.189941 -4.601562 12.916565 7
-0.190979 -4.5761719 12.933105 7
-0.200928 -4.5673828 12.992371 7
-0.19873001 -4.5361328 12.992554 7
-0.198669 -4.5087891 13.003479 7
-0.050537001 -1.5849611 12.996094 7
-0.050537001 -1.5576169 12.999939 7
-0.050537001 -1.529297 13.003784 7
-0.049377002 -1.500977 13.001892 7
-0.049316 -1.4736331 13.005676 7
-0.050476 -1.447266 13.014954 7
-0.046021 -1.416016 12.995789 7
-0.048156999 -1.390625 13.01062 7
-0.046997 -1.362305 13.008362 7
-0.049254999 -1.3369139 13.023438 7
-0.05249 -1.311523 13.043823 7
-0.05249 -1.28418 13.047058 7
-0.203796 -4.796875 12.342407 7
-0.189209 -4.717773 12.296509 7
-0.183411 -4.6542969 12.292847 7
-0.18689001 -4.610352 12.330933 7
-0.19598401 -4.6005859 12.384277 7
-0.20062301 -4.5839839 12.416626 7
-0.197083 -4.5244141 12.422668 7
-0.046204001 -1.576172 11.994446 7
-0.048583999 -1.5517581 12.009644 7
-0.046142999 -1.525391 12.002258 7
-0.046082001 -1.5 12.00592 7
-0.049683001 -1.478516 12.026733 7
-0.041320998 -1.447266 11.990479 7
-0.040100001 -1.421875 11.988586 7
-0.044861 -1.3994139 12.014893 7
-0.044799998 -1.374023 12.018188 7
-0.044799998 -1.3486331 12.021851 7
-0.04834 -1.326172 12.042114 7
-0.050719999 -1.3017581 12.057007 7
-0.51538098 -8.5087891 -5.1077271 7
-0.519714 -8.5371094 -5.0975952 7
-0.52270502 -8.5605469 -5.0839229 7
-0.52423102 -8.5810547 -5.0666499 7
-0.52282703 -8.5908203 -5.0427251 7
-0.52002001 -8.5966797 -5.0154419 7
-0.52294898 -8.6201172 -5.0015869 7
-0.518677 -8.6230469 -4.9709468 7
-0.028441999 -1.5869139 9.2566528 7
-0.031493999 -1.533203 9.2794189 7
-0.02832 -1.512695 9.2722168 7
-0.020508001 -1.451172 9.2556152 7
-0.025208 -1.398438 8.9653931 7
-0.023499001 -1.361328 8.9667969 7
-0.028380999 -1.34668 8.9868164 7
-0.021850999 -1.324219 8.9680176 7
-0.021850999 -1.306641 8.9713755 7
-0.02832 -1.292969 8.9967651 7
-0.024901999 -1.5986331 8.0789785 7
-0.024901999 -1.566406 8.0866699 7
-0.035645001 -1.542969 8.1270142 7
-0.039246 -1.52832 8.1414785 7
-0.035645001 -1.5107419 8.1347046 7
-0.02478 -1.470703 8.1092529 7
-0.026611 -1.456055 8.1185303 7
-0.021179 -1.4375 8.105957 7
-0.028380999 -1.40918 8.1347046 7
-0.02832 -1.393555 8.1382446 7
-0.035521999 -1.382812 8.1636353 7
-0.035461001 -1.3505861 8.1704712 7
-0.031920999 -1.3330081 8.1630249 7
-0.024719 -1.311523 8.1446533 7
-0.026489001 -1.28125 8.1563721 7
-0.25729501 -4.494679 19.840845 7
-0.036557999 -1.163075 14.600727 7
-0.14771301 -4.6101089 13.727642 7
-0.01495 -1.349036 12.881014 7
-0.24541999 -4.77036 12.224651 7
0.010609 -1.4127409 9.0235806 7
-0.011569 -1.516209 8.0761127 7
-0.012621 -1.34776 8.1389532 7
-0.15107501 -4.7769771 5.5856929 7
-0.14505801 -4.6635089 5.7678609 7
-0.153589 -4.623497 5.976316 7
-0.14463501 -4.4802208 6.140975 7
-0.171562 -4.5162482 4.849052 7
-0.027512999 -1.579193 7.374053 7
-0.025289999 -1.433448 7.4239888 7
-0.019652 -1.280259 7.4515858 7
0.068494 -0.31901699 4.0850768 7
0.047843002 -0.306292 3.9616711 7
0.067346998 -0.30673799 4.1202068 7
0.052545 -0.309661 4.1410022 7
0.048037998 -0.307239 4.157712 7
0.072460003 -0.29053199 3.9804921 7
0.069224998 -0.29593399 3.9954579 7
0.072745003 -0.28891599 4.0097418 7
0.074357003 -0.29048499 4.0250821 7
0.057089001 -0.292364 4.0432281 7
0.071372002 -0.278442 4.0560369 7
0.067302004 -0.280099 4.073576 7
0.073712997 -0.276227 4.0880451 7
0.077186003 -0.26535001 4.101212 7
0.056715 -0.271155 4.1194029 7
0.073399998 -0.26071101 4.1318421 7
0.055100001 -0.25597101 4.1479292 7
0.071920998 -0.244463 4.1587849 7
-0.23087101 -4.5829539 13.35902 7
-0.069355004 -1.4648581 13.055734 7
-0.0088849999 -1.455766 8.9891376 7
-0.035016999 -1.598089 8.1592102 7
-0.024234001 -1.3892879 8.1488705 7
-0.163993 -4.6119871 6.3892498 7
-0.002357 -1.52405 7.5417371 7
0.004646 -1.342459 7.546032 7
-0.209203 -4.6641879 5.930469 7
-0.213488 -4.5659709 6.0958228 7
-0.189759 -4.6497679 5.4752288 7
-0.191457 -4.561852 5.632134 7
-0.175225 -4.7101488 4.867229 7
-0.17254201 -4.6324239 5.018064 7
-0.17300799 -4.5587292 5.170774 7
