# .PCD v0.7 - Point Cloud Data file format
VERSION 0.7
FIELDS x y z intensity
SIZE 4 4 4 4
TYPE F F F F
COUNT 1 1 1 1
WIDTH 378
HEIGHT 1
VIEWPOINT 0 0 0 1 0 0 0
POINTS 378
DATA ascii
-0.55010998 -2.0673831 -65.298035 7
-0.58410603 -1.849609 -59.404602 7
-0.59332299 -2 -59.592712 7
-0.187622 -4.4248052 48.54071 7
-0.037048001 -1.208984 45.819153 7
-0.049621999 -1.003906 46.082153 7
-0.59423798 -1.757812 -55.36438 7
-0.60437 -1.8994139 -55.564392 7
-0.709656 -5.186523 -57.538574 7
-0.177917 -4.4306641 41.457886 7
-0.18981899 -4.3574219 41.671631 7
-0.59393299 -1.705078 -46.434021 7
-0.605896 -1.825195 -46.634094 7
-0.565247 2.386719 -45.602539 7
-0.57983398 2.2861331 -45.853333 7
-0.59387201 -1.666016 -42.476318 7
-0.58575398 -1.765625 -42.343323 7
-0.58245802 -1.8662111 -42.286133 7
-0.163086 -4.4189448 35.435364 7
-0.213135 -4.3886719 34.013367 7
-0.15893599 -4.5263672 27.142517 7
-0.032593001 -1.2587889 26.152161 7
-0.039368 -1.203125 26.231079 7
-0.024109 -1.136719 26.06488 7
-0.033996999 -1.0830081 26.178589 7
-0.038451999 -0.96777302 26.236145 7
-0.031860001 -1.177734 24.591858 7
-0.033447001 -1.124023 24.612122 7
-1.66748 -33.28418 -19.185791 7
-0.014648 -1.200195 22.985962 7
-0.016357001 -1.1494139 23.00647 7
-1.526794 -23.706055 -25.340027 7
-1.5361331 -23.827148 -25.348389 7
-0.033875 -1.576172 20.675537 7
-0.032471001 -1.529297 20.667847 7
-0.035034001 -1.486328 20.694824 7
-0.035034001 -1.439453 20.698425 7
-0.023560001 -1.386719 20.603333 7
-0.026245 -1.34375 20.630066 7
-0.035521999 -1.302734 20.714722 7
-0.213989 -4.7861328 19.438721 7
-0.20648199 -4.7275391 19.394043 7
-0.192261 -4.657227 19.298706 7
-0.17804 -4.5878911 19.202942 7
-0.182556 -4.554688 19.247986 7
-0.194397 -4.5341802 19.348755 7
-0.19738799 -4.4980469 19.382385 7
-0.21868899 -4.782227 18.447693 7
-0.213928 -4.7324219 18.425781 7
-0.19574 -4.657227 18.308411 7
-0.19574 -4.6162109 18.31958 7
-0.191833 -4.5693359 18.302734 7
-0.20043901 -4.545898 18.375427 7
-0.205139 -4.514648 18.419922 7
-0.040344 -1.581055 14.082153 7
-0.038268998 -1.548828 14.074768 7
-0.040282998 -1.5205081 14.089783 7
-0.04126 -1.4912111 14.099365 7
-0.03717 -1.458984 14.080383 7
-0.036194 -1.4287111 14.078247 7
-0.034118999 -1.396484 14.070312 7
-0.035034001 -1.367188 14.079407 7
-0.037048001 -1.3388669 14.094299 7
-0.044006001 -1.3125 14.137817 7
-0.041992001 -1.282227 14.129578 7
-0.031920999 -1.2451169 14.075439 7
-0.044922002 -1.572266 13.550171 7
-0.044861 -1.543945 13.554077 7
-0.046936002 -1.516602 13.569458 7
-0.045837 -1.488281 13.567505 7
-0.048950002 -1.4599611 13.588318 7
-0.043701001 -1.4287111 13.563354 7
-0.042603001 -1.3994139 13.561218 7
-0.045715 -1.371094 13.581848 7
-0.042541999 -1.34082 13.568115 7
-0.051879998 -1.3173831 13.622925 7
-0.047729 -1.2861331 13.603333 7
-0.180176 -4.797852 12.771729 7
-0.180176 -4.7705078 12.783142 7
-0.176819 -4.7363281 12.778687 7
-0.17022701 -4.6962891 12.758301 7
-0.155884 -4.641602 12.700684 7
-0.16027801 -4.5966802 12.743958 7
-0.162476 -4.5742192 12.765747 7
-0.16473401 -4.523438 12.79834 7
-0.16027801 -4.4882808 12.787964 7
-0.041687001 -1.577148 12.945129 7
-0.041625999 -1.5224611 12.952637 7
-0.041687001 -1.496094 12.956482 7
-0.043823 -1.470703 12.97168 7
-0.036072001 -1.4375 12.935547 7
-0.041503999 -1.414062 12.967529 7
-0.040405001 -1.3857419 12.965454 7
-0.038146999 -1.330078 12.960754 7
-0.043639999 -1.3056639 12.992493 7
-0.18328901 -4.780273 12.22998 7
-0.17865001 -4.7451172 12.220581 7
-0.168274 -4.6982422 12.184631 7
-0.16491701 -4.6660161 12.180115 7
-0.162598 -4.6357422 12.180847 7
-0.16369601 -4.6132808 12.197327 7
-0.16833501 -4.5966802 12.229431 7
-0.171753 -4.577148 12.25647 7
-0.175598 -4.5585942 12.282837 7
-0.17211901 -4.5273442 12.278015 7
-0.166382 -4.4912109 12.262512 7
-0.043334998 -1.355469 12.49292 7
-0.049072001 -1.331055 12.52478 7
-0.047913 -1.304688 12.522339 7
-0.17926 -4.789062 11.646118 7
-0.173279 -4.7548828 11.631775 7
-0.17089801 -4.7246089 11.632751 7
-0.16131601 -4.6816411 11.602478 7
-0.161255 -4.657227 11.613892 7
-0.158875 -4.6279302 11.614502 7
-0.166077 -4.6181641 11.657043 7
-0.17089801 -4.6025391 11.689209 7
-0.18042 -4.5976558 11.742004 7
-0.175659 -4.5625 11.732239 7
-0.16491701 -4.5175781 11.696167 7
-0.162476 -4.4882808 11.69635 7
-0.048462 -1.576172 12.000122 7
-0.046021 -1.548828 11.992554 7
-0.048401002 -1.5263669 12.007935 7
-0.048401002 -1.5 12.011475 7
-0.047118999 -1.4755861 12.009644 7
-0.045898002 -1.449219 12.007751 7
-0.041138001 -1.420898 11.988586 7
-0.043457001 -1.3974611 12.00354 7
-0.044617001 -1.373047 12.012817 7
-0.044555999 -1.3486331 12.016174 7
-0.048156999 -1.325195 12.03656 7
-0.046875 -1.298828 12.034119 7
-0.16626 -4.797852 11.067017 7
-0.173706 -4.7900391 11.109436 7
-0.163757 -4.7470698 11.080078 7
-0.14880399 -4.671875 11.04126 7
-0.15374801 -4.6357422 11.084229 7
-0.157471 -4.5966802 11.122009 7
-0.168762 -4.5966802 11.179688 7
-0.159973 -4.5556641 11.154602 7
-0.147522 -4.485352 11.124573 7
-0.033629999 -1.594727 11.031738 7
-0.031005999 -1.570312 11.024475 7
-0.034851 -1.549805 11.045227 7
-0.033507999 -1.5263669 11.043579 7
-0.036072001 -1.505859 11.058594 7
-0.030884 -1.478516 11.039795 7
-0.030823 -1.457031 11.043579 7
-0.024292 -1.429688 11.018921 7
-0.024292 -1.407227 11.022461 7
-0.024352999 -1.384766 11.026184 7
-0.028198 -1.3642581 11.046387 7
-0.034607001 -1.344727 11.078125 7
-0.035950001 -1.3232419 11.08728 7
-0.035889 -1.299805 11.090515 7
-0.038513001 -1.579102 10.663269 7
-0.035705999 -1.554688 10.655945 7
-0.034423999 -1.532227 10.654236 7
-0.037108999 -1.512695 10.669189 7
-0.037048001 -1.490234 10.673096 7
-0.034302 -1.466797 10.665466 7
-0.030212 -1.441406 10.6521 7
-0.030151 -1.419922 10.655823 7
-0.032837 -1.3994139 10.670593 7
-0.032898001 -1.37793 10.674194 7
-0.03418 -1.356445 10.683228 7
-0.042236 -1.339844 10.720459 7
-0.035521999 -1.314453 10.69574 7
-0.040894002 -1.294922 10.721619 7
-0.028198 -1.59082 10.224731 7
-0.023925999 -1.566406 10.211853 7
-0.025269 -1.462891 10.236328 7
-0.022399999 -1.44043 10.229004 7
-0.020996001 -1.417969 10.226807 7
-0.020935001 -1.3974611 10.230286 7
-0.023375999 -1.5869139 9.8692017 7
-0.023375999 -1.566406 9.873291 7
-0.026245 -1.548828 9.8883057 7
-0.023314999 -1.527344 9.8809204 7
-0.023375999 -1.5068361 9.8848267 7
-0.018921001 -1.4638669 9.8754272 7
-0.017395001 -1.422852 9.8772583 7
-0.020264 -1.384766 9.8954468 7
-0.027527001 -1.349609 9.9303589 7
-0.027465999 -1.308594 9.9370117 7
-0.024536001 -1.287109 9.9291382 7
-0.030884 -1.5888669 9.5508423 7
-0.027832 -1.5673831 9.5436401 7
-0.02478 -1.546875 9.536438 7
-0.02478 -1.5263669 9.5402832 7
-0.032288 -1.512695 9.5717773 7
-0.027771 -1.490234 9.5588989 7
-0.030762 -1.472656 9.5737925 7
-0.02771 -1.451172 9.5662842 7
-0.030701 -1.43457 9.5811768 7
-0.024658 -1.410156 9.5623169 7
-0.027649 -1.393555 9.5770874 7
-0.023071 -1.371094 9.5637207 7
-0.035216998 -1.360352 9.6118164 7
-0.038146999 -1.341797 9.6264038 7
-0.033569001 -1.3193361 9.6131592 7
-0.041198999 -1.3056639 9.6443481 7
-0.035094999 -1.28125 9.6251221 7
-0.020142 -1.580078 9.2236938 7
-0.023314999 -1.564453 9.2387075 7
-0.026427999 -1.548828 9.2536621 7
-0.021667 -1.5263669 9.2409058 7
-0.032653999 -1.515625 9.2835693 7
-0.023254 -1.490234 9.2540894 7
-0.018494001 -1.467773 9.2409668 7
-0.012268 -1.445312 9.2225342 7
-0.020020001 -1.4326169 9.2540283 7
-0.021606 -1.4150389 9.2631836 7
-0.020020001 -1.3955081 9.2612305 7
-0.019958001 -1.376953 9.2644043 7
-0.024658 -1.361328 9.28479 7
-0.027771 -1.34375 9.2993164 7
-0.024597 -1.324219 9.2913818 7
-0.024597 -1.3056639 9.2948608 7
-0.021484001 -1.285156 9.2869873 7
-0.023010001 -1.361328 8.9614258 7
-0.026245 -1.344727 8.9759521 7
-0.031067001 -1.330078 8.9960327 7
-0.024597 -1.308594 8.9772339 7
-0.021361999 -1.289062 8.9694214 7
-0.029358 -1.5869139 8.6314697 7
-0.024352999 -1.550781 8.6228027 7
-0.027649 -1.53418 8.6376953 7
-0.024231 -1.481445 8.6381836 7
-0.017517 -1.4599611 8.619751 7
-0.022522001 -1.4462889 8.6398926 7
-0.017456001 -1.425781 8.6270142 7
-0.017456001 -1.40918 8.6306763 7
-0.45300299 -8.3242188 -0.62799102 7
-0.456543 -8.3408203 -0.61047399 7
-0.45318601 -8.3339844 -0.58801299 7
-0.45666501 -8.3486328 -0.57049602 7
-0.45330799 -8.3427734 -0.548096 7
-0.45336899 -8.3466797 -0.528198 7
-0.44995099 -8.3398438 -0.50573701 7
-0.450012 -8.3447266 -0.48565701 7
-0.450073 -8.3486328 -0.46588099 7
-0.46044901 -8.3847656 -0.45257601 7
-0.45361301 -8.3681641 -0.427917 7
-0.45367399 -8.3720703 -0.40801999 7
-0.450317 -8.3642578 -0.38562 7
-0.457275 -8.3896484 -0.369995 7
-0.453857 -8.3828115 -0.34777799 7
-0.45050001 -8.3769531 -0.325317 7
-0.450562 -8.3798828 -0.30548099 7
-0.45062301 -8.3837891 -0.285339 7
-0.44720501 -8.3759766 -0.263062 7
-0.45074499 -8.390625 -0.245239 7
-0.45080599 -8.3935547 -0.225098 7
-0.450867 -8.3974609 -0.204834 7
-0.45263699 -8.4072266 -0.185791 7
-0.45098901 -8.4042969 -0.164795 7
-0.45111099 -8.4082031 -0.144409 7
-0.45282 -8.4160156 -0.12542699 7
-0.45458999 -8.4257812 -0.106018 7
-0.451233 -8.4179688 -0.084105998 7
-0.451294 -8.4208984 -0.063904002 7
-0.45477301 -8.4345703 -0.045348998 7
-0.45831299 -8.4501953 -0.026977999 7
-0.45489499 -8.4414062 -0.0050659999 7
-0.469116 -8.5732422 0.97137499 7
-0.470947 -8.5800781 0.99176002 7
-0.46917701 -8.5742188 1.0124511 7
-0.46929899 -8.5761719 1.03302 7
-0.476318 -8.5986328 1.05304 7
-0.47460899 -8.59375 1.073792 7
-0.46954301 -8.578125 1.094727 7
-0.47308299 -8.5908203 1.1151119 7
-0.46789601 -8.5742188 1.136047 7
-0.469666 -8.5800781 1.156433 7
-0.468018 -8.5742188 1.176941 7
-0.468079 -8.5742188 1.197632 7
-0.47332799 -8.5908203 1.217957 7
-0.47161901 -8.5859385 1.238525 7
-0.47174099 -8.5859385 1.259216 7
-0.47351101 -8.5908203 1.279785 7
-0.46661401 -8.5693359 1.300293 7
-0.47015399 -8.5800781 1.320923 7
-0.47540301 -8.5966797 1.341553 7
-0.47204599 -8.5859385 1.362 7
-0.46862799 -8.5742188 1.3824461 7
-0.466919 -8.5673828 1.4028929 7
-0.47045901 -8.5800781 1.423645 7
-0.47051999 -8.5791016 1.444214 7
-0.46887201 -8.5732422 1.464661 7
-0.470642 -8.578125 1.485352 7
-0.472473 -8.5830078 1.505981 7
-0.47076401 -8.5771484 1.526306 7
-0.47082499 -8.5771484 1.546997 7
-0.469116 -8.5703115 1.567322 7
-0.47088599 -8.5751953 1.588074 7
-0.471008 -8.5742188 1.608582 7
-0.47106901 -8.5742188 1.629089 7
-0.47113001 -8.5732422 1.649658 7
-0.47113001 -8.5722656 1.670288 7
-0.47296101 -8.5771484 1.690918 7
-0.47308299 -8.5761719 1.711609 7
-0.47137499 -8.5703115 1.731873 7
-0.47143599 -8.5683594 1.752319 7
-0.46972701 -8.5615234 1.7724611 7
-0.47326699 -8.5722656 1.793823 7
-0.47509801 -8.5761719 1.814514 7
-0.47161901 -8.5644531 1.834412 7
-0.47345001 -8.5683594 1.855347 7
-0.478699 -8.5830078 1.876892 7
-0.47357199 -8.5654297 1.896301 7
-0.468445 -8.546875 1.9156491 7
-0.47363299 -8.5634766 1.937378 7
-0.47381601 -8.5595703 1.978394 7
-0.47552499 -8.5625 1.999329 7
-0.472168 -8.5507812 2.0189819 7
-0.472229 -8.5498047 2.03949 7
-0.47576901 -8.5576172 2.0609131 7
-0.470642 -8.5400391 2.079895 7
-0.47582999 -8.5537109 2.10199 7
-0.47589099 -8.5517578 2.122375 7
-0.47424299 -8.5449219 2.1422729 7
-0.47430399 -8.5429688 2.162781 7
-0.47271699 -8.5332031 2.203186 7
-0.47277799 -8.53125 2.2236941 7
-0.026854999 -1.592773 8.3433228 7
-0.023375999 -1.556641 8.3404541 7
-0.019835999 -1.5380861 8.333252 7
-0.023314999 -1.525391 8.3481445 7
-0.023254 -1.507812 8.3518066 7
-0.023254 -1.492188 8.3556519 7
-0.012817 -1.467773 8.3265991 7
-0.016295999 -1.454102 8.3411245 7
-0.014526 -1.436523 8.3393555 7
-0.012756 -1.418945 8.3375244 7
-0.016235 -1.405273 8.3519287 7
-0.016174 -1.388672 8.3555298 7
-0.023193 -1.375977 8.3809204 7
-0.016174 -1.355469 8.3623047 7
-0.023132 -1.34375 8.3878174 7
-0.023132 -1.327148 8.3912354 7
-0.023132 -1.310547 8.3944702 7
-0.014343 -1.2880861 8.3703003 7
-0.12428 -1.179819 15.885822 7
-0.071335003 -1.3570811 13.600143 7
-0.21587101 -4.5340872 12.010557 7
-0.115696 -1.46688 11.978399 7
-0.074750997 -1.543545 10.803203 7
-0.037633002 -1.585098 9.8579073 7
-0.045616001 -1.354754 9.9791145 7
-0.065742001 -1.400297 9.1821098 7
-0.043993 -1.458613 8.633914 7
0.058648001 -0.30456099 3.9479849 7
0.062624998 -0.29923099 3.9641681 7
0.041499998 -0.318836 4.1256371 7
0.052804001 -0.309535 4.140974 7
0.051112 -0.30145699 3.9805541 7
0.079086997 -0.290526 3.9935911 7
0.051665001 -0.299862 4.0139632 7
0.058639999 -0.298291 4.027061 7
0.067607999 -0.28749701 4.043674 7
0.053215999 -0.29474199 4.0615959 7
0.067396998 -0.280056 4.073575 7
0.057996001 -0.28298801 4.0914731 7
0.066739999 -0.26945001 4.1045699 7
0.072921 -0.26420501 4.1181369 7
0.052694 -0.26791301 4.1395502 7
0.082571 -0.24487799 4.1445508 7
-0.071195997 -1.403216 14.184608 7
-0.048050001 -1.35592 12.881254 7
-0.14871199 -4.638104 11.524706 7
0.0080159996 -1.5962811 10.769488 7
0.01148 -1.28142 10.814444 7
-0.046393 -1.539307 10.060708 7
-0.024037 -1.4930919 9.4674797 7
-0.48566899 -8.3832836 1.947787 7
-0.034074999 -1.414819 8.4759102 7
