# .PCD v0.7 - Point Cloud Data file format
VERSION 0.7
FIELDS x y z intensity
SIZE 4 4 4 4
TYPE F F F F
COUNT 1 1 1 1
WIDTH 264
HEIGHT 1
VIEWPOINT 0 0 0 1 0 0 0
POINTS 264
DATA ascii
3.799561 2.15625 -56.380798 7
-0.451904 -1.841797 -66.823486 7
-0.471802 -1.775391 -64.919861 7
-0.480225 -1.938477 -65.119812 7
-0.13574199 -0.897461 52.03302 7
-0.53796399 -1.572266 -56.838806 7
-0.53137201 -1.84668 -56.684082 7
-0.103271 -1.0263669 47.093445 7
-0.133789 -0.930664 47.709961 7
-0.51483202 2.1591799 -56.398804 7
-0.54211402 -1.65332 -55.390137 7
-0.66687 -5.0839839 -57.687561 7
-0.64563 -5.1845698 -57.232483 7
-0.51367199 2.2167971 -54.873779 7
-0.209656 -4.483398 41.945923 7
-0.528992 2.3037109 -47.628479 7
-0.53790301 -1.835938 -46.235046 7
-0.52026403 2.4462891 -43.739319 7
-0.52905297 2.3457029 -43.890747 7
-0.543396 2.249023 -44.135376 7
-0.62463403 -5.117188 -43.28833 7
-0.53668201 -1.7607419 -39.319336 7
-0.202209 -4.5185552 33.812805 7
-0.244141 -4.4423828 34.407104 7
0.327454 12.181641 -20.164795 7
-0.20648199 -4.7304692 25.917236 7
-0.184021 -4.6289058 25.699402 7
-0.184021 -4.5722661 25.710754 7
-0.195068 -4.5351558 25.836243 7
-0.066405997 -1.251953 24.938049 7
-0.060180999 -1.193359 24.877136 7
-0.065063 -1.139648 24.932556 7
-0.066040002 -1.030273 24.949829 7
-0.049805 -1.2705081 23.314514 7
-0.043701001 -1.21582 23.259399 7
-1.1212161 -16.976562 -25.837402 7
-1.143005 -17.27832 -25.887329 7
-1.195068 -24.43457 -19.925598 7
-0.048462 -1.1962889 22.055725 7
-0.045471001 -1.400391 20.78302 7
-0.046753 -1.355469 20.798279 7
-0.054871 -1.417969 19.83136 7
-0.054076999 -1.331055 19.83252 7
-0.21728501 -4.7470698 19.461609 7
-0.200073 -4.6699219 19.343506 7
-0.19103999 -4.609375 19.287292 7
-0.19995099 -4.5849609 19.365967 7
-0.20813 -4.5576172 19.438843 7
-0.208069 -4.514648 19.450012 7
-0.064148001 -1.3037111 18.886902 7
-0.22277801 -4.7871089 18.464355 7
-0.210876 -4.7236328 18.39209 7
-0.19824199 -4.6582031 18.314026 7
-0.198975 -4.6201172 18.330872 7
-0.2005 -4.5830078 18.353088 7
-0.209961 -4.561523 18.431274 7
-0.204346 -4.5097661 18.403015 7
-0.059204001 -1.387695 17.910278 7
-0.51281703 -8.5751953 17.046021 7
-0.507568 -8.5224609 17.036133 7
-0.50750703 -8.484375 17.056458 7
-0.507568 -8.4472656 17.07666 7
-0.51104701 -8.4208984 17.117371 7
-0.51452601 -8.3955078 17.157837 7
-0.50927699 -8.3408203 17.147217 7
-0.053344999 -1.585938 13.001709 7
-0.052184999 -1.5576169 13.000061 7
-0.052184999 -1.532227 13.003967 7
-0.052184999 -1.503906 13.007812 7
-0.054320998 -1.4775389 13.02301 7
-0.044372998 -1.4443361 12.975342 7
-0.049865998 -1.419922 13.007385 7
-0.047607001 -1.391602 12.999634 7
-0.051941 -1.365234 13.025818 7
-0.056334998 -1.34082 13.052124 7
-0.052979 -1.311523 13.038391 7
-0.051819 -1.283203 13.035828 7
-0.51068097 -8.6210938 11.706177 7
-0.50262499 -8.5722656 11.695923 7
-0.496948 -8.5292969 11.694336 7
-0.494629 -8.4970703 11.70575 7
-0.494629 -8.4726562 11.726013 7
-0.49469 -8.4482422 11.746521 7
-0.49700901 -8.4316406 11.775574 7
-0.48895299 -8.3808594 11.764465 7
-0.48895299 -8.3564453 11.784485 7
-0.186096 -4.7724609 11.673096 7
-0.16925 -4.6904302 11.622986 7
-0.163269 -4.6542969 11.608521 7
-0.168091 -4.639648 11.640442 7
-0.174072 -4.6289058 11.677795 7
-0.181274 -4.6181641 11.720459 7
-0.17883299 -4.563477 11.732056 7
-0.16918901 -4.4970698 11.712097 7
-0.051514 -1.579102 12.011414 7
-0.045471001 -1.548828 11.986938 7
-0.050232001 -1.52832 12.01355 7
-0.051392 -1.503906 12.022949 7
-0.054931998 -1.480469 12.043823 7
-0.041687001 -1.4462889 11.985046 7
-0.050048999 -1.4267581 12.028259 7
-0.052429002 -1.40332 12.043335 7
-0.054809999 -1.3798831 12.058289 7
-0.05957 -1.357422 12.084351 7
-0.057128999 -1.331055 12.076355 7
-0.061829001 -1.308594 12.102478 7
-0.177917 -4.7929692 11.11438 7
-0.171692 -4.757812 11.100342 7
-0.175354 -4.742188 11.127136 7
-0.16784699 -4.7050781 11.107849 7
-0.16662601 -4.679688 11.114075 7
-0.17157 -4.6650391 11.145752 7
-0.164124 -4.6289058 11.12616 7
-0.172791 -4.6220698 11.173523 7
-0.174072 -4.6005859 11.189758 7
-0.16168199 -4.5107422 11.175903 7
-0.041625999 -1.580078 11.531067 7
-0.049132999 -1.560547 11.56897 7
-0.059021 -1.543945 11.61792 7
-0.049011 -1.512695 11.576477 7
-0.063965 -1.498047 11.648376 7
-0.053955 -1.467773 11.606689 7
-0.045166001 -1.438477 11.570801 7
-0.058837999 -1.422852 11.636597 7
-0.055114999 -1.396484 11.623108 7
-0.056334998 -1.373047 11.632385 7
-0.050048999 -1.344727 11.607483 7
-0.061218001 -1.327148 11.661865 7
-0.048705999 -1.295898 11.608459 7
-0.16662601 -4.7998052 10.513489 7
-0.14447001 -4.7119141 10.450684 7
-0.139282 -4.6806641 10.441589 7
-0.13659699 -4.6318359 10.454102 7
-0.139221 -4.594727 10.486389 7
-0.15222199 -4.5986328 10.548706 7
-0.420288 -8.3212891 -5.4646001 7
-0.420349 -8.3359385 -5.4447632 7
-0.41491699 -8.3339844 -5.4103999 7
-0.42053199 -8.3681641 -5.4046631 7
-0.42199701 -8.3886719 -5.388062 7
-0.42767301 -8.421875 -5.381958 7
-0.42773399 -8.4375 -5.3618159 7
-0.43335 -8.4716797 -5.3555908 7
-0.43621799 -8.4960938 -5.3422852 7
-0.44042999 -8.5244141 -5.332458 7
-0.43499801 -8.5224609 -5.2980351 7
-0.43511999 -8.5390615 -5.2775879 7
-0.43792701 -8.5615234 -5.2640381 7
-0.44079599 -8.5859385 -5.2503052 7
-0.44641101 -8.6201172 -5.2434082 7
-0.44653299 -8.6357422 -5.2227168 7
-0.032226998 -1.4736331 9.9256592 7
-0.030701 -1.392578 9.9344482 7
-0.029175 -1.371094 9.932251 7
-0.040833 -1.358398 9.9805908 7
-0.040833 -1.337891 9.9840698 7
-0.037842002 -1.316406 9.9761963 7
-0.039306998 -1.296875 9.9852285 7
-0.45080599 -8.5869141 -3.8212891 7
-0.456848 -8.6181641 -3.812134 7
-0.45697001 -8.6298828 -3.7914431 7
-0.45263699 -8.6386719 -3.74176 7
-0.040465999 -1.595703 9.5840454 7
-0.040405001 -1.576172 9.5878296 7
-0.035889 -1.554688 9.5752563 7
-0.037354 -1.535156 9.5845337 7
-0.037354 -1.516602 9.5883789 7
-0.032776002 -1.494141 9.5754395 7
-0.034240998 -1.476562 9.5848389 7
-0.032715 -1.456055 9.5830078 7
-0.035705999 -1.4375 9.5975952 7
-0.031128 -1.416016 9.5847168 7
-0.032593001 -1.396484 9.59375 7
-0.44177201 -8.3291016 -3.4736331 7
-0.44183299 -8.3408203 -3.4537351 7
-0.443481 -8.3564453 -3.4364619 7
-0.44042999 -8.3574219 -3.4108889 7
-0.443665 -8.3789062 -3.3964231 7
-0.443726 -8.3896484 -3.376343 7
-0.43914801 -8.3857422 -3.3479609 7
-0.44537401 -8.4160156 -3.3387451 7
-0.439331 -8.4072266 -3.307739 7
-0.445557 -8.4384766 -3.2983401 7
-0.43945301 -8.4287109 -3.2675779 7
-0.44415301 -8.4550781 -3.255127 7
-0.44268799 -8.4599609 -3.2323611 7
-0.444336 -8.4765615 -3.2146001 7
-0.039184999 -1.595703 9.2901611 7
-0.037597999 -1.576172 9.2886353 7
-0.03125 -1.5517581 9.2702637 7
-0.043761998 -1.523438 9.3223877 7
-0.032715 -1.478516 9.2910767 7
-0.028015001 -1.438477 9.2817993 7
-0.035828002 -1.424805 9.3131714 7
-0.031067001 -1.40332 9.3000488 7
-0.040405001 -1.371094 9.3403931 7
-0.037230998 -1.349609 9.3326416 7
-0.040344 -1.333984 9.3471069 7
-0.026245 -1.289062 9.303772 7
-0.448975 -8.5273438 -2.223145 7
-0.449036 -8.5361328 -2.2028811 7
-0.45556599 -8.5654297 -2.1907351 7
-0.44921899 -8.5527344 -2.1616211 7
-0.44927999 -8.5605469 -2.1411741 7
-0.45574999 -8.5888672 -2.1291499 7
-0.46228001 -8.6181641 -2.11676 7
-0.459167 -8.6162109 -2.0919189 7
-0.45922899 -8.625 -2.0712891 7
-0.45770299 -8.6269531 -2.0487061 7
-0.033080999 -1.52832 8.9619751 7
-0.028137 -1.435547 8.9639893 7
-0.028076001 -1.417969 8.9676514 7
-0.028076001 -1.400391 8.9711914 7
-0.032958999 -1.3857419 8.991272 7
-0.029663 -1.3662111 8.9836426 7
-0.032898001 -1.349609 8.9981689 7
-0.036132999 -1.333984 9.0126953 7
-0.032837 -1.314453 9.0050049 7
-0.024719 -1.291016 8.9804077 7
-0.169861 -4.710938 -4.4708252 7
-0.171692 -4.7285161 -4.4638672 7
-0.16644301 -4.7324219 -4.4395142 7
-0.16113301 -4.734375 -4.4151611 7
-0.157654 -4.7412109 -4.3952641 7
-0.161255 -4.7617192 -4.392334 7
-0.163086 -4.7783198 -4.3850708 7
-0.161377 -4.7880859 -4.3693242 7
-0.147751 -1.283252 18.444445 7
-0.042610001 -1.395383 14.664198 7
-0.022342 -1.5500211 12.945932 7
-0.078548998 -1.319821 11.626462 7
-0.056643002 -1.5424711 9.0772991 7
-0.052712001 -1.323133 9.1071396 7
-0.00241 -1.166657 7.8561401 7
-0.0074370001 -1.013503 7.9272561 7
0.047717001 -0.309843 3.945869 7
0.067156002 -0.297066 3.9649341 7
0.046413999 -0.316416 4.1252151 7
0.042032 -0.31391299 4.1454659 7
0.063680001 -0.299741 4.155571 7
0.055697002 -0.29929 3.9811971 7
0.036869999 -0.312776 3.9981179 7
0.072111003 -0.28974399 4.0127182 7
0.052908 -0.30135301 4.02983 7
0.067149997 -0.287709 4.043654 7
0.052772999 -0.29494801 4.0615902 7
0.061655998 -0.28250399 4.076571 7
0.057596002 -0.28316799 4.091486 7
0.034322999 -0.28300399 4.1093392 7
0.067240998 -0.26603499 4.1213708 7
0.057286002 -0.26597899 4.1390491 7
0.065788001 -0.25075701 4.1492448 7
-0.206247 -4.6444292 17.749161 7
-0.00095399999 -1.347338 16.373844 7
-0.66461998 -8.4649792 17.002926 7
-0.025703 -1.583421 11.754569 7
-0.40329 -8.5978413 -3.8260601 7
-0.109571 -4.7253041 -3.793468 7
-0.040585998 -1.466019 10.037598 7
-0.18086299 -4.617599 -3.103395 7
-0.011573 -1.423417 9.4035816 7
-0.013715 -1.124797 7.8881679 7
-0.15457299 -4.7068868 -4.2355518 7
-0.026618 3.1632359 -3.1304791 7
