# .PCD v0.7 - Point Cloud Data file format
VERSION 0.7
FIELDS x y z intensity
SIZE 4 4 4 4
TYPE F F F F
COUNT 1 1 1 1
WIDTH 357
HEIGHT 1
VIEWPOINT 0 0 0 1 0 0 0
POINTS 357
DATA ascii
-0.34039301 -0.70800799 68.108521 7
-0.31018099 -1.775391 -63.328003 7
-0.35388201 -1.755859 -62.717896 7
-0.35296601 -1.907227 -62.672241 7
-0.48242199 -5.092773 -59.054565 7
-0.330933 2.5087891 -52.500916 7
-0.340698 2.3886721 -52.716797 7
-0.36267099 2.280273 -53.195496 7
-0.241943 -0.90625 46.640381 7
-0.34796101 2.4550779 -52.169434 7
-0.38677999 2.3652339 -52.981262 7
-0.40728801 2.2529299 -53.407104 7
-0.54425001 -5.1074219 -50.421448 7
-0.37249801 2.375 -44.824707 7
-0.38470501 2.2753911 -45.051819 7
-0.41601601 -1.686523 -44.47229 7
-0.34350601 -4.407227 41.280701 7
0.42572001 12.120117 -20.672729 7
0.42608601 12.064453 -20.696106 7
0.431335 11.975586 -20.657532 7
0.43090799 11.923828 -20.690735 7
0.43011501 11.876953 -20.728882 7
-0.291565 -4.5087891 32.684387 7
0.34832799 10.535156 -20.565002 7
0.349121 10.423828 -20.603394 7
0.34832799 10.375977 -20.638672 7
0.35174599 10.303711 -20.620544 7
-0.14587399 -1.09082 29.374329 7
-0.14294399 -1.2607419 27.4198 7
-0.129272 -1.191406 27.271423 7
-0.13855 -1.134766 27.37915 7
-0.14679 -1.076172 27.475403 7
-0.124878 -1.34375 25.587097 7
-1.414001 -23.716797 -26.488342 7
-1.420166 -23.820312 -26.475891 7
-1.428589 -23.939453 -26.480957 7
-1.4428101 -24.09668 -26.529419 7
-1.443848 -24.166992 -26.476318 7
-1.460693 -24.404297 -26.483643 7
-1.4669189 -24.508789 -26.469055 7
-0.25640899 -4.5878911 24.898315 7
-0.250366 -4.5214839 24.852417 7
-0.119751 -1.2568361 24.038879 7
-0.12323 -1.205078 24.076904 7
-0.112976 -1.146484 23.981018 7
-0.118286 -1.09668 24.036194 7
-0.130005 -1.046875 24.155334 7
-0.124573 -0.99023402 24.105713 7
-1.040344 -21.637695 -20.473938 7
-1.056335 -21.844727 -20.473328 7
-1.063354 -21.941406 -20.466309 7
-1.070496 -22.038086 -20.458984 7
-0.12884501 -1.285156 20.483276 7
-0.096984997 -1.240234 19.171814 7
-0.097655997 -1.197266 19.180664 7
-0.254944 -4.6455078 18.762512 7
-0.26348901 -4.5810552 18.846497 7
-0.099792004 -1.414062 18.228577 7
-0.100464 -1.373047 18.237854 7
-0.275879 -4.7861328 17.867798 7
-0.26586899 -4.7285161 17.812622 7
-0.25 -4.6591802 17.717834 7
-0.24493399 -4.6113281 17.69574 7
-0.245667 -4.5732422 17.712341 7
-0.25646999 -4.5556641 17.796082 7
-0.258057 -4.5205078 17.818176 7
-0.089965999 -1.408203 15.074524 7
-0.090880997 -1.376953 15.083984 7
-0.084045 -1.339844 15.047119 7
-0.088806003 -1.310547 15.079163 7
-0.089844003 -1.308594 14.41095 7
-0.084778003 -1.2763669 14.38562 7
-0.082703002 -1.2431639 14.377319 7
-0.081603996 -1.212891 14.374756 7
-0.080565996 -1.181641 14.371948 7
-0.082396999 -1.5732419 12.168335 7
-0.084716998 -1.549805 12.183594 7
-0.082275003 -1.5224611 12.176086 7
-0.085814998 -1.499023 12.196899 7
-0.083434999 -1.472656 12.189453 7
-0.083374001 -1.4462889 12.193054 7
-0.077331997 -1.417969 12.168152 7
-0.082030997 -1.394531 12.194458 7
-0.085570998 -1.37207 12.215027 7
-0.081969999 -1.34375 12.201355 7
-0.084351003 -1.320312 12.216125 7
-0.086608998 -1.295898 12.230835 7
-0.22314499 -4.7919922 11.351196 7
-0.21057101 -4.7441411 11.311096 7
-0.213074 -4.7255859 11.332825 7
-0.205566 -4.686523 11.313293 7
-0.205505 -4.6630859 11.324524 7
-0.205505 -4.639648 11.335693 7
-0.206726 -4.6191411 11.352173 7
-0.21661399 -4.6132808 11.404907 7
-0.222839 -4.6025391 11.441895 7
-0.21661399 -4.5664058 11.427124 7
-0.210327 -4.53125 11.411926 7
-0.202759 -4.4931641 11.391541 7
-0.089965999 -0.99804699 11.845947 7
-0.20929 -4.797852 10.726929 7
-0.209351 -4.7763672 10.738525 7
-0.211853 -4.757812 10.760193 7
-0.205322 -4.7236328 10.746216 7
-0.196228 -4.6835942 10.721985 7
-0.19220001 -4.6542969 10.717957 7
-0.188293 -4.624023 10.713867 7
-0.188232 -4.601562 10.724854 7
-0.19085699 -4.5849609 10.746277 7
-0.200012 -4.5820308 10.793335 7
-0.202576 -4.563477 10.814514 7
-0.201233 -4.539062 10.820496 7
-0.199829 -4.514648 10.826355 7
-0.207275 -4.7724609 10.259399 7
-0.20855699 -4.7529302 10.275757 7
-0.20043901 -4.7167969 10.257202 7
-0.194885 -4.6855469 10.248291 7
-0.19220001 -4.6582031 10.249512 7
-0.194885 -4.641602 10.270752 7
-0.192139 -4.6162109 10.271912 7
-0.19757099 -4.6074219 10.303528 7
-0.203003 -4.5966802 10.334778 7
-0.20837399 -4.585938 10.366211 7
-0.20971701 -4.5673828 10.382385 7
-0.20697001 -4.5400391 10.383118 7
-0.20147701 -4.5087891 10.373657 7
-0.200073 -4.485352 10.379639 7
-0.075317003 -1.580078 10.422974 7
-0.078064002 -1.561523 10.43811 7
-0.083618 -1.543945 10.464355 7
-0.078002997 -1.518555 10.445862 7
-0.077941999 -1.49707 10.449707 7
-0.070862003 -1.470703 10.425232 7
-0.072265998 -1.450195 10.434631 7
-0.070800997 -1.427734 10.432678 7
-0.067932002 -1.405273 10.424866 7
-0.073546998 -1.386719 10.450928 7
-0.072082996 -1.3642581 10.44873 7
-0.076233 -1.34668 10.469055 7
-0.077637002 -1.326172 10.478027 7
-0.077575997 -1.3037111 10.481506 7
-0.073302999 -1.280273 10.467651 7
-0.064758003 -1.59668 10.034973 7
-0.066101 -1.577148 10.044556 7
-0.061767999 -1.5537111 10.031738 7
-0.066101 -1.5361331 10.052368 7
-0.064575002 -1.514648 10.050537 7
-0.064514004 -1.494141 10.05426 7
-0.065917999 -1.4755861 10.063904 7
-0.061523002 -1.452148 10.050659 7
-0.057128999 -1.4287111 10.037598 7
-0.061462 -1.4111331 10.057983 7
-0.057068001 -1.388672 10.044739 7
-0.059937 -1.369141 10.059448 7
-0.064269997 -1.351562 10.079712 7
-0.067139 -1.332031 10.094116 7
-0.065673999 -1.310547 10.091919 7
-0.067078002 -1.291016 10.100891 7
-0.066711001 -1.59375 9.6879883 7
-0.060669001 -1.570312 9.6697998 7
-0.060608 -1.549805 9.673645 7
-0.062073 -1.53125 9.6830444 7
-0.068115003 -1.516602 9.7090454 7
-0.068053998 -1.49707 9.7129517 7
-0.057372998 -1.469727 9.6776123 7
-0.061951 -1.453125 9.6981201 7
-0.061889999 -1.433594 9.7016602 7
-0.057250999 -1.410156 9.6886597 7
-0.055785999 -1.390625 9.6866465 7
-0.055725001 -1.371094 9.6900635 7
-0.064758003 -1.357422 9.7269897 7
-0.064758003 -1.337891 9.7304077 7
-0.064696997 -1.3173831 9.7336426 7
-0.070739999 -1.300781 9.7593994 7
-0.46795699 -8.5371094 -3.1947629 7
-0.468079 -8.546875 -3.1742549 7
-0.472839 -8.5732422 -3.161438 7
-0.46826199 -8.5673828 -3.1333621 7
-0.47460899 -8.5996094 -3.1229861 7
-0.468384 -8.5888672 -3.092041 7
-0.474792 -8.6191406 -3.0817871 7
-0.47332799 -8.625 -3.0584719 7
-0.470276 -8.625 -3.0328979 7
-0.059875 -1.589844 9.37146 7
-0.055176001 -1.5673831 9.3588867 7
-0.059813999 -1.552734 9.3793325 7
-0.059753001 -1.53418 9.3834229 7
-0.055054002 -1.511719 9.3704834 7
-0.054993 -1.4931639 9.3742676 7
-0.054931998 -1.474609 9.3780518 7
-0.051757999 -1.453125 9.3707275 7
-0.053344999 -1.435547 9.3798218 7
-0.054871 -1.417969 9.3890991 7
-0.057921998 -1.4013669 9.4038696 7
-0.056334998 -1.380859 9.4016113 7
-0.059448 -1.363281 9.4161987 7
-0.065673999 -1.3486331 9.4418945 7
-0.064087003 -1.329102 9.4397583 7
-0.060913 -1.3076169 9.4320068 7
-0.057739001 -1.287109 9.4242554 7
-0.15081801 -4.7080078 -5.1166992 7
-0.144226 -4.7089839 -5.0874019 7
-0.15100101 -4.7382808 -5.0939331 7
-0.149414 -4.75 -5.0778809 7
-0.142883 -4.75 -5.0487061 7
-0.146301 -4.7724609 -5.045959 7
-0.45819101 -8.3720703 -1.59436 7
-0.45825201 -8.3798828 -1.57428 7
-0.45672601 -8.3808594 -1.55249 7
-0.45336899 -8.3769531 -1.528748 7
-0.46520999 -8.4208984 -1.521179 7
-0.46197501 -8.4179688 -1.497375 7
-0.45367399 -8.3984385 -1.468384 7
-0.455383 -8.4091797 -1.450073 7
-0.45556599 -8.4160156 -1.429749 7
-0.45556599 -8.4228516 -1.409546 7
-0.46240199 -8.4501953 -1.396179 7
-0.46240199 -8.4570312 -1.375977 7
-0.46588099 -8.4726562 -1.3590699 7
-0.46929899 -8.4892578 -1.34198 7
-0.466003 -8.4853516 -1.3184201 7
-0.46612501 -8.4912109 -1.2980959 7
-0.052429002 -1.5869139 8.711853 7
-0.052429002 -1.568359 8.7157593 7
-0.052368 -1.5517581 8.7198486 7
-0.054016002 -1.535156 8.7290649 7
-0.054016002 -1.517578 8.7330322 7
-0.065734997 -1.5087889 8.7752686 7
-0.053955 -1.482422 8.7404165 7
-0.045531999 -1.460938 8.7167969 7
-0.050537001 -1.4462889 8.7368164 7
-0.045471001 -1.425781 8.7241211 7
-0.048827998 -1.4111331 8.7385864 7
-0.048767 -1.391602 8.7420654 7
-0.046997 -1.375 8.7401123 7
-0.057068001 -1.362305 8.7765503 7
-0.062134001 -1.349609 8.7966919 7
-0.053649999 -1.326172 8.7724609 7
-0.058655001 -1.311523 8.7922363 7
-0.048583999 -1.2880861 8.7625732 7
-0.13726801 -4.4912109 -4.854126 7
-0.144226 -4.5185552 -4.8612061 7
-0.144348 -4.5332031 -4.8503418 7
-0.144409 -4.546875 -4.839355 7
-0.146301 -4.5654302 -4.8327031 7
-0.146301 -4.579102 -4.8218379 7
-0.146423 -4.59375 -4.81073 7
-0.149902 -4.6152339 -4.8084722 7
-0.14996301 -4.6289058 -4.7971802 7
-0.146667 -4.6357422 -4.7772222 7
-0.157043 -4.671875 -4.792419 7
-0.158875 -4.6894531 -4.785706 7
-0.155518 -4.6962891 -4.7655029 7
-0.155579 -4.7099609 -4.7542109 7
-0.150574 -4.7138672 -4.7295532 7
-0.152283 -4.7314448 -4.7227168 7
-0.15069599 -4.742188 -4.706665 7
-0.149048 -4.7529302 -4.6908569 7
-0.15081801 -4.7695308 -4.6838989 7
-0.154358 -4.7910161 -4.6809082 7
-0.488159 -8.5849609 0.971497 7
-0.48309299 -8.5703115 0.99291998 7
-0.48486301 -8.5761719 1.013184 7
-0.488464 -8.5878906 1.033325 7
-0.48498499 -8.5771484 1.05426 7
-0.485046 -8.578125 1.0747679 7
-0.485107 -8.578125 1.095337 7
-0.48687699 -8.5830078 1.115723 7
-0.48870799 -8.5888672 1.136353 7
-0.49047899 -8.5957031 1.156738 7
-0.48535201 -8.5791016 1.1776119 7
-0.49230999 -8.6015615 1.197876 7
-0.48889199 -8.5908203 1.218567 7
-0.489014 -8.5908203 1.239136 7
-0.49267599 -8.6025391 1.300781 7
-0.490906 -8.5966797 1.321594 7
-0.48925799 -8.5917969 1.342041 7
-0.489319 -8.5908203 1.36261 7
-0.485901 -8.5791016 1.3831789 7
-0.48767099 -8.5849609 1.403809 7
-0.49298099 -8.6005859 1.4245 7
-0.48950201 -8.5898438 1.4449461 7
-0.48608401 -8.578125 1.4653929 7
-0.48962399 -8.5888672 1.485962 7
-0.48797601 -8.5830078 1.506653 7
-0.48797601 -8.5820312 1.5271 7
-0.491577 -8.5927734 1.568604 7
-0.491638 -8.5917969 1.589172 7
-0.055969 -1.595703 8.4397583 7
-0.052429002 -1.577148 8.4327393 7
-0.043701001 -1.554688 8.4094849 7
-0.052368 -1.543945 8.4407959 7
-0.052306999 -1.527344 8.4446411 7
-0.052306999 -1.5107419 8.4484253 7
-0.052306999 -1.494141 8.4522715 7
-0.043579001 -1.47168 8.4285889 7
-0.043517999 -1.454102 8.432251 7
-0.043517999 -1.4375 8.4358521 7
-0.041747998 -1.419922 8.434021 7
-0.043396 -1.404297 8.4429932 7
-0.041625999 -1.387695 8.4411011 7
-0.045104999 -1.37207 8.4555664 7
-0.055481002 -1.361328 8.4918213 7
-0.050232001 -1.342773 8.4788818 7
-0.055481002 -1.328125 8.4988403 7
-0.051941 -1.30957 8.4911499 7
-0.043212999 -1.2880861 8.4667969 7
-0.14123499 -4.485352 -4.52179 7
-0.146667 -4.5087891 -4.5240479 7
-0.14672901 -4.5224609 -4.5133061 7
-0.15387 -4.5498052 -4.5197749 7
-0.146851 -4.5488281 -4.4912109 7
-0.139832 -4.5488281 -4.462769 7
-0.154175 -4.5908198 -4.4865718 7
-0.15600599 -4.6074219 -4.4798579 7
-0.15429699 -4.617188 -4.464355 7
-0.154358 -4.6308589 -4.453186 7
-0.159851 -4.655273 -4.4547729 7
-0.159851 -4.6679692 -4.4437261 7
-0.163513 -4.6894531 -4.440979 7
-0.16540501 -4.7060552 -4.43396 7
-0.161926 -4.7128911 -4.4138179 7
-0.158447 -4.717773 -4.394043 7
-0.156738 -4.7285161 -4.378418 7
-0.155029 -4.7373052 -4.3626099 7
-0.15863 -4.757812 -4.3596802 7
-0.160522 -4.7753911 -4.352478 7
-0.15527301 -4.7773442 -4.328186 7
-0.155396 -4.7910161 -4.3165889 7
-0.137429 -1.366236 14.442154 7
-0.148499 -1.440101 12.315111 7
-0.20394801 -4.5666132 10.857237 7
-0.071576998 -1.5952131 10.144123 7
-0.085207999 -1.362175 10.311203 7
-0.091468997 -1.392272 9.3703518 7
-0.067160003 -1.4549741 8.7927799 7
-0.049791001 -1.328485 8.3817596 7
-0.02839 -1.5378979 7.8890028 7
-0.0295 -1.377337 7.9529481 7
-0.228054 -4.5655088 18.093517 7
-0.065770999 -1.259429 13.071951 7
-0.040821001 -1.231048 11.967457 7
-0.108712 -4.7412572 -4.600884 7
-0.098656997 -4.6882038 -3.722898 7
-0.22938 -4.5821671 10.005671 7
-0.077967003 -1.4821891 10.286636 7
-0.028368 -1.430172 9.5080023 7
-0.470577 -8.5786648 0.99099803 7
-0.007491 -1.595739 8.605505 7
-0.0022150001 -1.370418 8.6233568 7
-0.024467001 -1.514412 7.8723211 7
-0.025927 -1.321668 7.9159899 7
0.032476999 3.065248 -3.4830511 7
-0.160706 -4.7425799 -5.1091232 7
0.00090400001 3.3243339 -3.089268 7
-0.0047380002 3.154011 -3.363323 7
-0.0046049999 3.0418179 -3.480752 7
