# .PCD v0.7 - Point Cloud Data file format
VERSION 0.7
FIELDS x y z intensity
SIZE 4 4 4 4
TYPE F F F F
COUNT 1 1 1 1
WIDTH 354
HEIGHT 1
VIEWPOINT 0 0 0 1 0 0 0
POINTS 354
DATA ascii
-0.20184299 -1.654297 -62.175049 7
-0.20819101 -1.80957 -62.334473 7
-0.181274 -1.90918 -64.023193 7
-0.28942901 -5.1962891 -66.469177 7
-0.240906 -1.623047 -59.199524 7
-0.245239 -1.912109 -59.278625 7
-0.251831 2.3095701 -52.049805 7
-0.26049799 2.1894529 -52.241943 7
-0.320923 -1.643555 -50.802612 7
-0.378418 -1.074219 49.204651 7
-0.27862501 2.273438 -50.147705 7
-0.46746799 -4.453125 46.552917 7
-0.50421101 -4.40625 47.191833 7
-0.293457 2.304688 -44.309814 7
-0.42553699 -4.4726558 39.385742 7
-0.40753201 -4.436523 32.166382 7
-1.042725 -16.983398 -27.042297 7
-1.051514 -17.094727 -27.076538 7
-1.055298 -17.179688 -27.065613 7
-1.062378 -17.283203 -27.084106 7
-1.063843 -17.357422 -27.052917 7
-1.068665 -17.448242 -27.051086 7
-1.074097 -17.541992 -27.054077 7
-1.074402 -17.609375 -27.012207 7
-1.216736 -19.915039 -27.135437 7
-1.210144 -19.942383 -27.030884 7
-1.218506 -20.055664 -27.049683 7
-1.225647 -20.163086 -27.058777 7
-1.231079 -20.260742 -27.053284 7
-1.234253 -20.344727 -27.028687 7
-1.239746 -20.442383 -27.022522 7
-1.253235 -20.587891 -27.082092 7
-1.26123 -20.766602 -27.0448 7
-0.35290501 -4.780273 25.858887 7
-0.34814501 -4.7128911 25.824646 7
-0.32067901 -4.6044922 25.572693 7
-0.322449 -4.5507808 25.601013 7
-0.33422899 -4.5136719 25.726562 7
-0.176697 -1.235352 24.618347 7
-0.165344 -1.174805 24.510986 7
-0.16766401 -1.1201169 24.537109 7
-0.17401101 -1.014648 24.606689 7
-1.032715 -21.164062 -20.955139 7
-1.0415649 -21.273438 -20.96344 7
-1.049744 -21.37793 -20.967224 7
-1.057983 -21.483398 -20.970825 7
-1.064941 -21.581055 -20.965515 7
-0.324646 -4.6162109 24.175903 7
-0.325867 -4.5654302 24.19873 7
-0.33581501 -4.5292969 24.30072 7
-0.18499801 -1.271484 23.364563 7
-0.15875199 -1.280273 21.824768 7
-0.144043 -1.2236331 21.700134 7
-0.146606 -1.177734 21.726501 7
-0.139099 -1.236328 18.54657 7
-0.13348401 -1.1923831 18.509094 7
-0.133423 -1.152344 18.512268 7
-0.29827899 -4.6806641 18.085938 7
-0.29241899 -4.6298828 18.058167 7
-0.294067 -4.59375 18.080566 7
-0.30395499 -4.5722661 18.158691 7
-0.30725101 -4.5380859 18.192139 7
-0.298706 -4.679688 17.216309 7
-0.29247999 -4.592773 17.199463 7
-0.29241899 -4.5556641 17.210571 7
-0.123413 -1.396484 15.950562 7
-0.127869 -1.363281 15.983032 7
-0.122192 -1.22168 15.961548 7
-0.125854 -1.19043 15.987671 7
-0.113098 -1.572266 14.519958 7
-0.111938 -1.5400389 14.518188 7
-0.113953 -1.509766 14.533508 7
-0.113892 -1.4794919 14.537292 7
-0.111877 -1.4462889 14.529419 7
-0.108826 -1.4130861 14.515869 7
-0.110779 -1.3837889 14.530884 7
-0.110718 -1.353516 14.534302 7
-0.116699 -1.325195 14.572083 7
-0.114685 -1.293945 14.564148 7
-0.63342297 -8.6308594 14.170959 7
-0.62396199 -8.5722656 14.148743 7
-0.61865199 -8.5263672 14.145203 7
-0.62072802 -8.5019531 14.17511 7
-0.615417 -8.4550781 14.171448 7
-0.61444098 -8.4228516 14.187134 7
-0.61431903 -8.3916016 14.207214 7
-0.61016798 -8.3486328 14.207947 7
-0.104187 -1.594727 13.285645 7
-0.105286 -1.5673831 13.295349 7
-0.105286 -1.5400389 13.299377 7
-0.104126 -1.5107419 13.297485 7
-0.104004 -1.481445 13.301025 7
-0.102905 -1.453125 13.299133 7
-0.101746 -1.424805 13.297119 7
-0.101746 -1.396484 13.30072 7
-0.100586 -1.367188 13.29834 7
-0.10498 -1.342773 13.32489 7
-0.104858 -1.314453 13.328064 7
-0.109253 -1.287109 13.354248 7
-0.107422 -1.50293 12.80957 7
-0.106201 -1.474609 12.807495 7
-0.103821 -1.3388669 12.814026 7
-0.107178 -1.313477 12.834473 7
-0.103699 -1.28418 12.820496 7
-0.103699 -1.59082 12.276611 7
-0.103699 -1.56543 12.280579 7
-0.104858 -1.5400389 12.290161 7
-0.108337 -1.516602 12.311035 7
-0.103516 -1.487305 12.291992 7
-0.104675 -1.462891 12.301392 7
-0.092651002 -1.4287111 12.248352 7
-0.097473003 -1.407227 12.274658 7
-0.097411998 -1.380859 12.278198 7
-0.098572001 -1.355469 12.287231 7
-0.104492 -1.3330081 12.319031 7
-0.105652 -1.3076169 12.328125 7
-0.106873 -1.283203 12.337097 7
-0.217896 -4.6210942 10.874756 7
-0.092468001 -1.59082 11.304993 7
-0.095031999 -1.5693361 11.320251 7
-0.094971001 -1.545898 11.324158 7
-0.096252002 -1.523438 11.333557 7
-0.093627997 -1.498047 11.326233 7
-0.094910003 -1.4755861 11.335571 7
-0.090942003 -1.449219 11.322449 7
-0.087035999 -1.423828 11.309021 7
-0.086975001 -1.400391 11.3125 7
-0.085693002 -1.375977 11.310425 7
-0.086914003 -1.353516 11.319397 7
-0.097290002 -1.3369139 11.368225 7
-0.092101999 -1.30957 11.348877 7
-0.090697996 -1.285156 11.346558 7
-0.25164801 -4.782227 10.481018 7
-0.247559 -4.7519531 10.477356 7
-0.23803701 -4.7128911 10.453369 7
-0.229919 -4.6748052 10.434387 7
-0.23120099 -4.65625 10.450806 7
-0.23120099 -4.6347661 10.461853 7
-0.235291 -4.6220698 10.488403 7
-0.24066199 -4.609375 10.519897 7
-0.24475101 -4.5966802 10.546326 7
-0.24469 -4.5742192 10.557312 7
-0.236572 -4.5371089 10.537842 7
-0.235168 -4.5126948 10.543701 7
-0.23114 -4.483398 10.539185 7
-0.233826 -4.795898 9.9026489 7
-0.23242199 -4.773438 9.9092407 7
-0.23242199 -4.7519531 9.9206543 7
-0.228149 -4.7236328 9.9172363 7
-0.215454 -4.6787109 9.8838501 7
-0.21832301 -4.664062 9.9050293 7
-0.216858 -4.640625 9.9113159 7
-0.211243 -4.610352 9.902771 7
-0.213989 -4.594727 9.923645 7
-0.21679699 -4.5800781 9.9448242 7
-0.228027 -4.5810552 9.9961548 7
-0.226624 -4.5576172 10.002014 7
-0.22521999 -4.5351558 10.007996 7
-0.22241201 -4.5097661 10.008911 7
-0.220947 -4.4863281 10.014954 7
-0.092224002 -1.594727 10.496033 7
-0.093566999 -1.574219 10.505615 7
-0.092101999 -1.550781 10.504089 7
-0.092101999 -1.507812 10.511597 7
-0.094848998 -1.488281 10.526794 7
-0.093445003 -1.46582 10.524841 7
-0.084899999 -1.4169919 10.49823 7
-0.087707996 -1.3974611 10.513062 7
-0.084899999 -1.374023 10.505493 7
-0.093262002 -1.3369139 10.545898 7
-0.097411998 -1.316406 10.566406 7
-0.091797002 -1.2919919 10.54718 7
-0.22241201 -4.7871089 9.4401255 7
-0.215149 -4.7539058 9.427124 7
-0.20929 -4.7226558 9.4191284 7
-0.2005 -4.686523 9.401123 7
-0.19909699 -4.6650391 9.4076538 7
-0.2005 -4.6494141 9.4237671 7
-0.19757099 -4.6230469 9.4251099 7
-0.20629901 -4.6220698 9.4657593 7
-0.209167 -4.608398 9.4867554 7
-0.215027 -4.5996089 9.5177002 7
-0.216492 -4.5839839 9.5337524 7
-0.210632 -4.5537109 9.5250854 7
-0.209167 -4.53125 9.5310669 7
-0.201782 -4.4980469 9.5170898 7
-0.206177 -4.4863281 9.5429688 7
-0.089661002 -1.59375 10.139648 7
-0.086731002 -1.572266 10.132507 7
-0.089599997 -1.5537111 10.147766 7
-0.091063999 -1.533203 10.157227 7
-0.089538999 -1.5107419 10.155273 7
-0.089538999 -1.490234 10.159119 7
-0.089478001 -1.469727 10.162903 7
-0.080688 -1.443359 10.132996 7
-0.082153 -1.424805 10.142212 7
-0.085083 -1.405273 10.157104 7
-0.089354999 -1.387695 10.177307 7
-0.09668 -1.37207 10.208862 7
-0.09375 -1.3486331 10.201111 7
-0.092224002 -1.327148 10.198975 7
-0.090697996 -1.3056639 10.196594 7
-0.089294001 -1.28418 10.194397 7
-0.46429399 -8.4208984 -4.146729 7
-0.456909 -8.4101562 -4.111145 7
-0.46746799 -8.4560547 -4.1123052 7
-0.467529 -8.46875 -4.0919189 7
-0.46612501 -8.4765615 -4.068665 7
-0.46624801 -8.4882812 -4.0484619 7
-0.47229001 -8.5214844 -4.039917 7
-0.476807 -8.5478516 -4.0285029 7
-0.47387701 -8.5507812 -4.0021362 7
-0.468018 -8.5439453 -3.969666 7
-0.48309299 -8.6044922 -3.978699 7
-0.483215 -8.6162109 -3.957886 7
-0.47723401 -8.609375 -3.92572 7
-0.47741699 -8.6220703 -3.9050291 7
-0.47894299 -8.6376953 -3.887146 7
-0.075866997 -1.5830081 9.4368286 7
-0.077393003 -1.56543 9.4463501 7
-0.080444001 -1.548828 9.4611816 7
-0.078918003 -1.52832 9.4595947 7
-0.083557002 -1.511719 9.4800425 7
-0.080444001 -1.4912111 9.4727783 7
-0.078856997 -1.47168 9.4710693 7
-0.072571002 -1.449219 9.4525146 7
-0.074097 -1.4306639 9.461731 7
-0.077271 -1.4130861 9.4763184 7
-0.080321997 -1.396484 9.4910278 7
-0.080261 -1.376953 9.4945068 7
-0.081786998 -1.359375 9.503479 7
-0.086487003 -1.342773 9.5236816 7
-0.080200002 -1.3193361 9.5047607 7
-0.078612998 -1.298828 9.5023804 7
-0.140137 -4.7441411 -5.4356689 7
-0.143372 -4.766602 -5.4334111 7
-0.145081 -4.7861328 -5.426147 7
-0.063354 -1.585938 9.0647583 7
-0.069824003 -1.572266 9.0907593 7
-0.069824003 -1.552734 9.0946655 7
-0.066528 -1.533203 9.0875244 7
-0.072998002 -1.519531 9.1134644 7
-0.066528 -1.496094 9.0952148 7
-0.069701999 -1.480469 9.1099243 7
-0.064819001 -1.458984 9.0969849 7
-0.063110001 -1.439453 9.0953369 7
-0.061523002 -1.402344 9.0967407 7
-0.064758003 -1.3857419 9.1114502 7
-0.067993 -1.3701169 9.1260376 7
-0.071167 -1.3544919 9.140625 7
-0.072754003 -1.3369139 9.149353 7
-0.072754003 -1.3193361 9.152832 7
-0.069458 -1.297852 9.1450806 7
-0.13574199 -4.4931641 -5.2182622 7
-0.132507 -4.5019531 -5.1981201 7
-0.13592499 -4.523438 -5.1963501 7
-0.142639 -4.5527339 -5.2037349 7
-0.144409 -4.570312 -5.1972051 7
-0.139465 -4.5761719 -5.1724238 7
-0.147827 -4.6074219 -5.1842651 7
-0.142883 -4.6123052 -5.1595459 7
-0.147949 -4.6376948 -5.1618042 7
-0.14801 -4.6523442 -5.1506348 7
-0.146423 -4.664062 -5.1348882 7
-0.158142 -4.702148 -5.1550899 7
-0.153198 -4.7070308 -5.130249 7
-0.14172401 -4.7001948 -5.0874019 7
-0.140076 -4.7119141 -5.0713501 7
-0.14019801 -4.726562 -5.059937 7
-0.140259 -4.7412109 -5.0487061 7
-0.141968 -4.7597661 -5.0415649 7
-0.147034 -4.7851558 -5.043457 7
-0.136536 -4.500977 -4.8475342 7
-0.13659699 -4.514648 -4.8366699 7
-0.140076 -4.5351558 -4.8347168 7
-0.136719 -4.5429692 -4.8147578 7
-0.14019801 -4.563477 -4.8127441 7
-0.140259 -4.578125 -4.8015141 7
-0.14550801 -4.6025391 -4.803894 7
-0.145569 -4.617188 -4.7927251 7
-0.14563 -4.6318359 -4.7814331 7
-0.14910901 -4.6513672 -4.7792358 7
-0.152649 -4.672852 -4.7767329 7
-0.15094 -4.6835942 -4.761169 7
-0.14587399 -4.6875 -4.7366939 7
-0.145996 -4.702148 -4.7250981 7
-0.14257801 -4.7089839 -4.7049561 7
-0.137512 -4.7128911 -4.6804199 7
-0.14447001 -4.7412109 -4.686646 7
-0.14624 -4.757812 -4.6794429 7
-0.144592 -4.7695308 -4.6635132 7
-0.149841 -4.7929692 -4.6651611 7
-0.068542004 -1.589844 8.487854 7
-0.068542004 -1.5732419 8.4920044 7
-0.065063 -1.5537111 8.4848022 7
-0.068542004 -1.5400389 8.4996338 7
-0.068480998 -1.5224611 8.503418 7
-0.061462 -1.500977 8.4853516 7
-0.061523002 -1.484375 8.4891357 7
-0.052733999 -1.460938 8.4654541 7
-0.056212999 -1.447266 8.4802246 7
-0.056152001 -1.4306639 8.4837036 7
-0.057921998 -1.4150389 8.4928589 7
-0.059631001 -1.3994139 8.5019531 7
-0.064819001 -1.3857419 8.5217896 7
-0.064819001 -1.369141 8.5252686 7
-0.068236999 -1.355469 8.539917 7
-0.064758003 -1.3349611 8.5322266 7
-0.064758003 -1.3193361 8.5355825 7
-0.057739001 -1.296875 8.5169067 7
-0.062927 -1.28418 8.5366211 7
-0.14032 -4.5058589 -4.504272 7
-0.14038099 -4.5195308 -4.4934082 7
-0.143921 -4.5400391 -4.4910889 7
-0.14398199 -4.5537109 -4.480103 7
-0.138733 -4.5566411 -4.4561162 7
-0.147705 -4.5878911 -4.4666748 7
-0.145935 -4.5976558 -4.451416 7
-0.147827 -4.6142578 -4.444458 7
-0.15325899 -4.639648 -4.446228 7
-0.139099 -4.624023 -4.4005132 7
-0.15154999 -4.6621089 -4.4194951 7
-0.160583 -4.6923828 -4.429565 7
-0.158813 -4.703125 -4.414062 7
-0.157104 -4.7138672 -4.3982539 7
-0.153687 -4.719727 -4.378418 7
-0.155457 -4.7363281 -4.3712158 7
-0.15374801 -4.7451172 -4.3555908 7
-0.150269 -4.750977 -4.3355708 7
-0.15564001 -4.7763672 -4.3366699 7
-0.152161 -4.78125 -4.3167109 7
-0.110812 -1.2168241 14.120274 7
-0.157424 -1.367831 12.416632 7
-0.12530699 -1.494331 11.279345 7
-0.198375 -4.6565838 9.8736706 7
-0.094329 -1.57695 10.341501 7
-0.094557002 -1.312121 10.39971 7
-0.057201002 -1.38104 9.5618467 7
-0.066901997 -1.498221 8.4391232 7
-0.068916 -1.3161761 8.5066662 7
-0.12789901 -1.2344019 18.123798 7
-0.214929 -1.195161 15.748655 7
-0.122369 -4.5567598 -4.8602648 7
-0.25179601 -4.5797749 10.176697 7
-0.125816 -1.426344 10.621475 7
-0.096527003 -1.388007 9.9456739 7
-0.065049 -1.353793 9.3405457 7
-0.076803997 -1.515385 8.3848162 7
-0.084533997 -1.30274 8.4626865 7
-0.18637399 -4.9420099 4.3170681 7
-0.17580999 -4.8587012 4.4701018 7
-0.18585999 -4.9400539 3.2593169 7
-0.177047 -4.9032321 3.422791 7
-0.091674998 -4.709908 -5.0831289 7
