# .PCD v0.7 - Point Cloud Data file format
VERSION 0.7
FIELDS x y z intensity
SIZE 4 4 4 4
TYPE F F F F
COUNT 1 1 1 1
WIDTH 463
HEIGHT 1
VIEWPOINT 0 0 0 1 0 0 0
POINTS 463
DATA ascii
-0.36438 -1.606445 -69.223389 7
-0.436584 -1.513672 -60.87262 7
-0.43829301 -1.6611331 -60.909546 7
-0.17041001 -1.2705081 52.751953 7
-0.189392 -1.158203 53.170471 7
-0.45574999 -1.357422 -58.324768 7
-0.435303 -1.488281 -57.847717 7
-0.166382 -1.386719 48.37854 7
-0.18573 -1.172852 48.77655 7
-0.18810999 -1.297852 45.444336 7
-0.45416301 2.579102 -51.277527 7
-0.4729 2.472656 -51.657288 7
-0.46179199 2.457031 -48.86853 7
-0.450073 -1.500977 -43.131531 7
-0.610901 -4.820312 -45.638611 7
-0.58209199 -4.8798828 -45.144348 7
-0.105408 -1.373047 32.845459 7
-0.236572 -4.7001948 31.948303 7
-0.24200401 -4.639648 32.028809 7
-0.26165801 -4.6035161 32.288147 7
-0.25976601 -4.5273442 32.276001 7
-0.102539 -1.388672 28.771545 7
-0.105347 -1.358398 26.954651 7
-0.105225 -1.297852 26.958069 7
-0.094971001 -1.266602 25.242859 7
-0.097717002 -1.2119139 25.275085 7
-1.110657 -23.744141 -22.283997 7
-1.118225 -23.852539 -22.28064 7
-1.129272 -23.987305 -22.30127 7
-1.134583 -24.080078 -22.280762 7
-1.141602 -24.186523 -22.272156 7
-1.1468509 -24.280273 -22.251038 7
-1.1578979 -24.416016 -22.269897 7
-1.162598 -24.505859 -22.243896 7
-1.168457 -24.602539 -22.225769 7
-1.1777951 -24.725586 -22.23114 7
-1.184814 -24.832031 -22.220276 7
-1.188904 -24.916992 -22.189209 7
-1.197083 -25.032227 -22.185486 7
-1.237915 -25.609375 -22.160889 7
-0.226318 -4.7548828 24.574646 7
-0.210815 -4.6699219 24.437683 7
-0.214966 -4.624023 24.488831 7
-0.226257 -4.5908198 24.608582 7
-0.229187 -4.5419922 24.648254 7
-0.080871999 -1.4443361 23.619995 7
-0.078429997 -1.390625 23.600342 7
-0.078918003 -1.2861331 23.612854 7
-0.081848003 -1.235352 23.645203 7
-0.084167004 -1.183594 23.671631 7
-0.231079 -4.749023 23.232056 7
-0.216553 -4.6689448 23.112854 7
-0.221497 -4.6269531 23.169434 7
-0.239746 -4.610352 23.345886 7
-0.23407 -4.547852 23.305603 7
-0.083313003 -1.375 21.130798 7
-0.067932002 -1.273438 21.004211 7
-0.074524 -1.230469 21.065369 7
-0.079773001 -1.140625 21.11792 7
-0.217346 -4.717773 17.484253 7
-0.209839 -4.6660161 17.445679 7
-0.209839 -4.6279302 17.456787 7
-0.213989 -4.5957031 17.495728 7
-0.215698 -4.561523 17.518066 7
-0.20733599 -4.507812 17.473145 7
-0.22827099 -4.7607422 16.694397 7
-0.219604 -4.7080078 16.650696 7
-0.21435501 -4.6611328 16.628967 7
-0.220459 -4.6005859 16.690002 7
-0.223877 -4.5712891 16.723145 7
-0.21777301 -4.5224609 16.69519 7
-0.066895001 -1.4287111 16.310364 7
-0.23431399 -4.7832031 15.905823 7
-0.213257 -4.7080078 15.790771 7
-0.20959499 -4.6660161 15.780334 7
-0.213257 -4.640625 15.813721 7
-0.220581 -4.6201172 15.868835 7
-0.22699 -4.5976558 15.918457 7
-0.226074 -4.5605469 15.924072 7
-0.212341 -4.5019531 15.852417 7
-0.064331003 -1.582031 14.887512 7
-0.075805999 -1.558594 14.960083 7
-0.055663999 -1.511719 14.843628 7
-0.066223003 -1.488281 14.910522 7
-0.064208999 -1.454102 14.90271 7
-0.066101 -1.423828 14.917725 7
-0.065186001 -1.391602 14.91571 7
-0.074707001 -1.365234 14.976624 7
-0.064148001 -1.327148 14.916748 7
-0.075622998 -1.3017581 14.989136 7
-0.52325398 -8.5888672 14.307434 7
-0.52026403 -8.5488281 14.313782 7
-0.52032501 -8.5185547 14.333923 7
-0.52136201 -8.4912109 14.359192 7
-0.52142298 -8.4609385 14.379639 7
-0.52343798 -8.4355469 14.409485 7
-0.52252197 -8.4023438 14.424805 7
-0.52252197 -8.3710938 14.444946 7
-0.068115003 -1.599609 14.244202 7
-0.064025998 -1.566406 14.225159 7
-0.066040002 -1.537109 14.24054 7
-0.063965 -1.505859 14.233032 7
-0.058959998 -1.472656 14.208069 7
-0.061889999 -1.443359 14.228943 7
-0.060913 -1.4130861 14.226929 7
-0.062866002 -1.382812 14.24176 7
-0.067870997 -1.355469 14.273987 7
-0.061829001 -1.322266 14.242981 7
-0.059753001 -1.2900389 14.234802 7
-0.53723103 -8.6083984 13.569458 7
-0.53302002 -8.5664062 13.57135 7
-0.531982 -8.5341797 13.586853 7
-0.533081 -8.5078115 13.612122 7
-0.53417999 -8.4824219 13.637146 7
-0.532166 -8.4472656 13.64801 7
-0.53112799 -8.4150391 13.663391 7
-0.52801502 -8.3759766 13.669373 7
-0.52276599 -8.3300781 13.665588 7
-0.52447498 -8.5996094 12.618225 7
-0.52124 -8.5615234 12.625 7
-0.52240002 -8.5390615 12.650146 7
-0.52240002 -8.5117188 12.670593 7
-0.52355999 -8.4882812 12.695557 7
-0.52355999 -8.4609385 12.715881 7
-0.51147503 -8.3974609 12.685242 7
-0.50817901 -8.359375 12.691528 7
-0.055176001 -1.2568361 13.063904 7
-0.056212999 -1.2294919 13.072815 7
-0.060608 -1.1767581 13.101501 7
-0.060851999 -1.5849611 12.064026 7
-0.062073 -1.561523 12.073486 7
-0.058410998 -1.533203 12.060425 7
-0.060791001 -1.5087889 12.075684 7
-0.053589001 -1.4794919 12.045288 7
-0.052368 -1.453125 12.043213 7
-0.055969 -1.4306639 12.064026 7
-0.055907998 -1.405273 12.067688 7
-0.058288999 -1.380859 12.082581 7
-0.063110001 -1.358398 12.108582 7
-0.064269997 -1.333984 12.117859 7
-0.051086001 -1.3017581 12.058777 7
-0.429077 -8.5224609 -6.7044678 7
-0.43164101 -8.5498047 -6.6917109 7
-0.436829 -8.5859385 -6.686707 7
-0.44073501 -8.6171885 -6.6776729 7
-0.44201699 -8.6396484 -6.6609502 7
-0.049865998 -1.5830081 11.110596 7
-0.048523001 -1.558594 11.108887 7
-0.049805 -1.537109 11.118469 7
-0.048462 -1.513672 11.116638 7
-0.047240999 -1.490234 11.114929 7
-0.043274 -1.4638669 11.101624 7
-0.041931 -1.44043 11.099548 7
-0.043212999 -1.417969 11.108887 7
-0.043212999 -1.3955081 11.112549 7
-0.051024999 -1.376953 11.150024 7
-0.052306999 -1.355469 11.158936 7
-0.049683001 -1.330078 11.15094 7
-0.047058001 -1.3056639 11.143127 7
-0.044434 -1.280273 11.13501 7
-0.44860801 -8.5585938 -6.0748901 7
-0.45263699 -8.5898438 -6.0654302 7
-0.455322 -8.6152344 -6.052124 7
-0.455383 -8.6328115 -6.0314941 7
-0.19000199 -4.7910161 9.7089844 7
-0.18158001 -4.7539058 9.69104 7
-0.170349 -4.710938 9.6630859 7
-0.161926 -4.6757808 9.6448364 7
-0.16333 -4.6582031 9.6610718 7
-0.16333 -4.6386719 9.6722412 7
-0.166199 -4.625 9.6934814 7
-0.173279 -4.6191411 9.7293701 7
-0.17742901 -4.6064448 9.7555542 7
-0.174683 -4.5820308 9.7567749 7
-0.171875 -4.5566411 9.7576904 7
-0.16626 -4.5253911 9.7487183 7
-0.16766401 -4.507812 9.7645874 7
-0.16626 -4.4863281 9.7705078 7
-0.054138001 -1.587891 10.336487 7
-0.056945998 -1.5693361 10.351562 7
-0.054076999 -1.544922 10.344177 7
-0.056885 -1.525391 10.359314 7
-0.056885 -1.5048831 10.363159 7
-0.055481002 -1.482422 10.361206 7
-0.051208001 -1.458984 10.348083 7
-0.046997 -1.435547 10.335083 7
-0.049805 -1.416016 10.349792 7
-0.049743999 -1.394531 10.353394 7
-0.05957 -1.378906 10.396179 7
-0.055358998 -1.355469 10.382874 7
-0.053955 -1.3330081 10.380615 7
-0.060913 -1.31543 10.411987 7
-0.053893998 -1.2900389 10.387268 7
-0.145386 -4.6806641 -6.706604 7
-0.142517 -4.6943359 -6.6855469 7
-0.14105199 -4.7099609 -6.669373 7
-0.141113 -4.7285161 -6.65802 7
-0.145447 -4.7558589 -6.6609502 7
-0.182556 -4.7832031 9.2634277 7
-0.169495 -4.7207031 9.2426758 7
-0.16662601 -4.6777339 9.2558594 7
-0.169495 -4.6455078 9.2880249 7
-0.175354 -4.6191411 9.3300781 7
-0.171021 -4.5732422 9.3375854 7
-0.168152 -4.530273 9.3494873 7
-0.168152 -4.492188 9.371582 7
-0.13916001 -4.5039058 -6.3718262 7
-0.14807101 -4.539062 -6.3899541 7
-0.142151 -4.5449219 -6.3596191 7
-0.142151 -4.5625 -6.3486938 7
-0.15258799 -4.601562 -6.3713989 7
-0.15856899 -4.6318359 -6.3796391 7
-0.152649 -4.6376948 -6.3490601 7
-0.15863 -4.6679692 -6.3571782 7
-0.149719 -4.6679692 -6.316956 7
-0.15118399 -4.6875 -6.3104858 7
-0.149719 -4.703125 -6.29425 7
-0.14227299 -4.7050781 -6.2590332 7
-0.151306 -4.742188 -6.2762451 7
-0.155762 -4.7685552 -6.2791138 7
-0.155762 -4.7861328 -6.2675781 7
-0.181641 -4.7763672 8.8369141 7
-0.166504 -4.7285161 8.8008423 7
-0.175598 -4.7285161 8.8408203 7
-0.16802999 -4.695312 8.8283691 7
-0.158997 -4.6611328 8.8110962 7
-0.159058 -4.6435552 8.8222046 7
-0.162109 -4.6308589 8.8431396 7
-0.17419399 -4.6376948 8.8927612 7
-0.17419399 -4.6191411 8.9039307 7
-0.172729 -4.5986328 8.9103394 7
-0.174255 -4.5839839 8.9261475 7
-0.171204 -4.5605469 8.9276123 7
-0.166687 -4.5332031 8.9240723 7
-0.16821299 -4.5185552 8.9398804 7
-0.160706 -4.4863281 8.9264526 7
-0.168274 -4.4824219 8.9616699 7
-0.135864 -4.492188 -5.985291 7
-0.13897701 -4.514648 -5.9841309 7
-0.139038 -4.532227 -5.973145 7
-0.139038 -4.5488281 -5.9621582 7
-0.139038 -4.5654302 -5.9510498 7
-0.14520299 -4.594727 -5.95929 7
-0.148315 -4.6181641 -5.95752 7
-0.149902 -4.6376948 -5.9511108 7
-0.156067 -4.6669922 -5.9586182 7
-0.14996301 -4.672852 -5.9284668 7
-0.14379901 -4.6767578 -5.8982539 7
-0.13916001 -4.6835942 -5.8728032 7
-0.14227299 -4.7070308 -5.8707891 7
-0.140747 -4.7207031 -5.8547969 7
-0.142334 -4.7402339 -5.848206 7
-0.14386 -4.7607422 -5.841248 7
-0.150085 -4.7900391 -5.8483281 7
-0.16235401 -4.7871089 8.3773193 7
-0.15918 -4.7636719 8.3795776 7
-0.152954 -4.734375 8.3724365 7
-0.148315 -4.7080078 8.369751 7
-0.151428 -4.6972661 8.3905029 7
-0.153015 -4.6845698 8.4066162 7
-0.151428 -4.6650391 8.4130859 7
-0.153015 -4.6503911 8.4290771 7
-0.153015 -4.6337891 8.4404297 7
-0.157776 -4.6269531 8.4658203 7
-0.16717499 -4.6279302 8.505249 7
-0.171875 -4.6210942 8.5306396 7
-0.16558801 -4.5908198 8.5227661 7
-0.16253699 -4.5693359 8.5244141 7
-0.15942401 -4.545898 8.526001 7
-0.15942401 -4.5292969 8.5369263 7
-0.15789799 -4.5097661 8.5430908 7
-0.157959 -4.4931641 8.5541992 7
-0.05249 -1.583984 9.3453979 7
-0.050903 -1.564453 9.3439331 7
-0.050903 -1.545898 9.3477783 7
-0.054076999 -1.529297 9.3629761 7
-0.050903 -1.507812 9.3554688 7
-0.049316 -1.488281 9.3538208 7
-0.047729 -1.46875 9.3520508 7
-0.046142999 -1.4482419 9.3501587 7
-0.055542 -1.43457 9.3869629 7
-0.052368 -1.414062 9.3795166 7
-0.057068001 -1.398438 9.3997803 7
-0.052368 -1.376953 9.3867188 7
-0.053893998 -1.358398 9.3954468 7
-0.053893998 -1.339844 9.3989868 7
-0.050781 -1.3193361 9.3912354 7
-0.042908002 -1.296875 9.3668823 7
-0.050719999 -1.28125 9.3978271 7
-0.435303 -8.3417969 -2.5561521 7
-0.43536401 -8.3505859 -2.5362549 7
-0.43542501 -8.3603516 -2.5161741 7
-0.43389899 -8.3720703 -2.4736941 7
-0.440308 -8.4013672 -2.4628911 7
-0.43395999 -8.3896484 -2.433655 7
-0.43878201 -8.4140615 -2.4202881 7
-0.44525099 -8.4423828 -2.4089971 7
-0.442139 -8.4501953 -2.3640139 7
-0.440552 -8.453125 -2.341553 7
-0.44866899 -8.4882812 -2.3321531 7
-0.44872999 -8.4960938 -2.3119509 7
-0.44879201 -8.5039062 -2.2915039 7
-0.45526099 -8.5341797 -2.279907 7
-0.455322 -8.5429688 -2.2593379 7
-0.175171 -4.7861328 8.02771 7
-0.165466 -4.75 8.0119629 7
-0.170349 -4.7441411 8.0371094 7
-0.15411399 -4.6962891 8.0026255 7
-0.162292 -4.6962891 8.0369263 7
-0.15741 -4.6699219 8.0344849 7
-0.15582301 -4.6513672 8.0411377 7
-0.15582301 -4.6347661 8.0523071 7
-0.152649 -4.6132808 8.0542603 7
-0.15100101 -4.59375 8.0609131 7
-0.15100101 -4.579102 8.0719604 7
-0.152649 -4.5654302 8.0875244 7
-0.14617901 -4.5380859 8.0800171 7
-0.149414 -4.5273442 8.1003418 7
-0.14617901 -4.5048828 8.1018677 7
-0.144592 -4.4863281 8.1079712 7
-0.45556599 -8.5136719 -1.265503 7
-0.45562699 -8.5195312 -1.245239 7
-0.45397899 -8.5195312 -1.223206 7
-0.455688 -8.53125 -1.2043459 7
-0.45739701 -8.5419922 -1.185303 7
-0.45745799 -8.5478516 -1.164978 7
-0.46081501 -8.5644531 -1.147522 7
-0.462524 -8.5751953 -1.128479 7
-0.454285 -8.5546885 -1.100403 7
-0.46264601 -8.5869141 -1.087341 7
-0.462708 -8.5927734 -1.066589 7
-0.45941201 -8.5869141 -1.043152 7
-0.45941201 -8.5927734 -1.022522 7
-0.461182 -8.6035156 -1.003418 7
-0.46789601 -8.6298828 -0.988464 7
0.072998002 3.2636721 -4.7618408 7
-0.0042719999 3.191406 -5.0882568 7
-0.0075679999 3.179688 -5.105835 7
-0.00097699999 3.1542971 -5.0926509 7
-0.002686 3.140625 -5.10498 7
-0.0059810001 3.1298831 -5.122375 7
-0.012512 3.1220701 -5.1499629 7
-0.0076290001 3.0996089 -5.1418462 7
-0.463379 -8.5380859 0.641357 7
-0.46167001 -8.5341797 0.66204798 7
-0.45825201 -8.5234385 0.68335003 7
-0.460022 -8.53125 0.70343 7
-0.46179199 -8.5380859 0.72357202 7
-0.46014401 -8.5332031 0.74432403 7
-0.461914 -8.5410156 0.76452601 7
-0.46026599 -8.5361328 0.785339 7
-0.456848 -8.5263672 0.80633497 7
-0.45861799 -8.5332031 0.82647699 7
-0.46209699 -8.5458984 0.84643602 7
-0.46044901 -8.5410156 0.86730999 7
-0.462219 -8.5478516 0.88739002 7
-0.46575901 -8.5605469 0.907471 7
-0.46234101 -8.5498047 0.928406 7
-0.46240199 -8.5517578 0.94909698 7
-0.46667501 -8.5683594 1.297546 7
-0.47406 -8.5908203 1.317932 7
-0.463745 -8.5566406 1.338318 7
-0.46551499 -8.5634766 1.358948 7
-0.469055 -8.5742188 1.379517 7
-0.46734601 -8.5673828 1.400085 7
-0.46392801 -8.5566406 1.420471 7
-0.46917701 -8.5732422 1.441101 7
-0.46923801 -8.5722656 1.461792 7
-0.467529 -8.5673828 1.4821171 7
-0.46240199 -8.5498047 1.502319 7
-0.46246299 -8.5488281 1.522766 7
-0.462524 -8.5478516 1.543213 7
-0.462524 -8.5478516 1.563782 7
-0.46087599 -8.5410156 1.584167 7
-0.021361999 3.5087891 -4.6773682 7
-0.018005 3.4892581 -4.6755371 7
-0.014587 3.467773 -4.6737671 7
-0.0077510001 3.4433589 -4.6619868 7
-0.012878 3.4355471 -4.684814 7
-0.011169 3.4169919 -4.6876831 7
-0.011169 3.4033201 -4.6954961 7
-0.012878 3.390625 -4.708313 7
-0.012878 3.375 -4.716187 7
-0.0078119999 3.351562 -4.7089839 7
-0.0078739999 3.3369141 -4.7166748 7
-0.0061039999 3.320312 -4.7194209 7
-0.01123 3.3125 -4.742126 7
-0.012939 3.2998049 -4.7545781 7
-0.014648 3.2861331 -4.7670898 7
-0.002869 3.1152339 -4.805481 7
-0.002869 3.0996089 -4.8126831 7
-0.002869 3.0849609 -4.8198242 7
-0.001221 3.066406 -4.8218379 7
-0.0097049996 3.063477 -4.854187 7
-0.011414 3.050781 -4.866394 7
-0.014771 3.0400391 -4.8834839 7
-0.011414 3.0185549 -4.880188 7
-0.014832 3.007812 -4.8972778 7
-0.011414 2.988281 -4.894104 7
-0.014832 2.9775391 -4.9111328 7
-0.011475 2.957031 -4.9076538 7
-0.013184 2.9433589 -4.9194951 7
-0.014893 2.929688 -4.931396 7
-0.011536 2.910156 -4.927979 7
-0.0098270001 2.8925779 -4.9293208 7
-0.025635 3.300781 -4.5 7
-0.016845999 3.2714839 -4.4827881 7
-0.013306 3.2519529 -4.4803472 7
-0.013306 3.2373049 -4.487915 7
-0.016845999 3.2285161 -4.5053101 7
-0.013306 3.2080081 -4.502686 7
-0.067307003 -1.212365 15.04701 7
-0.037450999 -1.3921551 13.16264 7
-0.081748001 -1.342571 10.907092 7
-0.155775 -4.6125541 9.4622889 7
-0.047869001 -1.591179 9.4352884 7
-0.17800499 -4.6497459 8.2040443 7
-0.097579002 -1.346853 9.4253855 7
-0.069642 -1.560076 7.616828 7
-0.066343002 -1.4026181 7.6605482 7
-0.068634003 -1.2536269 7.7246752 7
-0.068611003 -1.0984631 7.7716532 7
-0.048563998 -1.297576 7.391284 7
0.075985998 -0.296184 3.9513409 7
0.065540999 -0.319635 4.095212 7
0.069774002 -0.296808 3.968488 7
0.058191001 -0.31296799 4.1111379 7
0.043931 -0.316228 4.1320658 7
0.065598004 -0.30161399 4.1458802 7
0.058320999 -0.29887199 3.9846981 7
0.075917996 -0.29341 3.9993391 7
0.053773001 -0.29934999 4.0172868 7
0.068135001 -0.28624001 4.0316629 7
0.069751002 -0.28668001 4.0467701 7
0.068178996 -0.27993 4.0647702 7
0.080084004 -0.274205 4.0763769 7
0.057027999 -0.274878 4.096488 7
0.079781003 -0.26335299 4.106607 7
0.075341001 -0.261942 4.1234479 7
0.057119999 -0.257718 4.1396241 7
0.084431 -0.242358 4.1494169 7
-0.14799701 -4.601366 16.963066 7
-0.145431 -1.551361 14.924854 7
-0.084429003 -1.471182 13.196795 7
-0.034421999 -1.409794 11.872192 7
0.049667999 -1.38133 -4.750824 7
-0.013275 -1.368681 10.990815 7
-0.179784 -4.6263962 9.5961123 7
-0.075090997 -1.3346241 10.297445 7
-0.49674901 -8.5657282 -1.0814691 7
-0.161438 -4.5718579 8.9318962 7
-0.46713701 -8.5225468 0.83506101 7
-0.13733999 -4.690526 8.1527443 7
-0.133972 -4.4827299 8.3046427 7
-0.019357 -1.2228 7.9009619 7
-0.029283 -1.0274791 7.972755 7
-0.0035059999 -1.569168 7.5368638 7
-0.000455 -1.389061 7.5604239 7
-0.017212 -1.026252 7.687634 7
0.021439999 3.084872 -5.0755372 7
-0.032496002 3.1212029 -5.3955941 7
-0.0056850002 -1.334553 -4.5692682 7
-0.0051060002 -1.478569 -4.5146351 7
