# .PCD v0.7 - Point Cloud Data file format
VERSION 0.7
FIELDS x y z intensity
SIZE 4 4 4 4
TYPE F F F F
COUNT 1 1 1 1
WIDTH 487
HEIGHT 1
VIEWPOINT 0 0 0 1 0 0 0
POINTS 487
DATA ascii
-0.564026 -1.527344 -59.533447 7
-0.56762701 -1.673828 -59.605469 7
-0.68560803 -4.8232422 -61.196899 7
-0.64648402 -4.9033198 -60.333801 7
-0.209351 -4.5566411 45.532104 7
-0.243958 -4.516602 46.182983 7
-0.54510498 2.610352 -49.453857 7
-0.568542 -1.503906 -45.608948 7
-0.65832502 -4.9755859 -46.854431 7
-0.183899 -4.5566411 38.622131 7
-0.54547101 2.514648 -41.520203 7
-0.55700701 2.421875 -41.706665 7
-0.57482898 2.3339839 -41.992249 7
-0.164673 -4.695312 30.991577 7
-0.177917 -4.6503911 31.170166 7
-0.193848 -4.6113281 31.383179 7
-0.204346 -4.5595698 31.5271 7
-0.034972999 -1.4375 29.724487 7
-0.051208001 -1.2412111 24.777527 7
-0.056212999 -1.188477 24.833191 7
-0.065063 -1.136719 24.929199 7
-1.100891 -23.158203 -22.686951 7
-1.106812 -23.255859 -22.673584 7
-1.111572 -23.344727 -22.65155 7
-1.122131 -23.475586 -22.670654 7
-1.131531 -23.59668 -22.68103 7
-1.136292 -23.686523 -22.657898 7
-1.1433721 -23.791992 -22.651123 7
-1.148743 -23.885742 -22.63147 7
-0.16955601 -4.7441411 23.987549 7
-0.160034 -4.670898 23.907532 7
-0.164673 -4.6279302 23.964417 7
-0.177734 -4.5996089 24.101318 7
-0.178894 -4.547852 24.123718 7
-0.17846701 -4.641602 22.743469 7
-0.190369 -4.6132808 22.862671 7
-0.190308 -4.5625 22.873901 7
-0.177063 -4.4873052 22.765198 7
-0.054443002 -1.357422 20.870056 7
-0.194336 -4.7597661 16.445374 7
-0.178589 -4.6943359 16.357544 7
-0.176819 -4.6542969 16.357788 7
-0.181152 -4.6279302 16.396484 7
-0.189026 -4.6074219 16.45752 7
-0.18988 -4.5732422 16.474243 7
-0.180237 -4.5195308 16.424133 7
-0.046021 -1.587891 16.147461 7
-0.04425 -1.552734 16.139954 7
-0.044188999 -1.516602 16.144043 7
-0.037108999 -1.4423831 16.105408 7
-0.044066999 -1.37793 16.158691 7
-0.041320998 -1.3056639 16.14801 7
-0.194397 -4.765625 15.630798 7
-0.18518101 -4.7128911 15.58728 7
-0.173218 -4.65625 15.527344 7
-0.178711 -4.632812 15.571411 7
-0.18512 -4.6123052 15.621155 7
-0.192505 -4.59375 15.67627 7
-0.189697 -4.5537109 15.670715 7
-0.174072 -4.4902339 15.588074 7
-0.046326 -1.577148 15.419739 7
-0.042603001 -1.542969 15.400757 7
-0.046264999 -1.511719 15.42749 7
-0.046204001 -1.4775389 15.431213 7
-0.037903 -1.44043 15.38324 7
-0.040649001 -1.408203 15.403992 7
-0.041503999 -1.375 15.413391 7
-0.050597999 -1.347656 15.474365 7
-0.044188999 -1.310547 15.437378 7
-0.480225 -8.4443359 14.092346 7
-0.47418201 -8.3945312 14.083679 7
-0.47320601 -8.3613281 14.09906 7
-0.47521999 -8.3378906 14.128723 7
-0.493774 -8.6054688 13.26532 7
-0.49169901 -8.5712891 13.276611 7
-0.48754901 -8.5283203 13.278381 7
-0.49175999 -8.5136719 13.317566 7
-0.49493399 -8.4960938 13.352051 7
-0.49285901 -8.4609385 13.363037 7
-0.48754901 -8.4150391 13.35968 7
-0.485901 -8.3798828 13.370911 7
-0.047545999 -1.599609 13.559753 7
-0.047485001 -1.5712889 13.563782 7
-0.04541 -1.5419919 13.556213 7
-0.044312 -1.512695 13.554382 7
-0.045348998 -1.484375 13.563965 7
-0.037964001 -1.450195 13.527527 7
-0.043152001 -1.424805 13.559692 7
-0.042114001 -1.3955081 13.557678 7
-0.049438 -1.371094 13.601135 7
-0.047302 -1.341797 13.59314 7
-0.046204001 -1.311523 13.590637 7
-0.041992001 -1.28125 13.571228 7
-0.48266599 -8.5888672 12.333923 7
-0.48052999 -8.5556641 12.34552 7
-0.48052999 -8.5292969 12.365906 7
-0.479431 -8.4990234 12.381775 7
-0.479431 -8.4726562 12.4021 7
-0.47723401 -8.4394531 12.413574 7
-0.47070301 -8.3671885 12.426025 7
-0.464111 -8.3203115 12.41864 7
-0.037719999 -1.599609 12.920227 7
-0.035521999 -1.5712889 12.912659 7
-0.037659001 -1.518555 12.931824 7
-0.035399999 -1.4892581 12.924133 7
-0.028748 -1.457031 12.893677 7
-0.033142 -1.433594 12.920288 7
-0.037537001 -1.40918 12.946655 7
-0.041931 -1.384766 12.973145 7
-0.037475999 -1.3544919 12.953796 7
-0.033020001 -1.296875 12.937378 7
-0.488159 -8.609375 11.594543 7
-0.48242199 -8.5664062 11.592957 7
-0.482483 -8.5419922 11.613586 7
-0.482483 -8.5185547 11.633911 7
-0.480225 -8.4863281 11.64563 7
-0.480225 -8.4628906 11.666016 7
-0.473389 -8.4160156 11.659607 7
-0.473389 -8.390625 11.679565 7
-0.46881101 -8.3525391 11.681824 7
-0.042725001 -1.37793 12.485962 7
-0.041565001 -1.351562 12.483826 7
-0.043884002 -1.327148 12.498474 7
-0.040344 -1.592773 11.958069 7
-0.039184999 -1.568359 11.956482 7
-0.041565001 -1.544922 11.971802 7
-0.041503999 -1.519531 11.975464 7
-0.039124001 -1.4931639 11.968018 7
-0.034302 -1.464844 11.949036 7
-0.035461001 -1.441406 11.958557 7
-0.035461001 -1.416016 11.962036 7
-0.039000999 -1.392578 11.982483 7
-0.046204001 -1.37207 12.020203 7
-0.041320998 -1.344727 12.000854 7
-0.040160999 -1.3193361 11.998535 7
-0.031738002 -1.289062 11.962097 7
-0.028687 -1.5888669 11.011108 7
-0.028687 -1.566406 11.015015 7
-0.033875 -1.547852 11.041626 7
-0.032531999 -1.5244139 11.039856 7
-0.033813 -1.501953 11.049133 7
-0.027283 -1.474609 11.024719 7
-0.023375999 -1.449219 11.011536 7
-0.024658 -1.427734 11.020874 7
-0.023314999 -1.404297 11.018677 7
-0.028503001 -1.384766 11.044861 7
-0.033691 -1.365234 11.070984 7
-0.036254998 -1.344727 11.085815 7
-0.034972999 -1.3212889 11.083496 7
-0.025818 -1.2919919 11.047058 7
-0.162109 -4.7294922 -7.6726069 7
-0.16082799 -4.7470698 -7.656189 7
-0.159546 -4.765625 -7.639771 7
-0.160889 -4.789062 -7.6331182 7
-0.44415301 -8.5400391 -6.0551758 7
-0.446899 -8.5664062 -6.0421138 7
-0.449646 -8.5917969 -6.0289311 7
-0.44836399 -8.6044922 -6.0046391 7
-0.44976801 -8.6259766 -5.9876099 7
-0.041503999 -1.579102 10.676392 7
-0.041503999 -1.5576169 10.680237 7
-0.040100001 -1.53418 10.678589 7
-0.045471001 -1.516602 10.705078 7
-0.038695998 -1.488281 10.680664 7
-0.035950001 -1.464844 10.672974 7
-0.035950001 -1.443359 10.676575 7
-0.041320998 -1.424805 10.70282 7
-0.038635001 -1.4013669 10.695312 7
-0.045348998 -1.3837889 10.726929 7
-0.045288 -1.361328 10.730225 7
-0.042603001 -1.3388669 10.722595 7
-0.042541999 -1.31543 10.72583 7
-0.039856002 -1.2919919 10.717957 7
-0.143372 -4.4960942 -7.2397461 7
-0.143433 -4.515625 -7.2289429 7
-0.151794 -4.5527339 -7.2478032 7
-0.15185501 -4.5917969 -7.2258911 7
-0.16571 -4.639648 -7.2644038 7
-0.16717499 -4.6621089 -7.2580571 7
-0.156128 -4.6601558 -7.2072139 7
-0.150635 -4.6894531 -7.1647949 7
-0.14929201 -4.7060552 -7.1481929 7
-0.15356401 -4.7539058 -7.140564 7
-0.145386 -4.500977 -6.8232422 7
-0.145386 -4.5195308 -6.8122559 7
-0.14825401 -4.5429692 -6.8111572 7
-0.148376 -4.5625 -6.8001099 7
-0.148376 -4.5810552 -6.789185 7
-0.155579 -4.6142578 -6.8026118 7
-0.158508 -4.6386719 -6.801147 7
-0.161438 -4.664062 -6.7998662 7
-0.15429699 -4.6679692 -6.7640991 7
-0.151428 -4.6816411 -6.7429199 7
-0.151489 -4.7001948 -6.7315669 7
-0.151489 -4.71875 -6.7202759 7
-0.163269 -4.7773442 9.1729126 7
-0.15014599 -4.7148442 9.1524048 7
-0.148682 -4.6748052 9.170166 7
-0.15014599 -4.639648 9.1976318 7
-0.15448 -4.6113281 9.234436 7
-0.151611 -4.5693359 9.2470093 7
-0.147278 -4.523438 9.2543945 7
-0.14587399 -4.483398 9.2713623 7
-0.036804002 -1.575195 9.925415 7
-0.039673001 -1.556641 9.9405518 7
-0.039673001 -1.537109 9.9442749 7
-0.039673001 -1.516602 9.9481812 7
-0.033813 -1.492188 9.9296265 7
-0.030884 -1.469727 9.9222412 7
-0.030884 -1.450195 9.9259033 7
-0.032288 -1.4306639 9.9350586 7
-0.035216998 -1.4130861 9.9499512 7
-0.042479999 -1.396484 9.9815674 7
-0.039551001 -1.375 9.9735718 7
-0.039489999 -1.353516 9.9771729 7
-0.036559999 -1.3330081 9.9694214 7
-0.035094999 -1.311523 9.9671021 7
-0.039429002 -1.292969 9.9874268 7
-0.150391 -4.5673828 -6.3892212 7
-0.157959 -4.6181641 -6.3912959 7
-0.16394 -4.648438 -6.3994141 7
-0.159485 -4.657227 -6.3736572 7
-0.161011 -4.6787109 -6.367126 7
-0.161072 -4.6962891 -6.355896 7
-0.15515099 -4.702148 -6.3252559 7
-0.152161 -4.7128911 -6.3043208 7
-0.15374801 -4.734375 -6.2976069 7
-0.15374801 -4.7519531 -6.2861938 7
-0.16571 -4.7939448 -6.3128662 7
-0.440247 -8.3701172 -4.084106 7
-0.431335 -8.3544922 -4.045959 7
-0.43139601 -8.3671885 -4.0258789 7
-0.43890399 -8.4023438 -4.020874 7
-0.4375 -8.4101562 -3.9976201 7
-0.43158001 -8.4033203 -3.965637 7
-0.43609601 -8.4306641 -3.954407 7
-0.434692 -8.4375 -3.9312129 7
-0.448181 -8.4931641 -3.9373779 7
-0.44677699 -8.5009766 -3.914185 7
-0.44384801 -8.5029297 -3.888 7
-0.454346 -8.5498047 -3.887939 7
-0.45288101 -8.5576172 -3.864502 7
-0.448486 -8.5546885 -3.835144 7
-0.445557 -8.5566406 -3.809082 7
-0.44409201 -8.5634766 -3.7857671 7
-0.45764199 -8.6201172 -3.790771 7
-0.44872999 -8.6015615 -3.753113 7
-0.45477301 -8.6337891 -3.743896 7
-0.159851 -4.7988281 8.7194214 7
-0.162903 -4.7871089 8.7405396 7
-0.16442899 -4.7744141 8.7568359 7
-0.15387 -4.735352 8.7351685 7
-0.14776599 -4.7050781 8.727417 7
-0.144775 -4.6816411 8.7293701 7
-0.144775 -4.664062 8.7406616 7
-0.147827 -4.6523442 8.7615356 7
-0.147827 -4.6357422 8.772644 7
-0.147827 -4.6181641 8.7839355 7
-0.15991201 -4.624023 8.8335571 7
-0.158447 -4.6035161 8.8398438 7
-0.147827 -4.5654302 8.8173218 7
-0.14331099 -4.5380859 8.8137817 7
-0.143921 -4.5205078 8.8251343 7
-0.153015 -4.5205078 8.8649902 7
-0.143921 -4.485352 8.8468018 7
-0.144226 -4.4960942 -6.0256958 7
-0.144226 -4.5126948 -6.0148931 7
-0.144348 -4.530273 -6.0037231 7
-0.144348 -4.547852 -5.9929199 7
-0.144348 -4.5644531 -5.981812 7
-0.153687 -4.6005859 -5.9992681 7
-0.15374801 -4.6181641 -5.9880981 7
-0.15838601 -4.6425781 -5.9912109 7
-0.16149899 -4.6660161 -5.9894409 7
-0.156921 -4.6748052 -5.9639282 7
-0.150757 -4.679688 -5.9336548 7
-0.14776599 -4.6904302 -5.9130249 7
-0.149353 -4.7099609 -5.906311 7
-0.146301 -4.7207031 -5.885437 7
-0.15094 -4.7470698 -5.888062 7
-0.15564001 -4.773438 -5.890686 7
-0.15722699 -4.7939448 -5.8838501 7
-0.158875 -4.7919922 8.3521118 7
-0.144775 -4.7480469 8.3218994 7
-0.144775 -4.7314448 8.3334351 7
-0.137024 -4.6992192 8.3215332 7
-0.138611 -4.6855469 8.3373413 7
-0.140137 -4.671875 8.3534546 7
-0.14331099 -4.6621089 8.3742065 7
-0.14483599 -4.6474609 8.3901978 7
-0.14331099 -4.6279302 8.3966064 7
-0.152649 -4.6298828 8.4359131 7
-0.15734901 -4.6230469 8.4614868 7
-0.151123 -4.592773 8.4536743 7
-0.14483599 -4.5644531 8.4458008 7
-0.14331099 -4.5439448 8.4521484 7
-0.133911 -4.5107422 8.4346313 7
-0.14331099 -4.5117192 8.473999 7
-0.14019801 -4.4882808 8.4754639 7
-0.428772 -8.3291016 -2.5015261 7
-0.424072 -8.3320312 -2.454407 7
-0.419312 -8.3251953 -2.4277339 7
-0.42578101 -8.3544922 -2.416748 7
-0.422607 -8.3525391 -2.3922729 7
-0.42590299 -8.3720703 -2.37677 7
-0.425964 -8.3798828 -2.356689 7
-0.42919901 -8.3994141 -2.341125 7
-0.43090799 -8.4140615 -2.322876 7
-0.429382 -8.4179688 -2.3005371 7
-0.429382 -8.4257812 -2.280396 7
-0.43267801 -8.4453115 -2.2645259 7
-0.43115199 -8.4482422 -2.242065 7
-0.434387 -8.4667969 -2.2261961 7
-0.440918 -8.4960938 -2.214478 7
-0.439331 -8.4990234 -2.191956 7
-0.44262701 -8.5175781 -2.175781 7
-0.445862 -8.5351562 -2.1594851 7
-0.43951401 -8.5234385 -2.1308589 7
-0.444397 -8.5458984 -2.1165161 7
-0.442871 -8.5498047 -2.0939939 7
-0.44451901 -8.5615234 -2.0755 7
-0.44616699 -8.5751953 -2.0570071 7
-0.446228 -8.5830078 -2.036438 7
-0.44464099 -8.5849609 -2.013855 7
-0.444702 -8.59375 -1.993225 7
-0.444763 -8.6005859 -1.972595 7
-0.44805899 -8.6191406 -1.956055 7
-0.44812 -8.6269531 -1.935364 7
-0.44653299 -8.6289062 -1.91272 7
-0.148987 -4.7900391 7.9046021 7
-0.13763399 -4.750977 7.8842158 7
-0.13604701 -4.7324219 7.8911738 7
-0.129517 -4.7050781 7.88446 7
-0.12628201 -4.6826172 7.8865972 7
-0.13281199 -4.679688 7.9161382 7
-0.12957799 -4.657227 7.9182739 7
-0.13281199 -4.648438 7.9387212 7
-0.13281199 -4.632812 7.9501948 7
-0.14257801 -4.6376948 7.9888921 7
-0.15069599 -4.6376948 8.0230713 7
-0.144226 -4.609375 8.0158691 7
-0.144226 -4.59375 8.0270386 7
-0.140991 -4.5712891 8.0286865 7
-0.13934299 -4.5527339 8.0350952 7
-0.136108 -4.530273 8.0368652 7
-0.139404 -4.5205078 8.0571289 7
-0.140991 -4.5087891 8.0727539 7
-0.140991 -4.492188 8.0836792 7
-0.44567901 -8.4658203 -1.272217 7
-0.44574001 -8.4716797 -1.251892 7
-0.44574001 -8.4755859 -1.231689 7
-0.445862 -8.4824219 -1.2113039 7
-0.44921899 -8.4990234 -1.194031 7
-0.440918 -8.4785156 -1.166016 7
-0.44262701 -8.4892578 -1.147156 7
-0.447754 -8.5107422 -1.13147 7
-0.45111099 -8.5273438 -1.114014 7
-0.44616699 -8.5166016 -1.089233 7
-0.44451901 -8.5166016 -1.0671999 7
-0.45794699 -8.5654297 -1.058594 7
-0.45300299 -8.5546885 -1.0335079 7
-0.45306399 -8.5605469 -1.013123 7
-0.45642099 -8.5771484 -0.99542201 7
-0.45983899 -8.59375 -0.97772199 7
-0.45489499 -8.5820312 -0.95300299 7
-0.446594 -8.5595703 -0.92547601 7
-0.446594 -8.5654297 -0.904724 7
-0.45672601 -8.6035156 -0.89257801 7
-0.46008301 -8.6191406 -0.87451202 7
-0.443481 -8.5693359 -0.84051502 7
-0.45019501 -8.5966797 -0.82531703 7
-0.451904 -8.6064453 -0.80590802 7
-0.45361301 -8.6171885 -0.78668201 7
-0.450378 -8.6113281 -0.76330602 7
-0.450378 -8.6152344 -0.74279797 7
-0.14019801 -4.7539058 7.505249 7
-0.13855 -4.7373052 7.512207 7
-0.136902 -4.71875 7.5192261 7
-0.13855 -4.7080078 7.5350952 7
-0.141968 -4.6992192 7.555481 7
-0.135254 -4.671875 7.5488281 7
-0.136902 -4.6601558 7.5646968 7
-0.14361601 -4.6582031 7.5938721 7
-0.131897 -4.6201172 7.5736079 7
-0.130188 -4.6025391 7.5802002 7
-0.130188 -4.5878911 7.5914311 7
-0.123535 -4.5595698 7.5844731 7
-0.13024899 -4.5585942 7.6135249 7
-0.123535 -4.530273 7.6063838 7
-0.126892 -4.5224609 7.6263428 7
-0.13024899 -4.5126948 7.6464229 7
-0.13024899 -4.4980469 7.6572881 7
-0.437805 -8.3759766 0.002869 7
-0.437866 -8.3789062 0.022949001 7
-0.43792701 -8.3828115 0.043090999 7
-0.43798801 -8.3847656 0.063049003 7
-0.43109101 -8.3662109 0.086304002 7
-0.43115199 -8.3691406 0.106445 7
-0.42773399 -8.3603516 0.128052 7
-0.42779499 -8.3642578 0.148132 7
-0.431274 -8.3769531 0.16662601 7
-0.43139601 -8.3808594 0.186829 7
-0.427917 -8.3720703 0.208435 7
-0.42797899 -8.3740234 0.22827099 7
-0.431519 -8.3876953 0.247131 7
-0.424622 -8.3681641 0.26995799 7
-0.42816201 -8.3808594 0.28863499 7
-0.43164101 -8.3945312 0.30743399 7
-0.039124001 -1.5830081 8.3868408 7
-0.039124001 -1.566406 8.3909302 7
-0.044372998 -1.5537111 8.4112549 7
-0.037354 -1.532227 8.3932505 7
-0.039124001 -1.516602 8.4025269 7
-0.030396 -1.4951169 8.3789062 7
-0.026916999 -1.476562 8.3718872 7
-0.028625 -1.460938 8.3809814 7
-0.030334 -1.4443361 8.3902588 7
-0.032042999 -1.4287111 8.399231 7
-0.026854999 -1.410156 8.3864746 7
-0.035461001 -1.398438 8.4173584 7
-0.035521999 -1.3818361 8.4210215 7
-0.037230998 -1.3662111 8.4298706 7
-0.039000999 -1.351562 8.4387817 7
-0.039000999 -1.3349611 8.4423828 7
-0.033752002 -1.314453 8.4291382 7
-0.035461001 -1.299805 8.4378662 7
-0.030212 -1.280273 8.4247437 7
-0.080118001 -1.2329021 15.232958 7
-0.039763998 -1.396587 13.191591 7
-0.54490602 -8.6144724 13.328146 7
-0.108407 -1.535907 11.892351 7
-0.060240999 -1.583683 10.66029 7
-0.064372003 -1.312304 10.752957 7
-0.145181 -4.7854929 9.211544 7
-0.040332001 -1.406688 9.9231987 7
-0.126632 -4.6675582 7.6432662 7
-0.139964 -4.5760498 7.8877969 7
-0.012568 -1.582714 7.7740769 7
-0.011712 -1.422954 7.829309 7
-0.033759002 -1.450444 7.4637561 7
-0.040569 -1.318048 7.5513968 7
0.066147 -0.30093801 3.9494369 7
0.075429 -0.29311401 3.966332 7
0.064190999 -0.309991 4.1107469 7
0.054775 -0.31091201 4.1310229 7
0.055571001 -0.306465 4.1471 7
0.069223002 -0.292898 3.983094 7
0.060919002 -0.30124199 4.0007691 7
0.073940001 -0.28523201 4.1578069 7
0.080536 -0.285786 4.0135002 7
0.058191001 -0.29113001 4.034101 7
0.080891997 -0.28152201 4.0471878 7
0.068916 -0.27961299 4.0618439 7
0.070175 -0.27849999 4.079401 7
0.084452003 -0.263282 4.0925808 7
0.064110003 -0.26963601 4.1103759 7
0.083563 -0.251113 4.1210561 7
0.078869998 -0.24884699 4.1372271 7
0.085047998 -0.242111 4.1493359 7
-0.27627799 -4.6409121 15.079404 7
-0.132192 -4.748982 -7.0021782 7
-0.576841 -8.4100523 14.275677 7
-0.031021001 -1.448774 12.696991 7
-0.12973499 -4.7418408 -5.7914672 7
-0.44194901 -8.5042315 -5.9365292 7
-0.48696801 -8.4459009 11.779356 7
-0.41699901 -8.6094246 -3.987226 7
0.0074709998 -1.361496 10.828871 7
-0.50961602 -8.6021461 -2.47526 7
-0.047499001 -1.326519 10.112837 7
-0.49281299 -8.5456152 -1.069929 7
-0.174996 -4.5569391 9.0426559 7
-0.130042 -4.618206 8.162817 7
-0.166731 -4.5173721 7.6285858 7
-0.047506001 -1.4749891 8.5344009 7
-0.0044379998 -1.4102679 7.7989612 7
-0.13018499 -4.6818352 0.16156299 7
0.0067710001 -1.563476 7.4919729 7
0.005895 -1.386701 7.532445 7
-0.126379 -4.610837 0.46933699 7
-0.12504201 -4.7078171 0.63410401 7
-0.111281 -4.5031829 0.77815801 7
-0.115255 -4.6060352 0.92505199 7
-0.163085 -4.5706582 4.2557492 7
-0.160423 -4.51721 4.4017949 7
-0.026143 -1.439999 -7.4335761 7
-0.012522 -1.457181 -6.4729519 7
