# .PCD v0.7 - Point Cloud Data file format
VERSION 0.7
FIELDS x y z intensity
SIZE 4 4 4 4
TYPE F F F F
COUNT 1 1 1 1
WIDTH 561
HEIGHT 1
VIEWPOINT 0 0 0 1 0 0 0
POINTS 561
DATA ascii
-0.43737799 -1.4267581 -67.785645 7
-0.44146699 -1.595703 -67.881042 7
-0.491272 -1.619141 -64.879456 7
-0.48480201 -1.3349611 -56.608765 7
-0.49987799 -1.481445 -56.92688 7
-0.63964802 -4.8261719 -61.675049 7
-0.60778803 -4.9169922 -60.946167 7
-0.33764601 -4.59375 51.622803 7
-0.178223 -1.175781 48.730713 7
-0.51782203 -1.4951169 -54.519348 7
-0.50244099 -1.359375 -45.382996 7
-0.50439501 -1.47168 -45.40863 7
-0.64306599 -4.780273 -47.465027 7
-0.60986298 -4.8369141 -46.877441 7
-0.248962 -4.6679692 36.718506 7
-0.27087399 -4.6269531 37.048218 7
-0.291504 -4.5800781 37.360657 7
-0.110352 -1.456055 32.977173 7
-0.117432 -1.3857419 33.080078 7
-0.23999 -4.6904302 30.0672 7
-0.101257 -1.330078 28.816956 7
-0.097411998 -1.417969 26.89978 7
-0.087279998 -1.231445 26.799072 7
-0.89373797 -18.637695 -24.023926 7
-0.89849901 -18.724609 -24.016968 7
-0.90386999 -18.81543 -24.014221 7
-0.91095001 -18.917969 -24.02533 7
-0.922607 -19.046875 -24.073181 7
-0.92681903 -19.131836 -24.060303 7
-0.93396002 -19.233398 -24.070435 7
-0.93762201 -19.31543 -24.052124 7
-0.94415301 -19.414062 -24.056946 7
-0.95001203 -19.509766 -24.056641 7
-0.95373499 -19.59082 -24.037842 7
-0.96026599 -19.69043 -24.041565 7
-1.030762 -20.898438 -23.948792 7
-1.105347 -22.146484 -23.835388 7
-1.114197 -22.264648 -23.848083 7
-1.120178 -22.362305 -23.838379 7
-1.12439 -22.448242 -23.815491 7
-1.13269 -22.5625 -23.822571 7
-1.140381 -22.672852 -23.824829 7
-0.21179201 -4.726562 21.721252 7
-0.207092 -4.6689448 21.692932 7
-0.215698 -4.6376948 21.777954 7
-0.229004 -4.6152339 21.90271 7
-0.237671 -4.5830078 21.987488 7
-0.224915 -4.5107422 21.890564 7
-0.078308001 -1.46875 21.095459 7
-0.076903999 -1.420898 21.087463 7
-0.077393003 -1.28125 21.103577 7
-0.071960002 -1.558594 18.949219 7
-0.065917999 -1.47168 18.910522 7
-0.068847999 -1.4326169 18.937317 7
-0.074707001 -1.393555 18.987305 7
-0.066467002 -1.3486331 18.927185 7
-0.066405997 -1.3056639 18.93042 7
-0.071654998 -1.592773 18.004211 7
-0.075499997 -1.556641 18.036926 7
-0.074646004 -1.516602 18.035034 7
-0.066771999 -1.472656 17.981018 7
-0.067443997 -1.433594 17.990479 7
-0.067382999 -1.393555 17.993958 7
-0.075989 -1.359375 18.061218 7
-0.070373997 -1.316406 18.024048 7
-0.065552004 -1.578125 17.063782 7
-0.066344999 -1.5419919 17.073486 7
-0.058837999 -1.5 17.025269 7
-0.057128999 -1.460938 17.017517 7
-0.062866002 -1.4287111 17.061584 7
-0.075255997 -1.398438 17.151855 7
-0.068604 -1.357422 17.109009 7
-0.060242001 -1.31543 17.054749 7
-0.064331003 -1.280273 17.086914 7
-0.071044996 -1.574219 16.336487 7
-0.067505002 -1.537109 16.317444 7
-0.060547002 -1.498047 16.275208 7
-0.064819001 -1.4638669 16.307739 7
-0.064758003 -1.429688 16.311401 7
-0.069945998 -1.3974611 16.349426 7
-0.067261003 -1.360352 16.335754 7
-0.060242001 -1.320312 16.293091 7
-0.063721001 -1.2880861 16.319458 7
-0.20166001 -4.695312 14.991882 7
-0.065186001 -1.5849611 14.905457 7
-0.062316999 -1.5517581 14.892334 7
-0.067016996 -1.5224611 14.924744 7
-0.057372998 -1.483398 14.871155 7
-0.059264999 -1.453125 14.886353 7
-0.054443002 -1.417969 14.861267 7
-0.075562 -1.3994139 14.991333 7
-0.062987998 -1.360352 14.919983 7
-0.056274001 -1.324219 14.883118 7
-0.052368 -1.289062 14.863525 7
-0.22692899 -4.7919922 14.364441 7
-0.214783 -4.7373052 14.311035 7
-0.209778 -4.6962891 14.295349 7
-0.20575 -4.6591802 14.284912 7
-0.20867901 -4.6337891 14.312561 7
-0.21777301 -4.6210942 14.372559 7
-0.215698 -4.585938 14.372803 7
-0.205566 -4.5351558 14.329407 7
-0.196472 -4.4882808 14.291321 7
-0.062743999 -1.568359 14.226074 7
-0.063660003 -1.537109 14.235779 7
-0.062622003 -1.505859 14.233704 7
-0.057617001 -1.4736331 14.208801 7
-0.056519002 -1.4423831 14.206787 7
-0.059509002 -1.4130861 14.227722 7
-0.065490998 -1.386719 14.265564 7
-0.063415997 -1.355469 14.257629 7
-0.063415997 -1.324219 14.260925 7
-0.057372998 -1.291016 14.229919 7
-0.229004 -4.7626948 13.745789 7
-0.220642 -4.71875 13.714539 7
-0.217407 -4.6826172 13.709839 7
-0.217346 -4.6533198 13.721191 7
-0.218384 -4.5966802 13.74884 7
-0.20678701 -4.515625 13.711365 7
-0.076476999 -1.390625 13.762146 7
-0.068970002 -1.269531 13.735657 7
-0.070006996 -1.2412111 13.744629 7
-0.070923001 -1.183594 13.756531 7
-0.523193 -8.6103516 12.580017 7
-0.52539098 -8.5908203 12.60968 7
-0.523193 -8.5576172 12.621094 7
-0.523193 -8.5302734 12.641541 7
-0.523193 -8.5039062 12.662231 7
-0.52545202 -8.4833984 12.691711 7
-0.52758801 -8.4628906 12.72113 7
-0.52648902 -8.4326172 12.736694 7
-0.52099597 -8.3886719 12.733826 7
-0.51879901 -8.3544922 12.744751 7
-0.51770002 -8.3251953 12.76001 7
-0.056274001 -1.2587889 13.076172 7
-0.056212999 -1.230469 13.079346 7
-0.53521699 -8.6220703 11.119629 7
-0.52801502 -8.5751953 11.114502 7
-0.52801502 -8.5527344 11.13501 7
-0.52679402 -8.5253906 11.151062 7
-0.52923602 -8.5107422 11.180298 7
-0.53283697 -8.4980469 11.213684 7
-0.52923602 -8.4628906 11.220886 7
-0.52331501 -8.4208984 11.21936 7
-0.51843297 -8.3828115 11.222046 7
-0.51611298 -8.3525391 11.233459 7
-0.51367199 -8.3212891 11.24469 7
-0.063781999 -1.587891 12.081543 7
-0.059021 -1.55957 12.062866 7
-0.060120001 -1.535156 12.072449 7
-0.058899 -1.5087889 12.070435 7
-0.054076999 -1.480469 12.051636 7
-0.058837999 -1.4580081 12.078064 7
-0.059997998 -1.43457 12.087463 7
-0.058777001 -1.408203 12.085205 7
-0.068297997 -1.387695 12.134155 7
-0.064636 -1.360352 12.120605 7
-0.063415997 -1.333984 12.118347 7
-0.053893998 -1.3037111 12.076416 7
-0.056212999 -1.279297 12.090881 7
-0.058594 -1.255859 12.105591 7
-0.059753001 -1.230469 12.114441 7
-0.063293003 -1.207031 12.134644 7
-0.065613002 -1.183594 12.14917 7
-0.063231997 -1.15625 12.140625 7
-0.149597 -4.4892578 -8.2460938 7
-0.153442 -4.5185552 -8.2507324 7
-0.153503 -4.5419922 -8.239563 7
-0.157471 -4.5712891 -8.2441406 7
-0.16387901 -4.6064448 -8.258728 7
-0.167725 -4.6367192 -8.2628784 7
-0.16271999 -4.648438 -8.2312012 7
-0.15771499 -4.6611328 -8.1994019 7
-0.157837 -4.6835942 -8.1879883 7
-0.157837 -4.7050781 -8.1768799 7
-0.15789799 -4.7275391 -8.1654053 7
-0.16180401 -4.7568359 -8.1692495 7
-0.169495 -4.7949219 -8.1881104 7
-0.46020499 -8.3476562 -6.3972168 7
-0.461548 -8.3701172 -6.381042 7
-0.46167001 -8.3886719 -6.3607178 7
-0.46179199 -8.40625 -6.3408198 7
-0.46319601 -8.4287109 -6.3242798 7
-0.46991 -8.4677734 -6.3231201 7
-0.47271699 -8.4941406 -6.3104858 7
-0.47540301 -8.5205078 -6.2975459 7
-0.48083499 -8.5556641 -6.2921748 7
-0.480896 -8.5732422 -6.271667 7
-0.47570801 -8.5732422 -6.2362061 7
-0.477112 -8.5957031 -6.2192988 7
-0.47851601 -8.6181641 -6.202332 7
-0.47387701 -8.5996094 -5.4368291 7
-0.47540301 -8.6201172 -5.4196172 7
-0.47546399 -8.6357422 -5.3989868 7
-0.47137499 -8.6376953 -5.367981 7
-0.054931998 -1.5888669 10.342468 7
-0.054931998 -1.5673831 10.34668 7
-0.056274001 -1.547852 10.356201 7
-0.052062999 -1.523438 10.343323 7
-0.047791 -1.5 10.330383 7
-0.044922002 -1.4755861 10.322876 7
-0.046326 -1.456055 10.332031 7
-0.043517999 -1.412109 10.327942 7
-0.063170999 -1.40332 10.410461 7
-0.057495002 -1.37793 10.391479 7
-0.053284001 -1.353516 10.377991 7
-0.050415002 -1.331055 10.370178 7
-0.046204001 -1.308594 10.356812 7
-0.050354 -1.2880861 10.376953 7
-0.47167999 -8.5429688 -4.785706 7
-0.479004 -8.59375 -4.7609859 7
-0.47912601 -8.6220703 -4.719604 7
-0.45770299 -8.4111328 -4.1463618 7
-0.46228001 -8.4384766 -4.1355591 7
-0.47137499 -8.4804688 -4.1334229 7
-0.47137499 -8.4921885 -4.1130371 7
-0.46551499 -8.4863281 -4.0805049 7
-0.47302201 -8.5224609 -4.0753169 7
-0.47613499 -8.5449219 -4.0608521 7
-0.467224 -8.5283203 -4.0224609 7
-0.46728501 -8.5410156 -4.0018311 7
-0.476318 -8.5820312 -3.999084 7
-0.480896 -8.609375 -3.9875491 7
-0.47204599 -8.5927734 -3.949158 7
-0.47503701 -8.6142578 -3.9343259 7
-0.45837399 -8.3701172 -3.508667 7
-0.45526099 -8.3720703 -3.4829099 7
-0.45697001 -8.3876953 -3.4655759 7
-0.46008301 -8.4091797 -3.4511111 7
-0.46789601 -8.4443359 -3.4445801 7
-0.46026599 -8.4306641 -3.410645 7
-0.461853 -8.4462891 -3.393127 7
-0.461914 -8.4570312 -3.372925 7
-0.477478 -8.5185547 -3.3795781 7
-0.474426 -8.5195312 -3.35376 7
-0.46984899 -8.5146484 -3.3252561 7
-0.47607401 -8.5458984 -3.315491 7
-0.47619599 -8.5566406 -3.2950439 7
-0.476257 -8.5673828 -3.2744751 7
-0.476318 -8.578125 -3.2540281 7
-0.474792 -8.5839844 -3.2306521 7
-0.470276 -8.5791016 -3.202148 7
-0.462769 -8.4355469 -2.5552981 7
-0.46923801 -8.4648438 -2.5444951 7
-0.46935999 -8.4736328 -2.5241089 7
-0.47259501 -8.4941406 -2.508301 7
-0.47430399 -8.5078115 -2.4901121 7
-0.47760001 -8.5273438 -2.4742429 7
-0.47924799 -8.5410156 -2.456238 7
-0.47772199 -8.5449219 -2.4334109 7
-0.48101801 -8.5634766 -2.4172969 7
-0.479431 -8.5673828 -2.394592 7
-0.476257 -8.5654297 -2.3696289 7
-0.47637901 -8.5742188 -2.3491211 7
-0.47802699 -8.5869141 -2.330811 7
-0.47808799 -8.5966797 -2.309998 7
-0.47656199 -8.5996094 -2.287231 7
-0.47979701 -8.6181641 -2.2710569 7
-0.48144501 -8.6318359 -2.2523799 7
-0.471313 -8.34375 -1.911011 7
-0.47143599 -8.3515615 -1.891052 7
-0.474731 -8.3691406 -1.874817 7
-0.461487 -8.3359385 -1.839111 7
-0.46325701 -8.3476562 -1.821167 7
-0.46331799 -8.3564453 -1.801025 7
-0.460022 -8.3525391 -1.777161 7
-0.46179199 -8.3652344 -1.759094 7
-0.461853 -8.3730469 -1.738831 7
-0.461914 -8.3798828 -1.718872 7
-0.461914 -8.3867188 -1.698669 7
-0.45861799 -8.3828115 -1.674866 7
-0.45367399 -8.3730469 -1.649353 7
-0.46044901 -8.4013672 -1.636475 7
-0.46050999 -8.4091797 -1.616394 7
-0.45886201 -8.4101562 -1.594299 7
-0.46228001 -8.4277344 -1.577698 7
-0.46734601 -8.4501953 -1.562927 7
-0.46740699 -8.4560547 -1.5426641 7
-0.46575901 -8.4570312 -1.520569 7
-0.467529 -8.4697266 -1.502014 7
-0.46929899 -8.4814453 -1.483398 7
-0.46765101 -8.4824219 -1.4613039 7
-0.471008 -8.5 -1.444397 7
-0.474426 -8.5175781 -1.427429 7
-0.482849 -8.5507812 -1.415344 7
-0.47955301 -8.5458984 -1.391602 7
-0.47460899 -8.5361328 -1.3662111 7
-0.476318 -8.546875 -1.347351 7
-0.479736 -8.5644531 -1.330139 7
-0.46978801 -8.5380859 -1.2996221 7
-0.46814001 -8.5390615 -1.277771 7
-0.471558 -8.5556641 -1.260437 7
-0.47827101 -8.5830078 -1.2462161 7
-0.47668499 -8.5830078 -1.2240601 7
-0.468384 -8.5625 -1.19574 7
-0.471802 -8.5791016 -1.178345 7
-0.476807 -8.6005859 -1.162231 7
-0.47692901 -8.6074219 -1.141602 7
-0.47692901 -8.6123047 -1.120911 7
-0.184753 -4.7998052 7.6555791 7
-0.18139599 -4.7783198 7.6581421 7
-0.176331 -4.7529302 7.656311 7
-0.164551 -4.7138672 7.636353 7
-0.162903 -4.695312 7.6433721 7
-0.167969 -4.6904302 7.6680298 7
-0.164551 -4.6689448 7.6702271 7
-0.159546 -4.6445308 7.6682129 7
-0.162903 -4.6367192 7.688354 7
-0.169617 -4.6337891 7.717773 7
-0.17804 -4.6357422 7.7514648 7
-0.17804 -4.6210942 7.7627559 7
-0.174683 -4.5986328 7.764832 7
-0.174683 -4.5830078 7.776001 7
-0.174683 -4.5683589 7.7871089 7
-0.167969 -4.5400391 7.7797241 7
-0.167969 -4.5244141 7.7906489 7
-0.167969 -4.5097661 7.8018188 7
-0.169617 -4.4980469 7.8172612 7
-0.169617 -4.4824219 7.828186 7
-0.45764199 -8.3251953 -0.63519299 7
-0.461182 -8.3398438 -0.61785901 7
-0.461182 -8.3447266 -0.59777802 7
-0.457764 -8.3378906 -0.575378 7
-0.461243 -8.3535156 -0.55773902 7
-0.45440701 -8.3349609 -0.53289801 7
-0.46136501 -8.3613281 -0.51776099 7
-0.45794699 -8.3554688 -0.495361 7
-0.45800799 -8.359375 -0.47521999 7
-0.454651 -8.3525391 -0.45288101 7
-0.451233 -8.3457031 -0.430603 7
-0.45989999 -8.3769531 -0.41626 7
-0.45825201 -8.375 -0.39502001 7
-0.45825201 -8.3798828 -0.37487799 7
-0.461853 -8.3935547 -0.356812 7
-0.45837399 -8.3876953 -0.33477801 7
-0.461914 -8.4013672 -0.31665 7
-0.46539301 -8.4160156 -0.29864499 7
-0.46545401 -8.4199219 -0.27838099 7
-0.46545401 -8.4228516 -0.258118 7
-0.46557599 -8.4277344 -0.23791499 7
-0.45697001 -8.4033203 -0.212769 7
-0.46392801 -8.4287109 -0.19665501 7
-0.46398899 -8.4326172 -0.176331 7
-0.46404999 -8.4355469 -0.156128 7
-0.46759 -8.4501953 -0.137756 7
-0.46759 -8.453125 -0.117554 7
-0.46765101 -8.4560547 -0.097107001 7
-0.46771199 -8.4599609 -0.076903999 7
-0.469482 -8.46875 -0.057617001 7
-0.47302201 -8.4833984 -0.038940001 7
-0.46612501 -8.4638672 -0.015198 7
-0.47387701 -8.53125 0.32824701 7
-0.47051999 -8.5224609 0.35003701 7
-0.477478 -8.546875 0.368103 7
-0.47576901 -8.5429688 0.38922101 7
-0.47582999 -8.5449219 0.40954599 7
-0.47760001 -8.5527344 0.42950401 7
-0.47766101 -8.5546885 0.450073 7
-0.472534 -8.5400391 0.472168 7
-0.47772199 -8.5595703 0.49114999 7
-0.477844 -8.5615234 0.51159698 7
-0.47265601 -8.5458984 0.53369099 7
-0.474426 -8.5537109 0.55365002 7
-0.47796601 -8.5664062 0.57324201 7
-0.47802699 -8.5703115 0.61431903 7
-0.47466999 -8.5605469 0.63586402 7
-0.478149 -8.5722656 0.65545702 7
-0.47827101 -8.5751953 0.67608601 7
-0.48010299 -8.5830078 0.71679699 7
-0.48352101 -8.5957031 0.736633 7
-0.474915 -8.5683594 0.75891101 7
-0.480225 -8.5869141 0.77862501 7
-0.483704 -8.5996094 0.798401 7
-0.476807 -8.578125 0.82019001 7
-0.47857699 -8.5839844 0.84057599 7
-0.47521999 -8.5751953 0.86169398 7
-0.48046899 -8.5927734 0.88159198 7
-0.47363299 -8.5722656 0.92364502 7
-0.47888201 -8.5898438 0.96411097 7
-0.47894299 -8.5917969 0.98474097 7
-0.473755 -8.5751953 1.0059201 7
-0.48425299 -8.609375 1.025452 7
-0.47039801 -8.5644531 1.047424 7
-0.475647 -8.5820312 1.067444 7
-0.47912601 -8.59375 1.087708 7
-0.47924799 -8.5947266 1.128845 7
-0.47930899 -8.5947266 1.149597 7
-0.47760001 -8.5908203 1.170349 7
-0.48113999 -8.6005859 1.1906739 7
-0.479431 -8.5947266 1.2113039 7
-0.47949201 -8.5957031 1.252686 7
-0.48480201 -8.6123047 1.2730711 7
-0.47961399 -8.5957031 1.293823 7
-0.47961399 -8.5957031 1.3143311 7
-0.48492399 -8.6123047 1.335144 7
-0.48498499 -8.6132812 1.355835 7
-0.47985801 -8.5947266 1.396912 7
-0.485107 -8.6113281 1.438416 7
-0.47997999 -8.59375 1.458801 7
-0.48004201 -8.59375 1.479248 7
-0.485291 -8.6103516 1.5003051 7
-0.48010299 -8.5927734 1.520569 7
-0.48376501 -8.6025391 1.582642 7
-0.47515899 -8.5732422 1.622986 7
-0.47857699 -8.5830078 1.6439821 7
-0.48040801 -8.5878906 1.6646121 7
-0.482178 -8.5927734 1.685425 7
-0.47888201 -8.5800781 1.747009 7
-0.47894299 -8.578125 1.767334 7
-0.479004 -8.5771484 1.787903 7
-0.47729501 -8.5712891 1.808411 7
-0.475586 -8.5634766 1.828491 7
-0.475647 -8.5625 1.848938 7
-0.47570801 -8.5615234 1.869507 7
-0.47918701 -8.5712891 1.890808 7
-0.47576901 -8.5576172 1.910522 7
-0.47582999 -8.5576172 1.931152 7
-0.47930899 -8.5664062 1.9523931 7
-0.47766101 -8.5595703 1.972595 7
-0.48113999 -8.5683594 1.993896 7
-0.475952 -8.5507812 2.013123 7
-0.47778299 -8.5546885 2.0341189 7
-0.47955301 -8.5576172 2.055115 7
-0.477844 -8.5507812 2.075012 7
-0.47790501 -8.5488281 2.09552 7
-0.48138401 -8.5556641 2.137512 7
-0.483215 -8.5585938 2.158752 7
-0.47460899 -8.5302734 2.1763921 7
-0.481567 -8.5498047 2.199158 7
-0.481567 -8.546875 2.219727 7
-0.173584 -4.7705078 7.2614751 7
-0.164856 -4.7373052 7.2511601 7
-0.17181399 -4.7382808 7.2801509 7
-0.16662601 -4.7138672 7.2784419 7
-0.16662601 -4.6992192 7.2897949 7
-0.163086 -4.6787109 7.29248 7
-0.166565 -4.670898 7.312561 7
-0.170105 -4.6650391 7.3327031 7
-0.177063 -4.6630859 7.3615112 7
-0.175293 -4.6464839 7.3684692 7
-0.17181399 -4.625 7.370728 7
-0.175293 -4.617188 7.3908691 7
-0.170105 -4.59375 7.3886719 7
-0.170044 -4.579102 7.3996582 7
-0.170105 -4.5654302 7.4107671 7
-0.17181399 -4.5537109 7.4263921 7
-0.16662601 -4.530273 7.4239502 7
-0.170105 -4.5214839 7.4438481 7
-0.16662601 -4.500977 7.4457402 7
-0.16662601 -4.4863281 7.456604 7
-0.048278999 -1.591797 8.4200439 7
-0.055176001 -1.580078 8.4458008 7
-0.051697001 -1.561523 8.4387817 7
-0.048156999 -1.5419919 8.4320679 7
-0.051697001 -1.52832 8.4465942 7
-0.048156999 -1.5087889 8.4393921 7
-0.042908002 -1.488281 8.427002 7
-0.042908002 -1.47168 8.430603 7
-0.048096001 -1.4580081 8.4506836 7
-0.042908002 -1.438477 8.4379883 7
-0.042847 -1.421875 8.4416504 7
-0.049805 -1.40918 8.4671631 7
-0.056701999 -1.3974611 8.4926758 7
-0.051453002 -1.376953 8.4797363 7
-0.051453002 -1.360352 8.4831543 7
-0.047913 -1.34082 8.475647 7
-0.047913 -1.324219 8.4789429 7
-0.042663999 -1.3056639 8.4658813 7
-0.042663999 -1.289062 8.4690552 7
-0.17926 -4.796875 6.9075928 7
-0.175659 -4.7753911 6.9107671 7
-0.17572001 -4.7617192 6.9223018 7
-0.170288 -4.7382808 6.921021 7
-0.166687 -4.717773 6.9240718 7
-0.166687 -4.704102 6.9354248 7
-0.170288 -4.6982422 6.9553218 7
-0.16851801 -4.6816411 6.9623408 7
-0.17211901 -4.6757808 6.9822388 7
-0.17395 -4.6660161 6.9978638 7
-0.17932101 -4.664062 7.0220342 7
-0.17926 -4.6503911 7.0332031 7
-0.184692 -4.6464839 7.057373 7
-0.17572001 -4.6162109 7.0469971 7
-0.17218 -4.5966802 7.0496221 7
-0.17218 -4.5830078 7.06073 7
-0.16491701 -4.554688 7.0542598 7
-0.16491701 -4.5410161 7.0653691 7
-0.166748 -4.53125 7.080811 7
-0.17395 -4.532227 7.1091919 7
-0.166748 -4.5039058 7.1026001 7
-0.163147 -4.483398 7.1046748 7
-0.170349 -4.483398 7.1330571 7
-0.055659 -1.329102 13.403664 7
-0.101681 -1.441331 11.840659 7
-0.11414 -1.131302 12.013391 7
-0.50878501 -8.4951468 11.313545 7
-0.177423 -4.5640059 7.6398401 7
-0.1523 -4.6899791 6.5445108 7
-0.167971 -4.6559329 6.7818742 7
-0.054030001 -1.563115 8.3346367 7
-0.052322 -1.3785909 8.3830853 7
-0.037018999 -1.597209 7.9192572 7
-0.035181999 -1.429487 7.9696441 7
-0.065690003 -1.32533 7.684721 7
0.068327002 -0.294936 3.9373591 7
0.060488999 -0.30597699 3.954746 7
0.049157001 -0.30864099 3.97157 7
0.042826001 -0.31945699 4.118845 7
0.043841001 -0.314722 4.1386819 7
0.044303 -0.31002599 4.154983 7
0.058386002 -0.299631 3.987848 7
0.046716001 -0.300533 4.0040398 7
0.069490999 -0.291944 4.0185909 7
0.041875999 -0.29918799 4.039444 7
0.054063998 -0.294202 4.05235 7
0.057769001 -0.28457901 4.0676661 7
0.048434999 -0.28784299 4.0857711 7
0.057293002 -0.27438599 4.0993528 7
0.052877001 -0.27339101 4.1168418 7
0.071927004 -0.25463 4.1273851 7
0.056515001 -0.256282 4.1450758 7
0.062408999 -0.249244 4.1575489 7
-0.015397 -1.352089 16.567348 7
-0.137439 -1.305902 14.9064 7
-0.016409 -1.2787139 -7.28897 7
0.0042650001 -1.24625 -6.0318909 7
-0.038803 -1.2306401 11.95019 7
-0.62328798 -8.5107698 10.677768 7
-0.080573 -1.4833159 10.303997 7
-0.50597203 -8.4518871 -0.13017701 7
-0.137601 -4.632164 -1.197351 7
-0.20820799 -4.5984931 7.8284178 7
-0.18059599 -4.6633291 7.1807079 7
-0.185473 -4.5182319 7.3579192 7
-0.057549 -1.348616 8.3212662 7
-0.168337 -4.6229348 -0.578578 7
-0.15851299 -4.7347908 6.5657949 7
-0.16034199 -4.6050558 6.7317481 7
-0.037987001 -1.521006 7.934669 7
-0.041914001 -1.326388 7.9903002 7
-0.157298 -4.5517149 -0.202411 7
-0.15419801 -4.6697869 -0.030154999 7
-0.028465999 -1.306892 7.7000971 7
-0.153327 -4.6158628 0.27990699 7
-0.15077201 -4.7165241 0.449047 7
-0.126771 -4.4800448 0.627069 7
-0.135186 -4.6030068 0.76345599 7
-0.131908 -4.682404 0.92978501 7
-0.18195599 -4.824337 1.654675 7
-0.188646 -4.9017239 1.810853 7
-0.152248 -4.7413392 4.563447 7
-0.15123799 -4.680582 4.7181101 7
-0.168796 -4.5179448 4.4843621 7
-0.02479 -1.380529 13.122864 7
0.0043890001 -1.0874619 11.90678 7
-0.057618 3.3429019 -6.3534288 7
-0.00086299999 -1.119073 -5.807693 7
-0.112069 -4.704565 -1.5144089 7
-0.10977 -4.7277842 -1.317529 7
-0.108182 -4.748837 -1.1193089 7
-0.102158 -4.752028 -0.51859403 7
