# .PCD v0.7 - Point Cloud Data file format
VERSION 0.7
FIELDS x y z intensity
SIZE 4 4 4 4
TYPE F F F F
COUNT 1 1 1 1
WIDTH 388
HEIGHT 1
VIEWPOINT 0 0 0 1 0 0 0
POINTS 388
DATA ascii
-0.45507801 -1.422852 -63.298218 7
-0.45282 -1.5732419 -63.235962 7
-0.44323701 -1.353516 -57.645142 7
-0.445557 -1.496094 -57.688171 7
-0.30194101 -4.6494141 50.919067 7
-0.34478801 -4.609375 51.786194 7
-0.19152801 -1.185547 49.011658 7
-0.49737501 -1.467773 -53.607361 7
-0.46429399 -1.578125 -52.925415 7
-0.605286 -4.7587891 -55.551086 7
-0.18536399 -1.410156 45.524292 7
-0.215698 -1.3232419 46.094666 7
-0.18981899 -1.204102 45.618713 7
-0.47570801 -1.328125 -48.409668 7
-0.27691701 -4.7246089 43.204163 7
-0.44812 2.655273 -48.236877 7
-0.60675001 -4.8007808 -46.534546 7
-0.127441 -1.436523 38.145264 7
-0.249451 -4.672852 36.736145 7
-0.28558299 -4.5732422 37.285828 7
-0.132874 -1.40918 35.376038 7
-0.103516 -1.5263669 28.829773 7
-0.102356 -1.3955081 28.8255 7
-0.105103 -1.560547 25.36615 7
-0.099486999 -1.500977 25.311829 7
-0.106079 -1.449219 25.385315 7
-0.106567 -1.392578 25.394836 7
-0.096984997 -1.329102 25.299377 7
-0.110291 -1.28125 25.442261 7
-0.098755002 -1.566406 23.817017 7
-0.103455 -1.516602 23.867249 7
-0.094481997 -1.458984 23.783936 7
-0.100403 -1.40918 23.845703 7
-0.112122 -1.363281 23.965454 7
-0.11145 -1.30957 23.963135 7
-0.226074 -4.757812 21.851868 7
-0.21264599 -4.6826172 21.749817 7
-0.22332799 -4.655273 21.85199 7
-0.235962 -4.6318359 21.971069 7
-0.243958 -4.5976558 22.050354 7
-0.23120099 -4.5253911 21.953369 7
-0.235779 -4.795898 20.776367 7
-0.22521999 -4.7304692 20.703247 7
-0.22583 -4.6845698 20.720337 7
-0.233582 -4.6542969 20.793701 7
-0.24340799 -4.6279302 20.884155 7
-0.227112 -4.5507808 20.765137 7
-0.217957 -4.4873052 20.702698 7
-0.095398001 -1.4462889 20.194336 7
-0.099609002 -1.404297 20.232849 7
-0.081238002 -1.566406 19.02478 7
-0.072205 -1.518555 18.959229 7
-0.072205 -1.4775389 18.963074 7
-0.076599002 -1.439453 19.001526 7
-0.087707996 -1.404297 19.091919 7
-0.075745001 -1.355469 19.002808 7
-0.072692998 -1.3125 18.983032 7
-0.075989 -1.5986331 18.039368 7
-0.076720998 -1.55957 18.049133 7
-0.067993 -1.513672 17.98938 7
-0.067932002 -1.474609 17.993164 7
-0.077271 -1.402344 18.069702 7
-0.068604 -1.357422 18.009766 7
-0.071716003 -1.320312 18.036377 7
-0.071654998 -1.28125 18.039673 7
-0.065796003 -1.579102 17.069946 7
-0.068236999 -1.543945 17.090942 7
-0.065734997 -1.5048831 17.077515 7
-0.062378 -1.46582 17.058411 7
-0.068115003 -1.4326169 17.102295 7
-0.073853001 -1.3994139 17.146423 7
-0.068847999 -1.358398 17.115112 7
-0.063842997 -1.318359 17.083984 7
-0.067932002 -1.28418 17.11615 7
-0.062011998 -1.5 16.28717 7
-0.062804997 -1.46582 16.29657 7
-0.070006996 -1.5673831 15.59137 7
-0.063538 -1.52832 15.554993 7
-0.062622003 -1.4951169 15.553101 7
-0.066161998 -1.462891 15.579895 7
-0.066161998 -1.429688 15.583374 7
-0.072509997 -1.3994139 15.627258 7
-0.069762997 -1.3642581 15.613525 7
-0.061462 -1.326172 15.565247 7
-0.065978996 -1.293945 15.59729 7
-0.51611298 -8.3525391 14.416138 7
-0.212769 -4.7675781 14.294678 7
-0.20373499 -4.71875 14.257324 7
-0.20770299 -4.6660161 14.301819 7
-0.21875 -4.625977 14.383789 7
-0.211731 -4.5830078 14.356995 7
-0.202637 -4.5341802 14.318848 7
-0.194519 -4.4882808 14.28656 7
-0.062256001 -1.5986331 14.222595 7
-0.061156999 -1.537109 14.224609 7
-0.060180999 -1.5068361 14.222717 7
-0.057068001 -1.4736331 14.209167 7
-0.058044001 -1.4443361 14.218689 7
-0.058044001 -1.414062 14.22229 7
-0.062011998 -1.3857419 14.248962 7
-0.058959998 -1.353516 14.235168 7
-0.061889999 -1.294922 14.259155 7
-0.21759 -4.773438 13.681274 7
-0.21228001 -4.734375 13.666016 7
-0.209167 -4.6992192 13.661316 7
-0.210205 -4.672852 13.677917 7
-0.218567 -4.6582031 13.732239 7
-0.220642 -4.6337891 13.754333 7
-0.209106 -4.5820308 13.706055 7
-0.204834 -4.545898 13.695679 7
-0.20166001 -4.5107422 13.690491 7
-0.062316999 -1.263672 13.110779 7
-0.061156999 -1.235352 13.108215 7
-0.52099597 -8.6005859 11.82959 7
-0.51757801 -8.5644531 11.836731 7
-0.15649401 -4.7001948 -9.2615356 7
-0.158875 -4.7294922 -9.2606812 7
-0.154236 -4.7451172 -9.2283936 7
-0.158997 -4.7792969 -9.237854 7
-0.528992 -8.4980469 11.208862 7
-0.528992 -8.4736328 11.229248 7
-0.52307099 -8.4316406 11.2276 7
-0.52307099 -8.4082031 11.247925 7
-0.51831102 -8.3701172 11.250549 7
-0.51831102 -8.3466797 11.270752 7
-0.059142999 -1.257812 12.111877 7
-0.063904002 -1.235352 12.137878 7
-0.063842997 -1.18457 12.143982 7
-0.139771 -4.4951172 -8.7316284 7
-0.13501 -4.5097661 -8.6998901 7
-0.1521 -4.5654302 -8.7618408 7
-0.14483599 -4.5751948 -8.7194824 7
-0.16320799 -4.6347661 -8.7863159 7
-0.16937301 -4.6699219 -8.8012075 7
-0.162109 -4.679688 -8.758606 7
-0.15478501 -4.6875 -8.7161865 7
-0.156067 -4.7138672 -8.7099609 7
-0.154907 -4.735352 -8.6934204 7
-0.163513 -4.7763672 -8.7181396 7
-0.43963599 -8.3203115 -7.0149541 7
-0.437134 -8.3310547 -6.986938 7
-0.43335 -8.3378906 -6.954834 7
-0.43219 -8.3535156 -6.9307861 7
-0.43353301 -8.3769531 -6.9146118 7
-0.43743899 -8.4082031 -6.9066162 7
-0.43878201 -8.4316406 -6.8903809 7
-0.44396999 -8.4677734 -6.8859248 7
-0.446594 -8.4951172 -6.8735352 7
-0.44921899 -8.5224609 -6.8609619 7
-0.45440701 -8.5585938 -6.8562622 7
-0.451965 -8.5693359 -6.8278198 7
-0.45452899 -8.5976562 -6.815125 7
-0.454651 -8.6171885 -6.794373 7
-0.051086001 -1.587891 11.122925 7
-0.051086001 -1.564453 11.127075 7
-0.045837 -1.514648 11.112427 7
-0.045775998 -1.492188 11.11615 7
-0.045715 -1.445312 11.123352 7
-0.049561001 -1.4013669 11.1474 7
-0.050841998 -1.378906 11.156738 7
-0.046875 -1.331055 11.146667 7
-0.045531999 -1.306641 11.144409 7
-0.154175 -4.6972661 -7.6784058 7
-0.156921 -4.7236328 -7.677002 7
-0.15429699 -4.7392578 -7.6555791 7
-0.159668 -4.7714839 -7.664062 7
-0.44341999 -8.3212891 -6.3345342 7
-0.45013401 -8.3603516 -6.3338618 7
-0.451538 -8.3828115 -6.3175659 7
-0.44763201 -8.3876953 -6.2858891 7
-0.449036 -8.4101562 -6.2695918 7
-0.450378 -8.4316406 -6.2533569 7
-0.453125 -8.4580078 -6.24054 7
-0.451904 -8.4716797 -6.2164922 7
-0.45861799 -8.5107422 -6.2149658 7
-0.45867899 -8.5283203 -6.194397 7
-0.46142599 -8.5546885 -6.1816411 7
-0.46417201 -8.5810547 -6.168396 7
-0.46423301 -8.5986328 -6.1478882 7
-0.46429399 -8.6162109 -6.1271968 7
-0.46435499 -8.6337891 -6.1065669 7
-0.45867899 -8.5449219 -5.4255371 7
-0.46429399 -8.5791016 -5.4188838 7
-0.467163 -8.6044922 -5.4051509 7
-0.46447799 -8.6259766 -5.3571782 7
-0.052979 -1.589844 10.337646 7
-0.055785999 -1.5712889 10.352722 7
-0.051514 -1.546875 10.339966 7
-0.050110001 -1.5244139 10.338196 7
-0.045837 -1.5 10.325195 7
-0.045837 -1.478516 10.328796 7
-0.048645001 -1.4599611 10.34375 7
-0.048583999 -1.438477 10.347412 7
-0.049927 -1.417969 10.356689 7
-0.054138001 -1.3994139 10.377075 7
-0.054138001 -1.378906 10.380554 7
-0.054138001 -1.358398 10.384155 7
-0.051270001 -1.333984 10.37616 7
-0.048462 -1.311523 10.368347 7
-0.054016002 -1.293945 10.394165 7
-0.060729999 -1.592773 9.6737061 7
-0.060669001 -1.572266 9.6776733 7
-0.050110001 -1.546875 9.6426392 7
-0.057677999 -1.533203 9.6743164 7
-0.051635999 -1.509766 9.6560669 7
-0.045531999 -1.485352 9.6374512 7
-0.045531999 -1.46582 9.6411133 7
-0.046997 -1.447266 9.6503906 7
-0.051514 -1.4306639 9.6707153 7
-0.045471001 -1.408203 9.6521606 7
-0.049927 -1.390625 9.6723022 7
-0.057495002 -1.375 9.7037354 7
-0.060547002 -1.357422 9.7183228 7
-0.049865998 -1.332031 9.6826782 7
-0.049865998 -1.3125 9.6860962 7
-0.046813998 -1.291016 9.6782227 7
-0.463806 -8.5859385 -2.2327271 7
-0.46868899 -8.6103516 -2.218384 7
-0.46557599 -8.6083984 -2.1934199 7
-0.465637 -8.6171885 -2.172668 7
-0.466492 -8.5458984 -1.278625 7
-0.45983899 -8.5302734 -1.25177 7
-0.46826199 -8.5634766 -1.239319 7
-0.469971 -8.5751953 -1.2203979 7
-0.468384 -8.5751953 -1.198181 7
-0.468445 -8.5810547 -1.17749 7
-0.47015399 -8.5927734 -1.1585079 7
-0.47692901 -8.6201172 -1.144043 7
-0.47863799 -8.6308594 -1.124756 7
-0.46698001 -8.5986328 -1.09375 7
-0.47204599 -8.6201172 -1.077454 7
-0.47210699 -8.6259766 -1.056885 7
-0.467163 -8.6152344 -1.03186 7
-0.467224 -8.6210938 -1.01123 7
-0.46899399 -8.6318359 -0.99188203 7
-0.169617 -4.7587891 7.631165 7
-0.169617 -4.7441411 7.6427002 7
-0.161255 -4.7128911 7.6317749 7
-0.15789799 -4.6904302 7.6342769 7
-0.154541 -4.6689448 7.6366582 7
-0.154541 -4.6542969 7.6480098 7
-0.157959 -4.6474609 7.6682129 7
-0.47045901 -8.5703115 0.96521002 7
-0.472229 -8.5761719 0.98565698 7
-0.47229001 -8.5761719 1.0062259 7
-0.470642 -8.5722656 1.0271 7
-0.470642 -8.5722656 1.047546 7
-0.46899399 -8.5673828 1.068298 7
-0.472473 -8.5791016 1.088501 7
-0.472534 -8.5791016 1.108948 7
-0.46917701 -8.5693359 1.150452 7
-0.467529 -8.5634766 1.171021 7
-0.464111 -8.5527344 1.1917109 7
-0.46759 -8.5644531 1.211975 7
-0.46417201 -8.5527344 1.2327271 7
-0.469421 -8.5703115 1.252991 7
-0.46777299 -8.5644531 1.273682 7
-0.46429399 -8.5527344 1.2941279 7
-0.46789601 -8.5654297 1.314819 7
-0.46789601 -8.5644531 1.335327 7
-0.46795699 -8.5644531 1.355713 7
-0.46624801 -8.5585938 1.376343 7
-0.4646 -8.5527344 1.396729 7
-0.468079 -8.5634766 1.41748 7
-0.46991 -8.5683594 1.438049 7
-0.46472201 -8.5517578 1.45813 7
-0.47174099 -8.5732422 1.479248 7
-0.47003201 -8.5673828 1.499573 7
-0.471802 -8.5722656 1.5203249 7
-0.471863 -8.5712891 1.5409549 7
-0.47192401 -8.5712891 1.561401 7
-0.473694 -8.5761719 1.582153 7
-0.470276 -8.5634766 1.602234 7
-0.46862799 -8.5576172 1.622681 7
-0.47210699 -8.5683594 1.643555 7
-0.472168 -8.5673828 1.664124 7
-0.47045901 -8.5605469 1.684448 7
-0.47229001 -8.5654297 1.705261 7
-0.470581 -8.5595703 1.725525 7
-0.47241199 -8.5625 1.766907 7
-0.472473 -8.5615234 1.787292 7
-0.47082499 -8.5546885 1.8076169 7
-0.47082499 -8.5527344 1.828064 7
-0.47088599 -8.5527344 1.848511 7
-0.46575901 -8.5341797 1.86792 7
-0.470947 -8.5488281 1.889526 7
-0.180603 -4.789062 7.2830811 7
-0.166687 -4.7470698 7.2598271 7
-0.166687 -4.733398 7.2714229 7
-0.164978 -4.7148442 7.2784419 7
-0.16149899 -4.6943359 7.2811279 7
-0.166748 -4.6904302 7.3054199 7
-0.15978999 -4.6621089 7.299377 7
-0.166748 -4.6630859 7.3282471 7
-0.16851801 -4.6523442 7.3438721 7
-0.16851801 -4.6376948 7.355103 7
-0.170288 -4.6289058 7.3707891 7
-0.168579 -4.610352 7.377563 7
-0.16680899 -4.592773 7.3842158 7
-0.170288 -4.585938 7.4042969 7
-0.16680899 -4.563477 7.406311 7
-0.170288 -4.5566411 7.42627 7
-0.16687 -4.5361328 7.4284668 7
-0.168579 -4.5244141 7.4439092 7
-0.16687 -4.5068359 7.4503169 7
-0.161621 -4.4824219 7.4476318 7
-0.17950401 -4.7753911 6.934937 7
-0.17950401 -4.7617192 6.9463501 7
-0.170532 -4.7304692 6.936584 7
-0.170532 -4.717773 6.9481201 7
-0.175964 -4.7148442 6.972229 7
-0.174133 -4.6972661 6.9794312 7
-0.175964 -4.688477 6.9949951 7
-0.17059299 -4.664062 6.9934082 7
-0.177734 -4.6650391 7.02179 7
-0.18139599 -4.6591802 7.0418701 7
-0.183167 -4.6494141 7.057373 7
-0.168823 -4.608398 7.0340581 7
-0.179626 -4.6162109 7.071228 7
-0.168823 -4.5810552 7.056396 7
-0.16888399 -4.5683589 7.0675049 7
-0.17608599 -4.5693359 7.0957642 7
-0.16168199 -4.5263672 7.072083 7
-0.165344 -4.5205078 7.0917358 7
-0.158081 -4.492188 7.085144 7
-0.16888399 -4.5 7.122437 7
-0.119806 -1.443594 14.207687 7
-0.109144 -1.315799 11.163265 7
-0.093520001 -1.4430979 10.364449 7
-0.069284998 -1.285645 9.6771545 7
-0.18091901 -4.582417 7.6542401 7
-0.175778 -4.790935 6.6623249 7
-0.167594 -4.6223989 6.8276281 7
-0.126527 -4.5393562 5.7767401 7
-0.067978002 -1.481433 7.6394401 7
-0.093980998 -1.215636 7.872076 7
-0.095105998 -1.055946 7.9230652 7
-0.059796002 -1.388327 7.414731 7
0.058529001 -0.30217201 3.941587 7
0.057565998 -0.299523 3.9569991 7
0.044379 -0.31187701 3.9741049 7
0.049242001 -0.312087 4.1381068 7
0.039616998 -0.31127599 4.158864 7
0.053624999 -0.30265501 3.990401 7
0.047157999 -0.30091199 4.0072398 7
0.059533998 -0.29708001 4.0208802 7
0.058162998 -0.29141599 4.0371561 7
0.038607001 -0.301498 4.0582409 7
0.063386999 -0.28196901 4.0706429 7
0.043450002 -0.28981301 4.088932 7
0.046950001 -0.27846399 4.1027541 7
0.058586001 -0.27093801 4.1164222 7
0.043251999 -0.27269799 4.1377311 7
0.057105001 -0.25516099 4.1476822 7
-0.071019001 -1.430855 19.62122 7
-0.095673002 -1.2953939 14.470146 7
-0.60479099 -8.4347286 14.567696 7
-0.062780999 -1.2587579 13.043837 7
0.051972002 -1.2354209 -5.5778532 7
-0.031417999 -1.229148 11.887032 7
-0.0091660004 -1.5270129 10.922066 7
-0.49875501 -8.4987822 -1.254204 7
-0.136291 -4.6586971 -1.63246 7
-0.136323 -4.6280341 -1.192265 7
-0.13627601 -4.793468 -1.017418 7
-0.111482 -4.5148058 -0.70400101 7
-0.171965 -4.6362462 7.151412 7
-0.17562699 -4.4886961 7.323143 7
-0.174261 -4.6779652 -0.55632401 7
-0.156661 -4.695538 6.600863 7
-0.16235 -4.5763798 6.7773509 7
-0.037282001 -1.127166 7.998394 7
-0.16627499 -4.579576 -0.229645 7
-0.15787201 -4.6816039 -0.040773001 7
-0.14322899 -4.7530832 6.0560431 7
-0.141515 -4.632041 6.210856 7
-0.0059039998 -1.48107 7.5667639 7
-0.013151 -1.302606 7.6323719 7
-0.018932 -1.119352 7.68469 7
-0.15164199 -4.6105208 0.284318 7
-0.00245 -1.285828 7.3829012 7
-0.171754 -4.8856721 2.8920131 7
-0.161342 -4.8577342 3.0569241 7
-0.011074 -1.266265 -7.2609859 7
0.011358 -1.137718 -5.6761122 7
0.014439 -1.272882 -5.615273 7
-0.091170996 -4.6076469 -1.12037 7
-0.088753 -4.633317 -0.68201798 7
