# .PCD v0.7 - Point Cloud Data file format
VERSION 0.7
FIELDS x y z intensity
SIZE 4 4 4 4
TYPE F F F F
COUNT 1 1 1 1
WIDTH 396
HEIGHT 1
VIEWPOINT 0 0 0 1 0 0 0
POINTS 396
DATA ascii
-0.224548 -4.704102 71.030273 7
-0.59246802 -1.2705081 -61.907288 7
-0.58642602 -1.371094 -54.12262 7
-0.59735101 -1.507812 -54.335327 7
-0.693726 -4.8056641 -55.920471 7
-0.57482898 2.6855471 -53.92926 7
-0.59167498 2.5712891 -54.268372 7
-0.039124001 -1.4794919 39.351013 7
-0.572083 2.710938 -51.215088 7
-0.58410603 2.5966799 -51.448914 7
-0.602539 2.4863279 -51.805237 7
-0.56970203 -1.4794919 -45.248169 7
-0.70599401 -4.7744141 -47.269165 7
-0.19341999 -4.6357422 35.857117 7
-0.21008299 -4.5849609 36.111267 7
-0.046448 -1.424805 34.036255 7
-0.048156999 -1.4111331 32.050415 7
-0.045104999 -1.3369139 32.013184 7
-0.036926001 -1.44043 29.76062 7
-0.059753001 -1.376953 23.41571 7
-0.061584 -1.326172 23.436584 7
-0.167603 -4.7304692 21.319946 7
-0.162231 -4.671875 21.28595 7
-0.17553701 -4.6513672 21.410706 7
-0.186279 -4.625 21.512634 7
-0.19085699 -4.585938 21.563232 7
-0.168823 -4.4970698 21.387146 7
-0.040894002 -1.257812 20.767578 7
-0.039306998 -1.5732419 18.674072 7
-0.036986999 -1.530273 18.660706 7
-0.035461001 -1.488281 18.652893 7
-0.037659001 -1.450195 18.673889 7
-0.048827998 -1.4150389 18.764526 7
-0.035339002 -1.3662111 18.663696 7
-0.030823 -1.3232419 18.632385 7
-0.035278 -1.285156 18.670593 7
-0.036986999 -1.564453 17.733582 7
-0.029053001 -1.481445 17.683411 7
-0.032958999 -1.445312 17.716125 7
-0.043152001 -1.414062 17.794739 7
-0.032104 -1.3681639 17.717224 7
-0.031311002 -1.329102 17.714905 7
-0.032837 -1.2919919 17.729919 7
-0.025878999 -1.5830081 16.772156 7
-0.027527001 -1.547852 16.787659 7
-0.020812999 -1.5068361 16.745239 7
-0.022399999 -1.470703 16.760559 7
-0.025757 -1.4375 16.787354 7
-0.033142 -1.405273 16.842834 7
-0.027344 -1.365234 16.805969 7
-0.020691 -1.325195 16.763123 7
-0.026427999 -1.2919919 16.806946 7
-0.03064 -1.577148 16.051147 7
-0.035889 -1.546875 16.089661 7
-0.029724 -1.507812 16.053162 7
-0.02887 -1.472656 16.051208 7
-0.034058001 -1.441406 16.089417 7
-0.038391002 -1.40918 16.121887 7
-0.041016001 -1.375977 16.1427 7
-0.035767 -1.3388669 16.111572 7
-0.033936001 -1.3017581 16.103394 7
-0.028991999 -1.53418 15.321655 7
-0.027161 -1.499023 15.313782 7
-0.029846 -1.467773 15.334778 7
-0.030762 -1.436523 15.344177 7
-0.026123 -1.3349611 15.325928 7
-0.03064 -1.302734 15.357971 7
-0.019531 -1.580078 14.615356 7
-0.027161 -1.5537111 14.665161 7
-0.016663 -1.516602 14.605957 7
-0.022399999 -1.490234 14.644348 7
-0.018494001 -1.455078 14.624939 7
-0.028991999 -1.4306639 14.691772 7
-0.029967999 -1.400391 14.701111 7
-0.030884 -1.369141 14.71051 7
-0.021300999 -1.331055 14.65625 7
-0.024109 -1.302734 14.677002 7
-0.48266599 -8.4892578 14.097168 7
-0.475647 -8.4365234 14.08374 7
-0.47668499 -8.4101562 14.108704 7
-0.48071301 -8.3916016 14.148254 7
-0.47967499 -8.3574219 14.163513 7
-0.48077399 -8.3310547 14.188354 7
-0.168457 -4.703125 14.040344 7
-0.169434 -4.6757808 14.057007 7
-0.169434 -4.6455078 14.068298 7
-0.16235401 -4.5117192 14.074646 7
-0.028137 -1.599609 14.012695 7
-0.028076001 -1.5693361 14.016479 7
-0.028076001 -1.5400389 14.020569 7
-0.026062001 -1.509766 14.012939 7
-0.023010001 -1.4775389 13.999451 7
-0.023010001 -1.447266 14.003174 7
-0.024963001 -1.418945 14.018311 7
-0.031005999 -1.393555 14.056274 7
-0.027953999 -1.361328 14.042664 7
-0.025878999 -1.329102 14.034546 7
-0.024840999 -1.298828 14.031982 7
-0.023864999 -1.269531 14.029602 7
-0.029846 -1.2431639 14.067261 7
-0.030823 -1.212891 14.076294 7
-0.030762 -1.181641 14.079224 7
-0.02771 -1.1513669 14.065002 7
-0.18383799 -4.7861328 13.470337 7
-0.17541499 -4.742188 13.438965 7
-0.17437699 -4.710938 13.445007 7
-0.17333999 -4.6806641 13.45105 7
-0.179626 -4.6630859 13.494507 7
-0.188049 -4.6523442 13.54895 7
-0.180664 -4.608398 13.522339 7
-0.173279 -4.5654302 13.495728 7
-0.17230199 -4.5351558 13.501465 7
-0.16491701 -4.4931641 13.47467 7
-0.037475999 -1.59375 13.509766 7
-0.038513001 -1.56543 13.519348 7
-0.038513001 -1.537109 13.523254 7
-0.032166 -1.503906 13.492859 7
-0.034240998 -1.476562 13.507935 7
-0.03418 -1.4482419 13.511719 7
-0.037354 -1.421875 13.532471 7
-0.040465999 -1.394531 13.553162 7
-0.035216998 -1.363281 13.528198 7
-0.032042999 -1.332031 13.514465 7
-0.035156 -1.3056639 13.535034 7
-0.177673 -4.765625 12.78009 7
-0.171082 -4.7246089 12.759583 7
-0.16558801 -4.6875 12.744507 7
-0.166687 -4.6621089 12.761047 7
-0.17437699 -4.6503911 12.809692 7
-0.173279 -4.6210942 12.815613 7
-0.175476 -4.5996089 12.837341 7
-0.16992199 -4.5605469 12.821716 7
-0.16156 -4.5175781 12.789307 7
-0.16149899 -4.4902339 12.800171 7
-0.033691 -1.597656 12.904114 7
-0.034790002 -1.5712889 12.913879 7
-0.034790002 -1.543945 12.917786 7
-0.029236 -1.512695 12.893188 7
-0.027039001 -1.484375 12.885559 7
-0.029175 -1.458984 12.900696 7
-0.031372 -1.4326169 12.91571 7
-0.032471001 -1.407227 12.92511 7
-0.031372 -1.378906 12.922852 7
-0.031311002 -1.3505861 12.92627 7
-0.031311002 -1.324219 12.929749 7
-0.029053001 -1.295898 12.921631 7
-0.032958999 -1.267578 12.455017 7
-0.035216998 -1.2431639 12.469666 7
-0.034912001 -1.263672 -9.5919189 7
-0.18450899 -4.6816411 -9.3496094 7
-0.17511 -4.688477 -9.2962646 7
-0.175171 -4.7128911 -9.2850342 7
-0.171692 -4.7304692 -9.2578115 7
-0.17523199 -4.7617192 -9.262146 7
-0.181152 -4.7998052 -9.2766113 7
-0.038451999 -1.59375 11.953491 7
-0.036072001 -1.566406 11.94635 7
-0.03717 -1.517578 11.959778 7
-0.033569001 -1.490234 11.946411 7
-0.034790002 -1.46582 11.95575 7
-0.035950001 -1.4423831 11.965088 7
-0.035889 -1.4169919 11.968811 7
-0.040709998 -1.394531 11.995056 7
-0.039429002 -1.3681639 11.992859 7
-0.040649001 -1.34375 12.001953 7
-0.039368 -1.318359 11.999634 7
-0.032226998 -1.2900389 11.968994 7
-0.158875 -4.5341802 -8.7490845 7
-0.17730699 -4.5917969 -8.8162231 7
-0.172424 -4.6064448 -8.7844238 7
-0.174927 -4.6347661 -8.7835693 7
-0.17987099 -4.6679692 -8.7930908 7
-0.167603 -4.6679692 -8.7299194 7
-0.165222 -4.686523 -8.7081299 7
-0.165222 -4.7099609 -8.6968994 7
-0.17022701 -4.7441411 -8.7061157 7
-0.175171 -4.7753911 -8.715332 7
-0.46887201 -8.5644531 -7.6610718 7
-0.46765101 -8.5810547 -7.6364141 7
-0.47271699 -8.6396484 -7.6115112 7
-0.020691 -1.2412111 -8.6036987 7
-0.020752 -1.264648 -8.6005249 7
-0.033202998 -1.570312 11.038818 7
-0.028015001 -1.544922 11.020264 7
-0.030579001 -1.5224611 11.035156 7
-0.024048001 -1.4951169 11.010864 7
-0.020142 -1.469727 10.997681 7
-0.017517 -1.4462889 10.990051 7
-0.021423001 -1.425781 11.010742 7
-0.020081 -1.402344 11.008606 7
-0.031738002 -1.387695 11.062927 7
-0.031738002 -1.3642581 11.066589 7
-0.029175 -1.339844 11.058655 7
-0.023925999 -1.314453 11.039246 7
-0.022644 -1.291016 11.036926 7
-0.039489999 -1.599609 10.667969 7
-0.038146999 -1.576172 10.666199 7
-0.035399999 -1.552734 10.658936 7
-0.038086001 -1.532227 10.674011 7
-0.036743 -1.509766 10.672363 7
-0.028625 -1.482422 10.642334 7
-0.035399999 -1.464844 10.674072 7
-0.032653999 -1.441406 10.666565 7
-0.032653999 -1.418945 10.670166 7
-0.040709998 -1.402344 10.70752 7
-0.039368 -1.3798831 10.705383 7
-0.036681999 -1.356445 10.697693 7
-0.036621001 -1.3349611 10.701111 7
-0.031189 -1.308594 10.681946 7
-0.032531999 -1.2880861 10.690857 7
-0.446899 -8.3925781 -4.7975459 7
-0.44982901 -8.4160156 -4.7840581 7
-0.451294 -8.4345703 -4.7671509 7
-0.45709199 -8.4677734 -4.7600098 7
-0.45715299 -8.4814453 -4.739624 7
-0.46008301 -8.5048828 -4.7260132 7
-0.46447799 -8.5341797 -4.715271 7
-0.466003 -8.5527344 -4.6980591 7
-0.4646 -8.5615234 -4.6742549 7
-0.474731 -8.6083984 -4.676147 7
-0.47192401 -8.6132812 -4.6491699 7
-0.469116 -8.6191406 -4.6220088 7
-0.028748 -1.585938 9.5477285 7
-0.034790002 -1.570312 9.5740356 7
-0.034790002 -1.550781 9.5779419 7
-0.030212 -1.52832 9.5652466 7
-0.022644 -1.5048831 9.5413208 7
-0.022644 -1.485352 9.5447998 7
-0.031677 -1.47168 9.5820312 7
-0.030151 -1.451172 9.5801392 7
-0.027161 -1.429688 9.5727539 7
-0.030151 -1.412109 9.5873413 7
-0.028564001 -1.353516 9.5924683 7
-0.024048001 -1.331055 9.5789785 7
-0.025513001 -1.293945 9.5913696 7
-0.023010001 -1.581055 9.237793 7
-0.030823 -1.568359 9.2694702 7
-0.029297 -1.548828 9.2679443 7
-0.032349002 -1.532227 9.2828979 7
-0.029236 -1.5107419 9.2755127 7
-0.018310999 -1.485352 9.2406616 7
-0.024475001 -1.470703 9.2664785 7
-0.024536001 -1.453125 9.2702026 7
-0.026062001 -1.43457 9.2793579 7
-0.024475001 -1.4150389 9.2774658 7
-0.029175 -1.398438 9.2976074 7
-0.033813 -1.3837889 9.3179321 7
-0.030701 -1.362305 9.3103027 7
-0.030701 -1.34375 9.3135986 7
-0.024413999 -1.322266 9.2947388 7
-0.018127 -1.299805 9.2759399 7
-0.025939999 -1.28418 9.3071289 7
-0.02771 -1.59375 8.9328613 7
-0.022887999 -1.572266 8.9204102 7
-0.02771 -1.5576169 8.9407349 7
-0.022826999 -1.537109 8.9282227 7
-0.022826999 -1.519531 8.9320679 7
-0.019592 -1.5 8.9248657 7
-0.019592 -1.481445 8.9286499 7
-0.022826999 -1.46582 8.9432983 7
-0.027649 -1.451172 8.963623 7
-0.021179 -1.429688 8.9450684 7
-0.026001001 -1.3974611 8.9688721 7
-0.029236 -1.3818361 8.9834595 7
-0.022766 -1.359375 8.9648438 7
-0.022705 -1.341797 8.9683838 7
-0.017821999 -1.320312 8.9551392 7
-0.025939999 -1.3076169 8.986084 7
-0.024292 -1.2880861 8.9837036 7
-0.033813 -1.5888669 8.6503296 7
-0.027100001 -1.566406 8.6323853 7
-0.030396 -1.5517581 8.6471558 7
-0.030456999 -1.535156 8.651123 7
-0.030396 -1.517578 8.6549683 7
-0.021973001 -1.4951169 8.6312256 7
-0.02533 -1.4794919 8.6460571 7
-0.028748 -1.46582 8.6607666 7
-0.030334 -1.449219 8.6698608 7
-0.02533 -1.4287111 8.6571655 7
-0.026977999 -1.412109 8.6661377 7
-0.032042999 -1.398438 8.6862183 7
-0.026977999 -1.37793 8.6732788 7
-0.033691 -1.365234 8.6987305 7
-0.030273 -1.345703 8.6912231 7
-0.025208 -1.325195 8.6781616 7
-0.028564001 -1.310547 8.6923218 7
-0.025208 -1.291016 8.6848145 7
-0.15631101 -4.7929692 7.1774292 7
-0.144104 -4.7529302 7.158875 7
-0.14416499 -4.7392578 7.1702271 7
-0.14068601 -4.71875 7.1729131 7
-0.14416499 -4.7128911 7.1931758 7
-0.13897701 -4.688477 7.1915889 7
-0.137207 -4.670898 7.1985469 7
-0.145935 -4.6738281 7.2315669 7
-0.156372 -4.6806641 7.269104 7
-0.149414 -4.6533198 7.263 7
-0.145935 -4.632812 7.2654419 7
-0.14947499 -4.625 7.2853999 7
-0.14947499 -4.6113281 7.2965698 7
-0.140747 -4.5800781 7.285522 7
-0.140808 -4.5664058 7.2966309 7
-0.145996 -4.561523 7.3210449 7
-0.14605699 -4.547852 7.3320308 7
-0.140808 -4.5244141 7.3295898 7
-0.140808 -4.5097661 7.3406372 7
-0.13562 -4.485352 7.3381958 7
-0.034972999 -1.59668 8.3731689 7
-0.028015001 -1.575195 8.3553467 7
-0.024536001 -1.556641 8.3482666 7
-0.024536001 -1.541016 8.3522949 7
-0.031493999 -1.527344 8.3779907 7
-0.017517 -1.50293 8.3380737 7
-0.015807999 -1.485352 8.3363647 7
-0.017517 -1.469727 8.34552 7
-0.019226 -1.454102 8.3547363 7
-0.015747 -1.435547 8.3473511 7
-0.015747 -1.418945 8.3510132 7
-0.024413999 -1.408203 8.3818359 7
-0.024413999 -1.391602 8.385498 7
-0.031372 -1.378906 8.4110718 7
-0.024413999 -1.360352 8.3927002 7
-0.031433001 -1.347656 8.4179688 7
-0.015747 -1.3212889 8.3718262 7
-0.019226 -1.306641 8.3862305 7
-0.022705 -1.2919919 8.4006348 7
-0.14740001 -4.4824219 7.0491328 7
-0.025513001 -1.595703 8.0813599 7
-0.036316 -1.587891 8.1179199 7
-0.029114 -1.5673831 8.1002197 7
-0.038146999 -1.5576169 8.1312866 7
-0.034485001 -1.539062 8.1241465 7
-0.029053001 -1.519531 8.1118164 7
-0.034485001 -1.5068361 8.132019 7
-0.030884 -1.490234 8.125 7
-0.027344 -1.47168 8.1177368 7
-0.030884 -1.4580081 8.1323242 7
-0.030884 -1.4423831 8.1359863 7
-0.030884 -1.425781 8.1397095 7
-0.034485001 -1.412109 8.1542358 7
-0.032653999 -1.394531 8.1522217 7
-0.030823 -1.37793 8.1502686 7
-0.034423999 -1.363281 8.1646118 7
-0.030823 -1.345703 8.1572266 7
-0.02179 -1.325195 8.1333008 7
-0.030823 -1.313477 8.1638794 7
-0.030762 -1.297852 8.1672363 7
-0.034363002 -1.28418 8.1815186 7
-0.148514 -1.284422 18.457554 7
-0.080683 -1.4680001 15.21553 7
-0.55766302 -8.4929161 13.590019 7
-0.120032 -1.391151 12.034854 7
-0.074992001 -1.473076 10.819942 7
-0.084120996 -1.379163 9.320446 7
-0.061894 -1.444842 8.7598925 7
-0.14821699 -4.6382461 6.5797071 7
-0.033601999 -1.476246 8.232235 7
-0.044172 -1.318381 8.3489695 7
-0.10136 -4.6079292 5.1679039 7
-0.103871 -4.5602379 5.3606582 7
-0.105435 -4.4992628 5.5496421 7
-0.028364001 -1.537843 7.8888659 7
-0.030516 -1.379285 7.9584408 7
-0.046349 -1.42132 19.236469 7
0.0093160002 -1.34396 16.236259 7
-0.186373 -4.68188 -9.1910458 7
-0.226567 -4.7203188 14.490125 7
-0.066747002 -1.288116 14.168013 7
0.02376 -1.3733701 -6.835638 7
-0.200633 -4.687098 12.99688 7
0.019817 -1.512289 10.696897 7
-0.014222 -1.3602279 9.4329052 7
-0.162039 -4.6109328 -2.384948 7
0.0028870001 -1.332399 8.9439087 7
-0.12557 -4.6696591 -1.541584 7
0.015475 -1.309176 8.5364971 7
-0.12586699 -4.6359749 -1.107939 7
-0.041848 -1.58137 8.482069 7
-0.15097401 -4.5703859 7.0801702 7
-0.025363 -1.491492 8.1343956 7
-0.015844001 -1.284802 8.1256962 7
-0.15628301 -4.621017 -0.49706399 7
-0.162526 -4.7806258 -0.34831601 7
-0.134525 -4.623991 6.53545 7
-0.0064440002 -1.4584121 7.7989612 7
-0.114072 -4.6286659 6.0221872 7
-0.15279 -4.751246 5.378068 7
-0.14667501 -4.6192889 5.561831 7
-0.151198 -4.5370898 5.7241902 7
-0.120147 -4.4957619 5.2321229 7
-0.16990399 -4.9706349 3.9316871 7
-0.154625 -4.8852439 4.0858111 7
-0.105226 -4.7309408 -2.545789 7
-0.096600004 -4.58919 -1.457296 7
-0.099334002 -4.6509199 -1.266149 7
-0.102005 -4.7047811 -1.070376 7
