# .PCD v0.7 - Point Cloud Data file format
VERSION 0.7
FIELDS x y z intensity
SIZE 4 4 4 4
TYPE F F F F
COUNT 1 1 1 1
WIDTH 376
HEIGHT 1
VIEWPOINT 0 0 0 1 0 0 0
POINTS 376
DATA ascii
0.031615999 -4.7060552 48.045288 7
0.012085 -4.6376948 48.481506 7
-0.94213903 -1.262695 -68.053711 7
-0.91967797 -1.250977 -61.943237 7
-0.93920898 -1.40918 -62.331665 7
-1.035339 -4.6992192 -64.009644 7
0.0072019999 -4.717773 41.497253 7
-0.022338999 -4.6855469 42.054565 7
-1.016174 -4.6835942 -57.919617 7
-0.87268102 2.6386721 -55.670044 7
0.136108 -1.494141 33.87262 7
-0.836914 2.7783201 -50.579102 7
-0.85900903 2.672852 -50.964844 7
-0.033875 -4.7763672 27.504944 7
-0.037230998 -4.7226558 27.556519 7
-0.051392 -4.6904302 27.734558 7
-0.057617001 -4.639648 27.820435 7
-0.047791 -4.5576172 27.716675 7
0.056212999 -1.5537111 19.892578 7
0.060242001 -1.5068361 19.861633 7
0.054993 -1.466797 19.911804 7
0.042969 -1.4306639 20.019897 7
0.057068001 -1.376953 19.901611 7
0.055725001 -1.3349611 19.916626 7
0.05249 -1.2919919 19.948914 7
-0.085143998 -4.7685552 18.408875 7
-0.075438999 -4.7080078 18.347534 7
-0.080627002 -4.6787109 18.398132 7
-0.086548001 -4.6503911 18.454224 7
-0.091797002 -4.6201172 18.504822 7
-0.085022002 -4.5664058 18.465393 7
-0.075255997 -4.5068359 18.40332 7
0.043579001 -1.594727 18.024719 7
0.042114001 -1.556641 18.0401 7
0.044372998 -1.515625 18.026489 7
0.051146999 -1.470703 17.978394 7
0.048218001 -1.433594 18.005127 7
0.040038999 -1.3994139 18.072266 7
0.048278999 -1.355469 18.012146 7
0.051330999 -1.314453 17.992432 7
0.03717 -1.587891 17.183105 7
0.03717 -1.549805 17.187012 7
0.043517999 -1.509766 17.144714 7
0.043579001 -1.47168 17.148315 7
0.034972999 -1.44043 17.215698 7
0.033386 -1.404297 17.230835 7
0.044495001 -1.359375 17.153503 7
0.042969 -1.322266 17.168396 7
0.039062001 -1.2880861 17.2005 7
0.048889 -1.599609 16.245605 7
0.046386998 -1.566406 16.266785 7
0.056396 -1.523438 16.201599 7
0.054749001 -1.490234 16.21698 7
0.053100999 -1.457031 16.232178 7
0.046509001 -1.4267581 16.281799 7
0.047363002 -1.390625 16.279602 7
0.058228001 -1.3486331 16.208069 7
0.051635999 -1.318359 16.257812 7
0.051635999 -1.283203 16.261169 7
0.035339002 -1.583984 13.648743 7
0.037354 -1.5537111 13.641113 7
0.042419001 -1.5205081 13.616394 7
0.044434 -1.490234 13.608826 7
0.044495001 -1.4619139 13.61261 7
0.037475999 -1.436523 13.65625 7
0.035461001 -1.40918 13.671265 7
0.038573999 -1.37793 13.657593 7
0.044617001 -1.345703 13.626709 7
0.040587999 -1.3193361 13.653137 7
0.042603001 -1.2900389 13.64502 7
-0.231934 -4.4902339 -11.609985 7
-0.236145 -4.5283198 -11.620667 7
-0.239319 -4.5654302 -11.625916 7
-0.25170901 -4.617188 -11.680176 7
-0.25585899 -4.65625 -11.690613 7
-0.251831 -4.6777339 -11.657593 7
-0.24469 -4.695312 -11.608337 7
-0.241699 -4.719727 -11.580688 7
-0.239685 -4.7460942 -11.558594 7
-0.24597199 -4.7880859 -11.579407 7
0.036254998 -1.514648 13.114258 7
0.036254998 -1.486328 13.117859 7
-0.223083 -4.485352 -10.86261 7
-0.228516 -4.5244141 -10.87854 7
-0.227478 -4.5507808 -10.862183 7
-0.237244 -4.5976558 -10.899475 7
-0.244873 -4.640625 -10.925964 7
-0.24389599 -4.6679692 -10.909424 7
-0.23962399 -4.6875 -10.876648 7
-0.232178 -4.7011719 -10.827576 7
-0.23223899 -4.7304692 -10.816223 7
-0.236572 -4.7675781 -10.826172 7
-0.123901 -4.7871089 12.457275 7
-0.115112 -4.7441411 12.426636 7
-0.109619 -4.7070308 12.41156 7
-0.108521 -4.6787109 12.417664 7
-0.112915 -4.6611328 12.450134 7
-0.118408 -4.6455078 12.487915 7
-0.118408 -4.6191411 12.499146 7
-0.108459 -4.5742192 12.462402 7
-0.102905 -4.5361328 12.446716 7
-0.09967 -4.5039058 12.441772 7
0.032349002 -1.577148 12.558716 7
0.033447001 -1.549805 12.556885 7
0.032349002 -1.5244139 12.566528 7
0.035705999 -1.4951169 12.553223 7
0.034667999 -1.469727 12.562683 7
0.035767 -1.4423831 12.560669 7
0.032471001 -1.418945 12.58136 7
0.032471001 -1.391602 12.585022 7
0.034729 -1.3642581 12.576965 7
0.039184999 -1.3349611 12.557739 7
0.034790002 -1.310547 12.583801 7
0.032593001 -1.2861331 12.598572 7
-0.090271004 -1.332031 -10.406921 7
-0.097107001 -1.390625 -10.434204 7
-0.081482001 -1.435547 -10.347351 7
-0.082764 -1.4912111 -10.345642 7
-0.094116002 -1.5537111 -10.394897 7
-0.22741701 -4.6777339 -10.201111 7
-0.227539 -4.7314448 -10.178223 7
-0.119934 -4.7763672 11.886047 7
-0.116516 -4.7451172 11.88208 7
-0.115356 -4.717773 11.888062 7
-0.117615 -4.6972661 11.910034 7
-0.118774 -4.6748052 11.926575 7
-0.118774 -4.6503911 11.937988 7
-0.119873 -4.6269531 11.954468 7
-0.112976 -4.563477 11.945068 7
-0.107239 -4.5263672 11.929688 7
-0.111877 -4.5117192 11.961853 7
-0.088684 -1.22168 -9.9111328 7
-0.089844003 -1.248047 -9.9136963 7
-0.088744998 -1.2744139 -9.9047241 7
-0.43383801 -8.6103516 10.475708 7
-0.43267801 -8.5859385 10.492065 7
-0.431519 -8.5595703 10.508545 7
-0.43505901 -8.5498047 10.541565 7
-0.43511999 -8.5283203 10.562073 7
-0.438721 -8.5175781 10.595154 7
-0.43395999 -8.4804688 10.598633 7
-0.43279999 -8.4550781 10.614807 7
-0.43042001 -8.4257812 10.626526 7
-0.425598 -8.3876953 10.629761 7
-0.42437699 -8.3613281 10.64563 7
-0.424438 -8.3398438 10.665649 7
-0.129089 -4.7832031 11.383606 7
-0.124329 -4.75 11.374451 7
-0.120728 -4.71875 11.370239 7
-0.119507 -4.6933589 11.376465 7
-0.120667 -4.670898 11.393127 7
-0.13146999 -4.6689448 11.451111 7
-0.13024899 -4.6425781 11.457275 7
-0.121887 -4.6025391 11.431824 7
-0.117065 -4.5693359 11.42218 7
-0.114685 -4.5400391 11.422852 7
-0.112305 -4.5117192 11.423279 7
-0.109863 -4.483398 11.423645 7
0.022461001 -1.5986331 11.657043 7
0.023682 -1.5732419 11.655396 7
0.020081 -1.5517581 11.676331 7
0.027283 -1.5224611 11.646118 7
0.024901999 -1.499023 11.661316 7
0.023743 -1.4755861 11.670715 7
0.026184 -1.450195 11.663086 7
0.023804 -1.4267581 11.678101 7
0.019043 -1.40625 11.704407 7
0.020264 -1.380859 11.702271 7
0.023864999 -1.353516 11.688477 7
0.026306 -1.328125 11.680603 7
0.026306 -1.304688 11.684082 7
-0.44189501 -8.6308594 9.7954102 7
-0.449402 -8.6357422 9.8400879 7
-0.44567901 -8.6035156 9.8486938 7
-0.429443 -8.5292969 9.8171387 7
-0.43951401 -8.5429688 9.869751 7
-0.44201699 -8.53125 9.8983765 7
-0.438232 -8.4980469 9.9064941 7
-0.44323701 -8.4941406 9.9431763 7
-0.44201699 -8.4697266 9.9594116 7
-0.44329801 -8.453125 9.9837646 7
-0.43585199 -8.4101562 9.9796753 7
-0.432129 -8.3769531 9.9875488 7
-0.435913 -8.3691406 10.019958 7
-0.064575002 -1.294922 -8.8347778 7
-0.074890003 -1.3486331 -8.8734741 7
-0.076233 -1.373047 -8.8754883 7
-0.066040002 -1.389648 -8.8268433 7
-0.068664998 -1.4150389 -8.8345947 7
-0.066161998 -1.4375 -8.8197021 7
-0.064879999 -1.4599611 -8.8103638 7
-0.072632 -1.4892581 -8.8405762 7
-0.075255997 -1.5380861 -8.8442993 7
-0.075317003 -1.5625 -8.8404541 7
-0.074097 -1.5849611 -8.8307505 7
-0.44610599 -8.6220703 9.0483398 7
-0.44738799 -8.6074219 9.0725708 7
-0.443542 -8.5761719 9.0818481 7
-0.443542 -8.5576172 9.1022949 7
-0.44226101 -8.5351562 9.1190796 7
-0.440979 -8.5126953 9.1357422 7
-0.446228 -8.5107422 9.1714478 7
-0.44488499 -8.4873047 9.1880493 7
-0.443665 -8.4648438 9.2044067 7
-0.44104001 -8.4384766 9.217041 7
-0.43585199 -8.4033203 9.2216187 7
-0.429382 -8.3632812 9.2220459 7
0.025269 -1.59668 10.773804 7
0.020081 -1.577148 10.800354 7
0.020142 -1.554688 10.804321 7
0.022766 -1.53125 10.796875 7
0.031860001 -1.50293 10.761292 7
0.031860001 -1.481445 10.765137 7
0.033202998 -1.4580081 10.763123 7
0.033202998 -1.436523 10.766846 7
0.028015001 -1.4169919 10.792969 7
0.021545 -1.398438 10.824707 7
0.022887999 -1.375 10.822571 7
0.020324999 -1.3544919 10.83728 7
0.029418999 -1.327148 10.801208 7
0.030762 -1.3037111 10.798828 7
0.030762 -1.282227 10.802185 7
0.0065310001 -1.5888669 10.47345 7
0.011963 -1.5419919 10.458984 7
0.0092770001 -1.521484 10.473999 7
0.014709 -1.49707 10.455383 7
0.013428 -1.455078 10.468384 7
0.010742 -1.43457 10.483276 7
0.0066530001 -1.4169919 10.503784 7
0.0093989996 -1.37207 10.499573 7
0.0081179999 -1.3505861 10.508606 7
0.010864 -1.3056639 10.504211 7
0.012207 -1.28418 10.501648 7
0.015807999 -1.5986331 10.046448 7
0.014404 -1.580078 10.05603 7
0.014465 -1.558594 10.059998 7
0.015869001 -1.537109 10.05835 7
0.018677 -1.515625 10.050903 7
0.027100001 -1.488281 10.021118 7
0.018677 -1.474609 10.058472 7
0.025757 -1.449219 10.034241 7
0.024352999 -1.429688 10.043457 7
0.023010001 -1.40918 10.052612 7
0.01178 -1.3974611 10.101074 7
0.017395001 -1.373047 10.082153 7
0.021667 -1.349609 10.068787 7
0.018859999 -1.331055 10.083374 7
0.016052 -1.3125 10.097839 7
0.017517 -1.291016 10.095703 7
0.017821999 -1.59668 9.7086182 7
0.014954 -1.578125 9.7237549 7
0.017883001 -1.556641 9.7164917 7
0.017883001 -1.537109 9.72052 7
0.020812999 -1.515625 9.7130737 7
0.019409001 -1.49707 9.7223511 7
0.023743 -1.474609 9.7095337 7
0.020873999 -1.457031 9.7243652 7
0.019470001 -1.4375 9.7336426 7
0.019470001 -1.417969 9.7371826 7
0.010742 -1.404297 9.774353 7
0.018066 -1.378906 9.7498169 7
0.013733 -1.362305 9.7702637 7
0.016663 -1.339844 9.7623291 7
0.016663 -1.3212889 9.7657471 7
0.019592 -1.299805 9.7579346 7
0.018188 -1.280273 9.7667847 7
0.011902 -1.577148 9.3942261 7
0.011902 -1.558594 9.3981323 7
0.001343 -1.545898 9.44104 7
0.0043950002 -1.525391 9.4337158 7
0.016541 -1.498047 9.3929443 7
0.016541 -1.4794919 9.3967295 7
0.01355 -1.4619139 9.411499 7
0.0075070001 -1.4462889 9.437561 7
0.0075070001 -1.427734 9.4413452 7
0.0090939999 -1.407227 9.4391479 7
0.0045170002 -1.392578 9.4594727 7
0.0045170002 -1.373047 9.4631348 7
0.012146 -1.3486331 9.4385986 7
0.018188 -1.326172 9.4196167 7
0.015198 -1.308594 9.434021 7
0.0091549996 -1.293945 9.4598999 7
0.013123 -1.591797 9.1032104 7
0.013184 -1.574219 9.1072388 7
0.016295999 -1.552734 9.1000366 7
0.02417 -1.512695 9.0801392 7
0.022583 -1.494141 9.0894175 7
0.017944001 -1.4794919 9.1098022 7
0.013245 -1.464844 9.130188 7
0.017944001 -1.443359 9.1173096 7
0.017944001 -1.424805 9.1207886 7
0.0085450001 -1.414062 9.1577148 7
0.011719 -1.392578 9.1501455 7
0.0086059999 -1.376953 9.164917 7
0.013306 -1.356445 9.1516724 7
0.021118 -1.3330081 9.1272583 7
0.014893 -1.318359 9.152832 7
0.019592 -1.297852 9.1395874 7
0.01178 -1.283203 9.1705322 7
0.0080570001 -1.594727 8.5058594 7
0.0081179999 -1.577148 8.5096436 7
0.0081789996 -1.560547 8.5137939 7
0.011536 -1.541016 8.5066528 7
0.014893 -1.5224611 8.4996948 7
0.019958001 -1.501953 8.4870605 7
0.01825 -1.486328 8.4961548 7
0.01825 -1.469727 8.4998779 7
0.0081789996 -1.458984 8.5365601 7
0.011597 -1.44043 8.5293579 7
0.013306 -1.422852 8.5274658 7
0.011597 -1.407227 8.536377 7
0.011597 -1.389648 8.5400391 7
0.0083010001 -1.374023 8.5544434 7
0.018371999 -1.3349611 8.5282593 7
0.013367 -1.320312 8.5482788 7
0.016785 -1.3017581 8.5405884 7
0.016785 -1.285156 8.5439453 7
0.011963 -1.580078 8.2224731 7
0.015442 -1.545898 8.2192993 7
0.0067750001 -1.5361331 8.2504272 7
0.011963 -1.516602 8.237915 7
0.017212 -1.496094 8.2253418 7
0.020691 -1.4775389 8.2183838 7
0.017273 -1.4482419 8.2367554 7
0.013794 -1.417969 8.2545166 7
0.012085 -1.402344 8.263855 7
0.0051879999 -1.375 8.2926025 7
0.015625 -1.351562 8.2633667 7
0.019104 -1.3173831 8.2591553 7
0.019104 -1.285156 8.265625 7
0.0086669996 -1.572266 7.9786992 7
0.001465 -1.561523 8.0043945 7
-0.002075 -1.548828 8.0192261 7
0.003296 -1.514648 8.0107422 7
0.003357 -1.498047 8.0145874 7
0.012329 -1.476562 7.9910278 7
0.0034179999 -1.452148 8.0253296 7
-0.000244 -1.438477 8.0402222 7
-0.0037839999 -1.424805 8.0547485 7
0.0088499999 -1.384766 8.0236206 7
0.001648 -1.374023 8.0488892 7
0.0088499999 -1.3544919 8.0306396 7
0.001709 -1.328125 8.0591431 7
0.0052490002 -1.30957 8.0516357 7
0.0053099999 -1.293945 8.0550537 7
-0.0089619998 -1.321681 16.03756 7
0.023238 -1.472005 13.684929 7
-0.028100001 -1.3812259 11.104564 7
-0.43075001 -8.6068926 10.107691 7
-0.45123601 -8.470746 10.558344 7
-0.0024659999 -1.461561 10.152096 7
0.015423 -1.525854 9.4207249 7
0.018688001 -1.292854 9.4495363 7
0.002384 -1.411369 8.3314362 7
0.017031999 -1.454309 7.91256 7
0.019734001 -1.285609 7.9513159 7
-0.129098 -4.6438012 12.299957 7
0.019884 -1.427415 12.220609 7
0.062396001 -1.342472 10.400115 7
-0.11513 -4.607656 -3.930788 7
-0.54732001 -8.5531015 9.8321838 7
0.0059190001 -1.579978 9.6975842 7
0.014697 -1.30825 9.6967115 7
-0.17796201 -4.5473361 -3.1342731 7
0.02471 -1.531641 9.1515579 7
0.030413 -1.283584 9.1665115 7
-0.15621801 -4.4839921 -2.445478 7
-0.155983 -4.6984439 -2.263968 7
0.0080110002 -1.450652 8.248333 7
0.0211 -1.4214441 7.917974 7
-0.118478 -1.247082 -9.9068689 7
-0.029936001 -1.3462451 -6.0669971 7
-0.030972 -1.3579251 -5.5598969 7
-0.14766 -4.5792112 -3.5072441 7
-0.13546699 -4.6088958 -3.283318 7
-0.13220599 -4.69805 -3.0899751 7
