# .PCD v0.7 - Point Cloud Data file format
VERSION 0.7
FIELDS x y z intensity
SIZE 4 4 4 4
TYPE F F F F
COUNT 1 1 1 1
WIDTH 435
HEIGHT 1
VIEWPOINT 0 0 0 1 0 0 0
POINTS 435
DATA ascii
0.057190001 -4.765625 47.503723 7
0.028809 -4.71875 48.13208 7
0.17626999 -1.295898 45.234009 7
-0.993164 -1.435547 -68.593323 7
-0.96264601 -1.267578 -63.019958 7
-0.96673602 -1.420898 -63.098328 7
-1.05542 -4.7460942 -64.72229 7
0.018982001 -4.6972661 41.299011 7
-1.037109 -4.5849609 -58.549683 7
-1.036621 -4.726562 -58.526672 7
-0.91070598 2.6582029 -55.995911 7
-0.87786901 2.675781 -50.963806 7
-0.0053710002 -4.7207031 33.064758 7
0.116638 -1.511719 29.799683 7
0.117615 -1.443359 29.791504 7
0.110962 -1.314453 29.89209 7
0.081848003 -1.488281 22.018005 7
-0.063415997 -4.765625 18.234741 7
-0.061156999 -4.7207031 18.22937 7
-0.070800997 -4.7011719 18.313599 7
-0.080504999 -4.6806641 18.397461 7
-0.083434999 -4.6455078 18.431213 7
-0.076720998 -4.592773 18.392029 7
-0.070679002 -4.5400391 18.358215 7
-0.066955999 -4.492188 18.341187 7
0.050719999 -1.589844 17.972229 7
0.051453002 -1.550781 17.970581 7
0.054565001 -1.469727 17.954834 7
0.050841998 -1.4326169 17.987427 7
0.049438 -1.3955081 18.002686 7
0.058410998 -1.349609 17.936646 7
0.054016002 -1.313477 17.97467 7
0.043090999 -1.548828 17.146423 7
0.051024999 -1.5048831 17.092407 7
0.044739 -1.47168 17.142517 7
0.037719999 -1.439453 17.198181 7
0.041687001 -1.3994139 17.172852 7
0.049621999 -1.357422 17.11853 7
0.044922002 -1.322266 17.156616 7
0.053222999 -1.5986331 16.216614 7
0.054993 -1.561523 16.209045 7
0.056701999 -1.5263669 16.201355 7
0.056701999 -1.4912111 16.205078 7
0.050110001 -1.460938 16.255005 7
0.046813998 -1.427734 16.281738 7
0.053528 -1.388672 16.239197 7
0.056885 -1.3505861 16.219482 7
0.052733999 -1.318359 16.251709 7
0.051146999 -1.28418 16.266663 7
0.046631001 -1.591797 15.536804 7
0.053649999 -1.5537111 15.494873 7
0.054625999 -1.519531 15.492798 7
0.052917 -1.486328 15.508057 7
0.052062999 -1.454102 15.5177 7
0.045104999 -1.425781 15.567322 7
0.0495 -1.387695 15.542053 7
0.055663999 -1.351562 15.505188 7
0.051330999 -1.3212889 15.537415 7
0.049621999 -1.2880861 15.552246 7
0.049805 -1.576172 14.815491 7
0.055298001 -1.5400389 14.785034 7
0.053528 -1.509766 14.800415 7
0.053589001 -1.478516 14.804138 7
0.048096001 -1.450195 14.842407 7
0.049988002 -1.416016 14.834351 7
0.052795 -1.382812 14.82074 7
0.053711001 -1.3505861 14.818481 7
0.051024999 -1.3212889 14.839172 7
0.047424 -1.291016 14.865479 7
0.041443001 -1.599609 14.246155 7
0.053955 -1.55957 14.17572 7
0.054016002 -1.529297 14.179626 7
0.047302 -1.503906 14.223572 7
0.04834 -1.472656 14.221497 7
0.040709998 -1.447266 14.271118 7
0.039733998 -1.418945 14.280579 7
0.045531999 -1.3837889 14.249573 7
0.041747998 -1.356445 14.276062 7
0.046569999 -1.324219 14.250732 7
0.040833 -1.296875 14.288513 7
-0.24853501 -4.483398 -12.421936 7
-0.249512 -4.5175781 -12.416504 7
-0.25054899 -4.5517578 -12.411011 7
-0.25262499 -4.5878911 -12.41095 7
-0.256531 -4.6269531 -12.42157 7
-0.25659201 -4.6591802 -12.410339 7
-0.249817 -4.6777339 -12.36084 7
-0.246948 -4.704102 -12.333313 7
-0.247986 -4.7382808 -12.327209 7
-0.25976601 -4.7939448 -12.38092 7
0.045593001 -1.577148 13.591064 7
0.045653999 -1.548828 13.595032 7
0.050659001 -1.516602 13.570312 7
0.046691999 -1.490234 13.597168 7
0.046753 -1.4326169 13.604248 7
0.041747998 -1.40625 13.636841 7
0.048827998 -1.344727 13.603271 7
0.046875 -1.316406 13.618164 7
0.043884002 -1.289062 13.638733 7
-0.106812 -1.2919919 -11.68103 7
-0.110962 -1.355469 -11.697327 7
-0.113098 -1.4169919 -11.701782 7
-0.108032 -1.445312 -11.669739 7
-0.106995 -1.474609 -11.660217 7
-0.10498 -1.50293 -11.644836 7
-0.112244 -1.5693361 -11.677368 7
-0.235168 -4.5332031 -11.643311 7
-0.239319 -4.5712891 -11.654175 7
-0.25885001 -4.640625 -11.745911 7
-0.25079301 -4.6855469 -11.680237 7
-0.240601 -4.695312 -11.614319 7
-0.24066199 -4.7568359 -11.591736 7
0.034423999 -1.433594 13.136414 7
0.036621001 -1.40332 13.128601 7
0.038818002 -1.3193361 13.127563 7
0.038818002 -1.2919919 13.130859 7
-0.095519997 -1.28125 -10.993835 7
-0.098755002 -1.310547 -11.00769 7
-0.102051 -1.342773 -11.021423 7
-0.103149 -1.37207 -11.023743 7
-0.099914998 -1.3994139 -11.003235 7
-0.099976003 -1.427734 -10.999573 7
-0.097838998 -1.455078 -10.984558 7
-0.092528999 -1.480469 -10.952087 7
-0.101135 -1.515625 -10.994263 7
-0.101135 -1.543945 -10.990417 7
-0.102295 -1.5732419 -10.992126 7
-0.22345001 -4.4931641 -10.890198 7
-0.226685 -4.5283198 -10.895508 7
-0.233215 -4.5683589 -10.916748 7
-0.242981 -4.6152339 -10.954041 7
-0.241943 -4.6425781 -10.937561 7
-0.23443601 -4.65625 -10.888733 7
-0.23016401 -4.6767578 -10.855957 7
-0.231323 -4.7070308 -10.849915 7
-0.23565701 -4.7441411 -10.859863 7
-0.243286 -4.789062 -10.885742 7
0.034667999 -1.576172 12.54718 7
0.041320998 -1.545898 12.516846 7
0.045775998 -1.515625 12.497864 7
0.044677999 -1.490234 12.507324 7
0.042479999 -1.46582 12.522644 7
0.039184999 -1.441406 12.543396 7
0.038146999 -1.416016 12.552795 7
0.042603001 -1.386719 12.533386 7
0.042603001 -1.361328 12.536926 7
0.041503999 -1.3349611 12.546021 7
0.043761998 -1.306641 12.538025 7
0.040527001 -1.283203 12.55835 7
-0.117615 -4.796875 11.863159 7
-0.111816 -4.7597661 11.848755 7
-0.107239 -4.726562 11.839294 7
-0.109558 -4.7060552 11.861145 7
-0.107239 -4.6767578 11.862 7
-0.111816 -4.6611328 11.894287 7
-0.115234 -4.6435552 11.921265 7
-0.109497 -4.6064448 11.906311 7
-0.107178 -4.577148 11.906799 7
-0.10376 -4.5449219 11.902039 7
-0.099120997 -4.5117192 11.891968 7
-0.100281 -4.4882808 11.908081 7
0.036010999 -1.5830081 12.062927 7
0.033752002 -1.55957 12.078308 7
0.03717 -1.532227 12.065063 7
0.042969 -1.503906 12.040527 7
0.037292 -1.481445 12.072754 7
0.037292 -1.456055 12.076416 7
0.038451999 -1.4306639 12.074463 7
0.031615999 -1.410156 12.112183 7
0.036254998 -1.3818361 12.092834 7
0.039733998 -1.3544919 12.079163 7
0.043152001 -1.327148 12.065674 7
0.037475999 -1.304688 12.097473 7
-0.089782998 -1.327148 -9.9158936 7
-0.092224002 -1.407227 -9.9169922 7
-0.093445003 -1.43457 -9.9190063 7
-0.089965999 -1.458984 -9.8983765 7
-0.090026997 -1.484375 -9.8947144 7
-0.090026997 -1.5107419 -9.8908081 7
-0.121887 -4.7919922 11.34021 7
-0.118286 -4.7607422 11.336243 7
-0.108704 -4.717773 11.306274 7
-0.112305 -4.7011719 11.333313 7
-0.113464 -4.679688 11.349731 7
-0.117065 -4.664062 11.376526 7
-0.123047 -4.6513672 11.413818 7
-0.114685 -4.6132808 11.388916 7
-0.109863 -4.5800781 11.37915 7
-0.108704 -4.5537109 11.385132 7
-0.105103 -4.5224609 11.380249 7
-0.102722 -4.4941411 11.380859 7
0.032166 -1.591797 11.61145 7
0.028564001 -1.570312 11.632446 7
0.035767 -1.541016 11.602417 7
0.032166 -1.5205081 11.623352 7
0.035828002 -1.46875 11.613831 7
0.028748 -1.424805 11.65509 7
0.03717 -1.37207 11.622498 7
0.033569001 -1.349609 11.643066 7
0.033629999 -1.325195 11.646484 7
-0.122498 -4.7763672 10.854736 7
-0.119995 -4.749023 10.855835 7
-0.112488 -4.7128911 10.836548 7
-0.119995 -4.704102 10.878784 7
-0.097534001 -4.5029302 10.864319 7
-0.083740003 -1.138672 -8.9536743 7
-0.082520001 -1.162109 -8.9450684 7
-0.085083 -1.1875 -8.9533691 7
-0.077393003 -1.2080081 -8.9161377 7
-0.071044996 -1.2275389 -8.8847656 7
-0.067261003 -1.249023 -8.864563 7
-0.071106002 -1.275391 -8.878418 7
-0.071106002 -1.298828 -8.8751221 7
-0.074951001 -1.325195 -8.8886719 7
-0.081359997 -1.3525389 -8.9136963 7
-0.078856997 -1.375 -8.8988647 7
-0.067382999 -1.391602 -8.8443604 7
-0.067443997 -1.4150389 -8.8408203 7
-0.067505002 -1.438477 -8.8372803 7
-0.067505002 -1.462891 -8.8337402 7
-0.066284001 -1.485352 -8.8242798 7
-0.073913999 -1.514648 -8.8543701 7
-0.075255997 -1.539062 -8.8562012 7
-0.072692998 -1.560547 -8.8410034 7
-0.077881001 -1.587891 -8.8597412 7
-0.42572001 -8.5556641 8.9899902 7
-0.42181399 -8.5253906 8.9990234 7
-0.42578101 -8.5205078 9.0309448 7
-0.42449999 -8.4980469 9.0476074 7
-0.428406 -8.4921885 9.0794678 7
-0.42712399 -8.4697266 9.0958252 7
-0.42199701 -8.4335938 9.1008911 7
-0.42327899 -8.4208984 9.1248169 7
-0.42199701 -8.3974609 9.1411743 7
-0.41552699 -8.3583984 9.1418457 7
-0.41558799 -8.3388672 9.1618042 7
0.030579001 -1.59375 10.751038 7
0.030579001 -1.5712889 10.755005 7
0.038451999 -1.521484 10.729126 7
0.03717 -1.478516 10.742126 7
0.038513001 -1.455078 10.740295 7
0.026854999 -1.417969 10.798462 7
0.026916999 -1.3955081 10.80188 7
0.036072001 -1.345703 10.769348 7
0.036072001 -1.302734 10.775879 7
0.033507999 -1.28125 10.79071 7
-0.077271 -1.294922 -8.4839478 7
-0.077271 -1.3173831 -8.4806519 7
-0.083922997 -1.344727 -8.5053711 7
-0.082580999 -1.3662111 -8.4963379 7
-0.085326999 -1.391602 -8.5041504 7
-0.070739999 -1.405273 -8.4386597 7
-0.074707001 -1.429688 -8.4519043 7
-0.074767999 -1.453125 -8.4483032 7
-0.074767999 -1.4755861 -8.4446411 7
-0.072205 -1.49707 -8.4295044 7
-0.082764 -1.5263669 -8.4709473 7
-0.086792 -1.552734 -8.4837036 7
-0.084167004 -1.572266 -8.4686279 7
-0.080200002 -1.592773 -8.4476318 7
0.018738 -1.59668 10.035034 7
0.020142 -1.575195 10.033264 7
0.018738 -1.5556639 10.042908 7
0.017333999 -1.5361331 10.052429 7
0.025818 -1.5107419 10.022705 7
0.028625 -1.487305 10.01532 7
0.028625 -1.46875 10.019043 7
0.028625 -1.447266 10.022705 7
0.025878999 -1.4287111 10.037598 7
0.016052 -1.416016 10.080383 7
0.018921001 -1.392578 10.072876 7
0.013245 -1.375977 10.098694 7
0.023132 -1.349609 10.062866 7
0.028809 -1.325195 10.043945 7
0.026001001 -1.306641 10.058533 7
0.02887 -1.28418 10.050476 7
0.016418001 -1.597656 9.7139282 7
0.016479 -1.578125 9.7178345 7
0.016479 -1.5576169 9.7218018 7
0.019409001 -1.5361331 9.7145996 7
0.020935001 -1.516602 9.7128906 7
0.02533 -1.494141 9.7000122 7
0.02533 -1.474609 9.7035522 7
0.026794 -1.454102 9.7017822 7
0.025390999 -1.43457 9.7110596 7
0.022461001 -1.4169919 9.7259521 7
0.019592 -1.3994139 9.7405396 7
0.018127 -1.3798831 9.7496948 7
0.022522001 -1.357422 9.7363892 7
0.019653 -1.339844 9.7510376 7
0.024048001 -1.3173831 9.7376099 7
0.016785 -1.3017581 9.7687988 7
0.0089109996 -1.5986331 9.4011841 7
0.011963 -1.577148 9.394043 7
0.019531 -1.552734 9.3700562 7
0.015076 -1.5361331 9.390686 7
0.024109 -1.511719 9.361145 7
0.015076 -1.499023 9.3981934 7
0.021179 -1.4755861 9.3798828 7
0.021179 -1.457031 9.3834839 7
0.013611 -1.4423831 9.4150391 7
0.01062 -1.425781 9.4298096 7
0.016724 -1.40332 9.4111328 7
0.01825 -1.3837889 9.4091187 7
0.012207 -1.3681639 9.4346924 7
0.013733 -1.347656 9.4326172 7
0.013733 -1.328125 9.4360962 7
0.021361999 -1.3056639 9.4116211 7
0.013794 -1.291016 9.442749 7
0.014709 -1.592773 9.097229 7
0.016295999 -1.5732419 9.0956421 7
0.021057 -1.550781 9.0830688 7
0.016357001 -1.5361331 9.1033936 7
0.027283 -1.511719 9.0686045 7
0.025757 -1.4931639 9.078064 7
0.022644 -1.4775389 9.0927734 7
0.018005 -1.4619139 9.1130371 7
0.019592 -1.4423831 9.1112671 7
0.018005 -1.425781 9.1203613 7
0.019592 -1.40625 9.1184082 7
0.01178 -1.393555 9.1497192 7
0.018066 -1.371094 9.1309814 7
0.014954 -1.3544919 9.1455078 7
0.022826999 -1.331055 9.1212158 7
0.025939999 -1.311523 9.1134644 7
0.024413999 -1.293945 9.1223145 7
0.016235 -1.599609 8.7764893 7
0.013 -1.583984 8.7912598 7
0.019470001 -1.5625 8.7733765 7
0.016295999 -1.545898 8.788208 7
0.016235 -1.52832 8.7921753 7
0.021179 -1.507812 8.7793579 7
0.021179 -1.4912111 8.7831421 7
0.021179 -1.4736331 8.7868652 7
0.019592 -1.456055 8.7962036 7
0.019592 -1.439453 8.7999268 7
0.014771 -1.424805 8.8198853 7
0.013123 -1.408203 8.8291626 7
0.016418001 -1.388672 8.8215332 7
0.016418001 -1.371094 8.8251953 7
0.022949001 -1.349609 8.8063955 7
0.022949001 -1.332031 8.8097534 7
0.021361999 -1.31543 8.8187256 7
0.021361999 -1.297852 8.8220835 7
0.019774999 -1.28125 8.8308105 7
0.016541 -1.587891 8.4779663 7
0.014893 -1.572266 8.4874878 7
0.014893 -1.5556639 8.4914551 7
0.014893 -1.539062 8.4953613 7
0.025024001 -1.514648 8.4660645 7
0.023375999 -1.499023 8.4755249 7
0.018371999 -1.486328 8.4957886 7
0.020020001 -1.46875 8.4940186 7
0.023437999 -1.4482419 8.4867554 7
0.023437999 -1.4326169 8.4902954 7
0.018371999 -1.418945 8.510437 7
0.015015 -1.404297 8.5250244 7
0.011719 -1.388672 8.5394897 7
0.015076 -1.3701169 8.5320435 7
0.011719 -1.3544919 8.5465088 7
0.018494001 -1.3349611 8.527771 7
0.021850999 -1.31543 8.5202026 7
0.020203 -1.300781 8.5291138 7
0.023560001 -1.28125 8.5211792 7
-0.45147699 -8.3212891 -0.57195997 7
-0.451538 -8.3251953 -0.55188 7
-0.448181 -8.3232422 -0.509583 7
-0.45513901 -8.3496094 -0.494324 7
-0.44653299 -8.3251953 -0.46850601 7
-0.450073 -8.3408203 -0.45074499 7
-0.45013401 -8.3457031 -0.43084699 7
-0.451904 -8.3554688 -0.41180399 7
-0.445068 -8.3369141 -0.38738999 7
-0.450317 -8.3583984 -0.37060499 7
-0.450378 -8.3613281 -0.35070801 7
-0.45043901 -8.3662109 -0.33056599 7
-0.17675801 -4.7431641 -4.4675288 7
-0.191101 -4.7998052 -4.4785161 7
0.015930001 -1.5986331 7.948853 7
0.001526 -1.592773 7.9960332 7
0.0051270002 -1.575195 7.9891362 7
0.003357 -1.560547 7.9985352 7
0.0087280003 -1.525391 7.9901729 7
-0.177461 -4.7261262 18.353109 7
-0.055434 -1.409683 16.834393 7
-0.0124 -1.5508029 14.199621 7
0.015399 -1.290874 12.501139 7
-0.14801601 -4.5856919 11.20496 7
-0.0083339997 -1.473965 10.203712 7
0.013234 -1.530813 9.4381142 7
0.012266 -1.305241 9.5010777 7
-0.020756001 -1.568529 8.8064499 7
-0.032545999 -1.390136 8.9438334 7
-0.002138 -1.420665 8.3595047 7
0.0141 -1.460654 7.929328 7
0.013956 -1.296707 7.9848218 7
0.070387997 -0.30157501 3.93455 7
0.074552998 -0.29687601 3.9510641 7
0.083866 -0.28908399 3.967757 7
0.073482998 -0.305381 4.1101408 7
0.043258999 -0.315799 4.1354418 7
0.075312003 -0.29691401 4.1446972 7
0.052389 -0.30168301 3.983896 7
0.080410004 -0.29126 3.9998569 7
0.068843998 -0.29177901 4.0154729 7
0.067636997 -0.28647 4.0316319 7
0.079792999 -0.282031 4.0471468 7
0.057112001 -0.28487501 4.0676641 7
0.084886 -0.27187899 4.0791779 7
0.072641999 -0.268087 4.0958328 7
0.084293 -0.26092699 4.1090722 7
0.093148001 -0.247137 4.1202469 7
0.072452001 -0.25065801 4.140563 7
0.083706997 -0.241723 4.1520481 7
-0.118472 -4.6372499 -12.635351 7
0.100429 -1.4359879 14.975581 7
-0.001416 -1.378085 13.457728 7
-0.033973001 -1.17137 -7.5036821 7
0.034294002 -1.329388 12.108665 7
-0.021305 -1.152716 -6.298491 7
-0.116112 -4.612329 11.235956 7
-0.115301 -4.6768098 -3.8815041 7
0.0038370001 -1.5141129 9.7268353 7
-0.18144099 -4.557929 -3.1534569 7
0.0297 -1.468015 9.1341152 7
0.044137999 -1.432645 8.680829 7
0.015114 -1.569757 7.9162612 7
0.015067 -1.375017 7.9567628 7
-0.056191001 -1.315591 -7.851203 7
-0.050163999 -1.142617 -6.9694772 7
-0.038984001 -0.99670398 -6.2258239 7
-0.038277999 -1.155756 -6.1919889 7
-0.062651001 -1.2483931 -5.0569038 7
-0.15269101 -4.4864292 -3.702677 7
-0.15568601 -4.6392961 -3.5381081 7
