# .PCD v0.7 - Point Cloud Data file format
VERSION 0.7
FIELDS x y z intensity
SIZE 4 4 4 4
TYPE F F F F
COUNT 1 1 1 1
WIDTH 1259
HEIGHT 1
VIEWPOINT 0 0 0 1 0 0 0
POINTS 1259
DATA ascii
0.23678599 -1.494751 -72.354492 7
0.28750601 -1.625977 -70.419922 7
0.252518 5.209106 -72.547852 7
0.178711 -1.531738 -66.271484 7
0.200317 -1.6737061 -65.530273 7
0.181503 -1.8494869 -66.15332 7
0.170891 5.1566162 -67.15332 7
0.14621 5.054688 -68 7
0.077087 -1.735962 -62.019531 7
0.151115 -1.819824 -59.78125 7
0.17868 -1.937988 -58.94043 7
0.236229 -2.020874 -57.198242 7
0.169662 -2.233398 -59.1875 7
0.215431 4.9200439 -58.306641 7
0.153595 4.78125 -60.195312 7
0.081123002 -1.948608 -55.110352 7
0.14511099 -2.018677 -53.378906 7
0.17365301 -2.11853 -52.603516 7
0.132515 -2.292114 -53.697266 7
0.169312 -2.378906 -52.698242 7
-0.87663299 -1.126343 74.307617 7
-0.86437201 -0.94982898 74.023438 7
0.231483 4.9813228 -51.378906 7
0.191513 4.9550781 -52.46875 7
0.164024 4.8934331 -53.219727 7
0.204781 4.6673579 -52.124023 7
0.17856599 4.6000981 -52.839844 7
0.064713001 -2.0244141 -50.220703 7
0.106071 -2.1047361 -49.204102 7
0.14812499 -2.1794429 -48.169922 7
0.089325003 -2.3630371 -49.59082 7
0.11219 -2.456543 -49.024414 7
-0.83766198 -3.359375 67.21582 7
0.20755 4.9134521 -46.961914 7
0.16703799 4.896729 -47.962891 7
0.132217 4.8616939 -48.826172 7
0.187904 4.6134028 -47.466797 7
0.159256 4.561523 -48.176758 7
0.119194 4.5313721 -49.166992 7
0.052085999 -2.173218 -45.852539 7
0.092772998 -2.2487791 -44.768555 7
0.139725 -2.305176 -43.723633 7
0.185616 -2.3575439 -42.701172 7
0.115013 -2.5488279 -44.25 7
0.147934 -2.614502 -43.512695 7
-0.72145802 -0.34606901 59.522461 7
-0.70616901 -0.070312001 59.224609 7
0.20575 4.769043 -42.428711 7
0.15479299 4.7851558 -43.568359 7
0.132919 4.728271 -44.063477 7
0.194649 4.480957 -42.700195 7
0.15470099 4.4638672 -43.595703 7
0.078681998 4.408936 -45.299805 7
-0.0032810001 -2.2753911 -43.146484 7
0.041862 -2.3312991 -42.217773 7
0.073821999 -2.3981929 -41.558594 7
0.098343 -2.4707029 -41.050781 7
0.041634001 -2.6412351 -42.194336 7
0.067855999 -2.7106929 -41.651367 7
0.088348001 -2.785156 -41.224609 7
0.109154 -2.8574221 -40.792969 7
-0.62187201 -0.060547002 53.595703 7
-0.64810902 0.063842997 54.085938 7
0.14046501 4.7415771 -40.322266 7
0.124153 4.6793208 -40.664062 7
0.100746 4.6312261 -41.152344 7
0.061409 4.615479 -41.96582 7
0.122978 4.3813481 -40.713867 7
0.098990999 4.3309331 -41.212891 7
0.053672999 4.3214111 -42.148438 7
0.191071 0.913818 -39.330078 7
0.014549 -2.8210449 -38.845703 7
0.065819003 -2.940063 -37.875977 7
0.062820002 -3.0371089 -37.920898 7
-0.603333 -2.9880371 48.902344 7
-0.61690497 -2.8895259 49.143555 7
0.096031003 4.8789058 -37.412109 7
0.084105998 4.8138428 -37.644531 7
0.069054 4.7547612 -37.933594 7
0.043999001 4.716187 -38.40918 7
0.020218 4.672729 -38.861328 7
0.19090299 1.119507 -35.837891 7
0.166756 1.043335 -36.291992 7
0.17131799 0.95153803 -36.206055 7
0.165161 0.77526897 -36.321289 7
0.192505 0.67614698 -35.807617 7
0.16865499 0.59484899 -36.253906 7
0.003395 -2.970093 -35.905273 7
0.024017001 -3.029053 -35.541016 7
0.037147999 -3.0975339 -35.307617 7
0.050636001 -3.1643071 -35.066406 7
-0.55067402 -2.8253169 44.685547 7
-0.56049299 -2.732666 44.848633 7
0.080306999 4.877686 -34.625 7
0.051514 4.8575439 -35.128906 7
0.034874 4.8077388 -35.423828 7
0.014542 4.764648 -35.78418 7
-0.013947 4.7374272 -36.28125 7
0.141487 1.30957 -33.798828 7
0.165077 1.211792 -33.393555 7
0.132034 0.55896002 -33.96582 7
0.142784 0.37207001 -33.71875 7
0.18197601 0.20166001 -33.042969 7
0.160446 -0.026245 -30.545898 7
-0.029868999 -3.1748049 -33.283203 7
-0.014404 -3.233887 -33.03125 7
0.0047840001 -3.286499 -32.72168 7
0.0068589998 -3.3638921 -32.678711 7
-0.026374999 -3.4968259 -33.186523 7
-0.475227 -2.7186279 40.226562 7
-0.48030901 -2.6317141 40.308594 7
-0.53650701 -2.5931399 41.137695 7
-0.43103001 0.22692899 39.731445 7
-0.41722101 0.40649399 39.533203 7
0.050140001 5.0111079 -32.015625 7
0.062201999 4.903564 -31.836914 7
0.048500001 4.8555908 -32.061523 7
0.028526001 4.8205571 -32.386719 7
0.0056079999 4.7906489 -32.756836 7
-0.022834999 4.770752 -33.213867 7
-0.015923001 4.673584 -33.114258 7
0.159134 1.494019 -30.564453 7
0.158943 1.342163 -30.571289 7
0.112244 1.217407 -31.3125 7
0.111732 0.284302 -31.321289 7
0.14118201 0.203491 -30.855469 7
0.16433699 0.125366 -30.486328 7
0.13507099 0.050292999 -30.949219 7
0.137512 -0.180298 -28.75 7
-0.047798 -3.2991941 -31.235352 7
-0.032021001 -3.352417 -30.995117 7
-0.021431001 -3.4124761 -30.830078 7
-0.036674 -3.5126951 -31.042969 7
0.075249001 4.99231 -29.383789 7
0.068458997 4.934814 -29.492188 7
0.046294998 4.9121089 -29.828125 7
0.030075001 4.8743901 -30.076172 7
0.0055470001 4.8540039 -30.444336 7
-0.019355999 4.8326421 -30.821289 7
0.145294 1.548218 -28.650391 7
0.116776 1.497437 -29.074219 7
0.149452 1.402344 -28.592773 7
0.128021 1.345215 -28.911133 7
0.111778 0.106934 -29.136719 7
0.133698 -0.22168 -26.552734 7
0.107109 -0.29187 -26.913086 7
0.133408 -0.42126501 -26.549805 7
-0.065315001 -3.3643799 -29.00293 7
-0.076622002 -3.453491 -29.145508 7
-0.063423 -3.505127 -28.958008 7
-0.051102001 -3.5570071 -28.78125 7
-0.042213 -3.6140139 -28.650391 7
0.038718998 5.1101069 -27.492188 7
0.067199998 4.9743652 -27.120117 7
0.055626001 4.933228 -27.287109 7
0.040656999 4.8990479 -27.499023 7
0.02227 4.871582 -27.759766 7
0.00091599999 4.849731 -28.058594 7
-0.006844 4.7965088 -28.173828 7
0.147324 1.694824 -26.350586 7
0.138283 1.636108 -26.477539 7
0.120293 1.583618 -26.725586 7
0.149216 1.495239 -26.333008 7
0.13163 1.44165 -26.575195 7
0.111496 1.38855 -26.852539 7
0.126343 1.312012 -26.651367 7
0.101036 -0.34643599 -25.106445 7
0.116989 -0.40600601 -24.900391 7
0.096694998 -0.47277799 -25.15625 7
0.093849003 -0.53649902 -25.19043 7
0.110733 -0.59460402 -24.973633 7
-0.092628002 -3.58606 -27.276367 7
-0.079421997 -3.63269 -27.099609 7
-0.065734997 -3.6776121 -26.916992 7
-0.056205999 -3.7286379 -26.786133 7
-0.053574 -3.790771 -26.743164 7
0.023766 5.0610352 -25.703125 7
0.036942001 4.966064 -25.548828 7
0.027756 4.922729 -25.674805 7
0.013542 4.8902588 -25.864258 7
-0.001137 4.8579102 -26.05957 7
-0.023079 4.8406978 -26.347656 7
-0.023598 4.7756348 -26.364258 7
0.128365 1.534668 -24.740234 7
0.111824 1.484375 -24.953125 7
0.119629 1.338135 -24.871094 7
0.106354 -0.320557 -23.151367 7
0.102798 -0.37939501 -23.191406 7
0.103615 -0.49560499 -23.177734 7
0.11338 -0.55114698 -23.05957 7
0.094925001 -0.67297399 -23.273438 7
0.087807 -0.79235798 -23.350586 7
-0.055259999 -3.522949 -24.758789 7
-0.074202999 -3.61499 -24.969727 7
-0.073936 -3.7390139 -24.946289 7
-0.058814999 -3.8375239 -24.75 7
0.023460001 5.0570068 -23.689453 7
0.016037 5.0144038 -23.787109 7
0.0090939999 4.9700928 -23.87793 7
-0.001755 4.9344478 -24.016602 7
-0.022941999 4.9211431 -24.274414 7
-0.033806 4.8837891 -24.413086 7
0.103401 1.9094239 -23.129883 7
0.11171 1.843628 -23.035156 7
0.116554 1.78125 -22.981445 7
0.121338 1.6611331 -22.931641 7
0.109962 1.612305 -23.069336 7
0.090111002 -0.73901403 -21.686523 7
0.061988998 -0.80432099 -21.994141 7
0.075661004 -0.85400403 -21.84082 7
0.076095998 -0.90905797 -21.833984 7
-0.095604002 -3.8183589 -23.392578 7
-0.085106 -3.859009 -23.268555 7
-0.082030997 -3.9119871 -23.224609 7
-0.080673002 -4.0257568 -23.188477 7
0.0034179999 5.101685 -22.165039 7
0.004433 5.0432129 -22.166016 7
-0.0040440001 5.0064702 -22.268555 7
-0.011978 4.967896 -22.366211 7
-0.025772 4.8851318 -22.536133 7
-0.040534999 4.860229 -22.708008 7
0.097709998 1.896973 -21.549805 7
0.094481997 1.8449709 -21.588867 7
0.084412001 1.79895 -21.704102 7
0.104874 1.727051 -21.479492 7
0.097434998 1.678467 -21.566406 7
0.078339003 1.583496 -21.783203 7
0.076782003 -0.64392102 -20.336914 7
0.071060002 -0.69726598 -20.393555 7
0.059119999 -0.75317401 -20.513672 7
0.072006002 -0.80004901 -20.37793 7
0.080413997 -0.84826702 -20.289062 7
0.05545 -0.910034 -20.542969 7
0.061028 -0.95947301 -20.481445 7
0.067153998 -1.008545 -20.416016 7
0.064246997 -1.061401 -20.442383 7
-0.096106999 -3.8461909 -21.751953 7
-0.106415 -3.9185791 -21.845703 7
-0.096892998 -3.9567871 -21.739258 7
-0.088492997 -3.9967041 -21.642578 7
-0.085770003 -4.0461431 -21.603516 7
-0.083603002 -4.0966802 -21.572266 7
-0.0060729999 5.106812 -20.658203 7
0.001747 5.0361328 -20.589844 7
-0.0044860002 4.9979248 -20.663086 7
-0.014084 4.967041 -20.772461 7
-0.021438999 4.9306641 -20.858398 7
-0.038918 4.9162598 -21.044922 7
-0.047386002 4.8813481 -21.142578 7
-0.035636999 4.802124 -21.03418 7
0.089317001 1.883545 -20.133789 7
0.076316997 1.843506 -20.272461 7
0.092583001 1.778198 -20.107422 7
0.089134 1.729858 -20.146484 7
0.081763998 1.6843261 -20.227539 7
0.069877997 1.642212 -20.352539 7
0.059013002 -0.95141602 -19.185547 7
-0.112679 -3.9003911 -20.473633 7
-0.13028 -3.982178 -20.629883 7
-0.124352 -4.0239258 -20.563477 7
-0.116615 -4.0620122 -20.479492 7
-0.112495 -4.1064448 -20.430664 7
-0.107185 -4.1481929 -20.367188 7
-0.015381 5.066772 -19.352539 7
-0.024398999 5.0378418 -19.450195 7
-0.033996999 5.0098882 -19.551758 7
-0.042998999 4.97998 -19.649414 7
-0.057388 4.9616699 -19.796875 7
-0.071777001 4.942627 -19.944336 7
-0.059257999 4.864624 -19.836914 7
0.049231999 1.902344 -19.211914 7
0.058166999 1.845459 -19.129883 7
0.068297997 1.787964 -19.033203 7
0.062256001 1.744507 -19.09668 7
0.049026001 1.706055 -19.228516 7
0.060927998 1.647705 -19.116211 7
0.043625001 -0.991211 -18.056641 7
0.034607001 -1.041626 -18.135742 7
0.01915 -1.095703 -18.273438 7
0.032515999 -1.135132 -18.148438 7
0.031807002 -1.182007 -18.151367 7
0.025978001 -1.231323 -18.201172 7
-0.135887 -4.0402832 -19.272461 7
-0.13919801 -4.094727 -19.291016 7
-0.132889 -4.1323242 -19.223633 7
-0.126572 -4.1695561 -19.15625 7
-0.120262 -4.206543 -19.088867 7
-0.120995 -4.2563481 -19.084961 7
-0.133301 -4.3273931 -19.181641 7
-0.062850997 5.0931401 -18.431641 7
-0.068626001 5.0587158 -18.495117 7
-0.071846001 5.0184331 -18.535156 7
-0.069328003 4.9654541 -18.524414 7
-0.073821999 4.927856 -18.575195 7
-0.052855998 4.8348389 -18.400391 7
0.053566001 2.0109861 -17.87793 7
0.054779001 1.963989 -17.870117 7
0.059188999 1.914185 -17.834961 7
0.036194 1.888672 -18.047852 7
0.061646 1.820435 -17.821289 7
0.059036002 1.776733 -17.847656 7
0.059631001 1.730347 -17.84668 7
0.044914 1.6962889 -17.984375 7
0.052505001 1.644165 -17.917969 7
0.02475 -0.98791498 -17.132812 7
0.030769 -1.028931 -17.078125 7
0.012352 -1.125977 -17.229492 7
0.013542 -1.213379 -17.211914 7
-0.16235401 -4.0917969 -18.293945 7
0.033737 1.91687 -16.96582 7
0.041786 1.8662111 -16.900391 7
0.057921998 1.8087161 -16.765625 7
0.053817999 1.7687989 -16.804688 7
0.042312998 1.734863 -16.907227 7
0.04631 1.687988 -16.876953 7
0.061089002 1.633057 -16.75293 7
0.020447001 -0.97460902 -16.105469 7
0.020393001 -1.015991 -16.103516 7
0.020316999 -1.057495 -16.101562 7
0.0030139999 -1.107666 -16.238281 7
0.0087130005 -1.1463619 -16.189453 7
0.0086289998 -1.18811 -16.185547 7
0.012871 -1.227295 -16.148438 7
0.0048830002 -1.273438 -16.208984 7
-0.16266599 -4.1646729 -17.103516 7
-0.156296 -4.1968989 -17.041016 7
-0.153496 -4.235352 -17.008789 7
-0.14928401 -4.2711182 -16.963867 7
-0.154404 -4.323853 -16.993164 7
-0.165291 -4.3874512 -17.068359 7
-0.170425 -4.4406738 -17.097656 7
-0.036781002 5.0588379 -15.87793 7
-0.039673001 5.0240479 -15.912109 7
-0.038979001 4.9813228 -15.918945 7
-0.041870002 4.9464111 -15.953125 7
0.010101 -0.96447802 -15.21875 7
-0.00135 -1.009033 -15.303711 7
0.011482 -1.042358 -15.202148 7
0.0099109998 -1.082397 -15.211914 7
-0.00086999999 -1.166748 -15.286133 7
-0.0032200001 -1.207397 -15.300781 7
-0.00099199999 -1.245728 -15.28125 7
-0.179588 -4.212646 -16.149414 7
-0.167511 -4.2321782 -16.047852 7
-0.165314 -4.2695308 -16.021484 7
-0.165474 -4.3519292 -16.000977 7
-0.18230399 -4.424438 -16.115234 7
-0.049927 5.0413818 -14.944336 7
-0.053734001 5.0108638 -14.984375 7
-0.058304001 4.9428711 -15.041016 7
-0.069664001 4.9284668 -15.136719 7
-0.081046999 4.874023 -15.243164 7
0.031044001 1.592163 -14.977539 7
0.039283998 1.508301 -14.920898 7
0.044532999 1.465698 -14.883789 7
0.055069 1.419922 -14.805664 7
0.050438002 1.3455811 -14.847656 7
0.044342 1.310547 -14.896484 7
0.014404 -0.983154 -14.265625 7
0.014343 -1.020264 -14.263672 7
0.021507001 -1.053955 -14.208984 7
0.023033001 -1.0899661 -14.194336 7
0.0053249998 -1.136108 -14.319336 7
-0.0043720002 -1.178589 -14.385742 7
0.0067980001 -1.209595 -14.301758 7
0.0067369998 -1.246948 -14.298828 7
0.009079 -1.2824709 -14.27832 7
-0.180977 -4.177979 -15.141602 7
-0.181068 -4.2171631 -15.130859 7
-0.173912 -4.2432861 -15.070312 7
-0.17238601 -4.2792969 -15.048828 7
-0.170853 -4.3155522 -15.02832 7
-0.171738 -4.355835 -15.022461 7
-0.179878 -4.409668 -15.068359 7
-0.189629 -4.4667969 -15.125 7
0.039482001 1.27771 -14.021484 7
0.037055999 1.24231 -14.041992 7
0.043411002 1.201782 -13.999023 7
0.054572999 1.15918 -13.919922 7
0.061737001 1.1187741 -13.871094 7
0.065688998 1.080444 -13.844727 7
0.060028002 1.046875 -13.886719 7
0.051994 1.014282 -13.947266 7
0.058357 0.97473103 -13.90332 7
0.016541 -0.96765101 -13.459961 7
0.0063550002 -1.0074461 -13.527344 7
0.015579 -1.038452 -13.460938 7
0.014671 -1.073975 -13.463867 7
0.017998001 -1.1075439 -13.4375 7
0.0094910003 -1.147095 -13.493164 7
-0.0091549996 -1.192505 -13.617188 7
-0.00161 -1.223877 -13.5625 7
-0.002502 -1.259644 -13.566406 7
-0.188797 -4.2038569 -14.300781 7
-0.188896 -4.2409668 -14.291016 7
-0.18388399 -4.2689209 -14.24707 7
-0.18396799 -4.3060298 -14.237305 7
-0.181511 -4.3383789 -14.209961 7
-0.17905401 -4.3704829 -14.183594 7
-0.189301 -4.4263921 -14.239258 7
-0.197845 -4.4793701 -14.28418 7
0.064498998 0.78491199 -13.091797 7
0.062798001 0.75097698 -13.105469 7
0.065261997 0.71545398 -13.088867 7
0.066771999 0.57702601 -13.083984 7
0.070091002 0.54162598 -13.0625 7
0.0039220001 -0.99157703 -12.793945 7
-0.002357 -1.027954 -12.832031 7
0.009056 -1.0896 -12.749023 7
0.012573 -1.121094 -12.724609 7
0.001846 -1.1604 -12.791992 7
-0.013306 -1.2023931 -12.886719 7
-0.007156 -1.2325439 -12.84375 7
-0.0045469999 -1.2648931 -12.823242 7
-0.18900301 -4.3441162 -13.414062 7
-0.186409 -4.374146 -13.387695 7
-0.19094101 -4.4173579 -13.404297 7
-0.19724999 -4.4642329 -13.432617 7
-0.065559 5.0192871 -12.37793 7
-0.051430002 4.9549561 -12.301758 7
-0.056754999 4.93396 -12.34668 7
-0.055884998 4.8994141 -12.352539 7
-0.055023 4.8647461 -12.358398 7
-0.057686001 4.837646 -12.386719 7
-0.066536002 4.82373 -12.453125 7
0.045600999 0.55346698 -12.490234 7
0.0429 0.52111799 -12.507812 7
0.045517001 0.48730499 -12.493164 7
0.064773999 0.31884801 -12.370117 7
0.058540002 0.286865 -12.411133 7
0.05407 0.25451699 -12.44043 7
0.058456 0.220947 -12.413086 7
0.061050002 0.187866 -12.394531 7
0.069862001 0.154419 -12.336914 7
0.069816999 0.121582 -12.337891 7
0.067123003 0.088988997 -12.355469 7
0.061767999 0.056396 -12.389648 7
0.051086001 0.023560001 -12.459961 7
0.0061869998 -0.97534198 -12.103516 7
0.013596 -1.0037839 -12.054688 7
0.001434 -1.041382 -12.126953 7
0.0031890001 -1.1044919 -12.110352 7
0.0077900002 -1.134155 -12.079102 7
0.0086669996 -1.1656491 -12.071289 7
-0.0044709998 -1.236694 -12.146484 7
-0.0045389999 -1.268555 -12.142578 7
-0.0074539999 -1.3343509 -12.154297 7
-0.00563 -1.365356 -12.138672 7
-0.20062999 -4.1922612 -12.769531 7
-0.19229101 -4.210815 -12.709961 7
-0.20076799 -4.2591548 -12.75 7
-0.204597 -4.299438 -12.761719 7
-0.208397 -4.3396001 -12.773438 7
-0.189812 -4.3389888 -12.651367 7
-0.19454999 -4.3808589 -12.668945 7
-0.189941 -4.4055181 -12.631836 7
-0.18909501 -4.4370122 -12.615234 7
-0.077652 5.057251 -11.695312 7
-0.072113 5.0135498 -11.673828 7
-0.059135001 4.953979 -11.610352 7
-0.062843002 4.9309082 -11.644531 7
-0.061935 4.8978271 -11.650391 7
-0.064742997 4.8728032 -11.677734 7
-0.067528002 4.8476558 -11.706055 7
-0.069404997 4.82019 -11.727539 7
-0.07869 4.8087158 -11.794922 7
-0.092606001 4.806519 -11.887695 7
0.047577001 -0.103271 -11.234375 7
0.049477 -0.13317899 -11.22168 7
0.042603001 -0.163452 -11.261719 7
0.039604001 -0.193726 -11.27832 7
0.039565999 -0.223755 -11.277344 7
0.046363998 -0.253052 -11.237305 7
0.055023 -0.34106401 -11.182617 7
0.0040819999 -0.98840302 -11.442383 7
0.0040210001 -1.018921 -11.44043 7
-0.00093099999 -1.051636 -11.466797 7
-0.0078199999 -1.085327 -11.503906 7
0.0048369998 -1.109497 -11.426758 7
0.004799 -1.139648 -11.423828 7
0.0057219998 -1.169678 -11.416016 7
0.00076299999 -1.202759 -11.441406 7
-0.012978 -1.240845 -11.518555 7
-0.012047 -1.270874 -11.510742 7
-0.005264 -1.297485 -11.466797 7
-0.0063100001 -1.328247 -11.46875 7
-0.0083309999 -1.359985 -11.476562 7
-0.19197799 -4.1911621 -11.953125 7
-0.196945 -4.2314448 -11.970703 7
-0.199974 -4.268188 -11.976562 7
-0.20494799 -4.3088379 -11.994141 7
-0.20208 -4.3352051 -11.967773 7
-0.195282 -4.354248 -11.918945 7
-0.196335 -4.3876948 -11.914062 7
-0.196404 -4.419189 -11.90332 7
-0.19648001 -4.4506841 -11.893555 7
0.036118001 -0.32873499 -10.727539 7
0.030967999 -0.35839799 -10.755859 7
0.030906999 -0.38708499 -10.753906 7
0.029846 -0.41601601 -10.759766 7
0.021606 -0.44641101 -10.803711 7
0.022591 -0.474976 -10.797852 7
0.027641 -0.50280797 -10.766602 7
0.031707998 -0.53064001 -10.743164 7
0.034736998 -0.55847198 -10.724609 7
0.033661 -0.587524 -10.729492 7
0.025428999 -0.61865199 -10.773438 7
0.0030980001 -1.11853 -10.858398 7
-0.001045 -1.14978 -10.87793 7
0.00095399999 -1.1776119 -10.864258 7
-0.19927999 -4.1671138 -11.347656 7
-0.200378 -4.1990972 -11.342773 7
-0.20147701 -4.230957 -11.337891 7
-0.206673 -4.2702641 -11.355469 7
-0.210251 -4.3067632 -11.362305 7
-0.212387 -4.3405762 -11.362305 7
-0.20629101 -4.359375 -11.319336 7
-0.202263 -4.3820801 -11.287109 7
-0.204391 -4.415894 -11.287109 7
-0.205498 -4.4477539 -11.28125 7
-0.20247699 -4.4720459 -11.254883 7
0.019745 -0.64477497 -10.211914 7
0.014275 -0.70141602 -10.236328 7
0.0196 -0.72717297 -10.206055 7
0.024909999 -0.75280797 -10.175781 7
0.028076001 -0.77905297 -10.15625 7
0.02375 -0.80786097 -10.177734 7
0.017258 -0.83789098 -10.209961 7
0.013893 -0.92163098 -10.220703 7
0.014915 -0.94860798 -10.212891 7
0.012718 -0.97729498 -10.22168 7
0.012688 -1.004517 -10.219727 7
0.001907 -1.037231 -10.274414 7
-0.003517 -1.067505 -10.300781 7
-0.01107 -1.098755 -10.337891 7
0.00067099999 -1.120605 -10.272461 7
0.00063299999 -1.148315 -10.269531 7
-0.00049599999 -1.17627 -10.272461 7
-0.0048290002 -1.206421 -10.291992 7
-0.014534 -1.239502 -10.341797 7
-0.021042001 -1.270996 -10.37207 7
0.014084 -0.96008301 -9.7089844 7
0.007309 -0.98950201 -9.7402344 7
-0.010658 -1.02417 -9.8291016 7
-0.0095899999 -1.050293 -9.8212891 7
-0.002907 -1.073486 -9.7851562 7
0.0026400001 -1.097046 -9.7529297 7
-0.00077799999 -1.125244 -9.7675781 7
-0.003052 -1.152832 -9.7773438 7
-0.0030980001 -1.179199 -9.7734385 7
-0.0065230001 -1.207642 -9.7880859 7
-0.006546 -1.234009 -9.7851562 7
-0.02005 -1.268188 -9.8505859 7
-0.093422003 1.0163569 12.794922 7
-0.0092620002 -0.97900403 -9.3369141 7
4.6000001e-05 -1.000244 -9.2890615 7
0.002357 -1.0244139 -9.2763672 7
0.001129 -1.050171 -9.2783203 7
0.0045929998 -1.073608 -9.2587891 7
-0.0094830003 -1.106079 -9.3251953 7
-0.021217 -1.137329 -9.3789062 7
-0.013069 -1.158569 -9.3369141 7
-0.01194 -1.18335 -9.3291016 7
-0.011993 -1.20874 -9.3251953 7
-0.01088 -1.233398 -9.3164062 7
-0.0074080001 -1.2568361 -9.296875 7
-0.096329004 0.66406202 12.345703 7
-0.110634 0.694336 12.413086 7
-0.091453999 0.71423298 12.319336 7
-0.087844998 0.73901403 12.300781 7
-0.087814003 0.764893 12.299805 7
-0.091353998 0.79187 12.314453 7
-0.087707996 0.816284 12.294922 7
-0.091247998 0.84338403 12.310547 7
-0.094795004 0.87072802 12.325195 7
-0.092368998 0.89538598 12.3125 7
-0.092322998 0.92126501 12.310547 7
-0.092285 0.94714397 12.307617 7
-0.076499999 4.7930908 -8.5830078 7
-0.074173003 4.7642822 -8.5849609 7
-0.073021002 4.7381592 -8.5898438 7
-0.074173003 4.7165532 -8.6064453 7
-0.078850001 4.7025151 -8.6376953 7
-0.006058 -0.96081501 -8.8701172 7
-0.008537 -0.98608398 -8.8789062 7
-0.0073549999 -1.0098881 -8.8710938 7
-0.015930001 -1.03833 -8.9091797 7
-0.0062330002 -1.057861 -8.859375 7
-0.006271 -1.082153 -8.8574219 7
-0.0075449999 -1.106934 -8.8603516 7
-0.0063629998 -1.130615 -8.8525391 7
-0.013725 -1.158691 -8.8828115 7
-0.016212 -1.1843261 -8.8916016 7
-0.012589 -1.206665 -8.8720703 7
-0.019943001 -1.2351069 -8.9023438 7
-0.016341999 -1.257324 -8.8828115 7
-0.073105 4.789062 -8.0458984 7
-0.071898997 4.7640381 -8.0517578 7
-0.079185002 4.7567139 -8.0947266 7
-0.073119998 4.721313 -8.0800781 7
-0.076759003 4.7061772 -8.1064453 7
-0.086479001 4.7037349 -8.1582031 7
-0.091347001 4.6907959 -8.1894531 7
-0.094977997 4.675415 -8.2167969 7
-0.085266002 4.6324458 -8.1865234 7
-0.076789998 4.5924072 -8.1611328 7
-0.079208001 4.574585 -8.1826172 7
-0.081649996 4.556519 -8.203125 7
-0.087723002 4.5457759 -8.2402344 7
-0.001328 -0.96179199 -8.3847656 7
0.003731 -0.982544 -8.3603516 7
0.0024029999 -1.0062259 -8.3623047 7
0.0023650001 -1.029297 -8.359375 7
0.00106 -1.052979 -8.3632812 7
-0.0053559998 -1.079102 -8.3886719 7
-0.011772 -1.1055911 -8.4140615 7
-0.0041809999 -1.124878 -8.3769531 7
0.002167 -1.144653 -8.3466797 7
0.002113 -1.167725 -8.34375 7
-0.00047299999 -1.192139 -8.3525391 7
-0.00051899999 -1.21521 -8.3496094 7
-0.0031049999 -1.239746 -8.3574219 7
-0.0044249999 -1.263428 -8.3603516 7
-0.30160499 -5.1053472 11.056641 7
-0.30160499 -5.0826421 11.068359 7
-0.2938 -5.0437012 11.050781 7
-0.297699 -5.028687 11.077148 7
-0.29507399 -5.0006099 11.079102 7
-0.295082 -4.9775391 11.091797 7
-0.29768401 -4.9599609 11.113281 7
-0.30288699 -4.9472661 11.145508 7
-0.302872 -4.9241939 11.157227 7
-0.29897299 -4.8934331 11.154297 7
-0.300262 -4.8729248 11.169922 7
-0.295044 -4.839478 11.161133 7
-0.28983301 -4.806396 11.152344 7
-0.069489002 4.7794189 -7.492188 7
-0.063170999 4.7449951 -7.4775391 7
-0.064415 4.7263179 -7.4941411 7
-0.066970997 4.7105708 -7.515625 7
-0.063170999 4.6811519 -7.5117192 7
-0.065711997 4.6651611 -7.532227 7
-0.069510996 4.6516109 -7.5595698 7
-0.083457999 4.658936 -7.6269531 7
-0.088531002 4.6477051 -7.657227 7
-0.082207002 4.6131592 -7.6435552 7
-0.079673998 4.5864258 -7.6435552 7
-0.075859003 4.5571289 -7.639648 7
-0.072052002 4.527832 -7.6337891 7
-0.075859003 4.513916 -7.6621089 7
-0.010307 -1.193115 -7.9931641 7
-0.010338 -1.215332 -7.9902339 7
-0.013039 -1.238892 -7.999023 7
-0.32225001 -5.1186519 10.654297 7
-0.318176 -5.0887451 10.650391 7
-0.31549099 -5.0612788 10.654297 7
-0.31818399 -5.0447998 10.674805 7
-0.31683299 -5.0201421 10.683594 7
-0.31546801 -4.9954829 10.689453 7
-0.316818 -4.9761958 10.706055 7
-0.32087699 -4.9620361 10.732422 7
-0.324936 -4.947998 10.759766 7
-0.322227 -4.9205322 10.760742 7
-0.31139401 -4.8771968 10.732422 7
-0.314087 -4.860352 10.753906 7
-0.31139401 -4.8330078 10.755859 7
-0.310036 -4.808228 10.762695 7
-0.094765 -1.731445 10.875 7
-0.162819 4.1717529 10.457031 7
-0.158722 4.1860352 10.431641 7
-0.14655299 4.1855469 10.375 7
-0.141121 4.197021 10.344727 7
-0.141068 4.2181401 10.334961 7
-0.13965601 4.2368159 10.319336 7
-0.142303 4.2628169 10.319336 7
-0.142258 4.283813 10.30957 7
-0.142189 4.30481 10.298828 7
-0.1408 4.3234859 10.28418 7
-0.143425 4.3493652 10.283203 7
-0.163551 4.4082031 10.349609 7
-0.174255 4.4494629 10.379883 7
-0.168816 4.4606929 10.349609 7
-0.31205699 -5.092773 10.116211 7
-0.30924201 -5.0662842 10.119141 7
-0.31346899 -5.0541992 10.145508 7
-0.31065401 -5.0280762 10.146484 7
-0.306427 -4.9986572 10.145508 7
-0.30501601 -4.9750981 10.152344 7
-0.310646 -4.9656978 10.182617 7
-0.31063101 -4.9449458 10.194336 7
-0.31344599 -4.929565 10.21582 7
-0.30500001 -4.8920898 10.198242 7
-0.31485701 -4.8905029 10.244141 7
-0.309219 -4.8586431 10.236328 7
-0.30359599 -4.8266602 10.228516 7
-0.30780801 -4.8139648 10.254883 7
-0.095367 -1.9180911 10.4375 7
-0.095352001 -1.896606 10.442383 7
-0.099547997 -1.878662 10.462891 7
-0.109367 -1.8651119 10.505859 7
-0.103722 -1.839233 10.488281 7
-0.089644998 -1.806519 10.436523 7
-0.085426003 -1.781616 10.424805 7
-0.083991997 -1.759155 10.423828 7
-0.082549997 -1.737061 10.421875 7
-0.078331001 -1.71228 10.40918 7
-0.092361003 -1.701538 10.469727 7
-0.086716004 -1.675781 10.450195 7
-0.083884999 -1.6524661 10.443359 7
-0.081055 -1.629028 10.436523 7
-0.081038997 -1.607666 10.44043 7
-0.073348999 0.96606398 10.519531 7
-0.071898997 0.98706102 10.511719 7
-0.071877003 1.008545 10.509766 7
-0.073234998 1.030762 10.512695 7
-0.083015002 1.056885 10.550781 7
-0.080177002 1.077148 10.536133 7
-0.087119997 1.123901 10.55957 7
-0.080069996 1.141968 10.52832 7
-0.085648 1.166504 10.548828 7
-0.085616998 1.18811 10.545898 7
-0.086975001 1.210449 10.548828 7
-0.089745 1.233521 10.556641 7
-0.089706004 1.255249 10.553711 7
-0.317352 -5.1140141 9.6923828 7
-0.31444499 -5.0883789 9.6953115 7
-0.308617 -5.0568848 9.6875 7
-0.30860901 -5.037231 9.7001953 7
-0.31006601 -5.0205078 9.7167969 7
-0.31298801 -5.0065918 9.7392578 7
-0.31008101 -4.9810791 9.7412109 7
-0.311546 -4.9642329 9.7587891 7
-0.31155401 -4.944458 9.7705078 7
-0.31153899 -4.9246831 9.7822266 7
-0.31445301 -4.910522 9.8027344 7
-0.30863199 -4.8791499 9.7949219 7
-0.31300399 -4.8679199 9.8212891 7
-0.307152 -4.8365479 9.8125 7
-0.30568701 -4.8137212 9.8193359 7
-0.092995003 -1.9055181 10.077148 7
-0.088615 -1.881348 10.06543 7
-0.092956997 -1.86438 10.085938 7
-0.1017 -1.851074 10.124023 7
-0.104591 -1.832642 10.138672 7
-0.094375998 -1.803833 10.105469 7
-0.08123 -1.7730711 10.058594 7
-0.084137 -1.7548831 10.074219 7
-0.078270003 -1.729736 10.055664 7
-0.078270003 -1.7093509 10.060547 7
-0.078231998 -1.688843 10.064453 7
-0.086952001 -1.674927 10.101562 7
-0.081107996 -1.6500241 10.083008 7
-0.079643004 -1.628296 10.082031 7
-0.075249001 -1.604736 10.068359 7
-0.068893 0.96935999 10.158203 7
-0.065940998 0.98877001 10.144531 7
-0.067368001 1.01001 10.146484 7
-0.068778999 1.031494 10.150391 7
-0.067284003 1.051392 10.141602 7
-0.078887999 1.077515 10.18457 7
-0.080321997 1.099121 10.188477 7
-0.075905003 1.117676 10.167969 7
-0.078781001 1.1398931 10.176758 7
-0.075828999 1.15918 10.163086 7
-0.072890997 1.178467 10.149414 7
-0.074317999 1.199829 10.152344 7
-0.077179 1.222046 10.160156 7
-0.077156 1.242676 10.157227 7
-0.082932003 1.266724 10.176758 7
-0.31759599 -5.118042 9.2373047 7
-0.31153899 -5.0870361 9.2304688 7
-0.31304201 -5.0716548 9.2470703 7
-0.31304201 -5.0531011 9.2597656 7
-0.30396301 -5.0161128 9.2431641 7
-0.30397001 -4.9975591 9.2548828 7
-0.31305701 -4.9970698 9.2958984 7
-0.311546 -4.9753418 9.3027344 7
-0.30246001 -4.9385991 9.2851562 7
-0.303978 -4.922852 9.3017578 7
-0.30850199 -4.913208 9.3271484 7
-0.31456801 -4.90625 9.3583984 7
-0.31759599 -4.8934331 9.3798828 7
-0.29791301 -4.835938 9.328125 7
-0.31002799 -4.8408198 9.3789062 7
-0.305489 -4.8131099 9.3759766 7
-0.094070002 -1.9111331 9.7265615 7
-0.101616 -1.897949 9.7578115 7
-0.097061001 -1.87439 9.7460938 7
-0.094031997 -1.852173 9.7402344 7
-0.10006 -1.83728 9.7666016 7
-0.089438997 -1.809082 9.7324219 7
-0.103043 -1.8000489 9.7861328 7
-0.090926997 -1.770874 9.7460938 7
-0.081840999 -1.744019 9.7177734 7
-0.087867998 -1.729004 9.7431641 7
-0.083320998 -1.705811 9.7314453 7
-0.081786998 -1.685059 9.7294922 7
-0.084793001 -1.66748 9.7451172 7
-0.081740998 -1.64563 9.7373047 7
-0.095352001 -1.635498 9.7919922 7
-0.075676002 -1.6019289 9.7236328 7
-0.317902 -5.1159668 8.8447266 7
-0.31321001 -5.0888672 8.84375 7
-0.305397 -5.0552979 8.8320312 7
-0.30226901 -5.0314941 8.8349609 7
-0.29598999 -5.0012212 8.8271484 7
-0.29756901 -4.9868159 8.8447266 7
-0.30226901 -4.9786382 8.8701172 7
-0.300697 -4.9577641 8.8769531 7
-0.299126 -4.9370122 8.8837891 7
-0.29756901 -4.9161382 8.890625 7
-0.30239099 -4.9121089 8.9208984 7
-0.30081901 -4.8912349 8.9277344 7
-0.308662 -4.8886719 8.9638672 7
-0.31022599 -4.8737788 8.9794922 7
-0.29927799 -4.8345952 8.9580078 7
-0.30084199 -4.8197021 8.9746094 7
-0.077666998 -1.905884 9.359375 7
-0.088607997 -1.89624 9.4033203 7
-0.094856001 -1.8824461 9.4296885 7
-0.090149 -1.859741 9.4179688 7
-0.090117998 -1.840698 9.421875 7
-0.096367002 -1.82666 9.4482422 7
-0.096352004 -1.807739 9.4521484 7
-0.094772004 -1.787354 9.4511719 7
-0.080681004 -1.757324 9.4052734 7
-0.075957999 -1.734863 9.3925781 7
-0.083770998 -1.7219239 9.4257812 7
-0.080605 -1.700562 9.4179688 7
-0.082161002 -1.682861 9.4277344 7
-0.085266002 -1.6661381 9.4423828 7
-0.086815 -1.648193 9.4521484 7
-0.077408001 -1.622559 9.421875 7
-0.082092002 -1.606812 9.4433594 7
-0.064606003 0.97412097 9.5 7
-0.069266997 0.99536097 9.5136719 7
-0.059845001 1.010254 9.4775391 7
-0.058272999 1.028687 9.4707031 7
-0.061356001 1.049316 9.4794922 7
-0.062881 1.06897 9.4824219 7
-0.065971002 1.0896 9.4912109 7
-0.065948002 1.108765 9.4892578 7
-0.058104999 1.1237791 9.4580078 7
-0.061188001 1.144531 9.4667969 7
-0.062714003 1.1644289 9.4697266 7
-0.062674999 1.183594 9.4667969 7
-0.070464998 1.206665 9.4921885 7
-0.073555 1.2275389 9.5 7
-0.071952999 1.24585 9.4921885 7
-0.070350997 1.26416 9.4833984 7
-0.092505999 4.7833252 -5.4326172 7
-0.38433099 -6.715332 7.257812 7
-0.37950099 -6.6885991 7.2636719 7
-0.38436899 -6.6875 7.2900391 7
-0.39249399 -6.6945801 7.3242192 7
-0.38929 -6.657959 7.3486328 7
-0.310738 -5.0871582 8.4042969 7
-0.29615 -5.0244141 8.3876953 7
-0.29776001 -5.0111079 8.4033203 7
-0.30101001 -5.0010991 8.4248047 7
-0.301025 -4.9676509 8.4482422 7
-0.30265 -4.9376221 8.4775391 7
-0.30104801 -4.9007568 8.4970703 7
-0.309174 -4.8999019 8.53125 7
-0.30756399 -4.8797612 8.5390615 7
-0.29619601 -4.8240972 8.5292969 7
-0.084503002 -1.909668 9.0556641 7
-0.086104997 -1.892944 9.0654297 7
-0.082840003 -1.87207 9.0585938 7
-0.084449999 -1.83728 9.0732422 7
-0.092528999 -1.807373 9.1103516 7
-0.068176001 -1.7518311 9.0361328 7
-0.064911 -1.731323 9.0292969 7
-0.063271001 -1.712036 9.0283203 7
-0.063239999 -1.675903 9.0361328 7
-0.081038997 -1.652832 9.1044922 7
-0.071281001 -1.609497 9.0791016 7
-0.051674001 0.967529 9.1357422 7
-0.048393 0.98449701 9.1230469 7
-0.046737999 1.001709 9.1142578 7
-0.046700001 1.020142 9.1123047 7
-0.046661001 1.03833 9.109375 7
-0.046645999 1.056641 9.1074219 7
-0.053084999 1.077759 9.1269531 7
-0.061165001 1.0999759 9.1523438 7
-0.057884 1.1168211 9.1386719 7
-0.059494 1.135864 9.1425781 7
-0.070808001 1.160156 9.1796885 7
-0.061028 1.17334 9.1425781 7
-0.060997002 1.191528 9.1396484 7
-0.064217001 1.21167 9.1484385 7
-0.064185999 1.22998 9.1455078 7
-0.069016002 1.250977 9.1591797 7
-0.067345001 1.268433 9.1503906 7
-0.063606001 4.734375 -4.9335942 7
-0.062011998 4.7159419 -4.9404302 7
-0.06041 4.6973882 -4.9462891 7
-0.065177999 4.6768799 -4.9824219 7
-0.068351999 4.6680908 -5.0019531 7
-0.063552998 4.6430659 -5 7
-0.065140001 4.6156011 -5.0263672 7
-0.068314001 4.606689 -5.045898 7
-0.071487002 4.5977778 -5.0664058 7
-0.082611002 4.5892329 -5.1201172 7
-0.084206 4.5767822 -5.1357422 7
-0.077849999 4.5484619 -5.1269531 7
-0.0858 4.5487061 -5.1611328 7
-0.082611002 4.5266109 -5.1621089 7
-0.082603 4.5108638 -5.172852 7
-0.305199 -5.118896 7.9443359 7
-0.31195799 -5.11731 7.9755859 7
-0.30353501 -5.0843511 7.9658198 7
-0.31028 -5.08252 7.9960942 7
-0.2985 -5.0430908 7.9755859 7
-0.288414 -5.0070801 7.9619141 7
-0.29347199 -5.0015869 7.9863281 7
-0.29347199 -4.9859619 7.999023 7
-0.28842199 -4.9603271 7.9960942 7
-0.28842899 -4.9448242 8.0078115 7
-0.29012299 -4.9324951 8.0253906 7
-0.290115 -4.916748 8.0361328 7
-0.285088 -4.8909912 8.0351562 7
-0.29013801 -4.8851318 8.0595703 7
-0.30022401 -4.8894038 8.0986328 7
-0.30024001 -4.8735352 8.1103516 7
-0.29519701 -4.8477778 8.1083984 7
-0.295212 -4.8319092 8.1201172 7
-0.28845999 -4.802856 8.1123047 7
-0.074378997 -1.8980711 8.7138672 7
-0.082787 -1.887573 8.7451172 7
-0.082778998 -1.870239 8.7509766 7
-0.072662003 -1.844727 8.7216797 7
-0.076012 -1.8302 8.7363281 7
-0.077682003 -1.814209 8.7470703 7
-0.084403999 -1.802124 8.7734385 7
-0.079337999 -1.780762 8.7607422 7
-0.080986001 -1.764648 8.7705078 7
-0.075934999 -1.743408 8.7587891 7
-0.070868999 -1.722046 8.7460938 7
-0.064133003 -1.699707 8.7285156 7
-0.065803997 -1.683472 8.7382812 7
-0.064133003 -1.664795 8.7373047 7
-0.064117 -1.647583 8.7412109 7
-0.072486997 -1.63623 8.7714844 7
-0.070808001 -1.6175539 8.7705078 7
-0.074150003 -1.6025389 8.7861328 7
-0.060660999 0.97009301 8.8671885 7
-0.052237999 0.98400903 8.8369141 7
-0.053893998 1.002319 8.8398438 7
-0.052184999 1.019165 8.8320312 7
-0.050476 1.036011 8.8251953 7
-0.045403 1.051147 8.8056641 7
-0.053764001 1.072754 8.8310547 7
-0.055404998 1.09082 8.8339844 7
-0.055381998 1.108521 8.8310547 7
-0.045295998 1.120972 8.7958984 7
-0.056999002 1.144531 8.8320312 7
-0.063689999 1.1656491 8.8515615 7
-0.063660003 1.183105 8.8486328 7
-0.060272001 1.198853 8.8349609 7
-0.058563001 1.215454 8.8261719 7
-0.075332999 1.242432 8.8798828 7
-0.070243999 1.257324 8.859375 7
-0.068535 1.273682 8.8505859 7
-0.078598 4.7678218 -4.5820308 7
-0.068686999 4.7327881 -4.5673828 7
-0.067016996 4.7149658 -4.5742192 7
-0.067016996 4.7006841 -4.585938 7
-0.067009002 4.6862788 -4.5966802 7
-0.067016996 4.6719971 -4.6064448 7
-0.065352999 4.6541748 -4.6132808 7
-0.065346003 4.639771 -4.624023 7
-0.063689999 4.6219478 -4.6308589 7
-0.065330997 4.6109619 -4.6464839 7
-0.071915001 4.6098628 -4.6748052 7
-0.073569998 4.5986328 -4.6894531 7
-0.071091004 4.5809331 -4.6962891 7
-0.082641996 4.5898442 -4.7382808 7
-0.092528999 4.5949712 -4.7763672 7
-0.085914999 4.5671391 -4.7695308 7
-0.082595997 4.5457759 -4.7714839 7
-0.080955997 4.5274658 -4.7773442 7
-0.080940001 4.5126948 -4.7880859 7
-0.085899003 4.50769 -4.8125 7
-0.30162001 -5.099731 7.5527339 7
-0.30162799 -5.0854492 7.5644531 7
-0.29814899 -5.0637212 7.5673828 7
-0.298172 -5.0489502 7.5800781 7
-0.29469299 -5.0272222 7.5839839 7
-0.28947401 -5.0019531 7.5830078 7
-0.28775799 -4.9840088 7.5908198 7
-0.28427899 -4.9622798 7.59375 7
-0.28775001 -4.9545898 7.6132808 7
-0.28776601 -4.9398189 7.625977 7
-0.28427899 -4.9182129 7.6289058 7
-0.28777301 -4.9102778 7.648438 7
-0.28255501 -4.8852539 7.6474609 7
-0.29300699 -4.8909912 7.6855469 7
-0.29825601 -4.8864751 7.710938 7
-0.28779599 -4.8509521 7.695312 7
-0.28779599 -4.83606 7.7060552 7
-0.282585 -4.8109131 7.7050781 7
-0.28607899 -4.8027339 7.7255859 7
-0.078674003 -1.914551 8.4355469 7
-0.071686 -1.892212 8.4179688 7
-0.071686 -1.875488 8.4228516 7
-0.071671002 -1.859009 8.4277344 7
-0.069900997 -1.840942 8.4267578 7
-0.069885001 -1.8243411 8.4306641 7
-0.073363997 -1.810547 8.4462891 7
-0.075089 -1.795166 8.4550781 7
-0.076828003 -1.779785 8.4658203 7
-0.076820001 -1.763184 8.4707031 7
-0.066359997 -1.738403 8.4414062 7
-0.064613 -1.720459 8.4404297 7
-0.061110999 -1.70105 8.4335938 7
-0.059363998 -1.683105 8.4316406 7
-0.061081 -1.667847 8.4423828 7
-0.061073001 -1.651123 8.4462891 7
-0.069747999 -1.640869 8.4765615 7
-0.074965999 -1.627808 8.4980469 7
-0.061020002 -1.6011961 8.4570312 7
-0.055939 0.96630901 8.5742188 7
-0.054161001 0.982544 8.5664062 7
-0.050659001 0.99768102 8.5527344 7
-0.045403 1.012329 8.5332031 7
-0.043648001 1.02832 8.5263672 7
-0.043609999 1.045166 8.5234385 7
-0.047049999 1.063599 8.5322266 7
-0.045279998 1.07959 8.5234385 7
-0.046989001 1.09729 8.5263672 7
-0.055649001 1.118408 8.5517578 7
-0.055617999 1.135254 8.5488281 7
-0.050377 1.149658 8.5292969 7
-0.060791001 1.171875 8.5605469 7
-0.050322998 1.183228 8.5244141 7
-0.057243001 1.2038569 8.5439453 7
-0.064156003 1.2244869 8.5634766 7
-0.064125001 1.241333 8.5605469 7
-0.053658001 1.252319 8.5234385 7
-0.060585 1.273193 8.5429688 7
-0.089507997 4.7886958 -4.2382808 7
-0.075820997 4.74646 -4.2148442 7
-0.070656002 4.72229 -4.2138672 7
-0.072365001 4.7122798 -4.2294922 7
-0.072356999 4.69873 -4.2402339 7
-0.068931997 4.6783452 -4.2431641 7
-0.070641004 4.6682129 -4.257812 7
-0.068908997 4.651123 -4.265625 7
-0.067207001 4.6340332 -4.2714839 7
-0.068908997 4.624023 -4.2861328 7
-0.068893 4.610229 -4.297852 7
-0.072319001 4.6035161 -4.3164058 7
-0.077437997 4.6003418 -4.3408198 7
-0.087684996 4.6074219 -4.3769531 7
-0.091080002 4.6003418 -4.3974609 7
-0.091063999 4.5865479 -4.4082031 7
-0.088531002 4.5695801 -4.4150391 7
-0.086823002 4.552124 -4.420898 7
-0.079963997 4.5244141 -4.414062 7
-0.079971001 4.510498 -4.4248052 7
-0.078254998 4.4931641 -4.4306641 7
-0.306366 -4.8839111 7.3798828 7
-0.29198501 -4.8273931 7.3681641 7
-0.088592999 -1.918335 8.1953115 7
-0.076003999 -1.891602 8.1640615 7
-0.083182998 -1.881592 8.1894531 7
-0.088561997 -1.8701169 8.2099609 7
-0.083159998 -1.849609 8.1982422 7
-0.079552002 -1.830566 8.1923828 7
-0.083137996 -1.8173831 8.2070312 7
-0.092124999 -1.80835 8.2392578 7
-0.084914997 -1.786377 8.2216797 7
-0.075897001 -1.763428 8.1982422 7
-0.083084002 -1.75293 8.2246094 7
-0.068672001 -1.725708 8.1845703 7
-0.07045 -1.71106 8.1943359 7
-0.072250001 -1.696167 8.2041016 7
-0.065033004 -1.674927 8.1865234 7
-0.066817999 -1.660156 8.1953115 7
-0.066803001 -1.644165 8.1992188 7
-0.070404001 -1.6307369 8.2138672 7
-0.070389003 -1.614624 8.21875 7
-0.052643001 0.96276897 8.3027344 7
-0.059813999 0.98229998 8.3232422 7
-0.050811999 0.99462903 8.2929688 7
-0.054343998 1.012573 8.3007812 7
-0.050719999 1.027222 8.2871094 7
-0.056099001 1.046021 8.3017578 7
-0.056061 1.062256 8.2998047 7
-0.052452002 1.07666 8.2861328 7
-0.057799999 1.095703 8.2998047 7
-0.055977002 1.1112061 8.2919922 7
-0.066734001 1.132935 8.3222656 7
-0.057723999 1.144531 8.2919922 7
-0.068480998 1.166504 8.3232422 7
-0.066657998 1.181885 8.3144531 7
-0.061225999 1.195312 8.2958984 7
-0.057601999 1.209717 8.2822266 7
-0.061172001 1.227905 8.2900391 7
-0.064727999 1.246094 8.2978516 7
-0.061110999 1.260376 8.2841797 7
-0.057487 1.274658 8.2705078 7
-0.088431999 4.7784419 -3.882812 7
-0.086654998 4.762085 -3.889648 7
-0.081344999 4.7382808 -3.8886721 7
-0.074257001 4.710938 -3.882812 7
-0.074242003 4.6982422 -3.894531 7
-0.074225999 4.6855469 -3.905273 7
-0.081290998 4.6872559 -3.933594 7
-0.079506002 4.670898 -3.9404299 7
-0.077735998 4.6544189 -3.9462891 7
-0.074188001 4.6342769 -3.949219 7
-0.075943001 4.6251221 -3.964844 7
-0.074173003 4.6087651 -3.9707029 7
-0.074165002 4.5958252 -3.9814451 7
-0.077698 4.5899658 -4.000977 7
-0.086539999 4.5949712 -4.032227 7
-0.097130001 4.603394 -4.0693359 7
-0.102417 4.6008301 -4.09375 7
-0.079429999 4.5413818 -4.0488281 7
-0.092727996 4.5571289 -4.09375 7
-0.092727996 4.5439448 -4.1035161 7
-0.085648 4.5167241 -4.0966802 7
-0.087394997 4.506958 -4.1123052 7
-0.14758299 0.919249 12.384348 7
-0.14865001 4.1671071 10.551646 7
-0.14282 4.4153471 10.343221 7
-0.35034201 -4.999794 11.173903 7
-0.073829003 -1.664057 10.146221 7
-0.086119004 0.96949399 10.395252 7
-0.091888003 1.244053 10.401031 7
-0.047049999 1.07802 9.5552883 7
-0.396422 -4.9636698 9.9957581 7
-0.114121 -1.718192 9.4466724 7
-0.40075999 -6.6332178 7.3082838 7
-0.327793 -4.9639578 8.6725636 7
-0.34470499 -4.8357282 8.9462862 7
-0.108691 -1.7957799 8.9699411 7
-0.085116997 0.97573501 9.0333824 7
-0.082851 1.180505 8.9775524 7
-0.27535501 -4.9024611 7.5829258 7
-0.29412001 -4.8325272 7.8491869 7
-0.082010001 -1.853845 8.4091005 7
-0.071612999 -1.600104 8.4355555 7
-0.056221999 1.065159 8.4974098 7
-0.065151997 1.265981 8.5050888 7
-0.068268001 -1.876424 7.9968462 7
-0.055034 -1.678516 7.9982848 7
-0.047524001 0.98785102 8.1754856 7
-0.044034999 1.154635 8.1144447 7
-0.29023501 -4.8081851 5.9343739 7
-0.099665999 -1.738219 7.7067728 7
-0.065523997 1.0573699 7.772697 7
-0.069546998 1.219247 7.747561 7
-0.100775 -1.793959 7.4506159 7
-0.081430003 -1.60861 7.4352069 7
-0.087797001 -1.808563 7.1574478 7
-0.068705998 -1.634606 7.149951 7
-0.071050003 -1.8054481 6.8748312 7
-0.066641003 -1.674688 6.928546 7
0.022089001 -1.268901 -6.8815579 7
0.028039999 -1.240854 -5.8056221 7
0.028671 -1.558213 -4.8887382 7
-0.26275799 -5.0162392 11.439601 7
-0.037007 -1.503563 -4.1089821 7
-0.334295 -4.9634271 10.543365 7
-0.100955 -1.861949 10.350824 7
-0.31393701 -4.9177041 9.7884846 7
-0.066473998 -1.780007 9.6677399 7
-0.29932001 -4.8804541 9.1491041 7
-0.035627998 -1.7106611 9.0893574 7
-0.44621399 -6.6733961 7.1402121 7
-0.33683199 -4.985651 8.3249941 7
-0.085229002 -1.8852561 8.6347427 7
-0.067128003 -1.650643 8.599081 7
-0.305287 -4.877656 7.7811041 7
-0.064381003 -1.822651 8.2498264 7
-0.056496002 -1.610229 8.2633038 7
-0.054113999 -1.7738841 7.950758 7
-0.038931001 -1.726277 7.6581359 7
-0.313178 -4.953105 6.2080441 7
-0.30533701 -4.8077002 6.3566289 7
-0.079000004 -1.859192 7.37919 7
-0.062691003 -1.677186 7.3614922 7
-0.28893 -4.830143 5.8719592 7
-0.059280001 -1.807893 7.1295352 7
-0.044144001 -1.637308 7.115623 7
-0.019788001 -1.426348 -0.59555602 7
-0.034997001 -1.59298 -0.61843503 7
-0.04668 -1.76579 6.9249949 7
-0.031264 -1.603842 6.909637 7
-0.0097650001 -1.404905 -0.39930901 7
-0.023744 -1.562506 -0.41764301 7
-0.247366 -4.633904 1.062654 7
-0.241606 -4.6958919 1.230986 7
-0.28751999 -4.9486132 4.8745451 7
-0.26836401 -4.820261 5.0123 7
-0.055233002 -1.887736 6.764071 7
-0.042681001 -1.732823 6.7654328 7
-0.29267499 -4.7422729 4.6083531 7
-0.30820999 -4.727529 4.78303 7
-0.26745799 -4.609014 2.00192 7
-0.26716501 -4.6510072 2.156178 7
-0.264911 -4.6810722 2.313143 7
-0.26069599 -4.6990399 2.4718521 7
-0.26198801 -4.756999 2.942409 7
-0.26672301 -4.7774019 3.1392331 7
-0.26921499 -4.7828679 3.2976329 7
-0.26229399 -4.753849 3.4547551 7
-0.266366 -4.7517252 3.612834 7
-0.262878 -4.7208648 3.767998 7
-0.27223101 -4.7220149 3.928329 7
-0.27033901 -4.6837158 4.0822592 7
-0.27860799 -4.57307 4.5463939 7
-0.28360301 -4.5301542 4.7011871 7
-0.251387 -4.5177808 2.3542831 7
-0.243132 -4.5234218 2.508373 7
-0.249805 -4.5947232 2.9552491 7
-0.250788 -4.603591 3.1438639 7
-0.247583 -4.5924182 3.2947359 7
-0.25372201 -4.6025 3.446049 7
-0.254053 -4.589787 3.596698 7
-0.248523 -4.5543408 3.7443211 7
-0.252397 -4.5401349 3.894639 7
-0.24854399 -4.4980979 4.0397491 7
-0.047265999 4.676743 -4.6883192 7
-0.050071999 4.6496081 -3.8370509 7
-0.183483 4.1877732 10.142855 7
-0.091174997 1.101411 10.396836 7
-0.102475 1.082074 9.1904736 7
-0.075989 1.0755531 8.7188683 7
-0.057291001 1.0701441 8.3346176 7
-0.041723002 1.065454 8.0029135 7
-0.047334999 1.264101 7.9905729 7
-0.072360002 1.059507 7.6899729 7
-0.081464998 1.2459019 7.6950889 7
0.065011002 0.54284698 -12.661973 7
-0.027269 -1.065631 -9.9521456 7
-0.27066699 -4.3725071 -13.913864 7
-0.170367 4.8283229 -11.83884 7
-0.015009 -1.17744 -8.3366098 7
-0.244781 -4.430275 -11.23538 7
-0.104104 4.675395 -8.7754412 7
-0.0027590001 -1.244104 -7.15412 7
-0.112881 4.6699152 -7.5027871 7
0.0095950002 -1.281268 -6.2476921 7
-0.033914 -1.318675 -5.5975938 7
-0.052572001 -1.564018 -5.7136688 7
-0.075903997 4.6284752 -3.981746 7
-0.085170001 4.5528579 -4.20468 7
-0.020122999 -1.334078 -5.0425839 7
-0.03314 -1.540053 -5.0959039 7
-0.010449 -1.348091 -4.6039009 7
-0.026172999 -1.544971 -4.6655149 7
-0.005262 -1.365479 -4.2569551 7
-0.017525 -1.5374629 -4.2844629 7
-0.030463999 -1.367408 -3.9370151 7
-0.044736002 -1.529521 -3.9625759 7
