# .PCD v0.7 - Point Cloud Data file format
VERSION 0.7
FIELDS x y z intensity
SIZE 4 4 4 4
TYPE F F F F
COUNT 1 1 1 1
WIDTH 1362
HEIGHT 1
VIEWPOINT 0 0 0 1 0 0 0
POINTS 1362
DATA ascii
-0.074329004 -1.391968 -67.463867 7
-0.037050001 -1.529663 -66.313477 7
-0.133825 5.515625 -67.764648 7
-0.093731001 5.2585449 -66.575195 7
-0.161852 5.2492681 -68.617188 7
-0.144749 -1.543457 -60.704102 7
-0.079184003 -1.643066 -58.945312 7
-0.106791 -1.849121 -60.864258 7
-0.077200003 -1.970337 -60.046875 7
-0.515522 -0.52294898 65.650391 7
-0.50914598 -0.36987299 65.505859 7
-0.055918001 5.0480962 -58.3125 7
-0.105633 5.0151372 -59.648438 7
-0.213238 5.0985112 -62.529297 7
-0.115082 -1.680298 -55.194336 7
-0.076909997 -1.9156491 -54.231445 7
-0.094789997 -2.0635991 -54.660156 7
-0.027554 -2.13147 -52.994141 7
0.011404 5.1895752 -51.057617 7
-0.068039 5.120605 -52.999023 7
-0.021199999 4.8874512 -51.874023 7
-0.059130002 4.8425288 -52.799805 7
0.010172 1.587646 -52.276367 7
0.027923999 1.448364 -51.835938 7
-0.14076599 -1.8731689 -49.600586 7
-0.099114999 -1.958618 -48.679688 7
-0.056953002 -2.03894 -47.745117 7
-0.120146 -2.2163091 -49.125 7
-0.42072299 -0.29956099 53.452148 7
-0.39184001 -0.174438 52.878906 7
-0.40072799 -0.052611999 53.060547 7
-0.041414 5.0562739 -47.342773 7
-0.069638997 5.0029302 -47.970703 7
0.0055920002 4.7225342 -46.328125 7
-0.048096001 4.7226558 -47.515625 7
-0.078181997 4.6682129 -48.18457 7
-0.167522 -2.007324 -46.916016 7
-0.124811 -2.0830081 -46.029297 7
-0.092619002 -2.164551 -45.356445 7
-0.111034 -2.4050291 -45.713867 7
-0.425962 -3.0393071 49.763672 7
-0.450367 -2.9523931 50.225586 7
-0.430796 -0.171021 50.02832 7
-0.35450199 -0.054198999 48.615234 7
-0.39362901 0.058594 49.345703 7
-0.334003 0.168091 48.240234 7
-0.038229 4.8718262 -43.475586 7
-0.080583997 4.855957 -44.341797 7
-0.0030479999 4.5845952 -42.783203 7
-0.043660998 4.5627441 -43.614258 7
-0.093497999 4.5551758 -44.630859 7
-0.14821599 4.5524902 -45.74707 7
-0.020962 1.237183 -44.06543 7
-0.155443 -2.13147 -42.40332 7
-0.111673 -2.193115 -41.575195 7
-0.074147999 -2.257324 -40.862305 7
-0.054071002 -2.3363039 -40.478516 7
-0.113604 -2.5 -41.582031 7
-0.084494002 -2.568604 -41.026367 7
-0.060989 -2.6412351 -40.577148 7
-0.029692 -2.702271 -39.982422 7
-0.344973 -3.0054929 44.433594 7
-0.369169 -2.931396 44.853516 7
-0.37212199 -2.8317871 44.914062 7
-0.312767 0.052611999 44.100586 7
-0.31396499 0.15393101 44.124023 7
-0.33842999 0.25769001 44.543945 7
-0.018408 4.7932129 -39.149414 7
-0.043986998 4.7512212 -39.630859 7
-0.064850003 4.697144 -40.025391 7
-0.017387001 4.5015869 -39.158203 7
-0.037303999 4.4448242 -39.536133 7
-0.066986002 4.4055181 -40.092773 7
-0.107058 4.3835449 -40.841797 7
0.055408001 0.98645002 -37.985352 7
-0.132486 -2.3248291 -38.577148 7
-0.130077 -2.6057129 -38.507812 7
-0.096450999 -2.6608889 -37.917969 7
-0.078042999 -2.7315669 -37.59082 7
-0.071148001 -2.815063 -37.461914 7
-0.326857 -2.7718511 41.092773 7
-0.32930601 -2.680542 41.139648 7
-0.28767401 0.048462 40.665039 7
-0.27132401 0.140747 40.407227 7
-0.28886399 0.234741 40.688477 7
-0.065342002 4.8825679 -36.785156 7
-0.088942997 4.8419189 -37.196289 7
-0.112188 4.798584 -37.601562 7
-0.136484 4.7557368 -38.024414 7
0.019580999 1.27771 -35.563477 7
0.041680999 1.177734 -35.186523 7
0.018703001 1.102417 -35.579102 7
-0.0045929998 1.025635 -35.979492 7
0.023998 0.92456102 -35.490234 7
0.048163999 0.82751501 -35.078125 7
0.020336 0.66259801 -35.554688 7
-0.140799 -2.8327639 -35.296875 7
-0.103901 -2.958374 -34.695312 7
-0.090421997 -3.025635 -34.472656 7
-0.108202 5.0740972 -34.235352 7
-0.083006002 4.9344478 -33.853516 7
-0.102755 4.8928218 -34.171875 7
-0.125854 4.8565669 -34.542969 7
-0.15413301 4.8294678 -34.994141 7
-0.17092299 4.776978 -35.266602 7
0.025276 1.410156 -32.400391 7
0.026619 1.248657 -32.383789 7
-0.003613 1.18457 -32.858398 7
-0.0014609999 1.102295 -32.826172 7
0.012987 1.013916 -32.601562 7
-0.0089229997 0.69775403 -32.948242 7
0.021507001 0.607544 -32.470703 7
0.038931001 0.52270502 -32.197266 7
0.0053349999 0.44982901 -32.724609 7
0.033925999 0.364014 -32.275391 7
-0.15884399 -2.9924321 -33.103516 7
-0.138475 -3.0471189 -32.793945 7
-0.123631 -3.108032 -32.56543 7
-0.082686998 4.9212651 -31.470703 7
-0.10343 4.8873291 -31.782227 7
-0.14205199 4.8895259 -32.355469 7
-0.17432 4.875977 -32.834961 7
0.013441 1.400635 -30.349609 7
0.014174 1.324585 -30.34082 7
-0.022923 1.27063 -30.886719 7
-0.0045779999 0.49914601 -31.058594 7
0.020734999 0.34130901 -30.680664 7
-0.015691999 0.26989701 -31.21875 7
0.028697999 0.18847699 -30.558594 7
-0.159456 -3.070312 -30.493164 7
-0.170738 -3.160645 -30.635742 7
-0.156397 -3.216675 -30.430664 7
-0.142887 -3.2728269 -30.237305 7
-0.136236 -3.337769 -30.136719 7
-0.162912 -3.4515381 -30.488281 7
-0.049408 5.0596919 -28.499023 7
-0.052475002 4.9954829 -28.549805 7
-0.070111997 4.9628911 -28.799805 7
-0.093767002 4.9423828 -29.12793 7
-0.113564 4.9121089 -29.404297 7
-0.140644 4.895752 -29.779297 7
-0.168167 4.87854 -30.160156 7
0.019482 1.571655 -27.891602 7
0.001791 1.514282 -28.134766 7
0.030518999 1.4250489 -27.74707 7
0.0046600001 1.371948 -28.100586 7
-0.0078750001 1.309204 -28.273438 7
-0.011942 0.25134301 -28.34082 7
0.031357002 0.10791 -27.751953 7
-0.004406 0.039184999 -28.236328 7
0.0099179996 -0.033080999 -26.418945 7
-0.00071499997 -0.099486999 -26.552734 7
-0.005415 -0.16613799 -26.610352 7
0.014526 -0.23034699 -26.353516 7
0.003428 -0.29772899 -26.493164 7
-0.19899 -3.2709961 -28.821289 7
-0.192757 -3.33374 -28.731445 7
-0.181025 -3.387939 -28.572266 7
-0.174786 -3.449585 -28.483398 7
-0.165333 -3.506104 -28.353516 7
-0.074965999 5.0444341 -26.769531 7
-0.074097 4.9755859 -26.769531 7
-0.087003998 4.936523 -26.943359 7
-0.106823 4.911499 -27.202148 7
-0.13398699 4.9007568 -27.552734 7
-0.140936 4.846436 -27.650391 7
0.025870999 1.657837 -25.850586 7
0.000439 1.5461431 -26.178711 7
0.024405999 1.474365 -26.235352 7
0.0078600002 1.419434 -26.447266 7
-0.011881 1.365845 -26.701172 7
0.0089659998 1.286865 -26.436523 7
-0.0093919998 -0.149048 -24.34668 7
0.0067579998 -0.214478 -24.457031 7
0.00096899999 -0.39917001 -24.519531 7
0.016073 -0.457275 -24.337891 7
-0.0037380001 -0.52307099 -24.569336 7
-0.19677401 -3.496582 -26.56543 7
-0.185581 -3.545898 -26.424805 7
-0.17292599 -3.5921631 -26.264648 7
-0.16271999 -3.641602 -26.134766 7
-0.178656 -3.7319341 -26.311523 7
-0.19312701 -3.820435 -26.469727 7
-0.069063 5.0463872 -24.631836 7
-0.076021001 4.9998779 -24.723633 7
-0.085960001 4.9593511 -24.849609 7
-0.098364003 4.923584 -25.004883 7
-0.116184 4.8988042 -25.223633 7
-0.13502701 4.8748779 -25.453125 7
0.023985 1.54126 -23.928711 7
0.002941 -0.371948 -22.773438 7
0.013355 -0.427246 -22.655273 7
-0.016257999 -0.49072301 -22.980469 7
-0.0037479999 -0.54540998 -22.838867 7
0.0056039998 -0.60009801 -22.733398 7
-0.192724 -3.5662839 -24.619141 7
-0.190771 -3.624634 -24.586914 7
-0.178238 -3.6665039 -24.438477 7
-0.169939 -3.714478 -24.337891 7
-0.16321801 -3.7644041 -24.253906 7
-0.083925001 5.0345459 -23.008789 7
-0.096658997 5.004272 -23.157227 7
-0.10041 4.953979 -23.208984 7
-0.112091 4.9205322 -23.345703 7
-0.13170999 4.9029541 -23.570312 7
-0.140202 4.8613281 -23.673828 7
0.01132 1.617798 -22.379883 7
0.0037169999 -0.34179699 -20.946289 7
-0.002575 -0.395996 -21.010742 7
-0.018502999 -0.45263699 -21.172852 7
-0.010616 -0.50439501 -21.09082 7
0.0029160001 -0.554443 -20.948242 7
-0.018267 -0.621216 -21.413086 7
-0.010509 -0.67285198 -21.331055 7
7.1000002e-05 -0.72314501 -21.217773 7
-0.009602 -0.780029 -21.314453 7
-0.166729 -3.5257571 -22.629883 7
-0.16687401 -3.5826421 -22.62207 7
-0.190712 -3.676147 -22.854492 7
-0.187464 -3.728394 -22.8125 7
-0.174623 -3.7648931 -22.670898 7
-0.169682 -3.813843 -22.609375 7
-0.16869 -3.8687739 -22.588867 7
-0.179552 -3.943604 -22.689453 7
-0.092410997 5.108398 -21.43457 7
-0.096400999 5.0628662 -21.486328 7
-0.102655 5.0220952 -21.560547 7
-0.109468 4.9821782 -21.640625 7
-0.121376 4.9528809 -21.772461 7
-0.140623 4.9385991 -21.979492 7
-0.143492 4.8890381 -22.018555 7
-0.0037169999 1.897095 -20.97168 7
0.0041689998 1.837158 -20.895508 7
-0.011736 1.797119 -21.061523 7
0.012554 1.724243 -20.81543 7
0.0091129998 1.674072 -20.855469 7
-0.001696 1.62915 -20.969727 7
-0.036005002 -0.53698701 -20.211914 7
-0.0082 -0.681885 -19.932617 7
-0.028782001 -0.79016101 -20.12793 7
-0.021702001 -0.83837903 -20.055664 7
-0.028416 -0.89196801 -20.118164 7
-0.206154 -3.747803 -21.495117 7
-0.206284 -3.802124 -21.485352 7
-0.19034 -3.8839109 -21.3125 7
-0.183872 -3.9267581 -21.240234 7
-0.192408 -3.9945071 -21.311523 7
-0.10416 5.0826421 -20.111328 7
-0.115023 5.0552979 -20.223633 7
-0.123468 5.0220952 -20.31543 7
-0.132507 4.9899902 -20.412109 7
-0.15116701 4.9777832 -20.601562 7
-0.161411 4.947021 -20.709961 7
-0.13439199 4.8380132 -20.464844 7
-0.0095459996 1.888428 -19.671875 7
-0.029448999 1.85498 -19.866211 7
-0.0042300001 1.783813 -19.62793 7
-0.012087 1.739746 -19.708008 7
-0.019967999 1.6956789 -19.786133 7
-0.024813 1.6488039 -19.836914 7
-0.042027 -0.69030797 -18.714844 7
-0.035670999 -0.736206 -18.65332 7
-0.023527 -0.77954102 -18.541992 7
-0.021025 -0.82604998 -18.516602 7
-0.053156 -0.88610798 -18.805664 7
-0.037167002 -0.92749 -18.657227 7
-0.028158 -0.97997999 -18.782227 7
-0.205118 -3.869873 -20.010742 7
-0.198856 -3.910156 -19.944336 7
-0.189381 -3.944824 -19.850586 7
-0.18440101 -3.98645 -19.793945 7
-0.183249 -4.0344238 -19.773438 7
-0.19232599 -4.0999761 -19.844727 7
-0.10578 5.1585689 -18.711914 7
-0.099417001 5.096436 -18.667969 7
-0.107115 5.0656738 -18.74707 7
-0.115459 5.0360112 -18.832031 7
-0.124439 5.0072021 -18.923828 7
-0.138559 4.9890141 -19.05957 7
-0.152031 4.9688721 -19.189453 7
-0.155258 4.9268799 -19.229492 7
-0.132257 4.8295898 -19.037109 7
-0.02537 1.880371 -18.512695 7
-0.00556 1.81665 -18.336914 7
-0.015835 1.777832 -18.43457 7
-0.026133001 1.738647 -18.53125 7
-0.028100999 1.692871 -18.552734 7
-0.017895 1.637817 -18.463867 7
-0.041439001 -0.65832502 -17.785156 7
-0.036917001 -0.74755901 -17.741211 7
-0.055918001 -0.79980499 -17.902344 7
-0.044537 -0.841187 -17.800781 7
-0.039244 -0.884399 -17.751953 7
-0.033941001 -0.92749 -17.703125 7
-0.213627 -3.9060061 -18.838867 7
-0.21374901 -3.954102 -18.829102 7
-0.219294 -4.0109859 -18.865234 7
-0.20586801 -4.0361328 -18.742188 7
-0.205318 -4.0826421 -18.727539 7
-0.19663 -4.1152339 -18.643555 7
-0.113325 5.1134028 -17.586914 7
-0.120792 5.0845952 -17.661133 7
-0.13233601 5.0643311 -17.768555 7
-0.14116099 5.0378418 -17.853516 7
-0.15744001 4.980835 -18.012695 7
-0.16559599 4.9515381 -18.091797 7
-0.158859 4.8912349 -18.046875 7
-0.023823 1.864014 -17.375977 7
-0.027256001 1.822266 -17.410156 7
-0.028651999 1.778564 -17.425781 7
-0.044962 1.74646 -17.568359 7
-0.038217999 1.6962889 -17.514648 7
-0.034191001 1.6480711 -17.484375 7
-0.035578001 1.604248 -17.499023 7
-0.22451399 -4.0600591 -17.6875 7
-0.21960101 -4.0966802 -17.638672 7
-0.20487 -4.2054439 -17.490234 7
-0.026236 1.80188 -16.316406 7
-0.043556001 -0.82910198 -15.6875 7
-0.048184998 -0.87133801 -15.720703 7
-0.052809 -0.91369599 -15.75293 7
-0.044578999 -0.95080602 -15.6875 7
-0.21719199 -4.1625981 -16.498047 7
-0.21578 -4.2023931 -16.477539 7
-0.214384 -4.242188 -16.456055 7
-0.219816 -4.2939448 -16.485352 7
-0.229038 -4.3527832 -16.542969 7
-0.239025 -4.4130859 -16.605469 7
-0.23534 -4.448853 -16.566406 7
-0.030607 1.865845 -15.353516 7
-0.023901001 1.700928 -15.318359 7
-0.027739 1.664062 -15.350586 7
-0.220863 -4.2176509 -15.464844 7
-0.219368 -4.2545171 -15.443359 7
-0.231527 -4.31604 -15.516602 7
-0.238058 -4.3676758 -15.551758 7
-0.24377801 -4.4179692 -15.580078 7
-0.082216002 0.84728998 17.243164 7
-0.074677996 0.881836 17.188477 7
-0.077111997 0.92028803 17.204102 7
-0.077044003 0.95776403 17.202148 7
-0.114908 5.0635991 -14.362305 7
-0.11252 5.020874 -14.357422 7
-0.114954 4.9885249 -14.386719 7
-0.023422001 1.794922 -14.369141 7
-0.023452999 1.7574461 -14.373047 7
-0.021187 1.605347 -14.37207 7
-0.052634999 -1.0012209 -13.972656 7
-0.052719001 -1.037598 -13.96875 7
-0.065451004 -1.080078 -14.052734 7
-0.064765997 -1.15271 -14.041992 7
-0.063170999 -1.188477 -14.027344 7
-0.063248001 -1.2249759 -14.024414 7
-0.23885199 -4.1870122 -14.693359 7
-0.233023 -4.2148442 -14.644531 7
-0.231443 -4.2498779 -14.624023 7
-0.235884 -4.333252 -14.629883 7
-0.247137 -4.4302979 -14.6875 7
-0.071291 0.83776897 16.399414 7
-0.08168 0.87731898 16.466797 7
-0.077255003 0.911255 16.43457 7
-0.080696002 0.94812 16.456055 7
-0.12388 5.0413818 -13.552734 7
-0.12813801 4.979248 -13.604492 7
-0.12899201 4.94519 -13.623047 7
-0.145897 4.945312 -13.743164 7
-0.021646 1.596436 -13.569336 7
-0.012407 1.518677 -13.513672 7
-0.026839999 1.457031 -13.618164 7
-0.016764 1.37915 -13.555664 7
-0.013399 1.341431 -13.536133 7
-0.01259 1.30542 -13.533203 7
-0.049867999 -1.018433 -13.176758 7
-0.048250001 -1.08667 -13.161133 7
-0.066932999 -1.130249 -13.279297 7
-0.077642001 -1.170532 -13.345703 7
-0.062668003 -1.1973881 -13.244141 7
-0.058318999 -1.229614 -13.212891 7
-0.244444 -4.1661382 -13.87207 7
-0.248091 -4.2084961 -13.884766 7
-0.24109501 -4.2324219 -13.830078 7
-0.23853301 -4.2636719 -13.802734 7
-0.237839 -4.3339839 -13.776367 7
-0.242384 -4.3779302 -13.792969 7
-0.25581899 -4.4382319 -13.866211 7
-0.257696 -4.4775391 -13.867188 7
-0.123465 -2.213623 15.813477 7
-0.12158 -2.177979 15.807617 7
-0.074432001 0.79821801 15.686523 7
-0.073455997 0.83154303 15.678711 7
-0.073340997 0.89929199 15.674805 7
-0.070541002 0.931885 15.65625 7
-0.0058169998 1.303467 -12.733398 7
-0.0095560001 1.1031491 -12.773438 7
0.000193 1.064697 -12.711914 7
-0.010502 1.036011 -12.78418 7
-0.043377001 -0.96704102 -12.443359 7
-0.048098002 -1.001953 -12.469727 7
-0.04166 -1.031738 -12.427734 7
-0.047318999 -1.067261 -12.458984 7
-0.048326001 -1.100342 -12.461914 7
-0.056756999 -1.137573 -12.511719 7
-0.067978002 -1.17627 -12.578125 7
-0.057817001 -1.2038569 -12.511719 7
-0.059762999 -1.237915 -12.520508 7
-0.046833001 -1.263428 -12.436523 7
-0.24276701 -4.1721191 -13.081055 7
-0.246582 -4.212769 -13.09375 7
-0.24295001 -4.2406011 -13.060547 7
-0.24398801 -4.2764888 -13.056641 7
-0.23941 -4.3024902 -13.018555 7
-0.23857901 -4.3348389 -13.00293 7
-0.23772401 -4.3674321 -12.987305 7
-0.246223 -4.4165039 -13.026367 7
-0.111784 -2.2307129 15.063477 7
-0.119436 -2.2055659 15.115234 7
-0.113638 -2.1677251 15.085938 7
-0.107834 -2.1298831 15.056641 7
-0.110678 -2.10022 15.079102 7
-0.102959 -2.060791 15.038086 7
-0.065567002 0.79077101 14.976562 7
-0.060722001 0.82116699 14.946289 7
-0.063560002 0.85437 14.961914 7
-0.060616001 0.88525403 14.943359 7
-0.064400002 0.91870099 14.963867 7
-0.062424 0.950073 14.949219 7
-0.031183001 1.159058 -12.222656 7
-0.017391 0.95800799 -12.151367 7
-0.0071700001 0.92138702 -12.089844 7
-0.0081390003 0.88964802 -12.097656 7
-0.002569 0.85522503 -12.06543 7
-0.00073799997 0.82251 -12.054688 7
0.0076219998 0.78735399 -12.004883 7
0.0020079999 0.75744599 -12.041992 7
-0.044605002 -0.98156703 -11.759766 7
-0.047596 -1.014038 -11.774414 7
-0.037907001 -1.040527 -11.714844 7
-0.040920001 -1.072998 -11.728516 7
-0.039028 -1.103271 -11.714844 7
-0.055695999 -1.142578 -11.810547 7
-0.060648002 -1.176514 -11.835938 7
-0.050960999 -1.202515 -11.775391 7
-0.051036999 -1.233765 -11.772461 7
-0.051098 -1.2648931 -11.770508 7
-0.24683399 -4.1976318 -12.3125 7
-0.248878 -4.2336431 -12.313477 7
-0.245056 -4.2591548 -12.28125 7
-0.24221 -4.2862549 -12.25293 7
-0.242294 -4.3187261 -12.244141 7
-0.242386 -4.3509521 -12.233398 7
-0.242783 -4.384521 -12.227539 7
-0.249725 -4.4294429 -12.255859 7
-0.25569201 -4.47229 -12.27832 7
-0.094123997 -2.228394 14.283203 7
-0.096106999 -2.1998291 14.299805 7
-0.097075999 -2.1702881 14.310547 7
-0.096038997 -2.1387939 14.310547 7
-0.089957997 -2.1026609 14.28125 7
-0.089919999 -2.072144 14.286133 7
-0.086868003 -2.0388179 14.274414 7
-0.081786998 -2.003906 14.25 7
-0.084770001 -1.9761961 14.272461 7
-0.050958999 0.77807599 14.235352 7
-0.052917 0.80932599 14.246094 7
-0.050859001 0.83886701 14.231445 7
-0.052811 0.87011701 14.242188 7
-0.052756999 0.90051299 14.239258 7
-0.054717999 0.93176299 14.249023 7
0.0048369998 0.62780797 -11.360352 7
-0.0059659998 0.60022002 -11.424805 7
-0.003059 0.56897002 -11.40918 7
0.0076979999 0.53564501 -11.347656 7
0.013533 0.50402802 -11.313477 7
0.014479 0.47351101 -11.30957 7
0.014456 0.443115 -11.310547 7
0.011488 0.41332999 -11.329102 7
0.0085199997 0.38354501 -11.34668 7
0.001633 0.35437 -11.387695 7
0.00161 0.32385299 -11.388672 7
-0.048023 -0.96887201 -11.1875 7
-0.053196002 -1.0007319 -11.213867 7
-0.043118998 -1.0556639 -11.151367 7
-0.045237999 -1.086426 -11.160156 7
-0.043272 -1.11499 -11.145508 7
-0.060688 -1.153687 -11.240234 7
-0.055721 -1.210693 -11.206055 7
-0.056805 -1.2412111 -11.208984 7
-0.246277 -4.1947021 -11.639648 7
-0.250458 -4.2327881 -11.651367 7
-0.24953499 -4.2618408 -11.635742 7
-0.246613 -4.3179932 -11.599609 7
-0.24363901 -4.3432622 -11.573242 7
-0.242792 -4.4029541 -11.545898 7
-0.244936 -4.4372559 -11.546875 7
-0.080582 -1.915771 13.686523 7
-0.055098999 0.74572802 13.701172 7
-0.055046 0.77490199 13.699219 7
-0.057114001 0.80480999 13.708984 7
-0.058113001 0.834351 13.712891 7
-0.056968998 0.89221197 13.704102 7
-0.057968002 0.92163098 13.707031 7
-0.060005002 0.95165998 13.716797 7
-0.14822599 5.118896 -10.650391 7
-0.143131 5.078979 -10.635742 7
-0.130871 5.0236821 -10.583984 7
-0.118612 4.96875 -10.532227 7
-0.118628 4.9403081 -10.543945 7
-0.120672 4.9160161 -10.566406 7
-0.12171 4.8612061 -10.594727 7
-0.125807 4.841064 -10.62793 7
-0.13296901 4.827271 -10.675781 7
-0.145235 4.823853 -10.751953 7
0.01116 0.30822799 -10.759766 7
-0.0032039999 0.28100601 -10.841797 7
0.001852 0.222168 -10.813477 7
0.0069479998 0.192505 -10.785156 7
0.01663 0.161255 -10.873047 7
0.004805 -0.010254 -10.204102 7
0.003706 -0.038086001 -10.209961 7
-0.001703 -0.065796003 -10.238281 7
-0.00064300001 -0.093627997 -10.233398 7
0.0057509998 -0.12085 -10.196289 7
0.0078769997 -0.148315 -10.185547 7
0.0067730001 -0.176025 -10.189453 7
0.0056670001 -0.203857 -10.195312 7
0.0035000001 -0.231812 -10.207031 7
-0.049168002 -0.97839397 -10.577148 7
-0.048154999 -1.006348 -10.569336 7
-0.051426001 -1.036255 -10.583984 7
-0.042920999 -1.0606689 -10.536133 7
-0.041914001 -1.088257 -10.52832 7
-0.041997999 -1.116455 -10.524414 7
-0.055987999 -1.151855 -10.59668 7
-0.059254002 -1.181885 -10.611328 7
-0.059338 -1.210327 -10.608398 7
-0.052958999 -1.235229 -10.571289 7
-0.053027999 -1.26355 -10.568359 7
-0.242388 -4.333374 -10.863281 7
-0.243525 -4.3643799 -10.859375 7
-0.242548 -4.391479 -10.842773 7
-0.24692699 -4.4281011 -10.854492 7
-0.250231 -4.4631348 -10.860352 7
-0.091513 -2.1943359 13.097656 7
-0.078262001 -2.154053 13.03418 7
-0.091429003 -2.1113279 13.113281 7
-0.075928003 -2.0418701 13.043945 7
-0.075897001 -2.0144041 13.047852 7
-0.074767999 -1.985718 13.047852 7
-0.074738003 -1.958252 13.052734 7
-0.083518997 -1.9382319 13.102539 7
-0.079079002 -1.906738 13.083984 7
-0.063616 -1.866333 13.008789 7
-0.060281999 -1.836182 12.996094 7
-0.060236 -1.808838 13 7
-0.059114002 -1.780273 13 7
-0.055617999 0.93261701 13.108398 7
-0.055565 0.96044898 13.106445 7
-0.056623001 0.98852497 13.109375 7
-0.118391 4.9698491 -9.8466797 7
-0.11412 4.9338379 -9.8378906 7
-0.11734 4.9138179 -9.8652344 7
-0.115196 4.8825679 -9.8662109 7
-0.117348 4.8601069 -9.8886719 7
-0.118431 4.8354492 -9.9052734 7
-0.0042360001 -0.011719 -9.8740234 7
-0.0087529998 -0.03833 -9.8974609 7
-0.0076919999 -0.065063 -9.8916016 7
-0.0043959999 -0.091797002 -9.8740234 7
0.001135 -0.118164 -9.8457031 7
0.0044209999 -0.144409 -9.828125 7
0.0043680002 -0.171021 -9.8271484 7
0.0043139998 -0.197632 -9.8271484 7
0.0020280001 -0.22448701 -9.8378906 7
-0.0069749998 -0.25207499 -9.8828115 7
-0.010378 -0.27917501 -9.8994141 7
-0.0082040001 -0.30554199 -9.8876953 7
-0.043234002 -0.987427 -10.020508 7
-0.047766 -1.016602 -10.041992 7
-0.054540999 -1.046631 -10.073242 7
-0.043416999 -1.068481 -10.012695 7
-0.044606999 -1.096069 -10.016602 7
-0.044661 -1.1231689 -10.014648 7
-0.044737 -1.1500241 -10.010742 7
-0.057101998 -1.183472 -10.071289 7
-0.059383001 -1.212036 -10.080078 7
-0.056111999 -1.237305 -10.05957 7
-0.056157999 -1.2644041 -10.057617 7
-0.019006999 -0.341919 -9.3212891 7
-0.020197 -0.367798 -9.3271484 7
-0.023727 -0.39416501 -9.34375 7
-0.019091001 -0.41870099 -9.3183594 7
-0.014437 -0.443481 -9.2949219 7
-0.012117 -0.468384 -9.2832031 7
-0.027434999 -0.52648902 -9.4814453 7
-0.027496001 -0.55224597 -9.4804688 7
-0.019388 -0.57592797 -9.4394531 7
-0.015939999 -0.600586 -9.4208984 7
-0.016000999 -0.62609899 -9.4189453 7
-0.047102001 -0.971802 -9.5419922 7
-0.049504999 -0.998779 -9.5517578 7
-0.049566001 -1.024658 -9.5498047 7
-0.055464 -1.053345 -9.5751953 7
-0.056683999 -1.0799561 -9.5791016 7
-0.047407001 -1.101318 -9.5292969 7
-0.048627999 -1.127686 -9.5332031 7
-0.049864002 -1.154175 -9.5361328 7
-0.047582999 -1.178833 -9.5214844 7
-0.063998997 -1.213501 -9.5996094 7
-0.069889002 -1.242676 -9.625 7
-0.065281004 -1.266235 -9.5996094 7
-0.064175002 -1.291626 -9.5908203 7
-0.061911002 -1.3162839 -9.5761719 7
-0.060789 -1.341431 -9.5673828 7
-0.067867003 -1.371704 -9.5986328 7
-0.061574999 0.908813 12.163086 7
-0.039948002 -0.97741699 -9.0439453 7
-0.044861 -1.004272 -9.0634766 7
-0.050992999 -1.03186 -9.0898438 7
-0.046195999 -1.054565 -9.0654297 7
-0.054761998 -1.083374 -9.1025391 7
-0.051167998 -1.1062011 -9.0820312 7
-0.048804998 -1.1298831 -9.0673828 7
-0.056157999 -1.158447 -9.1005859 7
-0.056226999 -1.183228 -9.0976562 7
-0.051419999 -1.205444 -9.0703115 7
-0.055112999 -1.2323 -9.0859385 7
-0.062483002 -1.26123 -9.1171885 7
-0.018510999 -0.64355499 -8.5058594 7
-0.022387 -0.668091 -8.5205078 7
-0.024972999 -0.692505 -8.5302734 7
-0.027558999 -0.71667498 -8.5400391 7
-0.014912 -0.73608398 -8.4814453 7
-0.013683 -0.75903302 -8.4746094 7
-0.016293 -0.783081 -8.484375 7
-0.016346 -0.80651897 -8.4814453 7
-0.017664 -0.83044398 -8.4853516 7
-0.026621001 -0.85729998 -8.5234385 7
-0.038100999 -0.88525403 -8.5722656 7
-0.031815998 -0.90625 -8.5419922 7
-0.022965999 -0.92602497 -8.5 7
-0.026827 -0.951294 -8.5146484 7
-0.025614001 -0.97412097 -8.5068359 7
-0.028208001 -0.998779 -8.515625 7
-0.035891 -1.025757 -8.5478516 7
-0.042289998 -1.052368 -8.5732422 7
-0.051270001 -1.080078 -8.609375 7
-0.041152999 -1.098877 -8.5615234 7
-0.037392002 -1.120361 -8.5419922 7
-0.038718998 -1.144653 -8.5449219 7
-0.040047001 -1.168945 -8.5478516 7
-0.041367002 -1.192993 -8.5498047 7
-0.051598001 -1.222046 -8.5927734 7
-0.056729998 -1.248535 -8.6132812 7
-0.058065001 -1.272949 -8.6162109 7
-0.055236999 -1.906738 11.06543 7
-0.052597001 -1.881714 11.058594 7
-0.056496002 -1.862061 11.080078 7
-0.064276002 -1.8455811 11.118164 7
-0.060332999 -1.81958 11.105469 7
-0.047295 -1.786011 11.053711 7
-0.044679999 -1.76123 11.046875 7
-0.044640001 -1.738403 11.049805 7
-0.042025 -1.713623 11.042969 7
-0.041986 -1.690796 11.046875 7
-0.051079001 -1.674683 11.091797 7
-0.044539999 -1.6468509 11.067383 7
-0.04583 -1.625122 11.077148 7
-0.039430998 -0.96276897 -8.1591797 7
-0.051392 -0.990601 -8.2080078 7
-0.05937 -1.0168459 -8.2402344 7
-0.056777999 -1.038574 -8.2265615 7
-0.050223999 -1.058105 -8.1953115 7
-0.043655001 -1.077759 -8.1650391 7
-0.043708999 -1.100342 -8.1621094 7
-0.050368998 -1.126343 -8.1875 7
-0.050423 -1.148926 -8.1845703 7
-0.051810998 -1.172363 -8.1875 7
-0.051865 -1.1949461 -8.1845703 7
-0.057204999 -1.2205811 -8.2050781 7
-0.073118001 -1.252197 -8.2705078 7
-0.073178999 -1.274902 -8.2675781 7
-0.264835 -4.3876948 -8.1796885 7
-0.26623201 -4.4128418 -8.1738281 7
-0.25835001 -4.4211431 -8.1328115 7
-0.253117 -4.43396 -8.1005859 7
-0.251858 -4.453979 -8.0849609 7
-0.29154199 -5.1158452 10.5 7
-0.28476 -5.0804439 10.488281 7
-0.286118 -5.0617681 10.504883 7
-0.28202799 -5.0318599 10.500977 7
-0.28338599 -5.013062 10.518555 7
-0.28337899 -4.9914551 10.530273 7
-0.280664 -4.964478 10.532227 7
-0.28200501 -4.9455571 10.548828 7
-0.067616999 -1.907104 10.71875 7
-0.062178001 -1.880493 10.701172 7
-0.066214003 -1.861816 10.72168 7
-0.077009 -1.848755 10.772461 7
-0.068884 -1.819824 10.743164 7
-0.058044001 -1.789062 10.703125 7
-0.051254001 -1.761719 10.678711 7
-0.051224001 -1.739868 10.682617 7
-0.051201001 -1.717896 10.686523 7
-0.049828 -1.6949461 10.685547 7
-0.059255999 -1.679932 10.728516 7
-0.057890002 -1.656738 10.727539 7
-0.056503002 -1.633911 10.725586 7
-0.056480002 -1.611816 10.729492 7
-0.243994 -4.1904302 -7.6933589 7
-0.239912 -4.2047119 -7.6679692 7
-0.234512 -4.2380371 -7.6269531 7
-0.24010301 -4.269165 -7.6386719 7
-0.245703 -4.300293 -7.648438 7
-0.24584 -4.3430181 -7.6279302 7
-0.25005901 -4.3718262 -7.632812 7
-0.248739 -4.390625 -7.617188 7
-0.241972 -4.4207759 -7.570312 7
-0.239271 -4.4368901 -7.5498052 7
-0.244886 -4.4681401 -7.5595698 7
-0.35170901 -6.6920171 9.1650391 7
-0.35032099 -6.6699219 9.1757812 7
-0.355957 -6.6663818 9.2089844 7
-0.361595 -6.6624761 9.2421885 7
-0.272966 -5.0732422 9.9443359 7
-0.27156299 -5.0500488 9.9511719 7
-0.27578199 -5.018188 9.9902344 7
-0.27435499 -4.9949951 9.9970703 7
-0.27575701 -4.9775391 10.013672 7
-0.27293599 -4.9512939 10.015625 7
-0.272921 -4.9309082 10.027344 7
-0.274324 -4.9133301 10.043945 7
-0.27573401 -4.895752 10.060547 7
-0.274317 -4.8518071 10.079102 7
-0.278519 -4.8397222 10.104492 7
-0.27288201 -4.8079829 10.09668 7
-0.054297999 -1.901855 10.267578 7
-0.048636999 -1.855225 10.253906 7
-0.064084999 -1.847046 10.320312 7
-0.062651001 -1.824707 10.319336 7
-0.055601001 -1.797974 10.295898 7
-0.045731001 -1.769287 10.259766 7
-0.038665999 -1.742676 10.236328 7
-0.034433 -1.718384 10.224609 7
-0.03438 -1.676514 10.232422 7
-0.054060001 -1.670532 10.314453 7
-0.044181999 -1.642212 10.279297 7
-0.042739999 -1.620239 10.277344 7
-0.282585 -5.115356 9.5263672 7
-0.275269 -5.0810552 9.5146484 7
-0.267977 -5.046875 9.5019531 7
-0.26943401 -5.0306401 9.5185547 7
-0.27089101 -5.0145259 9.5351562 7
-0.26944199 -4.992188 9.5429688 7
-0.26942599 -4.9728999 9.5546885 7
-0.26943401 -4.9534912 9.5673828 7
-0.26944199 -4.9342041 9.5791016 7
-0.27088201 -4.9178472 9.5957031 7
-0.27379599 -4.9042969 9.6171885 7
-0.27086601 -4.8789058 9.6191406 7
-0.26940301 -4.8565669 9.6259766 7
-0.26941901 -4.8370361 9.6376953 7
-0.266489 -4.8118901 9.6386719 7
-0.053213 -1.910156 9.9140615 7
-0.053197999 -1.890137 9.9189453 7
-0.045883 -1.86377 9.8955078 7
-0.044418 -1.8425291 9.8945312 7
-0.051672 -1.828369 9.9267578 7
-0.056044001 -1.811646 9.9482422 7
-0.053098999 -1.789062 9.9414062 7
-0.042862002 -1.7607419 9.90625 7
-0.038474999 -1.737305 9.8935547 7
-0.032623 -1.712769 9.8759766 7
-0.032593001 -1.692627 9.8798828 7
-0.034026999 -1.673828 9.8886719 7
-0.038376 -1.6569819 9.9091797 7
-0.045646999 -1.64209 9.9414062 7
-0.045639001 -1.6218261 9.9453115 7
-0.026815001 0.971313 9.9921885 7
-0.023870001 0.99047899 9.9794922 7
-0.020927001 1.009521 9.9658203 7
-0.022345001 1.030273 9.96875 7
-0.023755999 1.05127 9.9716797 7
-0.026632 1.072876 9.9804688 7
-0.028059 1.093994 9.984375 7
-0.030928001 1.115723 9.9931641 7
-0.030897001 1.135986 9.9902344 7
-0.030851001 1.15625 9.9873047 7
-0.035177 1.178833 10.001953 7
-0.038045999 1.200806 10.009766 7
-0.036566 1.220337 10.001953 7
-0.039432999 1.24231 10.008789 7
-0.033567 1.259277 9.984375 7
-0.109722 4.7922359 -6.2841802 7
-0.111149 4.7767329 -6.3007808 7
-0.112576 4.7614751 -6.3164058 7
-0.111149 4.7399902 -6.3222661 7
-0.111141 4.7215581 -6.3339839 7
-0.112568 4.705811 -6.3505859 7
-0.116863 4.696167 -6.3769531 7
-0.36300501 -6.7001948 8.1728516 7
-0.35695601 -6.668335 8.171875 7
-0.36908501 -6.68396 8.2207031 7
-0.36758199 -6.6638179 8.2324219 7
-0.361532 -6.631958 8.2324219 7
-0.363058 -6.6195068 8.2519531 7
-0.36306599 -6.603271 8.2675781 7
-0.367605 -6.5987549 8.2949219 7
-0.355515 -6.55127 8.2783203 7
-0.358551 -6.5427251 8.3017578 7
-0.278595 -5.1104741 9.0673828 7
-0.27858001 -5.0740972 9.0917969 7
-0.272522 -5.043457 9.0849609 7
-0.26494801 -5.0097661 9.0732422 7
-0.26493999 -4.9915771 9.0849609 7
-0.270996 -4.9857178 9.1152344 7
-0.26494801 -4.9550781 9.1083984 7
-0.26493999 -4.9368901 9.1201172 7
-0.26796699 -4.9246831 9.1416016 7
-0.26947799 -4.9095459 9.1582031 7
-0.26796699 -4.888062 9.1650391 7
-0.270996 -4.8756099 9.1865234 7
-0.26947001 -4.854248 9.1923828 7
-0.27704599 -4.850708 9.2285156 7
-0.27401 -4.8262939 9.2304688 7
-0.051336002 -1.911621 9.5585938 7
-0.055861 -1.89624 9.5800781 7
-0.057356 -1.8781739 9.5898438 7
-0.054311998 -1.8562011 9.5839844 7
-0.049734 -1.83313 9.5703115 7
-0.057301998 -1.8199461 9.6035156 7
-0.055746 -1.799438 9.6015615 7
-0.063299 -1.786011 9.6337891 7
-0.045120001 -1.752197 9.5712891 7
-0.037544001 -1.727051 9.5478516 7
-0.042061001 -1.711182 9.5683594 7
-0.042038001 -1.691895 9.5732422 7
-0.034439001 -1.6669919 9.5488281 7
-0.041985001 -1.653198 9.5810547 7
-0.044998001 -1.635986 9.5966797 7
-0.051038999 -1.620972 9.6230469 7
-0.039196 0.97851598 9.7001953 7
-0.031614002 0.99475098 9.6699219 7
-0.028555 1.013062 9.65625 7
-0.023985 1.030273 9.6367188 7
-0.031491999 1.053345 9.6621094 7
-0.034490999 1.0743411 9.6708984 7
-0.032942001 1.09314 9.6630859 7
-0.037425999 1.1151119 9.6777344 7
-0.040424 1.136108 9.6865234 7
-0.032843001 1.151611 9.6572266 7
-0.040355999 1.175293 9.6816406 7
-0.044842001 1.197266 9.6953115 7
-0.052356999 1.220947 9.7197266 7
-0.038722999 1.233032 9.6679688 7
-0.047756001 1.257812 9.6982422 7
-0.110342 4.7625728 -5.882812 7
-0.107367 4.7388921 -5.8847661 7
-0.108839 4.7246089 -5.9003911 7
-0.11478 4.7192378 -5.9306641 7
-0.111797 4.6956792 -5.9326172 7
-0.117741 4.690186 -5.960938 7
-0.13257 4.7027588 -6.0214839 7
-0.13698 4.6938481 -6.046875 7
-0.13399699 4.670166 -6.047852 7
-0.123615 4.6313481 -6.0263672 7
-0.120647 4.6077881 -6.0263672 7
-0.133982 4.6165771 -6.0820308 7
-0.12953401 4.5897222 -6.078125 7
-0.126568 4.56604 -6.079102 7
-0.120632 4.5366211 -6.070312 7
-0.12508 4.5273442 -6.0957031 7
-0.120617 4.5007319 -6.0917969 7
-0.249901 -4.3787842 -6.3857422 7
-0.25613201 -4.4082031 -6.3945308 7
-0.250038 -4.4155269 -6.3642578 7
-0.25317201 -4.4395752 -6.3632808 7
-0.248604 -4.4493408 -6.3378911 7
-0.25022101 -4.4705811 -6.3320308 7
-0.28364399 -5.1149902 8.6953115 7
-0.277374 -5.0848389 8.6894531 7
-0.272697 -5.0579829 8.6875 7
-0.271126 -5.0374761 8.6943359 7
-0.26798999 -5.0136719 8.6972656 7
-0.26328301 -4.986938 8.6953115 7
-0.26172599 -4.9663091 8.703125 7
-0.26015699 -4.9460449 8.7099609 7
-0.26328999 -4.9350591 8.7304688 7
-0.260149 -4.911377 8.7324219 7
-0.26172599 -4.8972168 8.75 7
-0.263275 -4.882812 8.765625 7
-0.267975 -4.8747559 8.7919922 7
-0.26954699 -4.860229 8.8076172 7
-0.27424601 -4.8522949 8.8330078 7
-0.26641101 -4.8193359 8.8212891 7
-0.27269 -4.8139648 8.8525391 7
-0.059873998 -1.9074709 9.2910156 7
-0.058293998 -1.8874511 9.2900391 7
-0.061399002 -1.87146 9.3056641 7
-0.062954001 -1.853882 9.3154297 7
-0.062922999 -1.835205 9.3193359 7
-0.05979 -1.814087 9.3134766 7
-0.062885001 -1.797729 9.328125 7
-0.058180001 -1.775269 9.3164062 7
-0.055029001 -1.75415 9.3095703 7
-0.045621999 -1.7281491 9.2802734 7
-0.050299 -1.713135 9.3007812 7
-0.045584001 -1.69104 9.2880859 7
-0.044004001 -1.6711431 9.2871094 7
-0.047102001 -1.654785 9.3017578 7
-0.054907002 -1.641724 9.3339844 7
-0.056456 -1.624146 9.3427734 7
-0.051732998 -1.602051 9.3300781 7
-0.033521999 0.96044898 9.3886719 7
-0.033491001 0.97949201 9.3867188 7
-0.022535 0.99340802 9.3447266 7
-0.028737999 1.0148931 9.3642578 7
-0.028708 1.033813 9.3623047 7
-0.028677 1.0526119 9.359375 7
-0.028646 1.071411 9.3574219 7
-0.023916001 1.087891 9.3378906 7
-0.02857 1.108887 9.3515615 7
-0.025412001 1.126099 9.3378906 7
-0.031622 1.148193 9.3574219 7
-0.042507 1.172729 9.3945312 7
-0.036228001 1.188354 9.3691406 7
-0.043995 1.2113039 9.3935547 7
-0.043963999 1.230225 9.390625 7
-0.039241999 1.24646 9.3720703 7
-0.040775001 1.266113 9.375 7
-0.273628 -5.0925288 8.2421885 7
-0.27523801 -5.0795898 8.2578115 7
-0.276876 -5.0666499 8.2744141 7
-0.26226801 -5.0205078 8.2460938 7
-0.26387799 -5.0074458 8.2617188 7
-0.25412899 -4.9715581 8.2470703 7
-0.25738499 -4.9619141 8.2675781 7
-0.25576201 -4.9260249 8.2871094 7
-0.26225999 -4.922729 8.3164062 7
-0.25738499 -4.896606 8.3144531 7
-0.25576201 -4.8770752 8.3212891 7
-0.252527 -4.854126 8.3242188 7
-0.25740799 -4.8474121 8.3505859 7
-0.26226801 -4.8404541 8.375 7
-0.066021003 -1.909912 8.9873047 7
-0.062739998 -1.8712161 8.9853516 7
-0.057859 -1.849121 8.9736328 7
-0.057836998 -1.831421 8.9775391 7
-0.057821002 -1.813599 8.9814453 7
-0.062664002 -1.799561 9.0019531 7
-0.074009001 -1.7906491 9.0439453 7
-0.065876 -1.766113 9.0224609 7
-0.047986999 -1.716309 8.9697266 7
-0.044714 -1.695923 8.9628906 7
-0.049566001 -1.6817631 8.9833984 7
-0.044698998 -1.6600339 8.9716797 7
-0.041425999 -1.6398931 8.9648438 7
-0.051146001 -1.62915 9.0019531 7
-0.05274 -1.612305 9.0107422 7
-0.022642 0.97289997 9.0341797 7
-0.029089 0.993774 9.0546885 7
-0.024199 1.009644 9.0351562 7
-0.025784999 1.028442 9.0380859 7
-0.020880001 1.044312 9.0185547 7
-0.015997 1.059937 9 7
-0.020819001 1.0802 9.0136719 7
-0.024023 1.099731 9.0224609 7
-0.020757999 1.116089 9.0097656 7
-0.023947001 1.1357419 9.0175781 7
-0.020680999 1.152222 9.0039062 7
-0.025473 1.190552 9.0146484 7
-0.028682999 1.210449 9.0234385 7
-0.031879 1.230225 9.03125 7
-0.031840999 1.2481689 9.0283203 7
-0.036671001 1.269043 9.0419922 7
-0.26721001 -4.7020259 -5.4394531 7
-0.27059701 -4.7244868 -5.4375 7
-0.27567899 -4.766479 -5.429688 7
-0.279066 -4.789062 -5.4267578 7
-0.269171 -4.7858891 -5.3886719 7
-0.34759501 -6.224731 -4.4589839 7
-0.35097501 -6.2469478 -4.452148 7
-0.34937999 -6.2565918 -4.4326172 7
-0.34610701 -6.262085 -4.4111328 7
-0.34950301 -6.2840581 -4.4033198 7
-0.35123399 -6.302002 -4.3925781 7
-0.35296601 -6.3197021 -4.3808589 7
-0.35468301 -6.337646 -4.3701172 7
-0.36805499 -6.384644 -4.3847661 7
-0.27025399 -4.8455811 8.0068359 7
-0.26857001 -4.8266602 8.0136719 7
-0.068714 -1.908325 8.6894531 7
-0.063662998 -1.886963 8.6777344 7
-0.072048001 -1.876709 8.7089844 7
-0.058582 -1.848389 8.6699219 7
-0.061923999 -1.833984 8.6855469 7
-0.063587002 -1.817993 8.6953115 7
-0.061886001 -1.799438 8.6943359 7
-0.070277996 -1.788818 8.7246094 7
-0.071941003 -1.772827 8.734375 7
-0.071934 -1.755493 8.7392578 7
-0.063502997 -1.731689 8.7167969 7
-0.051709998 -1.705566 8.6816406 7
-0.050016001 -1.687012 8.6806641 7
-0.048307002 -1.668457 8.6787109 7
-0.048300002 -1.651123 8.6835938 7
-0.046583001 -1.632812 8.6816406 7
-0.053295001 -1.620361 8.7070312 7
-0.060008999 -1.60791 8.7333984 7
-0.025602 0.97204602 8.7490234 7
-0.025572 0.98950201 8.7470703 7
-0.028896 1.008301 8.7568359 7
-0.022154 1.022583 8.7314453 7
-0.023793999 1.0406491 8.734375 7
-0.027110999 1.059692 8.7431641 7
-0.018689999 1.072876 8.7119141 7
-0.015295 1.088501 8.6992188 7
-0.020307999 1.1081541 8.7138672 7
-0.021948 1.126343 8.7167969 7
-0.016874 1.140991 8.6962891 7
-0.023558 1.161743 8.7158203 7
-0.040309999 1.187988 8.7695312 7
-0.036922 1.203613 8.7548828 7
-0.048632 1.227417 8.7900391 7
-0.038539998 1.2392581 8.7548828 7
-0.045214001 1.260376 8.7724609 7
-0.035114001 1.271973 8.7382812 7
-0.25115201 -4.49646 -5.141602 7
-0.244333 -4.4992681 -5.1132808 7
-0.25127399 -4.5273442 -5.1201172 7
-0.249596 -4.5395508 -5.1054692 7
-0.25137299 -4.558228 -5.0996089 7
-0.254875 -4.5800781 -5.0976558 7
-0.253212 -4.5922852 -5.0820308 7
-0.26358801 -4.6268311 -5.0976558 7
-0.27050599 -4.655396 -5.1054692 7
-0.26198599 -4.6542969 -5.0712891 7
-0.268904 -4.6828609 -5.079102 7
-0.26897201 -4.6982422 -5.0673828 7
-0.27418301 -4.723145 -5.070312 7
-0.27424401 -4.7385249 -5.0585942 7
-0.27086401 -4.7471919 -5.0380859 7
-0.27435899 -4.769165 -5.0361328 7
-0.26410699 -4.7641602 -4.9970698 7
-0.274488 -4.799438 -5.0126948 7
-0.275801 -5.1038818 7.4394531 7
-0.275839 -5.089478 7.454102 7
-0.270605 -5.064209 7.453125 7
-0.27061301 -5.0499272 7.4658198 7
-0.26538801 -5.0250239 7.4638672 7
-0.26538801 -5.0106201 7.476562 7
-0.26888099 -5.0032959 7.4960942 7
-0.261917 -4.974731 7.4912109 7
-0.25669101 -4.949585 7.4902339 7
-0.256699 -4.9351811 7.5019531 7
-0.25669101 -4.9207759 7.5126948 7
-0.256706 -4.90625 7.5253911 7
-0.25671399 -4.8918462 7.5371089 7
-0.25324199 -4.8704829 7.5400391 7
-0.258461 -4.866333 7.5644531 7
-0.263695 -4.862061 7.5898442 7
-0.268911 -4.857666 7.6132808 7
-0.260216 -4.8258061 7.6035161 7
-0.260216 -4.8112788 7.6142578 7
-0.07271 -1.907593 8.4150391 7
-0.069218002 -1.887939 8.4091797 7
-0.062236998 -1.865723 8.3925781 7
-0.060474001 -1.8479 8.3916016 7
-0.060458999 -1.8312989 8.3955078 7
-0.058711998 -1.813354 8.3945312 7
-0.065646999 -1.802246 8.4208984 7
-0.065632001 -1.785767 8.4248047 7
-0.074326999 -1.776001 8.4550781 7
-0.065617003 -1.752441 8.4335938 7
-0.063839003 -1.734497 8.4316406 7
-0.055133998 -1.711182 8.4091797 7
-0.049894001 -1.6906739 8.3974609 7
-0.048140001 -1.672852 8.3955078 7
-0.046376999 -1.6550291 8.3945312 7
-0.048094001 -1.639771 8.4042969 7
-0.051571 -1.62561 8.4189453 7
-0.046324 -1.605347 8.40625 7
-0.021330001 0.96765101 8.4609385 7
-0.024776001 0.98608398 8.4697266 7
-0.026485 1.00354 8.4726562 7
-0.019491 1.016968 8.4482422 7
-0.019484 1.033691 8.4462891 7
-0.017697999 1.049438 8.4375 7
-0.012457 1.063477 8.4179688 7
-0.021109 1.0843509 8.4433594 7
-0.024555 1.102783 8.453125 7
-0.019316001 1.116699 8.4335938 7
-0.021025 1.134277 8.4375 7
-0.022724001 1.151855 8.4394531 7
-0.017477 1.1656491 8.4199219 7
-0.027889 1.187866 8.4511719 7
-0.029583 1.205444 8.4541016 7
-0.036509998 1.226074 8.4736328 7
-0.029514 1.23877 8.4482422 7
-0.034701999 1.258545 8.4619141 7
-0.038143001 1.276978 8.46875 7
-0.26749399 -4.4805908 -4.860352 7
-0.26400799 -4.48877 -4.8408198 7
-0.258728 -4.493896 -4.8173828 7
-0.26055101 -4.5118408 -4.811523 7
-0.35992399 -6.2648931 -3.5126951 7
-0.354637 -6.2631841 -3.4873049 7
-0.354698 -6.2747798 -3.472656 7
-0.354752 -6.2862549 -3.4580081 7
-0.361954 -6.3155522 -3.4560549 7
-0.360237 -6.3225098 -3.4375 7
-0.36206099 -6.338501 -3.425781 7
-0.36390701 -6.354248 -3.414062 7
-0.360405 -6.356689 -3.3925779 7
-0.35867301 -6.3635249 -3.375 7
-0.029453 0.96887201 8.2304688 7
-0.029415 0.98486298 8.2275391 7
-0.032986 1.002808 8.2363281 7
-0.036525998 1.02063 8.2431641 7
-0.032908998 1.035156 8.2314453 7
-0.025699999 1.0476069 8.2070312 7
-0.025660999 1.063843 8.2041016 7
-0.027431 1.080688 8.2070312 7
-0.027409 1.09668 8.2050781 7
-0.02737 1.112915 8.2021484 7
-0.027332 1.128906 8.1992188 7
-0.027309 1.144897 8.1962891 7
-0.027271001 1.160889 8.1933594 7
-0.030849 1.178955 8.203125 7
-0.032604001 1.196045 8.2050781 7
-0.020008 1.205322 8.1640615 7
-0.036137 1.230103 8.2089844 7
-0.036097001 1.2462161 8.2060547 7
-0.034274999 1.26123 8.1972656 7
-0.037820999 1.279297 8.2060547 7
-0.051729001 -1.7026401 10.553801 7
-0.25757301 -4.9672308 10.260841 7
-0.037420999 -1.766991 9.8073187 7
-0.028106 1.01984 9.9040623 7
-0.00777 1.129647 9.2422771 7
-0.29977399 -4.867177 9.1890812 7
-0.096248001 -1.845714 9.2750397 7
-0.27596501 -4.9928298 8.1468077 7
-0.084236003 -1.8906291 8.7659578 7
-0.067319997 -1.653461 8.7323809 7
-0.045003001 1.024068 8.7575169 7
-0.055983 1.239055 8.7838554 7
-0.25677499 -4.884779 7.4175372 7
-0.02758 1.113757 8.306572 7
-0.251035 -4.967113 6.5584421 7
-0.248261 -4.8326712 6.7501392 7
-0.052639 -1.755729 7.9515419 7
-0.016082 1.028322 7.9810328 7
-0.018595999 1.19675 7.9515591 7
-0.073444001 -1.75466 7.5514808 7
-0.24382401 -4.579844 5.05867 7
-0.048351001 -1.741605 7.1919332 7
0.095004998 -1.0795929 -10.922438 7
-0.067856997 -4.3236642 -11.992587 7
-0.056329001 -1.0670201 -9.1620111 7
-0.21174701 -4.3877311 -9.6770611 7
-0.148454 -2.151844 14.775366 7
-0.0025889999 -1.057925 -7.197536 7
-0.185782 -4.4011579 -7.8170619 7
-0.088151 -1.9847569 13.088728 7
0.0241 -1.430053 -5.795918 7
0.038819 -1.3854899 -4.844173 7
-0.095044002 -1.765347 10.892497 7
-0.025297999 -1.346964 -4.0578709 7
-0.249203 -4.4591331 -4.425982 7
-0.315218 -5.0473118 10.338403 7
-0.058674999 -1.687891 10.108812 7
0.002872 -1.313781 -3.3409989 7
-0.24352001 -4.48209 -3.6875999 7
-0.276283 -4.9290361 9.5045815 7
-0.053458001 -1.9009579 9.5529709 7
-0.040426999 -1.631464 9.5396709 7
0.013806 -1.289819 -2.827811 7
-0.233693 -4.4813542 -3.0183029 7
-0.25189701 -4.7755251 -2.9250879 7
-0.25769499 -4.867106 8.867094 7
-0.040277001 -1.83461 9.0849133 7
0.013545 -1.506758 -2.3967841 7
-0.207789 -4.6372452 -2.1749301 7
-0.297703 -4.9648609 8.0850201 7
-0.089717001 -1.7769361 8.6871595 7
-0.027442999 -1.4681309 -1.974484 7
-0.26013499 -4.5852332 -1.644691 7
-0.29269299 -5.0999212 7.4711518 7
-0.26495799 -4.8432221 7.5536041 7
-0.24161801 -4.527132 -1.165791 7
-0.25495401 -4.7337499 -1.043499 7
-0.25661501 -4.9450068 6.9833179 7
-0.057507001 -1.873441 7.939517 7
-0.03241 -1.662703 7.8761129 7
-0.234887 -4.6484218 -0.60736799 7
-0.26050001 -5.0476122 6.482223 7
-0.23655599 -4.8397088 6.5888638 7
-0.030533999 -1.810589 7.597404 7
-0.011198 -1.618162 7.5600462 7
0.0077780001 -1.3871239 -1.058086 7
-0.0025919999 -1.5701849 -1.065836 7
-0.218629 -4.5711689 -0.22293 7
-0.23198999 -4.7415571 -0.096064001 7
-0.28697899 -4.9023972 6.1062508 7
-0.053210001 -1.755357 7.3020358 7
-0.024812 -1.363762 -0.80465102 7
-0.032719001 -1.5347821 -0.80222499 7
-0.265939 -4.5226121 0.098068997 7
-0.26481199 -4.6368842 0.260037 7
-0.061074 -1.889255 7.112175 7
-0.045949001 -1.718397 7.1018372 7
-0.011676 -1.343944 -0.57931399 7
-0.020967999 -1.506229 -0.58335298 7
-0.25747201 -4.575139 0.55276299 7
-0.247848 -4.6462331 0.73138702 7
-0.267919 -4.7991552 0.85389501 7
-0.0060660001 -1.328033 -0.39964801 7
-0.007803 -1.4792939 -0.37652299 7
-0.24442101 -4.5832691 0.98972499 7
-0.237102 -4.6438198 1.159331 7
-0.237836 -4.721489 1.316991 7
-0.248808 -4.7955012 4.904983 7
-0.241322 -4.7019172 5.052453 7
0.0063490001 -1.311329 -0.209373 7
0.001684 -1.456046 -0.198329 7
-0.263331 -4.5240898 1.4183871 7
-0.27246699 -4.6162338 1.558668 7
-0.26735699 -4.6614928 1.720808 7
-0.27098 -4.7258768 1.874018 7
-0.27220801 -4.5924969 4.8159552 7
-0.26427901 -4.502933 4.9550819 7
-0.016672 -1.294471 -0.026365001 7
-0.019561 -1.430836 -0.010581 7
-0.041235998 -1.576538 -0.049722999 7
-0.25022599 -4.484787 1.79422 7
-0.25502601 -4.6346159 2.2435181 7
-0.25132099 -4.6642971 2.4390171 7
-0.25066799 -4.6878948 2.5943949 7
-0.25174299 -4.710526 2.749589 7
-0.254545 -4.7322459 2.905035 7
-0.25718999 -4.7473931 3.061451 7
-0.25972301 -4.756073 3.2185559 7
-0.258448 -4.747139 3.375695 7
-0.26256701 -4.7482772 3.5333371 7
-0.255485 -4.7097702 3.68736 7
-0.25564 -4.6869102 3.8422439 7
-0.26121101 -4.6739678 3.9993889 7
-0.25738901 -4.6273742 4.1497478 7
-0.241045 -4.5107422 2.47258 7
-0.23837399 -4.5276828 2.6224489 7
-0.24126799 -4.554759 2.7701631 7
-0.240246 -4.5646591 2.920079 7
-0.241028 -4.5739069 3.06972 7
-0.24544901 -4.5878711 3.2195001 7
-0.242146 -4.5734882 3.3693891 7
-0.248253 -4.580555 3.5201769 7
-0.24471 -4.553803 3.668504 7
-0.24294899 -4.5264621 3.8159831 7
-0.242935 -4.4983902 3.963037 7
-0.006052 1.1638581 9.8110905 7
0.019099999 1.149134 9.2167253 7
-0.024862999 1.135479 8.7519379 7
-0.010302 1.125899 8.3675728 7
0.0063419999 1.117166 8.0128107 7
0.016762 1.109897 7.7219691 7
-0.152366 4.9653602 -18.577898 7
0.059406001 1.284948 -12.788954 7
-0.1547 -0.99174201 -12.255765 7
-0.29404601 4.9166598 -14.155068 7
-0.047628999 -0.68972498 -8.8733311 7
-0.076814003 -1.072129 -9.2887039 7
-0.27754399 -4.2850132 -11.801653 7
-0.196063 4.8217978 -10.251299 7
-0.051112998 -0.88078099 -7.8354902 7
-0.051024001 -1.16199 -7.8034821 7
-0.251416 -4.32268 -9.7372618 7
-0.214745 -4.462081 -9.1600027 7
-0.027941 -0.97540599 -6.7346501 7
-0.033475 -1.224533 -6.7620969 7
-0.15573999 4.7736402 -5.8682361 7
-0.177108 4.7017679 -6.2037148 7
-0.234708 -4.504333 -5.416769 7
-0.029654 -1.286774 -4.7795739 7
-0.040272001 -1.472115 -4.8076882 7
-0.020331001 -1.305514 -4.393568 7
-0.027047999 -1.4637721 -4.3878088 7
-0.224567 -4.4979372 -3.8986509 7
-0.214682 -4.567472 -3.6846991 7
-0.040268 -1.302266 -4.0297809 7
-0.048161998 -1.447379 -4.0232582 7
-0.26186299 -4.5209069 -2.958878 7
-0.25630301 -4.5808239 -2.7637229 7
-0.25670201 -4.671175 -2.5785811 7
-0.027741 -1.3020771 -3.7347021 7
-0.037182 -1.439661 -3.732219 7
-0.047463 -1.582296 -3.72756 7
-0.220594 -4.4836612 -1.16553 7
-0.218658 -4.4913268 -0.97737902 7
-0.221754 -4.5290399 -0.59389102 7
-0.017077001 -1.299547 -3.4808321 7
-0.027156999 -1.428709 -3.477278 7
-0.036047 -1.556509 -3.462014 7
-0.0084319999 -1.296525 -3.261899 7
-0.027902 -1.444363 -3.2952509 7
-0.022059999 -1.518638 -3.2133069 7
-0.034272 -1.482028 -2.8445449 7
-0.016683999 -1.292798 -2.7596469 7
-0.027238 -1.392192 -2.7416821 7
-0.032365002 -1.476478 -2.701576 7
-0.041388001 -1.572196 -2.6690919 7
-0.020126 -1.374782 -2.5946269 7
-0.025557 -1.453737 -2.5545809 7
-0.03365 -1.540199 -2.517931 7
-0.014943 -1.300801 -2.516753 7
-0.012077 -1.35197 -2.4562039 7
-0.026412999 -1.451364 -2.4389069 7
-0.037652001 -1.4773051 -2.3547299 7
-0.052444998 -1.575457 -2.328181 7
-0.017096 -1.308368 -2.3116579 7
-0.038911 -1.420691 -2.3083601 7
-0.034276001 -1.457973 -2.240304 7
-0.045054998 -1.538711 -2.2029531 7
-0.012924 -1.294274 -2.205369 7
-0.022707 -1.367969 -2.1729369 7
-0.038835999 -1.459842 -2.1488571 7
-0.026058 -1.465905 -2.065336 7
-0.030894 -1.521654 -2.0136199 7
-0.01075 -1.3256119 -2.0571251 7
-0.025849 -1.4091361 -2.0297229 7
-0.030927001 -1.46331 -1.980335 7
-0.018881001 -1.298383 -2.0382509 7
-0.0053940001 -1.300177 -1.9617521 7
-0.035064001 -1.5582891 -1.235414 7
-0.029945999 -1.548519 -1.169984 7
-0.030224999 -1.552909 -1.104984 7
-0.026954001 -1.5434231 -1.0404871 7
-0.030753 -1.553416 -0.97413301 7
-0.020509001 -1.516637 -0.91374499 7
-0.022322999 -1.5126899 -0.83252198 7
-0.021899 -1.46419 -1.230237 7
-0.024088999 -1.476579 -1.168964 7
-0.022608999 -1.475314 -1.107161 7
-0.021182001 -1.471613 -1.045493 7
-0.027046001 -1.487402 -0.981493 7
-0.022015 -1.467571 -0.92122602 7
-0.020354001 -1.453148 -0.84489101 7
-0.025049999 -1.3765039 -1.2251199 7
-0.025590001 -1.38323 -1.167469 7
-0.020288 -1.371021 -1.109936 7
-0.024739999 -1.383991 -1.0513999 7
-0.021423001 -1.3725359 -0.99428302 7
-0.022043001 -1.369783 -0.93619198 7
-0.02073 -1.359146 -0.87916702 7
-0.022732001 -1.318574 -1.277408 7
-0.019319 -1.316488 -1.221768 7
-0.019929999 -1.323038 -1.16663 7
-0.010525 -1.299855 -1.111984 7
-0.023217 -1.33488 -1.054778 7
-0.021895001 -1.329165 -0.99906301 7
-0.018572999 -1.315654 -0.94454199 7
-0.019297 -1.31084 -0.88867301 7
-0.025715999 -1.316293 -0.81509697 7
