# .PCD v0.7 - Point Cloud Data file format
VERSION 0.7
FIELDS x y z intensity
SIZE 4 4 4 4
TYPE F F F F
COUNT 1 1 1 1
WIDTH 1178
HEIGHT 1
VIEWPOINT 0 0 0 1 0 0 0
POINTS 1178
DATA ascii
0.219551 -1.506714 -73.286133 7
0.224121 5.1994629 -72.683594 7
0.16248301 -1.542847 -67.050781 7
0.18901099 -1.682495 -66.140625 7
0.173164 -1.856934 -66.662109 7
0.154053 5.1247559 -66.960938 7
0.125992 5.0305181 -67.913086 7
0.13677201 -1.686035 -60.413086 7
0.165222 -1.806885 -59.541992 7
0.227623 -1.890747 -57.649414 7
0.249557 4.771606 -56.685547 7
0.190033 4.7758789 -58.482422 7
0.13105799 4.7705078 -60.260742 7
0.059494 -1.968384 -55.84668 7
0.135498 -2.028687 -53.790039 7
0.168083 -2.1248779 -52.902344 7
0.124626 -2.3017581 -54.060547 7
-0.88204199 -2.858887 74.44043 7
0.219414 4.9549561 -51.240234 7
0.18084 4.9241939 -52.28418 7
0.25369301 4.6221919 -50.336914 7
0.19468699 4.6364751 -51.927734 7
0.166962 4.5722661 -52.678711 7
0.056572001 -2.0323491 -50.548828 7
0.096848004 -2.114502 -49.555664 7
0.12515301 -2.2047119 -48.855469 7
0.078933999 -2.3756101 -49.97168 7
0.200928 4.8774409 -46.730469 7
0.14979599 4.8857422 -47.982422 7
0.120674 4.8363042 -48.698242 7
0.189316 4.5601811 -47.038086 7
0.15037499 4.5316162 -47.992188 7
0.09082 4.5432129 -49.448242 7
0.040282998 -2.182739 -45.787109 7
0.084587 -2.2589109 -45.120117 7
0.119331 -2.329102 -44.280273 7
0.056244001 -2.5114751 -45.664062 7
0.097557001 -2.572021 -44.741211 7
0.137253 -2.6300049 -43.852539 7
-0.71638501 -0.34423801 59.491211 7
-0.708893 -0.205933 59.34668 7
-0.68240398 -0.067993 58.821289 7
0.19968399 4.7385249 -42.250977 7
0.14569899 4.760498 -43.448242 7
0.118675 4.7154541 -44.053711 7
0.191429 4.4449458 -42.458008 7
0.147469 4.4364009 -43.433594 7
0.120422 4.387207 -44.038086 7
0.074623004 4.374023 -45.056641 7
-0.0066760001 -2.2792971 -43.311523 7
0.035521999 -2.3392329 -42.443359 7
0.065413997 -2.408813 -41.824219 7
0.08873 -2.483398 -41.339844 7
0.029243 -2.6578369 -42.541992 7
0.057999 -2.7249761 -41.945312 7
0.080727004 -2.797241 -41.47168 7
0.112068 -2.8553469 -40.822266 7
-0.61005402 -0.056396 53.413086 7
-0.645706 0.067626998 54.080078 7
0.132401 4.717041 -40.202148 7
0.112274 4.663208 -40.619141 7
0.083832003 4.625854 -41.206055 7
0.049674999 4.598022 -41.908203 7
0.111099 4.3656011 -40.668945 7
0.090378001 4.3079829 -41.098633 7
0.047058001 4.2939448 -41.987305 7
0.178627 1.022827 -39.679688 7
0.190201 0.91992199 -39.443359 7
0.183746 0.82580602 -39.573242 7
0.185303 0.728149 -39.540039 7
0.0076290001 -2.7359619 -39.0625 7
0.01561 -2.821167 -38.905273 7
0.058632001 -2.9520259 -38.086914 7
0.053748999 -3.0522461 -38.166992 7
-0.61048102 -2.884521 49.084961 7
-0.52543598 -0.050292999 47.774414 7
0.090065002 4.8530269 -37.285156 7
0.074936002 4.7952881 -37.575195 7
0.058212001 4.739624 -37.893555 7
0.033980999 4.6990972 -38.352539 7
0.010994 4.653564 -38.788086 7
0.192329 1.277954 -35.588867 7
0.164894 1.206543 -36.099609 7
0.184898 1.106323 -35.728516 7
0.159973 1.030884 -36.192383 7
0.15366399 0.76501501 -36.310547 7
0.165062 0.58264202 -36.09668 7
0.181908 0.48925799 -35.78125 7
0.198456 0.39758301 -35.472656 7
0.015671 -3.042969 -35.75293 7
0.027077001 -3.1142581 -35.547852 7
0.035774 -3.188477 -35.388672 7
-0.52262902 -2.8994141 44.275391 7
-0.54751599 -2.8236079 44.678711 7
-0.55770099 -2.731323 44.848633 7
-0.49037901 0.055176001 43.917969 7
0.067955002 4.8691411 -34.633789 7
0.046463002 4.8319092 -35.008789 7
0.028038001 4.7861328 -35.333008 7
0.002472 4.754395 -35.779297 7
-0.022414999 4.7189941 -36.213867 7
0.034568999 4.5098882 -35.250977 7
0.136879 1.2961431 -33.683594 7
0.159897 1.198975 -33.288086 7
0.136314 1.129517 -33.694336 7
0.134514 1.046997 -33.725586 7
0.16928899 0.20666499 -33.330078 7
0.151115 -0.034545999 -30.535156 7
0.163628 -0.109619 -30.334961 7
-0.034706 -3.1837161 -33.417969 7
-0.018173 -3.2415769 -33.148438 7
-0.0045699999 -3.3027339 -32.925781 7
0.002693 -3.372437 -32.801758 7
-0.44023901 -2.77478 39.741211 7
-0.47005501 -2.7146001 40.185547 7
-0.471939 -2.624634 40.220703 7
-0.50492102 -2.564209 40.709961 7
-0.43139601 0.231812 39.766602 7
-0.42235601 0.412231 39.636719 7
0.045768999 4.9871831 -31.914062 7
0.060493 4.874023 -31.693359 7
0.040077001 4.8413091 -32.023438 7
0.016647 4.8137212 -32.399414 7
-0.011192 4.7940669 -32.844727 7
-0.031631 4.7562261 -33.174805 7
0.149261 1.485352 -30.558594 7
0.159462 1.326782 -30.402344 7
0.104752 1.207275 -31.266602 7
0.10807 0.27478001 -31.216797 7
0.13803899 0.194336 -30.744141 7
0.160583 0.116821 -30.387695 7
0.12336 0.041992001 -30.972656 7
0.14244799 -0.034545999 -28.734375 7
0.111832 -0.107544 -29.18457 7
-0.061629999 -3.243896 -31.5 7
-0.054244999 -3.3106689 -31.380859 7
-0.040482 -3.367188 -31.170898 7
-0.028305 -3.425415 -30.982422 7
0.069977 4.972168 -29.30957 7
0.058426 4.9256592 -29.489258 7
0.040520001 4.8930659 -29.759766 7
0.021834999 4.8608398 -30.042969 7
-0.0059659998 4.8475342 -30.458984 7
-0.028625 4.8209229 -30.799805 7
0.138634 1.537964 -28.604492 7
0.111168 1.4862061 -29.009766 7
0.138855 1.39502 -28.605469 7
0.113777 1.339844 -28.976562 7
0.106255 0.110229 -29.272461 7
0.108086 -0.36499 -26.779297 7
0.121727 -0.42895499 -26.59082 7
0.114777 -0.497437 -26.683594 7
-0.089928001 -3.4030759 -29.380859 7
-0.083618 -3.466187 -29.286133 7
-0.058120999 -3.5706789 -28.921875 7
-0.048393 -3.626343 -28.780273 7
0.060463 5.0288091 -27.075195 7
0.061248999 4.9589839 -27.075195 7
0.044089999 4.9309082 -27.317383 7
0.032889999 4.8878169 -27.479492 7
0.018265 4.851562 -27.685547 7
-0.01178 4.8487549 -28.099609 7
0.112633 1.575073 -26.709961 7
0.14298999 1.486084 -26.298828 7
0.12834901 1.430542 -26.5 7
0.103836 1.380249 -26.836914 7
0.127747 1.2980959 -26.512695 7
0.087227002 -0.346558 -25.322266 7
0.107307 -0.405884 -25.064453 7
0.112244 -0.467529 -25 7
0.088753 -0.53601098 -25.295898 7
0.107445 -0.59375 -25.055664 7
-0.105156 -3.6081541 -27.474609 7
-0.089644998 -3.6513669 -27.268555 7
-0.077385001 -3.6989751 -27.103516 7
-0.065109 -3.7458501 -26.9375 7
-0.065246999 -3.812988 -26.928711 7
0.025047 5.0292969 -25.572266 7
0.032326002 4.9483638 -25.492188 7
0.021729 4.9083252 -25.635742 7
0.0088419998 4.8729248 -25.808594 7
-0.013206 4.856689 -26.09668 7
-0.028853999 4.8253169 -26.302734 7
0.120689 1.526978 -24.728516 7
0.103165 1.477295 -24.953125 7
0.084839001 1.431519 -25.376953 7
0.101372 -0.37768599 -23.245117 7
0.083015002 -0.43994099 -23.459961 7
0.094269 -0.49609399 -23.325195 7
0.106506 -0.55139202 -23.177734 7
0.094856001 -0.73010302 -23.306641 7
-0.067695998 -3.5444341 -24.938477 7
-0.081177004 -3.6281741 -25.085938 7
-0.079925999 -3.751343 -25.051758 7
-0.070160002 -3.7971189 -24.926758 7
-0.064827003 -3.85022 -24.854492 7
-0.068908997 -3.919312 -24.891602 7
0.020470001 5.0379639 -23.626953 7
0.011528 4.9989009 -23.741211 7
0.001633 4.9615479 -23.867188 7
-0.008781 4.924561 -24 7
-0.036010999 4.8632808 -24.338867 7
0.106712 1.776489 -23.004883 7
0.11647 1.652344 -22.897461 7
0.105522 1.6031491 -23.02832 7
0.084709004 1.560425 -23.276367 7
0.085152 -0.68457001 -21.77832 7
0.062332001 -0.747437 -22.027344 7
0.066467002 -0.80139202 -21.978516 7
0.075889997 -0.85290498 -21.87207 7
0.078956999 -0.90661597 -21.834961 7
-0.090813003 -3.8709719 -23.362305 7
-0.0867 -3.922363 -23.307617 7
-0.087456003 -4.0404048 -23.293945 7
-0.098709002 -4.118896 -23.405273 7
0.00177 5.080811 -22.097656 7
0.00067899999 5.0274658 -22.121094 7
-0.0099719996 4.9393311 -22.257812 7
-0.034302 4.9370122 -22.533203 7
-0.032814 4.8197021 -22.539062 7
0.098159999 1.883667 -21.463867 7
0.089111 1.837036 -21.566406 7
0.081115998 1.789307 -21.657227 7
0.099495001 1.664795 -21.462891 7
0.072479002 1.6312259 -21.762695 7
0.069939002 -0.64453101 -20.435547 7
0.066467002 -0.69738799 -20.470703 7
0.052834 -0.75402802 -20.608398 7
0.063477002 -0.80212402 -20.496094 7
0.074104004 -0.84960902 -20.382812 7
0.056511 -0.90869099 -20.561523 7
0.064713001 -1.060547 -20.467773 7
-0.096869998 -3.8496089 -21.788086 7
-0.110588 -3.9277339 -21.916016 7
-0.106728 -3.976074 -21.866211 7
-0.094375998 -4.0093989 -21.730469 7
-0.090515003 -4.0570068 -21.681641 7
-0.091216996 -4.1126709 -21.676758 7
0.003487 5.0617681 -20.488281 7
-0.001648 5.0213618 -20.551758 7
-0.010147 4.9882808 -20.648438 7
-0.018082 4.9537349 -20.739258 7
-0.02771 4.9222412 -20.848633 7
-0.046371002 4.9102778 -21.046875 7
-0.050361998 4.8656011 -21.098633 7
0.084122002 1.876343 -20.118164 7
0.070518002 1.836792 -20.261719 7
0.091339 1.7677 -20.050781 7
0.082817003 1.723511 -20.142578 7
0.075989 1.6776119 -20.216797 7
0.069153003 1.63147 -20.289062 7
-0.115616 -3.9073491 -20.526367 7
-0.130775 -3.985352 -20.660156 7
-0.127876 -4.032227 -20.62207 7
-0.12075 -4.0716548 -20.543945 7
-0.119659 -4.12146 -20.522461 7
-0.114342 -4.1634521 -20.461914 7
-0.025451999 5.1176758 -19.370117 7
-0.019485001 5.054565 -19.326172 7
-0.030913999 5.0311279 -19.445312 7
-0.036949001 4.9949951 -19.513672 7
-0.046585001 4.9665532 -19.616211 7
-0.065215997 4.957397 -19.802734 7
-0.073661998 4.925415 -19.894531 7
-0.053291 4.830688 -19.713867 7
0.047309998 1.892578 -19.166992 7
0.065871999 1.827515 -18.991211 7
0.062812999 1.781494 -19.024414 7
0.058563001 1.736328 -19.069336 7
0.060851999 1.637085 -19.053711 7
0.044043999 -0.75744599 -17.964844 7
0.042075999 -0.80432099 -17.980469 7
0.040725999 -0.85095203 -17.990234 7
0.030410999 -0.90136701 -18.081055 7
0.036026001 -0.94738799 -18.166016 7
0.037834 -0.993164 -18.132812 7
0.036490999 -1.0400389 -18.142578 7
0.027381999 -1.137329 -18.219727 7
0.030479001 -1.181885 -18.1875 7
-0.126221 -4.219727 -19.165039 7
-0.12889899 -4.2730708 -19.177734 7
-0.061110999 5.116333 -18.348633 7
-0.057953 5.0621338 -18.332031 7
-0.076485001 5.0566411 -18.507812 7
-0.079094 5.0150151 -18.541992 7
-0.076576002 4.961792 -18.53125 7
-0.072777003 4.9058838 -18.508789 7
-0.049835 4.809082 -18.317383 7
0.055640999 1.906738 -17.813477 7
0.038314998 1.8762209 -17.972656 7
0.052352998 1.817993 -17.850586 7
0.059974998 1.765869 -17.78418 7
0.058632001 1.721436 -17.799805 7
0.045143001 1.686157 -17.925781 7
0.051506002 1.635132 -17.873047 7
0.001625 -0.90905797 -17.360352 7
0.023804 -0.98767102 -17.164062 7
0.023041001 -1.03186 -17.166016 7
-0.151489 -4.167603 -18.202148 7
-0.149536 -4.2105708 -18.174805 7
-0.14421099 -4.2468262 -18.119141 7
-0.14632399 -4.296875 -18.126953 7
-0.160873 -4.4625239 -18.213867 7
0.032425001 1.907593 -16.926758 7
0.040488999 1.856934 -16.861328 7
0.049254999 1.805908 -16.790039 7
0.041763 1.768921 -16.858398 7
0.041030999 1.725952 -16.868164 7
0.047095999 1.6776119 -16.820312 7
0.049065001 1.63269 -16.805664 7
0.01564 -0.97607398 -16.166016 7
0.014839 -1.017944 -16.168945 7
0.021950001 -1.056152 -16.109375 7
0.0039289999 -1.106445 -16.25 7
0.003853 -1.148315 -16.24707 7
0.004501 -1.189941 -16.239258 7
0.010864 -1.227905 -16.183594 7
-0.0028309999 -1.2774661 -16.291016 7
-0.164795 -4.1706538 -17.137695 7
-0.158409 -4.2027588 -17.077148 7
-0.158501 -4.2467041 -17.067383 7
-0.15284 -4.2796631 -17.010742 7
-0.157967 -4.3327641 -17.041992 7
-0.171005 -4.4005132 -17.132812 7
-0.17685699 -4.4553218 -17.166992 7
-0.052643001 5.1185298 -15.945312 7
-0.038345002 5.0446782 -15.845703 7
-0.044815 5.0179439 -15.908203 7
-0.046997 4.9815669 -15.936523 7
-0.050606001 4.9482422 -15.976562 7
0.046165001 1.582397 -15.78125 7
0.034644999 1.549805 -15.87793 7
0.043212999 1.502563 -15.811523 7
0.051047999 1.456177 -15.751953 7
0.064650998 1.406372 -15.645508 7
0.050246999 1.375122 -15.763672 7
0.053070001 1.332397 -15.743164 7
0.049423002 1.2937011 -15.774414 7
0.0062179998 -1.004761 -15.262695 7
0.0099409996 -1.042358 -15.231445 7
0.010635 -1.081421 -15.223633 7
-0.0069499998 -1.169556 -15.351562 7
-0.00248 -1.206543 -15.313477 7
-0.000336 -1.2844239 -15.291016 7
-0.181206 -4.1759028 -16.188477 7
-0.178268 -4.212646 -16.15625 7
-0.170074 -4.2806401 -16.074219 7
-0.170929 -4.3232422 -16.069336 7
-0.17643 -4.415894 -16.087891 7
-0.057808001 5.0031738 -14.975586 7
-0.061623 4.9726558 -15.014648 7
-0.062438998 4.8959961 -15.042969 7
-0.086692996 4.9093022 -15.233398 7
-0.082938999 4.8615718 -15.216797 7
0.036377002 1.5799561 -14.895508 7
0.031021001 1.5448 -14.939453 7
0.028702 1.5074461 -14.960938 7
0.038474999 1.4230959 -14.892578 7
0.054375 1.374023 -14.774414 7
0.051254001 1.2987061 -14.803711 7
0.044380002 1.26416 -14.859375 7
0.054947 1.21936 -14.78125 7
0.060982 1.17749 -14.738281 7
0.063927002 1.098999 -14.720703 7
0.051750001 1.066895 -14.81543 7
0.051665999 0.98938 -14.820312 7
0.0077590002 -0.985596 -14.330078 7
0.010109 -1.021606 -14.310547 7
0.018059 -1.0550539 -14.250977 7
0.018798999 -1.091675 -14.243164 7
0.003487 -1.136719 -14.348633 7
-0.0078119999 -1.1800539 -14.427734 7
0.000145 -1.2130131 -14.367188 7
0.001686 -1.2492681 -14.352539 7
0.0032039999 -1.285645 -14.337891 7
-0.18618 -4.1890869 -15.194336 7
-0.185478 -4.2269292 -15.178711 7
-0.179932 -4.255981 -15.12793 7
-0.176781 -4.2894292 -15.09668 7
-0.173668 -4.3226318 -15.063477 7
-0.175354 -4.364502 -15.064453 7
-0.18589801 -4.4230962 -15.12793 7
-0.19242901 -4.4741211 -15.161133 7
0.045867998 1.266724 -13.942383 7
0.039421 1.233887 -13.991211 7
0.037758 1.1982419 -14.004883 7
0.041747998 1.15918 -13.979492 7
0.049713001 1.118286 -13.924805 7
0.060112 1.07666 -13.851562 7
0.064879999 1.037842 -13.819336 7
0.063216999 1.002441 -13.833008 7
0.050338998 0.97192401 -13.927734 7
0.051125001 0.93505901 -13.925781 7
0.060692001 0.89465302 -13.855469 7
0.066261001 0.85595697 -13.817383 7
0.070229001 0.81823701 -13.790039 7
0.072586 0.78112799 -13.774414 7
0.070152 0.74585003 -13.794922 7
0.061271999 0.71264601 -13.859375 7
0.06044 0.67651403 -13.867188 7
0.058777001 0.640625 -13.879883 7
0.013596 -0.96850598 -13.496094 7
0.0084760003 -1.006104 -13.52832 7
0.0058820001 -1.042603 -13.542969 7
0.012566 -1.074707 -13.495117 7
0.01165 -1.110352 -13.498047 7
0.0048369998 -1.14917 -13.541992 7
-0.0087280003 -1.191895 -13.630859 7
-0.0045699999 -1.225098 -13.599609 7
-0.0037990001 -1.260132 -13.589844 7
-0.190239 -4.2084961 -14.325195 7
-0.190331 -4.245728 -14.31543 7
-0.18955199 -4.2813721 -14.299805 7
-0.18711101 -4.3139648 -14.272461 7
-0.183815 -4.3448491 -14.239258 7
-0.183907 -4.3818359 -14.228516 7
-0.18990301 -4.42981 -14.256836 7
0.058959998 0.711914 -13.100586 7
0.059776001 0.67724597 -13.09668 7
0.061400998 0.64221197 -13.085938 7
0.062224999 0.607544 -13.083008 7
0.061287001 0.53857398 -13.09082 7
0.005074 -0.99047899 -12.799805 7
-0.0074160001 -1.029907 -12.87793 7
0.0040739998 -1.058228 -12.801758 7
0.006668 -1.090332 -12.78125 7
0.0048290002 -1.124878 -12.790039 7
0.002113 -1.1600339 -12.804688 7
-0.016571 -1.203735 -12.922852 7
-0.012199 -1.235229 -12.891602 7
-0.0087130005 -1.2668459 -12.865234 7
-0.19384 -4.1794429 -13.510742 7
-0.20458999 -4.2336431 -13.568359 7
-0.20377301 -4.2674561 -13.552734 7
-0.199432 -4.2946782 -13.513672 7
-0.19594599 -4.32373 -13.482422 7
-0.193344 -4.3538818 -13.455078 7
-0.19165801 -4.3858638 -13.433594 7
-0.19441999 -4.4259028 -13.439453 7
-0.20163 -4.4744868 -13.472656 7
-0.085251004 5.1152339 -12.447266 7
-0.085266002 5.0821528 -12.458984 7
-0.065803997 5.0057368 -12.351562 7
-0.054297999 4.9475098 -12.292969 7
-0.057854 4.922729 -12.327148 7
-0.064064004 4.9034419 -12.376953 7
-0.063193999 4.8687739 -12.382812 7
-0.064102001 4.837769 -12.399414 7
-0.074744999 4.8276372 -12.476562 7
-0.084518 4.8153081 -12.546875 7
0.064125001 0.31445301 -12.34668 7
0.067626998 0.28125 -12.325195 7
0.064041004 0.24902301 -12.348633 7
0.057776999 0.21679699 -12.388672 7
0.055962 0.184204 -12.401367 7
0.057686001 0.151123 -12.389648 7
0.062981002 0.11792 -12.355469 7
0.064713001 0.085205004 -12.344727 7
0.063789003 0.052368 -12.350586 7
0.065521002 0.019653 -12.338867 7
0.059119999 -0.013184 -11.835938 7
0.063698001 -0.044312 -11.805664 7
0.059921 -0.075805999 -11.829102 7
-0.0027620001 -1.363403 -12.134766 7
-0.18994901 -4.1755371 -12.72168 7
-0.19001 -4.2089839 -12.711914 7
-0.203217 -4.2991939 -12.768555 7
-0.20143101 -4.3292241 -12.748047 7
-0.200592 -4.3612061 -12.731445 7
-0.19319899 -4.3808589 -12.676758 7
-0.19886 -4.424561 -12.700195 7
-0.190552 -4.4421391 -12.639648 7
-0.099074997 4.8071289 -11.900391 7
0.052078001 -0.34082001 -11.212891 7
0.050078999 -0.37085 -11.222656 7
0.043175001 -0.40197799 -11.262695 7
0.037262 -0.43335 -11.295898 7
0.034279 -0.463745 -11.3125 7
0.038139001 -0.493164 -11.288086 7
0.040047001 -0.52258301 -11.276367 7
0.039992999 -0.55249 -11.274414 7
0.037009999 -0.58349597 -11.291016 7
0.035004001 -0.61413598 -11.300781 7
-0.014015 -1.241089 -11.538086 7
-0.018951001 -1.274536 -11.563477 7
-0.0092390003 -1.299438 -11.503906 7
-0.0093 -1.3299561 -11.5 7
-0.009354 -1.360474 -11.496094 7
-0.11161 0.706909 14.59082 7
-0.114548 0.73901403 14.605469 7
-0.115517 0.77063 14.610352 7
-0.115471 0.80200201 14.608398 7
-0.115425 0.83325201 14.606445 7
-0.115379 0.86450201 14.605469 7
-0.11132 0.89404303 14.580078 7
-0.115273 0.92712402 14.600586 7
-0.114212 0.95776403 14.592773 7
0.026237 -0.64624 -10.779297 7
0.014954 -0.67858899 -10.839844 7
0.011841 -0.70849597 -10.855469 7
0.018936001 -0.735107 -10.813477 7
0.020912001 -0.76342797 -10.800781 7
0.021895999 -0.79187 -10.792969 7
0.021834999 -0.82067901 -10.791016 7
0.016685 -0.85156202 -10.817383 7
0.019424001 -0.64428699 -10.223633 7
0.015099 -0.67321801 -10.246094 7
0.011833 -0.70165998 -10.260742 7
0.010712 -0.72961402 -10.265625 7
0.01709 -0.755005 -10.228516 7
0.021338999 -0.78088403 -10.204102 7
0.020218 -0.80883801 -10.208008 7
0.020172 -0.83630401 -10.206055 7
0.013695 -0.866211 -10.239258 7
0.001846 -0.898682 -10.299805 7
0.0039289999 -0.92541498 -10.286133 7
0.010323 -0.95019501 -10.249023 7
0.011322 -0.97729498 -10.240234 7
0.008072 -1.006348 -10.254883 7
0.004776 -1.035522 -10.269531 7
-0.003853 -1.067261 -10.3125 7
-0.012482 -1.099243 -10.356445 7
-0.0060729999 -1.123901 -10.319336 7
-0.00076299999 -1.14856 -10.288086 7
-0.0051119998 -1.178589 -10.307617 7
-0.0040970002 -1.205811 -10.299805 7
-0.0095210001 -1.236328 -10.324219 7
-0.022445999 -1.271606 -10.391602 7
0.01136 -0.96093798 -9.7324219 7
0.0068279998 -0.98925799 -9.7529297 7
-0.002167 -1.019897 -9.7958984 7
-0.015656 -1.052734 -9.8613281 7
-0.0089870002 -1.076172 -9.8251953 7
-0.0023119999 -1.099365 -9.7880859 7
-0.000114 -1.124634 -9.7744141 7
-0.0024029999 -1.152344 -9.7832031 7
-0.0058209999 -1.180542 -9.7978516 7
-0.0069809998 -1.20752 -9.7998047 7
-0.0059199999 -1.233398 -9.7919922 7
-0.018279999 -1.266968 -9.8515615 7
-0.012169 -0.97997999 -9.3623047 7
-0.011047 -1.0048831 -9.3535156 7
-0.0029219999 -1.026611 -9.3115234 7
-0.00062599999 -1.0506589 -9.2978516 7
0.000504 -1.075562 -9.2900391 7
-0.0042340001 -1.103027 -9.3095703 7
-0.019478001 -1.13623 -9.3798828 7
-0.018363999 -1.1611331 -9.3710938 7
-0.010216 -1.182129 -9.3291016 7
-0.012604 -1.20874 -9.3378906 7
-0.013824 -1.234863 -9.3398438 7
-0.0080260001 -1.256958 -9.3085938 7
-0.06707 4.7871089 -8.5166016 7
-0.074074 4.7781978 -8.5585938 7
-0.071739003 4.7493901 -8.5605469 7
-0.070579998 4.723145 -8.5664062 7
-0.075255997 4.7093511 -8.5976562 7
-0.079933003 4.6950679 -8.6298828 7
-0.00563 -0.984375 -8.875 7
-0.003242 -1.00769 -8.8613281 7
-0.0057370001 -1.0330811 -8.8691406 7
-0.016724 -1.062622 -8.9189453 7
-0.010696 -1.083984 -8.8876953 7
-0.015594 -1.11084 -8.9072266 7
-0.013199 -1.134033 -8.8935547 7
-0.012016 -1.157593 -8.8857422 7
-0.014496 -1.18335 -8.8935547 7
-0.013344 -1.207153 -8.8847656 7
-0.019478001 -1.234863 -8.9111328 7
-0.021957001 -1.260498 -8.9189453 7
-0.020781999 -1.284302 -8.9101562 7
-0.028152 -1.31311 -8.9404297 7
-0.020896999 -1.332886 -8.9033203 7
-0.024590001 -1.359619 -8.9169922 7
-0.027084 -1.38562 -8.9248047 7
-0.024689 -1.408447 -8.9101562 7
-0.032058999 -1.4375 -8.9404297 7
-0.028441999 -1.459595 -8.9199219 7
-0.072823003 4.778687 -8.0322266 7
-0.074042998 4.7587891 -8.0488281 7
-0.072815001 4.7337651 -8.0556641 7
-0.077682003 4.7211909 -8.0869141 7
-0.077705003 4.6984859 -8.0976562 7
-0.083801001 4.688477 -8.1328115 7
-0.091080002 4.6806641 -8.1757812 7
-0.092322998 4.6603999 -8.1914062 7
-0.08625 4.6251221 -8.1767578 7
-0.081375003 4.5922852 -8.1669922 7
-0.065582 4.5375981 -8.1103516 7
-0.081398003 4.5466309 -8.1884766 7
-0.072906002 4.5067139 -8.1630859 7
-0.02066 -1.2961431 -8.4375 7
-0.021973001 -1.3199461 -8.4404297 7
-0.014381 -1.338623 -8.4033203 7
-0.011894 -1.360229 -8.3886719 7
-0.014465 -1.38501 -8.3964844 7
-0.014503 -1.408203 -8.3935547 7
-0.019646 -1.43457 -8.4130859 7
-0.027327999 -1.462891 -8.4423828 7
-0.028641 -1.486938 -8.4453115 7
-0.029960999 -1.511108 -8.4472656 7
-0.030029001 -1.5344239 -8.4433594 7
-0.032600001 -1.55957 -8.4511719 7
-0.032660998 -1.582764 -8.4472656 7
-0.30375701 -5.110229 11.066406 7
-0.29856101 -5.0767822 11.058594 7
-0.297241 -5.05127 11.06543 7
-0.294624 -5.0001221 11.079102 7
-0.294617 -4.9772949 11.09082 7
-0.29982001 -4.9647222 11.123047 7
-0.301117 -4.9442139 11.139648 7
-0.30110899 -4.9211431 11.151367 7
-0.29980499 -4.8955078 11.158203 7
-0.30108601 -4.875 11.174805 7
-0.291969 -4.8339839 11.149414 7
-0.294579 -4.81604 11.171875 7
-0.015511 -1.284546 -8.0097656 7
-0.031440999 -1.3162839 -8.0751953 7
-0.038093999 -1.342896 -8.0996094 7
-0.03418 -1.362793 -8.0791016 7
-0.023636 -1.37854 -8.03125 7
-0.023666 -1.400757 -8.0283203 7
-0.02636 -1.424927 -8.0361328 7
-0.029053001 -1.449097 -8.0439453 7
-0.031738002 -1.473022 -8.0507812 7
-0.052963 -1.5098881 -8.1386719 7
-0.053017002 -1.5324709 -8.1337891 7
-0.055709999 -1.5567631 -8.1425781 7
-0.058403 -1.581177 -8.1503906 7
-0.32045701 -5.1156011 10.647461 7
-0.31775701 -5.0882568 10.650391 7
-0.31503299 -5.0609131 10.652344 7
-0.31639901 -5.041626 10.669922 7
-0.316376 -5.0197749 10.680664 7
-0.316376 -4.9978032 10.692383 7
-0.316383 -4.975708 10.705078 7
-0.32043499 -4.961792 10.732422 7
-0.324478 -4.9476318 10.758789 7
-0.32312801 -4.922729 10.765625 7
-0.30959299 -4.874146 10.726562 7
-0.30959299 -4.8520508 10.738281 7
-0.309578 -4.829834 10.75 7
-0.105217 -1.963745 10.875 7
-0.098311998 -1.80127 10.878906 7
-0.096931003 -1.777832 10.875977 7
-0.095542997 -1.731934 10.879883 7
-0.31720701 -5.1081538 10.138672 7
-0.312996 -5.0788569 10.136719 7
-0.307365 -5.0467529 10.128906 7
-0.308777 -5.0289311 10.145508 7
-0.303139 -4.9968262 10.138672 7
-0.303139 -4.9761958 10.150391 7
-0.30876899 -4.9666748 10.181641 7
-0.31016499 -4.9486079 10.198242 7
-0.31438401 -4.9362788 10.224609 7
-0.31156901 -4.90979 10.226562 7
-0.31156901 -4.8887939 10.238281 7
-0.30593899 -4.8569341 10.229492 7
-0.096267998 -1.9187011 10.442383 7
-0.096244998 -1.897217 10.447266 7
-0.097632997 -1.876953 10.457031 7
-0.097609997 -1.8555911 10.461914 7
-0.101814 -1.837646 10.482422 7
-0.090538003 -1.807129 10.441406 7
-0.084885001 -1.781372 10.423828 7
-0.079262003 -1.7557369 10.40625 7
-0.077835001 -1.733276 10.404297 7
-0.083434999 -1.716064 10.431641 7
-0.093254 -1.702148 10.474609 7
-0.083374001 -1.67334 10.438477 7
-0.084762998 -1.6530761 10.448242 7
-0.080513 -1.628662 10.435547 7
-0.080498002 -1.6073 10.439453 7
-0.086883999 1.05957 10.566406 7
-0.31405601 -5.0878911 9.6943359 7
-0.312592 -5.0654302 9.7021484 7
-0.31115001 -5.0428472 9.7099609 7
-0.31405601 -5.0289311 9.7314453 7
-0.30970001 -5.0004878 9.7285156 7
-0.31115001 -4.9836431 9.7451172 7
-0.30823499 -4.9581299 9.7470703 7
-0.311142 -4.9442139 9.7685547 7
-0.31113401 -4.9243159 9.7802734 7
-0.314064 -4.9100342 9.8027344 7
-0.309677 -4.8815918 9.7988281 7
-0.30968499 -4.8618159 9.8105469 7
-0.31404099 -4.8503418 9.8369141 7
-0.30674699 -4.8161621 9.8242188 7
-0.092468001 -1.904907 10.076172 7
-0.090995997 -1.883301 10.075195 7
-0.090980999 -1.862793 10.080078 7
-0.098266996 -1.848145 10.112305 7
-0.092407003 -1.822754 10.094727 7
-0.090919003 -1.801025 10.09375 7
-0.080696002 -1.772583 10.058594 7
-0.079216003 -1.750977 10.056641 7
-0.076286003 -1.728271 10.049805 7
-0.073357001 -1.705688 10.042969 7
-0.076247998 -1.687378 10.058594 7
-0.083503999 -1.672241 10.089844 7
-0.076201998 -1.6463619 10.06543 7
-0.080559 -1.628906 10.086914 7
-0.074699 -1.60437 10.067383 7
-0.15195499 4.1661382 9.5634766 7
-0.146111 4.1750488 9.5341797 7
-0.140266 4.1837158 9.5039062 7
-0.134399 4.1925049 9.4736328 7
-0.129997 4.2034912 9.4482422 7
-0.13285799 4.2277832 9.4492188 7
-0.129906 4.2415771 9.4287109 7
-0.131302 4.2631841 9.4238281 7
-0.132698 4.28479 9.4189453 7
-0.13119499 4.3010249 9.4033203 7
-0.128242 4.3145752 9.3828115 7
-0.12965401 4.33606 9.3779297 7
-0.148445 4.3903809 9.4316406 7
-0.152748 4.41748 9.4365234 7
-0.14834601 4.4283452 9.4111328 7
-0.152649 4.4554439 9.4160156 7
-0.155495 4.47998 9.4160156 7
-0.315819 -5.118896 9.2363281 7
-0.32337999 -5.1157231 9.2724609 7
-0.31581101 -5.081665 9.2607422 7
-0.30521399 -5.041748 9.2392578 7
-0.31279799 -5.0384521 9.2753906 7
-0.311272 -5.016602 9.2822266 7
-0.30673999 -4.98877 9.2792969 7
-0.30219999 -4.9611821 9.2773438 7
-0.30219299 -4.9425049 9.2890615 7
-0.30825001 -4.935791 9.3193359 7
-0.30219999 -4.9050288 9.3125 7
-0.30369601 -4.8894038 9.328125 7
-0.31278199 -4.8883061 9.3691406 7
-0.30823499 -4.8605962 9.3662109 7
-0.30219299 -4.829834 9.3583984 7
-0.305206 -4.816895 9.3789062 7
-0.099662997 -1.915771 9.7480469 7
-0.089065999 -1.887329 9.7138672 7
-0.090545997 -1.868896 9.7236328 7
-0.092041001 -1.850464 9.7333984 7
-0.105644 -1.841675 9.7871094 7
-0.092009999 -1.811035 9.7421885 7
-0.093491003 -1.79248 9.7519531 7
-0.087433003 -1.768066 9.7333984 7
-0.084412001 -1.745972 9.7275391 7
-0.079856999 -1.722778 9.7158203 7
-0.075294003 -1.699707 9.703125 7
-0.081313998 -1.68457 9.7294922 7
-0.093406998 -1.6737061 9.7783203 7
-0.087334 -1.649536 9.7587891 7
-0.072182 -1.618896 9.7080078 7
-0.079727001 -1.604614 9.7392578 7
-0.070395999 0.97338903 9.8193359 7
-0.065819003 0.99133301 9.8007812 7
-0.059746001 1.008301 9.7753906 7
-0.065757997 1.031006 9.7958984 7
-0.071769997 1.053589 9.8164062 7
-0.068703003 1.072021 9.8017578 7
-0.074707001 1.0949709 9.8222656 7
-0.079208001 1.117065 9.8369141 7
-0.080681004 1.137817 9.8398438 7
-0.070083998 1.152344 9.7978516 7
-0.070037998 1.172119 9.7949219 7
-0.076041996 1.19519 9.8144531 7
-0.082038999 1.218262 9.8339844 7
-0.082001001 1.238037 9.8300781 7
-0.071410999 1.252197 9.7890615 7
-0.081923999 1.277832 9.8242188 7
-0.30515301 -5.0770259 8.8232422 7
-0.31141701 -5.0722661 8.8535156 7
-0.298897 -5.0291748 8.828125 7
-0.29734001 -5.0085449 8.8359385 7
-0.30204001 -5.0002441 8.8613281 7
-0.298904 -4.9763179 8.8642578 7
-0.305161 -4.9711909 8.8945312 7
-0.30203199 -4.947144 8.8974609 7
-0.30203199 -4.9293208 8.9091797 7
-0.300468 -4.9084468 8.9160156 7
-0.30047601 -4.890625 8.9277344 7
-0.306732 -4.8851318 8.9570312 7
-0.31142399 -4.8763428 8.9833984 7
-0.298904 -4.834106 8.9570312 7
-0.30049899 -4.8192139 8.9746094 7
-0.30049101 -4.80127 8.9853516 7
-0.088150002 -1.914795 9.3984385 7
-0.089690998 -1.897095 9.4082031 7
-0.092804 -1.880615 9.4238281 7
-0.092781 -1.861694 9.4277344 7
-0.092758 -1.842651 9.4326172 7
-0.100563 -1.830078 9.4638672 7
-0.092712 -1.80481 9.4404297 7
-0.097404003 -1.7894289 9.4619141 7
-0.081740998 -1.7581789 9.4111328 7
-0.083290003 -1.7406009 9.4208984 7
-0.087975003 -1.72522 9.4414062 7
-0.081688002 -1.701416 9.4228516 7
-0.080109 -1.681152 9.421875 7
-0.081657 -1.663208 9.4316406 7
-0.086319 -1.647949 9.4511719 7
-0.080048002 -1.6242681 9.4335938 7
-0.080031998 -1.605225 9.4375 7
-0.310608 -5.1079102 8.3955078 7
-0.30901301 -5.0878911 8.4033203 7
-0.30576301 -5.0646968 8.40625 7
-0.300888 -5.0383301 8.4042969 7
-0.29115301 -5.0020752 8.3886719 7
-0.29603601 -4.9952388 8.4140615 7
-0.29603601 -4.9785161 8.4267578 7
-0.29765299 -4.965332 8.4423828 7
-0.29766101 -4.9484859 8.4541016 7
-0.297676 -4.9318848 8.4667969 7
-0.29605901 -4.9118652 8.4736328 7
-0.29768401 -4.898315 8.4912109 7
-0.31228599 -4.9103999 8.5439453 7
-0.30905199 -4.887085 8.5458984 7
-0.292831 -4.8217769 8.5234385 7
-0.29445601 -4.8078609 8.5390615 7
-0.087288 -1.9119869 9.0654297 7
-0.084014997 -1.873047 9.0634766 7
-0.087227002 -1.839478 9.0830078 7
-0.092087001 -1.825195 9.1054688 7
-0.087204002 -1.802979 9.0927734 7
-0.080711 -1.779663 9.0751953 7
-0.066086002 -1.750244 9.0302734 7
-0.067672998 -1.715332 9.0439453 7
-0.067642003 -1.679199 9.0517578 7
-0.072494999 -1.664795 9.0722656 7
-0.077347003 -1.6500241 9.09375 7
-0.082184002 -1.635376 9.1132812 7
-0.077285998 -1.613647 9.1005859 7
-0.052948002 0.96887201 9.140625 7
-0.044785 1.001953 9.1083984 7
-0.047997002 1.021729 9.1171885 7
-0.046356 1.039062 9.109375 7
-0.049522001 1.077026 9.1152344 7
-0.060814001 1.1192631 9.1503906 7
-0.057503 1.154175 9.1337891 7
-0.057472002 1.172363 9.1308594 7
-0.067139 1.195801 9.1611328 7
-0.06707 1.2325439 9.1552734 7
-0.073478997 1.272949 9.171875 7
-0.077095002 4.7713618 -4.9550781 7
-0.059555002 4.7193599 -4.9169922 7
-0.062737003 4.710938 -4.9375 7
-0.062729001 4.6958008 -4.9482422 7
-0.062714003 4.6652832 -4.969727 7
-0.065926 4.6566162 -4.9892578 7
-0.064315997 4.637939 -4.9960942 7
-0.067489997 4.6291499 -5.015625 7
-0.064308003 4.6074219 -5.0175781 7
-0.067482002 4.5985112 -5.0380859 7
-0.075461999 4.5992432 -5.0712891 7
-0.077026002 4.5559082 -5.109375 7
-0.077033997 4.5401611 -5.1191411 7
-0.30355799 -5.104126 7.9570308 7
-0.30356601 -5.088501 7.96875 7
-0.305244 -5.076416 7.985352 7
-0.311966 -5.0744629 8.0146484 7
-0.29685199 -5.0281978 7.9873052 7
-0.28675801 -4.992188 7.9716802 7
-0.28676599 -4.976685 7.983398 7
-0.28845999 -4.9642329 8 7
-0.29180899 -4.9555659 8.0205078 7
-0.29181701 -4.9398189 8.0322266 7
-0.28845999 -4.9173579 8.0351562 7
-0.28677401 -4.898438 8.0419922 7
-0.29015401 -4.8891602 8.0634766 7
-0.29015401 -4.873291 8.0751953 7
-0.29688999 -4.8708501 8.1044922 7
-0.29689801 -4.855103 8.1162109 7
-0.295212 -4.835815 8.1230469 7
-0.28680399 -4.8035889 8.1113281 7
-0.080696002 -1.903198 8.734375 7
-0.077339001 -1.883057 8.7285156 7
-0.080673002 -1.868652 8.7431641 7
-0.077301003 -1.848511 8.7373047 7
-0.073928997 -1.828247 8.7304688 7
-0.077278003 -1.813599 8.7470703 7
-0.080619998 -1.798828 8.7617188 7
-0.085648 -1.7854 8.7822266 7
-0.082275003 -1.765381 8.7753906 7
-0.067116 -1.73645 8.7304688 7
-0.067101002 -1.718994 8.734375 7
-0.067084998 -1.701782 8.7382812 7
-0.063712999 -1.681885 8.7324219 7
-0.062042002 -1.66333 8.7314453 7
-0.065384001 -1.648315 8.7460938 7
-0.077125996 -1.639526 8.7890615 7
-0.077102996 -1.62207 8.7919922 7
-0.060371 0.97045898 8.8662109 7
-0.056984 0.98669398 8.8525391 7
-0.051933002 1.002197 8.8349609 7
-0.043494999 1.015747 8.8037109 7
-0.046813998 1.03479 8.8125 7
-0.051819 1.054932 8.8271484 7
-0.051796 1.0723881 8.8242188 7
-0.043373 1.085815 8.7939453 7
-0.050055999 1.106567 8.8134766 7
-0.051711999 1.125 8.8173828 7
-0.055046 1.144165 8.8261719 7
-0.056694001 1.16272 8.8291016 7
-0.05497 1.179443 8.8203115 7
-0.070052996 1.2049561 8.8681641 7
-0.073371999 1.2244869 8.875 7
-0.056564 1.232788 8.8183594 7
-0.066588998 1.255981 8.8476562 7
-0.063210003 1.271729 8.8339844 7
-0.082542002 4.788208 -4.5800781 7
-0.085854001 4.7807622 -4.6005859 7
-0.070975997 4.735352 -4.5712891 7
-0.057755001 4.6933589 -4.547852 7
-0.062706001 4.6893311 -4.5722661 7
-0.064354002 4.6783452 -4.5869141 7
-0.064361997 4.66394 -4.5986328 7
-0.065986998 4.6530762 -4.6142578 7
-0.064338997 4.635376 -4.6201172 7
-0.067626998 4.627686 -4.640625 7
-0.064323001 4.6064448 -4.6425781 7
-0.061012 4.5852051 -4.6445308 7
-0.069274999 4.5875239 -4.6777339 7
-0.077522002 4.5896001 -4.710938 7
-0.082465999 4.5849609 -4.735352 7
-0.089057997 4.5836182 -4.764648 7
-0.085762002 4.5620122 -4.766602 7
-0.075843997 4.5275879 -4.75 7
-0.07914 4.5194092 -4.7695308 7
-0.077491999 4.5013428 -4.7763672 7
-0.29650101 -5.1079102 7.530273 7
-0.29824799 -5.0969238 7.546875 7
-0.29652399 -5.0787349 7.554688 7
-0.30175799 -5.0748291 7.5810552 7
-0.29307601 -5.04248 7.5712891 7
-0.29132801 -5.0244141 7.578125 7
-0.29132801 -5.0097661 7.5898442 7
-0.28787199 -4.987915 7.59375 7
-0.291336 -4.9804692 7.6142578 7
-0.28786501 -4.9587402 7.617188 7
-0.28437799 -4.9368901 7.6191411 7
-0.28788 -4.9290771 7.640625 7
-0.28265399 -4.9039311 7.6386719 7
-0.28266099 -4.8891602 7.6503911 7
-0.280922 -4.8710942 7.657227 7
-0.29486099 -4.883667 7.7050781 7
-0.28441599 -4.848145 7.6894531 7
-0.28791001 -4.8399658 7.710938 7
-0.27919799 -4.808228 7.6992192 7
-0.078262001 -1.914062 8.4345703 7
-0.076514997 -1.896118 8.4335938 7
-0.073028997 -1.876587 8.4277344 7
-0.074759997 -1.86145 8.4384766 7
-0.071258999 -1.841797 8.4316406 7
-0.066024996 -1.820923 8.4199219 7
-0.076447003 -1.812622 8.4560547 7
-0.076439001 -1.7961431 8.4599609 7
-0.078185998 -1.780762 8.4716797 7
-0.078162998 -1.764038 8.4755859 7
-0.074669003 -1.744751 8.46875 7
-0.065948002 -1.721313 8.4453115 7
-0.064177997 -1.703369 8.4433594 7
-0.060683999 -1.684204 8.4365234 7
-0.057190001 -1.664795 8.4296885 7
-0.05545 -1.6468509 8.4296885 7
-0.060653999 -1.634155 8.4492188 7
-0.065848999 -1.621094 8.46875 7
-0.046951 0.963135 8.5449219 7
-0.05909 0.98535198 8.5820312 7
-0.052108999 0.99914598 8.5576172 7
-0.048606999 1.014526 8.5449219 7
-0.04335 1.028931 8.5253906 7
-0.045067001 1.046753 8.5283203 7
-0.046776 1.064453 8.53125 7
-0.045021001 1.080444 8.5234385 7
-0.046700001 1.0979 8.5253906 7
-0.046684001 1.114868 8.5234385 7
-0.055328 1.136108 8.5478516 7
-0.046608001 1.14856 8.5185547 7
-0.055275001 1.169922 8.5429688 7
-0.053505 1.1856689 8.5351562 7
-0.055206001 1.203491 8.5380859 7
-0.063858002 1.225098 8.5625 7
-0.062088002 1.241089 8.5537109 7
-0.062057 1.258057 8.5507812 7
-0.062035002 1.27478 8.5478516 7
-0.090088002 4.7877202 -4.2382808 7
-0.076384999 4.745605 -4.2158198 7
-0.067824997 4.7141109 -4.2050781 7
-0.067801997 4.700562 -4.2167969 7
-0.069510996 4.6906738 -4.2324219 7
-0.066086002 4.6700439 -4.234375 7
-0.064361997 4.6531978 -4.2412109 7
-0.064361997 4.639648 -4.2519531 7
-0.067757003 4.6330571 -4.2724609 7
-0.066055 4.6159668 -4.2783198 7
-0.064338997 4.5987549 -4.2851558 7
-0.066047996 4.588623 -4.2998052 7
-0.078010999 4.5992432 -4.3417969 7
-0.081421003 4.5924072 -4.3613281 7
-0.091674998 4.5992432 -4.398438 7
-0.088257 4.5784912 -4.4003911 7
-0.081405997 4.5507808 -4.3945308 7
-0.088242002 4.5505371 -4.422852 7
-0.084801003 4.5297852 -4.4248052 7
-0.081382997 4.5090332 -4.4267578 7
-0.074547 4.4814448 -4.4189448 7
-0.30114001 -4.8773189 7.3691411 7
-0.301155 -4.8631592 7.3808589 7
-0.29216 -4.831543 7.3710942 7
-0.29576099 -4.8243408 7.390625 7
-0.096008003 4.7923579 -3.9003911 7
-0.103065 4.7944341 -3.9287109 7
-0.083626002 4.7410889 -3.8925779 7
-0.080069996 4.7209468 -3.8955081 7
-0.07299 4.693481 -3.889648 7
-0.072959997 4.6809082 -3.9013669 7
-0.072952002 4.6680908 -3.9121089 7
-0.074715003 4.6590581 -3.9277339 7
-0.072936997 4.6425781 -3.9345701 7
-0.072929002 4.6296391 -3.945312 7
-0.069374003 4.6097412 -3.9482419 7
-0.072913997 4.6040039 -3.967773 7
-0.074669003 4.594604 -3.9824221 7
-0.074653998 4.5817871 -3.9941411 7
-0.081740998 4.583252 -4.0214839 7
-0.097663999 4.602417 -4.070312 7
-0.097655997 4.5892329 -4.0810552 7
-0.081717998 4.544189 -4.0537109 7
-0.088783003 4.5450439 -4.0820308 7
-0.087012999 4.5283198 -4.0878911 7
-0.074623004 4.4906011 -4.0683589 7
-0.076370001 4.480957 -4.0839839 7
-0.29452601 -4.9481311 10.6507 7
-0.104093 -1.730075 10.387283 7
-0.12724499 4.2482829 9.4790373 7
-0.080177002 -1.778793 9.6368828 7
-0.349244 -4.9313178 9.5944843 7
-0.32569301 -4.902657 8.7122507 7
-0.119304 -1.819674 9.0351372 7
-0.069949999 1.0077879 8.9267368 7
-0.080054998 1.227712 8.948225 7
-0.315631 -5.0657001 7.7808771 7
-0.30759299 -4.8556752 7.9500051 7
-0.081235997 -1.8059779 8.4228725 7
-0.077261999 -1.6119879 8.4679756 7
-0.051378001 1.104538 8.4581795 7
-0.27022201 -4.9772949 6.7625241 7
-0.27675101 -4.848278 7.0310812 7
-0.062438 -1.820536 7.9849281 7
-0.051155001 -1.6283081 7.994205 7
-0.29242301 -4.8189259 5.93854 7
-0.093416996 -1.838462 7.6244731 7
-0.085226998 -1.66846 7.6570711 7
-0.06092 1.089685 7.7395878 7
-0.078423999 1.2727619 7.7782621 7
-0.082381003 -1.856627 7.317554 7
-0.076090999 -1.703022 7.3622198 7
-0.074716002 -1.874229 7.0503211 7
-0.074302003 -1.744776 7.1215291 7
-0.085317999 -1.866727 6.5485549 7
-0.077629998 -1.74175 6.5966969 7
0.0040259999 -1.427887 -8.3341331 7
0.020249 -1.37465 -6.8726978 7
0.056547001 -1.325555 -5.5119672 7
0.057886999 -1.295791 -4.699594 7
-0.024356 -1.572612 -3.9994631 7
-0.367241 -5.0622292 10.726456 7
-0.122933 -1.804114 10.514992 7
-0.33644199 -4.9854612 9.9023829 7
-0.072512001 -1.717589 9.7216225 7
-0.31179801 -4.918088 9.2067366 7
-0.040281001 -1.653052 9.1309109 7
-0.35198599 -5.0312672 8.3835011 7
-0.35749799 -4.8390932 8.5854836 7
-0.092975996 -1.835481 8.6891375 7
-0.081547998 -1.603008 8.6857386 7
-0.30890501 -4.8885078 7.7938809 7
-0.26028201 -4.7082 -1.105382 7
-0.05926 -1.728712 7.9868641 7
-0.247188 -4.647613 -0.68841898 7
-0.254325 -4.8268881 6.721766 7
-0.063865997 -1.8828 7.7278681 7
-0.034042999 -1.677458 7.6484919 7
-0.23716401 -4.5921078 -0.31743601 7
-0.225779 -4.6906099 -0.12053 7
-0.31144199 -5.035048 6.0756998 7
-0.29035199 -4.8542881 6.1972642 7
-0.088040002 -1.823241 7.4269361 7
-0.067429997 -1.6372989 7.3907399 7
-0.265311 -4.4904361 0.060520999 7
-0.27467799 -4.6365738 0.19587301 7
-0.267405 -4.7282538 0.37605599 7
-0.27609599 -4.7652431 5.8857431 7
-0.27599001 -4.655447 6.0445371 7
-0.070269004 -1.775588 7.1822 7
-0.058045998 -1.6049449 7.1780491 7
-0.0056050001 -1.302494 -0.56269598 7
-0.023669001 -1.46778 -0.602292 7
-0.24752 -4.520874 0.53557599 7
-0.25982699 -4.6572852 0.66671801 7
-0.26107001 -4.7557578 0.82604802 7
-0.089157999 -1.914537 7.0416451 7
0.007793 -1.286422 -0.35468 7
-0.013731 -1.444284 -0.40629601 7
-0.023105999 -1.599885 -0.40604401 7
-0.245515 -4.5648508 0.94886702 7
-0.246379 -4.6514149 1.103827 7
-0.25041899 -4.7412581 1.25667 7
0.004981 -1.419032 -0.19414701 7
-0.0092059998 -1.568398 -0.21184599 7
0.009966 -1.4009939 -0.044181 7
0.0021299999 -1.540581 -0.040426001 7
-0.27691099 -4.5447059 1.360224 7
-0.282525 -4.6289458 1.506163 7
-0.27923301 -4.681612 1.666909 7
-0.27581501 -4.727282 1.8289829 7
-0.27722099 -4.7962699 4.2772059 7
-0.280431 -4.746644 4.4778609 7
-0.083563 -1.8096859 6.604517 7
-0.068743996 -1.66087 6.5974321 7
-0.26799199 -4.5208359 1.735621 7
-0.26429 -4.5638442 1.89087 7
-0.278714 -4.6527681 2.0294061 7
-0.265578 -4.656127 2.1962199 7
-0.26513001 -4.689909 2.3519139 7
-0.26824 -4.728065 2.5064161 7
-0.26569301 -4.7432518 2.6651371 7
-0.272232 -4.7794209 2.8207071 7
-0.271267 -4.7869191 2.9798779 7
-0.27017 -4.7877851 3.138941 7
-0.26525801 -4.770956 3.297466 7
-0.26585001 -4.7645311 3.4553549 7
-0.266211 -4.7512589 3.612788 7
-0.26456901 -4.7258992 3.7687099 7
-0.26445499 -4.6279478 4.2311449 7
-0.265953 -4.5757151 4.4213009 7
-0.060803 -1.764504 6.414392 7
-0.049306002 -1.625805 6.4166632 7
-0.25346199 -4.531558 2.3900321 7
-0.25845599 -4.57372 2.5367701 7
-0.25192699 -4.5768762 2.690696 7
-0.26422799 -4.6284761 2.837415 7
-0.25558701 -4.613472 2.9917929 7
-0.25435001 -4.613956 3.1435709 7
-0.2511 -4.6026502 3.294879 7
-0.24975801 -4.5909958 3.4454031 7
-0.250094 -4.578342 3.5955689 7
-0.248362 -4.5538802 3.744256 7
-0.111274 4.9987588 -15.133998 7
-0.080214001 4.843924 -11.435491 7
-0.053481001 4.6243811 -4.7955108 7
-0.055969 4.6037731 -3.932162 7
-0.175514 4.1660929 10.095572 7
-0.16741499 4.2334652 9.3779469 7
-0.072079003 1.08047 9.0233707 7
-0.051608 1.074385 8.5923634 7
-0.020849001 1.0646271 7.9056091 7
-0.037446 1.261797 7.944849 7
0.008138 -1.035853 -14.309503 7
0.025583999 0.99425602 -13.783126 7
0.059300002 0.42825001 -12.830419 7
-0.044402 -0.71902299 -10.281408 7
-0.059358001 -1.135237 -10.526769 7
-0.26269799 -4.3250751 -13.77546 7
-0.179821 4.90028 -11.998064 7
-0.038467001 -1.235101 -8.6883078 7
-0.233861 -4.3620191 -11.080073 7
-0.108884 4.7147331 -8.8395586 7
0.001531 -1.304006 -6.3380699 7
-0.034522999 -1.3202879 -5.6030321 7
-0.095908001 4.6015391 -4.3076591 7
-0.021475 -1.3378021 -5.0534382 7
-0.034481 -1.544207 -5.106535 7
-0.0096690003 -1.345873 -4.598228 7
-0.022425 -1.533156 -4.638669 7
-0.00281 -1.358345 -4.2407479 7
-0.013471 -1.524518 -4.2581139 7
-0.202852 -4.5827889 -3.5080349 7
-0.025801999 -1.354514 -3.9107821 7
-0.043740999 -1.526529 -3.957083 7
