# .PCD v0.7 - Point Cloud Data file format
VERSION 0.7
FIELDS x y z intensity
SIZE 4 4 4 4
TYPE F F F F
COUNT 1 1 1 1
WIDTH 1294
HEIGHT 1
VIEWPOINT 0 0 0 1 0 0 0
POINTS 1294
DATA ascii
0.245331 -1.4875489 -72.199219 7
0.290398 -1.622925 -70.474609 7
0.170715 -1.537231 -66.689453 7
0.21305101 -1.66272 -65.24707 7
0.183395 -1.8479 -66.236328 7
0.209282 -1.981812 -65.348633 7
0.166382 5.3225098 -67.275391 7
0.200607 5.0715332 -66.114258 7
0.16978499 4.987061 -67.171875 7
0.150085 -1.820557 -59.928711 7
0.187126 -1.929932 -58.801758 7
0.235443 -2.022217 -57.334961 7
0.171165 -2.2325439 -59.259766 7
0.25092301 4.8232422 -57.204102 7
0.203712 4.7982178 -58.644531 7
0.115952 4.8616939 -61.31543 7
0.074821003 -1.95459 -55.380859 7
0.143517 -2.0209961 -53.522461 7
0.173508 -2.1191411 -52.704102 7
0.134193 -2.2911379 -53.750977 7
0.161827 -2.3890381 -52.998047 7
0.27034 4.9978032 -50.296875 7
0.21832301 5.0073242 -51.711914 7
0.191505 4.9473882 -52.446289 7
0.23850299 4.7054439 -51.180664 7
0.201767 4.666748 -52.182617 7
0.160927 4.63269 -53.295898 7
0.115196 -2.0960691 -49.060547 7
0.13947301 -2.189209 -48.458984 7
0.094916999 -2.3575439 -49.535156 7
0.202728 4.8027339 -47.067383 7
0.15581501 4.7984619 -48.226562 7
0.21935999 4.5335689 -46.676758 7
0.183121 4.5007319 -47.572266 7
0.15730999 4.4406738 -48.211914 7
0.22579201 1.190186 -46.504883 7
0.230186 1.0743411 -46.396484 7
0.079391003 -2.2606201 -45.228516 7
0.129311 -2.3178711 -44.023438 7
0.065948002 -2.5 -45.413086 7
0.113388 -2.5523679 -44.356445 7
0.13462099 -2.633301 -43.87793 7
0.190254 -2.665894 -42.638672 7
0.22417399 4.717896 -42 7
0.18581399 4.7049561 -42.860352 7
0.150833 4.6801758 -43.645508 7
0.12660199 4.6273189 -44.191406 7
0.157417 4.4510498 -43.515625 7
0.11602 4.323853 -44.449219 7
0.035689998 -2.338989 -42.402344 7
0.065315001 -2.408936 -41.789062 7
0.096969999 -2.4736331 -41.135742 7
0.039779998 -2.6447749 -42.291016 7
0.069420002 -2.7099609 -41.676758 7
0.086456001 -2.789185 -41.320312 7
0.119255 -2.8449709 -40.642578 7
0.140312 -2.9144289 -40.205078 7
-0.697052 -0.18261699 55.009766 7
0.13641401 4.7443848 -40.386719 7
0.114708 4.6942139 -40.839844 7
0.082199 4.665771 -41.512695 7
0.142906 4.4318848 -40.279297 7
0.087288 4.348877 -41.43457 7
0.172821 1.022827 -39.751953 7
0.18554699 0.919312 -39.491211 7
0.179428 0.82495099 -39.616211 7
0.024948001 -2.713989 -38.713867 7
0.02227 -2.8122561 -38.753906 7
0.065819003 -3.034668 -37.917969 7
-0.63392597 -2.8990481 49.44043 7
-0.64300501 -2.794189 49.605469 7
0.094612002 4.7832031 -37.429688 7
0.074905001 4.7351069 -37.806641 7
0.058929 4.677002 -38.114258 7
0.034194998 4.6361079 -38.583008 7
0.197464 1.199463 -35.702148 7
0.204826 1.107178 -35.563477 7
0.185371 1.029297 -35.929688 7
0.200424 0.58129901 -35.645508 7
0.175652 0.49951199 -36.109375 7
0.19709 0.40600601 -35.707031 7
0.209778 0.31579599 -35.467773 7
0.019501001 -2.9494629 -35.674805 7
0.020385999 -3.0358889 -35.650391 7
0.036888 -3.099731 -35.355469 7
0.051047999 -3.1656489 -35.103516 7
-0.577995 -2.845947 45.12207 7
-0.61418903 -2.6734619 45.711914 7
-0.53083801 0.058228001 44.548828 7
-0.500893 0.158813 44.076172 7
-0.524643 0.26208499 44.455078 7
0.086731002 4.8565669 -34.5 7
0.072792001 4.802856 -34.748047 7
0.050735001 4.7661128 -35.134766 7
0.031417999 4.721313 -35.477539 7
-0.001083 4.7034912 -36.044922 7
0.044075001 4.5189209 -35.277344 7
0.180199 1.198486 -33.119141 7
0.16487899 1.125 -33.384766 7
0.136703 1.056885 -33.87207 7
0.141045 0.46887201 -33.797852 7
0.18045799 0.36730999 -33.108398 7
0.179535 0.203979 -33.120117 7
0.17366 0.122437 -33.220703 7
-0.02372 -3.167603 -33.227539 7
-0.00096899999 -3.296875 -32.851562 7
0.012634 -3.3569341 -32.62793 7
-0.47483101 -2.803467 40.212891 7
-0.49746701 -2.7344971 40.551758 7
-0.50772899 -2.651978 40.709961 7
-0.55431402 -2.603271 41.397461 7
-0.467026 0.145142 40.263672 7
-0.451736 0.23583999 40.041016 7
0.084770001 4.9238281 -31.456055 7
0.079910003 4.856689 -31.541992 7
0.060683999 4.8218989 -31.854492 7
0.038520999 4.7922359 -32.213867 7
-0.0083389999 4.815063 -32.959961 7
-0.020203 4.7590332 -33.15625 7
0.14879601 1.573853 -30.712891 7
0.17378999 1.479126 -30.319336 7
0.143829 1.424438 -30.795898 7
0.166977 1.332764 -30.431641 7
0.147835 0.199341 -30.738281 7
0.176163 0.121216 -30.289062 7
0.13434599 0.046997 -30.948242 7
0.150139 -0.035645001 -28.594727 7
0.127441 -0.107788 -28.928711 7
0.13555899 -0.25048801 -28.804688 7
-0.036736 -3.2077639 -31.117188 7
-0.047309998 -3.3774409 -31.253906 7
-0.0252 -3.4202881 -30.919922 7
0.069472998 17.155518 25.580078 7
0.065467998 17.246826 25.586914 7
0.083610997 4.9666748 -29.246094 7
0.078025997 4.9064941 -29.338867 7
0.060631 4.8734131 -29.604492 7
0.043205 4.8387451 -29.869141 7
0.021438999 4.8128662 -30.197266 7
-0.0085829999 4.8032231 -30.647461 7
0.14880399 1.541626 -28.586914 7
0.134506 1.4805911 -28.799805 7
0.160484 1.390991 -28.418945 7
0.143433 1.331177 -28.672852 7
0.118454 1.275146 -29.042969 7
0.118515 -0.159546 -26.751953 7
0.121246 -0.359741 -26.708008 7
0.132256 -0.42419401 -26.555664 7
0.118828 -0.56079102 -26.734375 7
-0.069220997 -3.44397 -29.077148 7
-0.065063 -3.509521 -29.011719 7
-0.051430002 -3.5596919 -28.818359 7
-0.032676999 -3.6005859 -28.554688 7
-0.043113999 -3.6885991 -28.68457 7
-0.063827999 -3.794678 -28.954102 7
0.077193998 5.0125728 -26.958984 7
0.061324999 4.9143071 -27.195312 7
0.048477001 4.8753662 -27.379883 7
0.013916 4.884644 -27.857422 7
-0.0027620001 4.8520508 -28.094727 7
0.125809 1.575317 -26.639648 7
0.15644801 1.4862061 -26.222656 7
0.143135 1.42981 -26.40625 7
0.133682 1.3701169 -26.539062 7
0.097473003 -0.345947 -25.171875 7
0.115265 -0.40527299 -24.944336 7
0.12986 -0.46435499 -24.755859 7
0.098578997 -0.534302 -25.151367 7
0.108101 -0.59460402 -25.027344 7
0.121773 -0.65271002 -24.851562 7
-0.073684998 -3.5583501 -27.063477 7
-0.075653002 -3.62854 -27.078125 7
-0.067038998 -3.6817629 -26.959961 7
-0.055656001 -3.7297361 -26.806641 7
-0.046112001 -3.7801509 -26.675781 7
0.046836998 5.0015869 -25.399414 7
0.036277998 4.9619141 -25.542969 7
0.023452999 4.927002 -25.716797 7
0.0051500001 4.903564 -25.958008 7
-0.01178 4.8762212 -26.182617 7
-0.011864 4.8105469 -26.192383 7
0.132149 1.590454 -24.678711 7
0.121117 1.536621 -24.822266 7
0.104118 1.48645 -25.041016 7
0.112999 1.407349 -24.962891 7
0.122292 1.338623 -24.855469 7
0.102684 -0.78613299 -23.196289 7
0.111969 -0.84057599 -23.083008 7
-0.074965999 -3.7429199 -24.983398 7
-0.061820999 -3.8448491 -24.808594 7
-0.056984 -3.89856 -24.743164 7
-0.068489 -3.9805911 -24.866211 7
0.031615999 5.0323491 -23.581055 7
0.022247 4.9946289 -23.701172 7
0.016303999 4.9483638 -23.782227 7
0.0069269999 4.9094238 -23.902344 7
-0.013763 4.8955078 -24.154297 7
-0.024132 4.8572998 -24.286133 7
0.112251 1.839478 -23.017578 7
0.119095 1.7755131 -22.941406 7
0.129784 1.651001 -22.821289 7
0.120377 1.600708 -22.936523 7
0.073615998 -0.68908697 -21.889648 7
0.092041001 -0.73754901 -21.683594 7
0.094604 -0.79126 -21.65332 7
0.069649003 -0.85595697 -21.924805 7
0.081215002 -0.90612799 -21.794922 7
0.085891999 -0.95898402 -21.740234 7
-0.091774002 -3.8725591 -23.362305 7
-0.083930999 -3.91748 -23.267578 7
-0.078208998 -3.9654541 -23.194336 7
-0.072494999 -4.0134282 -23.12207 7
-0.073128 -4.0725098 -23.118164 7
0.0096129999 5.0820308 -22.085938 7
0.011665 5.0211182 -22.074219 7
0.001633 4.9881592 -22.195312 7
-0.0042039999 4.9450679 -22.269531 7
-0.014229 4.9110112 -22.389648 7
-0.032173 4.8939209 -22.595703 7
-0.030632 4.8336182 -22.589844 7
0.100975 1.890503 -21.503906 7
0.101456 1.835449 -21.50293 7
0.084541 1.79541 -21.692383 7
0.109764 1.719604 -21.417969 7
0.103371 1.670166 -21.491211 7
0.091187 1.625366 -21.62793 7
0.068565004 -1.0074461 -20.418945 7
0.07412 -1.056396 -20.357422 7
0.062752001 -1.11377 -20.47168 7
-0.089911997 -3.892334 -21.698242 7
-0.097946003 -3.9606929 -21.769531 7
-0.089538999 -4.0007319 -21.674805 7
-0.081726 -4.0412598 -21.583984 7
-0.079558998 -4.0916748 -21.551758 7
0.0090260003 5.0661621 -20.494141 7
0.0039220001 5.0257568 -20.556641 7
-0.0045389999 4.9927979 -20.65332 7
-0.011322 4.955688 -20.733398 7
-0.029366 4.9431152 -20.926758 7
-0.038963001 4.9111328 -21.035156 7
-0.023833999 4.824585 -20.892578 7
0.086227 1.9855959 -20.148438 7
0.096306004 1.924927 -20.048828 7
0.081619002 1.887085 -20.204102 7
0.088317998 1.829834 -20.138672 7
0.094460003 1.773315 -20.079102 7
0.085960001 1.729004 -20.170898 7
0.076324001 1.685547 -20.273438 7
0.089226 1.6237791 -20.143555 7
0.055732999 -0.75708002 -19.242188 7
0.055663999 -0.80590802 -19.241211 7
0.040573001 -0.86071801 -19.383789 7
0.054320998 -0.90417498 -19.249023 7
-0.103264 -3.88623 -20.401367 7
-0.114807 -3.9576421 -20.5 7
-0.12574001 -4.0284419 -20.594727 7
-0.118614 -4.067627 -20.516602 7
-0.111481 -4.1065669 -20.438477 7
-0.109184 -4.1539311 -20.404297 7
-0.107475 -4.202271 -20.37793 7
-0.012375 5.104126 -19.301758 7
-0.0094149997 5.0479741 -19.285156 7
-0.017821999 5.0177002 -19.376953 7
-0.032187998 5.0007319 -19.524414 7
-0.049019001 4.9382319 -19.706055 7
-0.062789999 4.9179692 -19.849609 7
-0.047286998 4.8337402 -19.712891 7
0.065079004 1.88501 -19.050781 7
0.054221999 1.845703 -19.158203 7
0.071540996 1.782104 -18.994141 7
0.069091998 1.735474 -19.022461 7
0.064850003 1.690186 -19.067383 7
0.052581999 -0.98681599 -17.989258 7
0.04995 -1.034058 -18.010742 7
0.022353999 -1.093872 -18.257812 7
0.036377002 -1.132935 -18.12793 7
0.036942001 -1.178833 -18.119141 7
0.037498001 -1.224731 -18.110352 7
-0.13562 -4.0906978 -19.275391 7
-0.132523 -4.1339111 -19.237305 7
-0.124275 -4.1677251 -19.15332 7
-0.117943 -4.2047119 -19.086914 7
-0.117409 -4.2519531 -19.070312 7
-0.12262 -4.309937 -19.106445 7
0.062674999 1.907959 -17.794922 7
0.046691999 1.876343 -17.944336 7
0.065780997 1.813965 -17.775391 7
0.065719999 1.768311 -17.779297 7
0.065033004 1.723145 -17.790039 7
0.061156999 1.68042 -17.829102 7
0.066215999 1.630859 -17.786133 7
0.017708 -0.99108899 -17.205078 7
0.02713 -1.0305181 -17.12207 7
0.0087740002 -1.083496 -17.275391 7
0.012772 -1.125488 -17.238281 7
0.011955 -1.214111 -17.238281 7
0.024742 -1.250977 -17.125 7
-0.149544 -4.16394 -18.180664 7
-0.14353199 -4.1992192 -18.119141 7
-0.140305 -4.2852778 -18.070312 7
-0.12750199 -4.3074951 -17.953125 7
-0.14591999 -4.3876948 -18.095703 7
-0.148735 -4.4389648 -18.107422 7
0.050308 1.899048 -16.816406 7
0.050255001 1.855713 -16.819336 7
0.052925002 1.809937 -16.801758 7
0.056244001 1.7637939 -16.777344 7
0.048781998 1.726562 -16.844727 7
0.044684999 1.6862791 -16.883789 7
0.055435002 1.634521 -16.794922 7
0.020103 -0.974365 -16.119141 7
0.022194 -1.015015 -16.099609 7
0.030037001 -1.05249 -16.033203 7
0.011307 -1.103271 -16.182617 7
0.0091019999 -1.145874 -16.198242 7
0.012604 -1.1856689 -16.165039 7
0.016144 -1.22522 -16.132812 7
0.0045850002 -1.273315 -16.223633 7
-0.161194 -4.16394 -17.105469 7
-0.155518 -4.1976318 -17.050781 7
-0.152725 -4.2359619 -17.017578 7
-0.148506 -4.271606 -16.972656 7
-0.147888 -4.3139648 -16.957031 7
-0.158768 -4.3774409 -17.030273 7
-0.16748001 -4.4373779 -17.087891 7
-0.030182 5.03894 -15.817383 7
-0.032349002 5.0029302 -15.845703 7
-0.040939 4.980957 -15.924805 7
-0.045249999 4.9493408 -15.969727 7
-0.050278001 4.9188228 -16.021484 7
-0.065307997 4.9101558 -16.149414 7
-0.071762003 4.8823242 -16.211914 7
-0.053925 4.802124 -16.083984 7
0.058556002 1.579102 -15.716797 7
0.067116 1.532227 -15.651367 7
0.049904 1.503662 -15.793945 7
0.044853002 1.466309 -15.837891 7
0.050514001 1.421387 -15.794922 7
0.064796001 1.3712161 -15.682617 7
0.072594002 1.325439 -15.621094 7
0.063271001 1.290771 -15.700195 7
0.011063 -1.003052 -15.21875 7
0.014793 -1.040527 -15.1875 7
0.021561 -1.076416 -15.132812 7
0.022247 -1.1151119 -15.124023 7
0.0070110001 -1.1624759 -15.237305 7
-0.0036929999 -1.20752 -15.31543 7
0.0053559998 -1.242065 -15.242188 7
-0.17363 -4.203979 -16.117188 7
-0.174477 -4.2470698 -16.113281 7
-0.16771699 -4.2758789 -16.051758 7
-0.165512 -4.3131099 -16.026367 7
-0.164841 -4.3530269 -16.008789 7
-0.167206 -4.398315 -16.015625 7
-0.17716999 -4.458252 -16.079102 7
-0.068542004 5.0786128 -15.074219 7
-0.068565004 5.0394292 -15.085938 7
-0.075378001 5.0152588 -15.148438 7
-0.077689998 4.980957 -15.175781 7
-0.078460999 4.9431152 -15.193359 7
-0.079223998 4.9051509 -15.210938 7
-0.078483999 4.8638921 -15.216797 7
0.062270999 1.258545 -14.755859 7
0.044066999 1.230469 -14.897461 7
0.047812998 1.189575 -14.871094 7
0.061363 1.143555 -14.768555 7
0.068130001 1.10144 -14.719727 7
0.070350997 1.062012 -14.705078 7
0.071067996 1.023315 -14.702148 7
0.061188001 0.98938 -14.779297 7
0.021819999 -0.97961402 -14.22168 7
0.014549 -1.020142 -14.271484 7
0.027306 -1.050781 -14.175781 7
0.026435999 -1.088135 -14.178711 7
0.018371999 -1.12915 -14.234375 7
0.00065599999 -1.1756589 -14.358398 7
0.0086209998 -1.208496 -14.297852 7
0.010971 -1.2442631 -14.277344 7
0.014938 -1.279053 -14.246094 7
0.068565004 0.93151897 -13.825195 7
0.066932999 0.89587402 -13.839844 7
0.058090001 0.863159 -13.905273 7
0.058052 0.82665998 -13.907227 7
0.064400002 0.78784198 -13.862305 7
0.073951997 0.748169 -13.793945 7
0.077125996 0.71081501 -13.773438 7
0.080269001 0.673706 -13.750977 7
0.079437003 0.63769501 -13.758789 7
0.019966001 -0.966187 -13.445312 7
0.02076 -1.000854 -13.436523 7
0.012268 -1.0400389 -13.492188 7
0.020638 -1.071045 -13.431641 7
0.01722 -1.10791 -13.452148 7
0.017143 -1.143066 -13.449219 7
0.004433 -1.185181 -13.533203 7
0.002686 -1.221313 -13.541016 7
0.0068509998 -1.254395 -13.510742 7
0.070122004 0.60852098 -13.053711 7
0.069228999 0.574341 -13.060547 7
0.075934999 0.53833002 -13.015625 7
0.071686 0.50476098 -13.046875 7
0.068480998 0.46643099 -13.152344 7
0.074332997 0.43103001 -13.112305 7
0.076805003 0.395996 -13.095703 7
0.080139004 0.361206 -13.073242 7
0.080932997 0.326904 -13.068359 7
0.015503 -0.986206 -12.727539 7
0.0074539999 -1.023315 -12.776367 7
0.013557 -1.08728 -12.730469 7
0.017875999 -1.151733 -12.695312 7
-0.003487 -1.196777 -12.831055 7
-0.0044169999 -1.231079 -12.833984 7
-3.7999998e-05 -1.262085 -12.801758 7
-9.2000002e-05 -1.295776 -12.799805 7
0.0025180001 -1.327759 -12.779297 7
-0.075699002 5.037231 -12.432617 7
-0.048308998 4.943604 -12.275391 7
-0.050087001 4.9147949 -12.298828 7
-0.055411998 4.8937988 -12.342773 7
-0.058945 4.8686519 -12.376953 7
-0.064262003 4.8474121 -12.420898 7
-0.065163001 4.8162842 -12.4375 7
0.050597999 0.31896999 -12.457031 7
0.054977 0.2854 -12.428711 7
0.059349 0.25195301 -12.400391 7
0.063744001 0.21850599 -12.37207 7
0.067267999 0.18554699 -12.349609 7
0.070754997 0.152466 -12.326172 7
0.068047002 0.119995 -12.34375 7
0.060913 0.087523997 -12.389648 7
0.059096999 0.054687999 -12.401367 7
0.059944 0.021850999 -12.396484 7
0.058548 -0.10791 -11.829102 7
0.062233001 -0.138916 -11.806641 7
0.064971998 -0.170044 -11.789062 7
0.061195001 -0.201538 -11.810547 7
0.057342999 -0.29577601 -11.832031 7
-0.002838 -1.299683 -12.136719 7
-0.0019680001 -1.331177 -12.12793 7
-0.000153 -1.362183 -12.113281 7
-0.00019799999 -1.394043 -12.110352 7
-0.00679 -1.430298 -12.146484 7
-0.090949997 5.1138921 -11.754883 7
-0.094665997 5.0908198 -11.788086 7
-0.085395999 5.03894 -11.74707 7
-0.059471 4.9501948 -11.607422 7
-0.053932 4.907104 -11.585938 7
-0.058571 4.8861079 -11.625 7
-0.061356001 4.861084 -11.652344 7
-0.063231997 4.8338618 -11.674805 7
-0.066955999 4.810791 -11.708008 7
-0.085502997 4.8188481 -11.827148 7
0.036194 -0.34399399 -11.299805 7
0.039078001 -0.373413 -11.282227 7
0.041954 -0.40295401 -11.263672 7
0.048758999 -0.43139601 -11.222656 7
0.048721001 -0.461182 -11.22168 7
0.051612999 -0.49047899 -11.204102 7
0.041786 -0.52270502 -11.259766 7
0.029991001 -0.555664 -11.326172 7
0.033867002 -0.58471698 -11.302734 7
0.039673001 -0.613159 -11.265625 7
0.0078119999 -0.98669398 -11.427734 7
0.0057979999 -1.017822 -11.436523 7
0.0038069999 -1.049316 -11.446289 7
0.00081599999 -1.081055 -11.460938 7
0.005653 -1.109009 -11.429688 7
0.011475 -1.136353 -11.391602 7
0.0094680004 -1.167603 -11.400391 7
0.0084459996 -1.198364 -11.40332 7
-0.0062790001 -1.237061 -11.487305 7
-0.013184 -1.2713619 -11.524414 7
-0.000504 -1.294556 -11.447266 7
-0.001534 -1.325439 -11.449219 7
-0.0045389999 -1.357666 -11.462891 7
-0.0055689998 -1.3887939 -11.464844 7
0.029152 -0.64587402 -10.756836 7
0.032127 -0.702393 -10.736328 7
0.027984999 -0.73242199 -10.756836 7
0.015694 -0.765625 -10.825195 7
0.011559 -0.79602098 -10.845703 7
0.019676 -0.821899 -10.797852 7
0.023674 -0.87792999 -10.771484 7
0.016434001 -0.938721 -10.806641 7
0.0027920001 -1.147583 -10.863281 7
0.00064799999 -1.2069089 -10.869141 7
0.0060120001 -0.952393 -10.266602 7
0.001678 -0.98205602 -10.287109 7
0.013428 -1.00415 -10.222656 7
0.01123 -1.032593 -10.230469 7
0.012268 -1.05957 -10.222656 7
0.011147 -1.087646 -10.225586 7
-0.00069399999 -1.1212161 -10.286133 7
0.0067599998 -1.14502 -10.243164 7
0.0024260001 -1.174805 -10.263672 7
0.002388 -1.202271 -10.260742 7
-0.0041049998 -1.2336431 -10.291992 7
-0.018105 -1.2694089 -10.364258 7
-0.163681 -2.2359619 13.473633 7
-0.162544 -2.2062991 13.473633 7
-0.16032401 -2.175781 13.467773 7
-0.15807299 -2.1451421 13.460938 7
-0.15582301 -2.08606 13.459961 7
-0.153595 -2.0554199 13.455078 7
-0.148026 -1.993652 13.435547 7
-0.14910901 -1.965942 13.446289 7
-0.14357001 -1.933105 13.421875 7
-0.138023 -1.9000241 13.397461 7
-0.13690899 -1.87085 13.397461 7
-0.133553 -1.839844 13.383789 7
-0.13349199 -1.7830811 13.392578 7
-0.129051 -1.751343 13.375 7
-0.125717 -1.720459 13.361328 7
-0.12458 -1.691406 13.360352 7
-0.123436 -1.662231 13.357422 7
0.010254 -0.961914 -9.7333984 7
0.011337 -0.98779303 -9.7255859 7
0.012405 -1.01355 -9.7177734 7
0.012367 -1.039795 -9.7148438 7
-0.0067139999 -1.075439 -9.8085938 7
-0.01236 -1.104736 -9.8349609 7
-0.0045469999 -1.127319 -9.7929688 7
-0.0034709999 -1.153198 -9.7841797 7
0.0020679999 -1.176514 -9.7529297 7
0.002014 -1.202881 -9.75 7
-0.000244 -1.230713 -9.7587891 7
-0.012634 -1.26416 -9.8183594 7
-0.005043 -0.97705102 -9.3222656 7
-0.01326 -1.0062259 -9.3603516 7
-0.009811 -1.0300291 -9.3398438 7
-0.002838 -1.052124 -9.3037109 7
0.001801 -1.0749511 -9.2783203 7
0.00293 -1.099731 -9.2705078 7
0.002899 -1.125122 -9.2675781 7
-0.01001 -1.15686 -9.3271484 7
-0.0042039999 -1.179199 -9.2958984 7
-0.0077669998 -1.206421 -9.3105469 7
-0.0089800004 -1.2325439 -9.3134766 7
-0.010185 -1.258301 -9.3154297 7
-0.064986996 4.7883301 -8.5166016 7
-0.069633 4.7745361 -8.5488281 7
-0.071983002 4.7557368 -8.5693359 7
-0.070839003 4.7294922 -8.5751953 7
-0.071990997 4.7081299 -8.5917969 7
-0.001854 -0.98327601 -8.8525391 7
-0.001884 -1.0074461 -8.8505859 7
0.0029529999 -1.0294189 -8.8261719 7
0.00046499999 -1.054688 -8.8339844 7
-0.012985 -1.0855711 -8.8935547 7
-0.0081630005 -1.1073 -8.8681641 7
-0.0069809998 -1.130981 -8.859375 7
-0.002144 -1.15271 -8.8339844 7
-0.0082630003 -1.180298 -8.8603516 7
-0.013199 -1.207153 -8.8789062 7
-0.016883999 -1.233521 -8.8935547 7
-0.0083999997 -1.253052 -8.8515615 7
-0.117767 -1.829102 11.833984 7
-0.11525 -1.802246 11.826172 7
-0.112732 -1.775879 11.819336 7
-0.113968 -1.752075 11.830078 7
-0.107712 -1.722656 11.805664 7
-0.105194 -1.696167 11.798828 7
-0.110146 -1.675415 11.825195 7
-0.107628 -1.648926 11.817383 7
-0.100113 -1.618896 11.787109 7
-0.108223 -1.905273 11.301758 7
-0.106903 -1.880859 11.301758 7
-0.106888 -1.8573 11.306641 7
-0.102951 -1.830811 11.292969 7
-0.099030003 -1.804443 11.28125 7
-0.091209002 -1.7750241 11.250977 7
-0.092468001 -1.752441 11.260742 7
-0.097649001 -1.7331541 11.287109 7
-0.108047 -1.7175291 11.336914 7
-0.104111 -1.69104 11.324219 7
-0.078064002 -1.648682 11.216797 7
-0.076736003 -1.624634 11.213867 7
-0.0098799998 -1.281616 -7.983398 7
-0.015381 -1.395874 -7.9892578 7
-0.32058701 -5.112061 10.643555 7
-0.31787899 -5.0844731 10.645508 7
-0.32057199 -5.0681152 10.666992 7
-0.32058001 -5.0461431 10.679688 7
-0.31922099 -5.0214839 10.686523 7
-0.31922901 -4.9993901 10.699219 7
-0.321915 -4.9827881 10.720703 7
-0.324615 -4.9659419 10.742188 7
-0.32867399 -4.9520259 10.768555 7
-0.31649801 -4.9058838 10.735352 7
-0.31917599 -4.8890381 10.756836 7
-0.315117 -4.8591309 10.75293 7
-0.31782499 -4.842041 10.774414 7
-0.31241599 -4.8093262 10.766602 7
-0.117363 -1.904297 10.933594 7
-0.128143 -1.890625 10.982422 7
-0.122719 -1.863403 10.964844 7
-0.113228 -1.833252 10.929688 7
-0.105095 -1.8043211 10.900391 7
-0.103722 -1.780884 10.898438 7
-0.106392 -1.760498 10.914062 7
-0.103668 -1.73584 10.907227 7
-0.118515 -1.724731 10.972656 7
-0.109032 -1.694702 10.938477 7
-0.108994 -1.672119 10.942383 7
-0.107628 -1.648682 10.939453 7
-0.100845 -1.621338 10.916016 7
-0.32286799 -5.1158452 10.154297 7
-0.311607 -5.072144 10.126953 7
-0.311607 -5.0515141 10.139648 7
-0.31441501 -5.036499 10.161133 7
-0.310173 -5.0072021 10.157227 7
-0.31159201 -4.9892578 10.174805 7
-0.31159201 -4.9685059 10.186523 7
-0.308777 -4.9421391 10.188477 7
-0.31300399 -4.929565 10.214844 7
-0.310188 -4.9031978 10.216797 7
-0.097626001 -1.917603 10.442383 7
-0.100418 -1.89856 10.458008 7
-0.100403 -1.877197 10.462891 7
-0.108803 -1.8625489 10.5 7
-0.10598 -1.838745 10.494141 7
-0.098930001 -1.811646 10.469727 7
-0.097503997 -1.789062 10.46875 7
-0.093245998 -1.764282 10.456055 7
-0.087608002 -1.738647 10.4375 7
-0.087585002 -1.717285 10.441406 7
-0.090369999 -1.697754 10.457031 7
-0.094566002 -1.679565 10.477539 7
-0.088913001 -1.654053 10.458984 7
-0.090301998 -1.633545 10.46875 7
-0.091697998 -1.613037 10.478516 7
-0.078727998 0.96960402 10.541992 7
-0.081490003 0.992432 10.550781 7
-0.081450999 1.01416 10.547852 7
-0.075797997 1.0330811 10.522461 7
-0.085472003 1.124146 10.552734 7
-0.088188 1.168945 10.557617 7
-0.088127002 1.212158 10.552734 7
-0.089492999 1.234619 10.555664 7
-0.088036001 1.255493 10.546875 7
-0.14901701 4.1625981 9.9501953 7
-0.144768 4.1751709 9.9248047 7
-0.334023 -6.2061772 -6.3818359 7
-0.33264199 -6.2209468 -6.3632808 7
-0.32410401 -6.217773 -6.3212891 7
-0.3256 -6.239502 -6.3095698 7
-0.32423401 -6.254272 -6.2910161 7
-0.334335 -6.2976069 -6.3066411 7
-0.33441901 -6.3157959 -6.2919922 7
-0.33447999 -6.3339839 -6.2773442 7
-0.33741 -6.3594971 -6.2705078 7
-0.34468099 -6.395752 -6.2763672 7
-0.31841299 -5.0932622 9.7041016 7
-0.31549799 -5.0675049 9.7070312 7
-0.31549799 -5.047852 9.71875 7
-0.321358 -5.0397949 9.7509766 7
-0.312599 -5.002563 9.734375 7
-0.315514 -4.988647 9.7558594 7
-0.315521 -4.9688721 9.7675781 7
-0.318443 -4.954834 9.7890615 7
-0.31696299 -4.9320068 9.7958984 7
-0.316971 -4.912231 9.8076172 7
-0.31112701 -4.8808589 9.7988281 7
-0.316971 -4.8721919 9.8310547 7
-0.312592 -4.84375 9.8271484 7
-0.31112701 -4.8210449 9.8339844 7
-0.31111899 -4.8010249 9.8447266 7
-0.098220997 -1.907593 10.092773 7
-0.095306002 -1.884644 10.086914 7
-0.101097 -1.8687741 10.113281 7
-0.103996 -1.8505861 10.128906 7
-0.105431 -1.831177 10.138672 7
-0.090828001 -1.79895 10.086914 7
-0.089354999 -1.777222 10.085938 7
-0.084953003 -1.7531739 10.073242 7
-0.084937997 -1.732666 10.078125 7
-0.080550998 -1.7088619 10.064453 7
-0.092170998 -1.697144 10.113281 7
-0.087791003 -1.673218 10.101562 7
-0.084853999 -1.6505131 10.092773 7
-0.084830999 -1.630005 10.09668 7
-0.080421001 -1.606323 10.083984 7
-0.14911699 4.160522 9.5537109 7
-0.141838 4.166748 9.5185547 7
-0.13452099 4.172852 9.4833984 7
-0.13592499 4.194458 9.4785156 7
-0.13294999 4.208252 9.4580078 7
-0.13290399 4.2272949 9.4482422 7
-0.137207 4.254395 9.4541016 7
-0.132805 4.2652588 9.4287109 7
-0.13420901 4.2869868 9.4238281 7
-0.13559701 4.3085942 9.4179688 7
-0.134094 4.3249512 9.4033203 7
-0.13695499 4.3491211 9.4033203 7
-0.15284701 4.3980708 9.4472656 7
-0.15715 4.425293 9.4521484 7
-0.15419 4.4388428 9.4316406 7
-0.155586 4.4605708 9.4267578 7
-0.33371699 -6.0836182 -5.9755859 7
-0.336761 -6.1082759 -5.9707031 7
-0.342796 -6.1402588 -5.9726558 7
-0.34584001 -6.1647949 -5.9667969 7
-0.342926 -6.1749272 -5.9433589 7
-0.348961 -6.2069092 -5.945312 7
-0.35051 -6.2280269 -5.9355469 7
-0.343117 -6.2269292 -5.8994141 7
-0.33570099 -6.2255859 -5.8632808 7
-0.33278701 -6.2354741 -5.8388672 7
-0.34182 -6.2747798 -5.8496089 7
-0.33739501 -6.2807622 -5.8222661 7
-0.34043899 -6.3054199 -5.8154302 7
-0.347969 -6.341064 -5.8222661 7
-0.34503201 -6.3504639 -5.7988281 7
-0.34060699 -6.3563228 -5.7714839 7
-0.34515399 -6.3848882 -5.7685552 7
-0.326271 -5.118042 9.2773438 7
-0.32020599 -5.0871582 9.2695312 7
-0.31112701 -5.0501709 9.2529297 7
-0.31264499 -5.0345459 9.2705078 7
-0.31719199 -5.0250239 9.296875 7
-0.30960801 -4.9912109 9.2841797 7
-0.30809 -4.9693599 9.2910156 7
-0.31414801 -4.962646 9.3222656 7
-0.31567401 -4.9468989 9.3388672 7
-0.31566599 -4.9282231 9.3505859 7
-0.31719199 -4.912354 9.3671885 7
-0.30810499 -4.8757319 9.3496094 7
-0.31567401 -4.871582 9.3857422 7
-0.314156 -4.849854 9.3925781 7
-0.30507699 -4.813354 9.3740234 7
-0.31264499 -4.8088379 9.4101562 7
-0.318703 -4.8015141 9.4414062 7
-0.102493 -1.9161381 9.7529297 7
-0.097946003 -1.892578 9.7412109 7
-0.094893999 -1.870361 9.7333984 7
-0.10849 -1.861816 9.7880859 7
-0.10244 -1.837036 9.7714844 7
-0.097855002 -1.813599 9.7587891 7
-0.088783003 -1.786743 9.7294922 7
-0.085739002 -1.764526 9.7236328 7
-0.091766 -1.749512 9.75 7
-0.087219 -1.726318 9.7373047 7
-0.081153996 -1.702026 9.7197266 7
-0.091705002 -1.69043 9.7617188 7
-0.096221998 -1.67395 9.7822266 7
-0.085625 -1.6463619 9.7480469 7
-0.084083997 -1.625488 9.7460938 7
-0.078018002 -1.60144 9.7275391 7
-0.075011998 0.97570801 9.8369141 7
-0.07045 0.99340802 9.8173828 7
-0.065880001 1.011353 9.7978516 7
-0.074905001 1.0354 9.8291016 7
-0.077895999 1.0567631 9.8378906 7
-0.077849999 1.076538 9.8349609 7
-0.076316997 1.095947 9.8271484 7
-0.070235997 1.112793 9.8017578 7
-0.088317998 1.1418459 9.8671885 7
-0.083763003 1.159546 9.8476562 7
-0.080681004 1.177979 9.8330078 7
-0.086692996 1.20105 9.8535156 7
-0.089676 1.2225339 9.8613281 7
-0.083595 1.23938 9.8359385 7
-0.083557002 1.259155 9.8330078 7
-0.157013 4.1618652 9.1875 7
-0.15696 4.1801758 9.1777344 7
-0.147873 4.182251 9.1376953 7
-0.14781199 4.200562 9.1279297 7
-0.156799 4.2351069 9.1474609 7
-0.16428401 4.2670898 9.1630859 7
-0.161209 4.2800288 9.1425781 7
-0.15815701 4.2927251 9.1220703 7
-0.155083 4.3054199 9.1025391 7
-0.161064 4.3348389 9.1123047 7
-0.159492 4.3503418 9.0966797 7
-0.156433 4.3626709 9.0771484 7
-0.16239899 4.3920898 9.0859385 7
-0.16536701 4.415894 9.0859385 7
-0.150452 4.4050288 9.0253906 7
-0.154907 4.4316411 9.0302734 7
-0.15636399 4.4523931 9.0253906 7
-0.34146899 -6.2281489 -5.4277339 7
-0.341537 -6.2441411 -5.4121089 7
-0.335419 -6.2449951 -5.3798828 7
-0.34011799 -6.2724609 -5.3789058 7
-0.33245099 -6.2694092 -5.342773 7
-0.32788101 -6.2736821 -5.3154302 7
-0.334122 -6.3051758 -5.3164058 7
-0.33571601 -6.3248291 -5.3056641 7
-0.338875 -6.3483891 -5.2988281 7
-0.34200999 -6.3720698 -5.2929692 7
-0.343613 -6.3918462 -5.28125 7
-0.32379201 -5.1113281 8.875 7
-0.312828 -5.0712891 8.8544922 7
-0.31283599 -5.053833 8.8662109 7
-0.30188 -5.0140381 8.8447266 7
-0.30031601 -4.9931641 8.8525391 7
-0.30345199 -4.981812 8.8730469 7
-0.30501601 -4.9672852 8.890625 7
-0.30500799 -4.949585 8.9023438 7
-0.30657199 -4.934814 8.9179688 7
-0.30345899 -4.9108891 8.9208984 7
-0.30345899 -4.8929439 8.9326172 7
-0.31439999 -4.896729 8.9765615 7
-0.309715 -4.8696289 8.9746094 7
-0.31599399 -4.8638921 9.0048828 7
-0.31128699 -4.8366699 9.0019531 7
-0.30190301 -4.800415 8.9853516 7
-0.087921001 -1.912354 9.3916016 7
-0.095725998 -1.9000241 9.4248047 7
-0.094154 -1.879761 9.4238281 7
-0.094116002 -1.86084 9.4277344 7
-0.095673002 -1.84314 9.4375 7
-0.105034 -1.831665 9.4746094 7
-0.095633999 -1.805176 9.4462891 7
-0.087784 -1.779785 9.421875 7
-0.075263999 -1.751099 9.3828115 7
-0.087752998 -1.7418211 9.4306641 7
-0.083038002 -1.7194819 9.4179688 7
-0.084595002 -1.701538 9.4277344 7
-0.083030999 -1.681396 9.4267578 7
-0.089233004 -1.66687 9.453125 7
-0.087661996 -1.646729 9.4521484 7
-0.079819001 -1.622192 9.4267578 7
-0.084480003 -1.606445 9.4472656 7
-0.070891999 4.7662349 -5.3408198 7
-0.067809999 4.7436519 -5.34375 7
-0.061661001 4.714478 -5.335938 7
-0.058586001 4.6920171 -5.3378911 7
-0.064719997 4.6887212 -5.367188 7
-0.060112 4.6629639 -5.3652339 7
-0.063164003 4.6529541 -5.3847661 7
-0.060089 4.6303711 -5.3867192 7
-0.066238001 4.6268311 -5.4160161 7
-0.067757003 4.613647 -5.4316411 7
-0.38398701 -6.7159419 7.2558589 7
-0.38562801 -6.7061772 7.2753911 7
-0.384018 -6.6879878 7.2871089 7
-0.38404801 -6.6740718 7.304688 7
-0.38243899 -6.6558838 7.3164058 7
-0.39057201 -6.6627202 7.3505859 7
-0.384094 -6.631958 7.351562 7
-0.32012901 -5.1071782 8.4306641 7
-0.31201199 -5.0740972 8.4208984 7
-0.30878401 -5.0509028 8.4228516 7
-0.300652 -5.0177002 8.4121094 7
-0.299034 -4.9978032 8.4199219 7
-0.299034 -4.9812012 8.4316406 7
-0.303909 -4.9744868 8.4570312 7
-0.30229199 -4.9543462 8.4638672 7
-0.30554199 -4.9440918 8.4853516 7
-0.29743201 -4.9112549 8.4736328 7
-0.300697 -4.9007568 8.4960938 7
-0.30880699 -4.9000239 8.5302734 7
-0.315308 -4.895874 8.5605469 7
-0.30557999 -4.8599849 8.5449219 7
-0.308815 -4.8493652 8.5644531 7
-0.30395499 -4.8227539 8.5625 7
-0.087012999 -1.90979 9.0605469 7
-0.091858 -1.895752 9.0810547 7
-0.090209998 -1.8762209 9.0800781 7
-0.086952001 -1.855347 9.0732422 7
-0.093422003 -1.842285 9.0996094 7
-0.093406998 -1.824219 9.1044922 7
-0.096648999 -1.808594 9.1210938 7
-0.095023997 -1.78894 9.1201172 7
-0.086883999 -1.7644041 9.0957031 7
-0.073890999 -1.7362061 9.0566406 7
-0.077118002 -1.720703 9.0712891 7
-0.077095002 -1.702515 9.0751953 7
-0.077072002 -1.684204 9.0791016 7
-0.073813997 -1.6636961 9.0722656 7
-0.085143998 -1.653809 9.1142578 7
-0.088363998 -1.637939 9.1298828 7
-0.086723 -1.618652 9.1279297 7
-0.088340998 -1.601318 9.1376953 7
-0.064383999 0.97412097 9.1796885 7
-0.064354002 0.992432 9.1767578 7
-0.056221001 1.007202 9.1464844 7
-0.049713001 1.022705 9.1220703 7
-0.052925002 1.042236 9.1308594 7
-0.059372 1.063599 9.1513672 7
-0.069061004 1.086548 9.1826172 7
-0.062537998 1.1019289 9.1572266 7
-0.062508002 1.120361 9.1552734 7
-0.065711997 1.140137 9.1630859 7
-0.072159 1.161865 9.1826172 7
-0.068885997 1.178467 9.1689453 7
-0.062378 1.193481 9.1435547 7
-0.068824999 1.21521 9.1630859 7
-0.072029002 1.235352 9.171875 7
-0.068747997 1.251953 9.1572266 7
-0.068726003 1.270386 9.1542969 7
-0.076118 4.7723389 -4.954102 7
-0.057014 4.7166748 -4.9111328 7
-0.058594 4.7049561 -4.9267578 7
-0.056976002 4.686523 -4.9335942 7
-0.058571 4.6746831 -4.9492192 7
-0.063323997 4.6694341 -4.9736328 7
-0.063323997 4.6540532 -4.985352 7
-0.058548 4.6289058 -4.9814448 7
-0.061728999 4.6202388 -5.0019531 7
-0.058525 4.5983891 -5.0039058 7
-0.061698999 4.5896001 -5.023438 7
-0.063285999 4.5773931 -5.0400391 7
-0.071235999 4.5782471 -5.0732422 7
-0.077598996 4.575562 -5.1025391 7
-0.077591002 4.559937 -5.1132808 7
-0.080765001 4.5506592 -5.132812 7
-0.079163 4.5317378 -5.1386719 7
-0.079154998 4.5161128 -5.1503911 7
-0.074371003 4.4909668 -5.1464839 7
-0.33594501 -6.1679692 -4.4648442 7
-0.34265101 -6.197998 -4.4658198 7
-0.34104899 -6.2077641 -4.4472661 7
-0.34276599 -6.2255859 -4.436523 7
-0.34781599 -6.2518311 -4.4335942 7
-0.34453601 -6.2573242 -4.4101558 7
-0.347931 -6.2791748 -4.4033198 7
-0.33798999 -6.268188 -4.3662109 7
-0.32973501 -6.2611079 -4.3320308 7
-0.33477801 -6.2869868 -4.329102 7
-0.33485401 -6.3005371 -4.313477 7
-0.334892 -6.3143311 -4.2988281 7
-0.336624 -6.3317871 -4.2871089 7
-0.34167501 -6.3577881 -4.2832031 7
-0.340042 -6.367065 -4.264648 7
-0.33512101 -6.3677979 -4.2382808 7
-0.33351901 -6.3768311 -4.219727 7
-0.38297999 -6.4448242 7.045898 7
-0.30822799 -5.0948491 7.9775391 7
-0.30823499 -5.0792241 7.9892578 7
-0.30319199 -5.0534668 7.9882808 7
-0.299835 -5.0310059 7.9912109 7
-0.291428 -4.9985352 7.9804692 7
-0.293129 -4.986084 7.9980469 7
-0.301552 -4.9875488 8.0322266 7
-0.29649401 -4.9615479 8.0292969 7
-0.294815 -4.9425049 8.0371094 7
-0.296509 -4.9301758 8.0537109 7
-0.29313701 -4.9077148 8.0566406 7
-0.293152 -4.8919678 8.0683594 7
-0.29988101 -4.8895259 8.0976562 7
-0.30662501 -4.8867192 8.1279297 7
-0.30998999 -4.8774409 8.1474609 7
-0.30495501 -4.85144 8.1464844 7
-0.29148901 -4.8095698 8.1210938 7
-0.29653901 -4.8033452 8.1455078 7
-0.085381001 -1.905273 8.7460938 7
-0.088721998 -1.890625 8.7607422 7
-0.081992999 -1.867676 8.7441406 7
-0.086998001 -1.8544919 8.7636719 7
-0.086989999 -1.837158 8.7695312 7
-0.088669002 -1.820801 8.7792969 7
-0.090324 -1.80481 8.7890615 7
-0.086944997 -1.784668 8.7822266 7
-0.078514002 -1.76062 8.7587891 7
-0.071769997 -1.7381589 8.7402344 7
-0.068382002 -1.71814 8.7333984 7
-0.075111002 -1.705811 8.7617188 7
-0.071754001 -1.685913 8.7548828 7
-0.064986996 -1.663574 8.7363281 7
-0.075072996 -1.653564 8.7734385 7
-0.071686 -1.633911 8.765625 7
-0.07502 -1.6187741 8.7802734 7
-0.075005002 -1.601318 8.7841797 7
-0.060447998 0.97094703 8.8662109 7
-0.060424998 0.98864698 8.8642578 7
-0.055351 1.003906 8.8447266 7
-0.051964 1.02002 8.8310547 7
-0.051941 1.0374759 8.8291016 7
-0.053603999 1.055908 8.8330078 7
-0.053566001 1.073486 8.8300781 7
-0.050170999 1.089478 8.8164062 7
-0.060219001 1.111938 8.8476562 7
-0.066901997 1.132935 8.8671885 7
-0.066863999 1.150635 8.8642578 7
-0.060104001 1.164673 8.8398438 7
-0.065102004 1.184937 8.8535156 7
-0.056694001 1.197998 8.8232422 7
-0.065040998 1.2199709 8.8476562 7
-0.068374999 1.239502 8.8564453 7
-0.068343997 1.257202 8.8535156 7
-0.073340997 1.277588 8.8671885 7
-0.083557002 4.791626 -4.5849609 7
-0.071990997 4.7528081 -4.5654302 7
-0.062096 4.717896 -4.5498052 7
-0.060424998 4.7001948 -4.5566411 7
-0.058761999 4.682373 -4.5644531 7
-0.067001 4.6851811 -4.5976558 7
-0.068649001 4.6743159 -4.6123052 7
-0.058745999 4.6394038 -4.5966802 7
-0.060387 4.628418 -4.6123052 7
-0.063675001 4.620728 -4.6318359 7
-0.060387 4.5996089 -4.632812 7
-0.062019002 4.588501 -4.648438 7
-0.070800997 4.5914311 -4.6816411 7
-0.079048 4.5935059 -4.7148442 7
-0.093910001 4.6090088 -4.766602 7
-0.080681004 4.5675049 -4.7412109 7
-0.074065998 4.5395508 -4.733398 7
-0.077362001 4.5316162 -4.7529302 7
-0.077362001 4.5168462 -4.7636719 7
-0.078994997 4.5053711 -4.7792969 7
-0.077331997 4.4871831 -4.7861328 7
-0.29954499 -5.096436 7.546875 7
-0.30129999 -5.0853271 7.563477 7
-0.308258 -5.0849609 7.592773 7
-0.29783601 -5.0489502 7.579102 7
-0.296112 -5.0308838 7.5869141 7
-0.29610401 -5.0162349 7.5996089 7
-0.29437301 -4.9979248 7.6074219 7
-0.29264799 -4.9797359 7.6142578 7
-0.297874 -4.9754639 7.639648 7
-0.29440299 -4.9538569 7.641602 7
-0.29092401 -4.9321289 7.6445308 7
-0.290939 -4.9173579 7.657227 7
-0.29267901 -4.9060059 7.672852 7
-0.301384 -4.9083252 7.7060552 7
-0.30487099 -4.900269 7.7275391 7
-0.29965201 -4.875 7.7246089 7
-0.28746 -4.8361821 7.7050781 7
-0.29096201 -4.8280029 7.726562 7
-0.29793501 -4.8265381 7.7558589 7
-0.084801003 -1.917725 8.4511719 7
-0.084778003 -1.901123 8.4560547 7
-0.081284001 -1.881592 8.4501953 7
-0.077789001 -1.862061 8.4423828 7
-0.082993001 -1.849609 8.4638672 7
-0.077758998 -1.828735 8.4521484 7
-0.084702 -1.817505 8.4775391 7
-0.089928001 -1.804932 8.5 7
-0.079467997 -1.779907 8.4707031 7
-0.079444997 -1.763306 8.4746094 7
-0.067253001 -1.737061 8.4414062 7
-0.065498002 -1.719238 8.4394531 7
-0.068962 -1.7052 8.4541016 7
-0.067199998 -1.687134 8.453125 7
-0.063712999 -1.667969 8.4462891 7
-0.067176998 -1.653809 8.4619141 7
-0.077606 -1.644775 8.4980469 7
-0.075828999 -1.626587 8.4960938 7
-0.068855003 -1.604858 8.4785156 7
-0.059195999 0.96875 8.5839844 7
-0.050468002 0.98168898 8.5537109 7
-0.052177001 0.99951202 8.5576172 7
-0.052147001 1.016235 8.5546885 7
-0.050384998 1.032349 8.546875 7
-0.050354 1.049194 8.5439453 7
-0.052048001 1.067017 8.546875 7
-0.050301 1.0830081 8.5390615 7
-0.050255001 1.099854 8.5371094 7
-0.051964 1.1175539 8.5400391 7
-0.060623001 1.1387939 8.5654297 7
-0.058837999 1.154907 8.5566406 7
-0.062279001 1.173584 8.5644531 7
-0.062256001 1.190552 8.5625 7
-0.062217999 1.20752 8.5585938 7
-0.058715999 1.2225339 8.5449219 7
-0.069107004 1.2451169 8.5751953 7
-0.065605 1.260132 8.5615234 7
-0.067307003 1.277954 8.5634766 7
-0.079239003 4.7658691 -4.2128911 7
-0.068970002 4.7310791 -4.1992192 7
-0.062141001 4.7033691 -4.1923828 7
-0.063819997 4.693481 -4.2089839 7
-0.063812003 4.6799321 -4.219727 7
-0.065521002 4.6699219 -4.235352 7
-0.063796997 4.6530762 -4.242188 7
-0.06208 4.6359859 -4.2480469 7
-0.062073 4.622437 -4.2587891 7
-0.063758999 4.6123052 -4.2753911 7
-0.063758999 4.5987549 -4.2851558 7
-0.072281003 4.6025391 -4.3183589 7
-0.077422999 4.5991211 -4.3417969 7
-0.089386001 4.6096191 -4.382812 7
-0.085968003 4.5889888 -4.3837891 7
-0.089911997 4.58252 -4.4033198 7
-0.083061002 4.5549321 -4.3974609 7
-0.083038002 4.5410161 -4.4082031 7
-0.081313998 4.5236821 -4.414062 7
-0.079613 4.5063481 -4.4199219 7
-0.30050701 -5.1092529 7.1630859 7
-0.30770099 -5.110352 7.1914058 7
-0.30953199 -5.1003418 7.2089839 7
-0.30953199 -5.0864258 7.2207031 7
-0.28794101 -5.0288091 7.1816411 7
-0.302338 -5.0444341 7.2275391 7
-0.29518101 -5.0158691 7.2236328 7
-0.29698199 -5.0057368 7.2402339 7
-0.30059099 -4.999146 7.2597661 7
-0.29518899 -4.9743652 7.2587891 7
-0.29879799 -4.967773 7.2792969 7
-0.29161799 -4.9396968 7.273438 7
-0.295212 -4.9328609 7.2939448 7
-0.29523501 -4.9188228 7.3056641 7
-0.29524201 -4.9049072 7.3183589 7
-0.29523501 -4.8908691 7.329102 7
-0.30423701 -4.8944092 7.3623052 7
-0.29885101 -4.869751 7.3613281 7
-0.30246699 -4.862915 7.3808589 7
-0.293457 -4.8309331 7.3710942 7
-0.29527301 -4.820312 7.3867192 7
-0.29888901 -4.8132319 7.407227 7
-0.084105998 -1.912354 8.1796885 7
-0.078697003 -1.891968 8.1679688 7
-0.087684996 -1.883301 8.1992188 7
-0.082275003 -1.862915 8.1875 7
-0.087669 -1.851318 8.2089844 7
-0.078658998 -1.827881 8.1855469 7
-0.082245 -1.814697 8.2011719 7
-0.084022999 -1.8000489 8.2109385 7
-0.082199 -1.7824709 8.2089844 7
-0.082199 -1.766479 8.2138672 7
-0.082176 -1.750366 8.2177734 7
-0.073151 -1.727295 8.1943359 7
-0.071341999 -1.709839 8.1933594 7
-0.073128 -1.69519 8.203125 7
-0.071319997 -1.677734 8.2021484 7
-0.071312003 -1.661621 8.2060547 7
-0.065886997 -1.641724 8.1933594 7
-0.083878003 -1.638672 8.2519531 7
-0.073059 -1.614624 8.2226562 7
-0.052421998 0.96362299 8.3007812 7
-0.061377998 0.98388702 8.3261719 7
-0.057776999 0.99853498 8.3144531 7
-0.055939 1.014038 8.3056641 7
-0.050507002 1.027954 8.2861328 7
-0.055884998 1.046753 8.3007812 7
-0.054053999 1.062256 8.2929688 7
-0.054031 1.078613 8.2910156 7
-0.055801 1.0955811 8.2939453 7
-0.053963002 1.111084 8.2861328 7
-0.064727999 1.132812 8.3173828 7
-0.052108999 1.1427 8.2753906 7
-0.061050002 1.1636961 8.2998047 7
-0.061020002 1.17981 8.296875 7
-0.060989 1.196167 8.2939453 7
-0.053771999 1.208496 8.2695312 7
-0.068115003 1.232788 8.3095703 7
-0.068085 1.249023 8.3076172 7
-0.051879998 1.2562259 8.2548828 7
-0.059044 1.276489 8.2744141 7
-0.104608 -1.750897 11.033953 7
-0.088048004 -1.890138 10.207172 7
-0.07463 1.086005 10.282562 7
-0.13022 4.323185 9.4571934 7
-0.052682001 0.969733 9.6165962 7
-0.36521599 -4.9455528 9.7287464 7
-0.115187 -1.8902299 9.4005775 7
-0.33665401 -4.903553 8.8115788 7
-0.090388998 -1.9056751 8.8033295 7
-0.079689004 -1.680501 8.8086271 7
-0.077845998 1.0698889 8.9672585 7
-0.31338799 -5.012486 7.8232641 7
-0.31736499 -4.8593211 8.037096 7
-0.061742 -1.894304 8.258378 7
-0.055927001 -1.7019809 8.2969255 7
-0.062182002 0.97944999 8.552639 7
-0.063598 1.1697381 8.519516 7
-0.27518699 -4.9394631 6.87746 7
-0.27924499 -4.8266878 7.0878119 7
-0.037533 -1.719969 7.8724842 7
-0.042332999 1.066608 8.1266479 7
-0.053888001 1.25644 8.1451578 7
-0.079025999 -1.767506 7.5769711 7
-0.073694997 0.98967999 7.8329949 7
-0.073248997 1.1469049 7.7888398 7
-0.29407501 -4.82656 5.1119289 7
-0.068415001 -1.788995 7.2768822 7
-0.057356998 -1.6271501 7.2981 7
-0.051130001 1.055071 7.4905839 7
-0.060118999 1.213214 7.4870801 7
-0.055073 -1.794979 6.991889 7
-0.047157001 -1.651348 7.029778 7
-0.039987002 0.987077 7.2696891 7
-0.038316999 1.118791 7.220686 7
-0.053980999 1.278051 7.2405019 7
-0.054995 -1.825511 6.7793322 7
-0.040181998 -1.67441 6.7952762 7
-0.071341999 -1.806904 6.5222621 7
-0.072148003 -1.702442 6.596004 7
0.096614003 -1.0944819 -13.759118 7
-0.178427 -1.691131 15.232538 7
0.022798 -1.478164 -6.8165088 7
-0.159705 -2.0491099 13.748765 7
0.022488 -1.430737 -5.8111882 7
0.046491999 -1.382547 -4.7781529 7
-0.29957399 -6.2354059 -5.308672 7
-0.047472 -1.792767 11.156883 7
-0.016228 -1.344056 -3.991919 7
-0.36517501 -4.9072342 10.815231 7
-0.096923999 -1.712325 10.361811 7
-0.35048199 -4.8935399 10.070016 7
-0.073868997 -1.651359 9.7461624 7
-0.32762799 -5.0843711 9.1850128 7
-0.31577 -4.8106232 9.3170052 7
-0.066105999 -1.855126 9.2328987 7
-0.45805401 -6.6411691 7.2948689 7
-0.36062199 -4.953578 8.5083237 7
-0.115293 -1.7949311 8.8173962 7
-0.33318299 -4.8682251 7.96772 7
-0.07282 -1.724656 8.3173695 7
-0.31689599 -5.0170922 7.3001041 7
-0.31717899 -4.8104348 7.5178008 7
-0.077249996 -1.8896019 8.0289383 7
-0.047127999 -1.671983 7.9435072 7
-0.30236199 -5.0811949 6.7257681 7
-0.27553001 -4.8567362 6.8238029 7
-0.048608001 -1.824653 7.6753249 7
-0.029232999 -1.628965 7.6386342 7
-0.33480901 -5.0784888 6.1707869 7
-0.31364301 -4.8941722 6.293488 7
-0.082905002 -1.776368 7.4187522 7
-0.096588001 -1.918766 7.2442231 7
-0.082810998 -1.743335 7.2405472 7
-0.012518 -1.344216 -0.58256602 7
-0.02623 -1.508761 -0.603499 7
-0.27031499 -4.6120119 0.5248 7
-0.26694801 -4.702611 0.69225401 7
-0.29970199 -5.030776 5.2138562 7
-0.27770501 -4.8798809 5.3457928 7
-0.080715999 -1.8686121 7.0238428 7
-0.057450999 -1.6964771 6.9848938 7
-0.0023739999 -1.326897 -0.385988 7
-0.011714 -1.481095 -0.390874 7
-0.25184199 -4.5156178 0.82103503 7
-0.26259899 -4.6361389 0.95621598 7
-0.24710999 -4.6736021 1.142166 7
-0.25605899 -4.7768469 1.2881171 7
-0.263625 -4.841001 4.925014 7
-0.052198 -1.81259 6.7766981 7
-0.036389999 -1.655885 6.763535 7
-0.282386 -4.5045929 1.237872 7
-0.28636399 -4.588964 1.384521 7
-0.284897 -4.6519022 1.5419199 7
-0.26747701 -4.6618419 1.720662 7
-0.269279 -4.7208419 1.8758841 7
-0.30411899 -4.8984132 4.217834 7
-0.302066 -4.8479218 4.3785362 7
-0.077794001 -1.770851 6.5968161 7
-0.062917002 -1.6227551 6.5878282 7
-0.25217199 -4.490263 1.791924 7
-0.251389 -4.6239772 2.246469 7
-0.252691 -4.6609988 2.399452 7
-0.25021899 -4.6807499 2.5558381 7
-0.253144 -4.7104349 2.7099881 7
-0.25041199 -4.7170782 2.867131 7
-0.26231 -4.7615819 3.0212319 7
-0.257471 -4.7496042 3.179316 7
-0.26541299 -4.769948 3.3369629 7
-0.278934 -4.7973599 3.537138 7
-0.27182901 -4.7585559 3.693217 7
-0.28669199 -4.712749 4.1711912 7
-0.29014 -4.680428 4.3289032 7
-0.28429699 -4.6154332 4.4766402 7
-0.080677003 -1.878197 6.4426661 7
-0.074515998 -1.741008 6.4662418 7
-0.23303001 -4.4808159 2.440901 7
-0.234154 -4.5099669 2.587621 7
-0.238931 -4.54387 2.7337949 7
-0.245511 -4.577271 2.881104 7
-0.242483 -4.5769458 3.0319929 7
-0.24696 -4.592545 3.181828 7
-0.25126499 -4.6017408 3.332612 7
-0.259424 -4.6129222 3.522682 7
-0.261585 -4.602468 3.674345 7
-0.26553899 -4.5911908 3.8265381 7
-0.085344002 4.6579318 -5.1041522 7
-0.183276 4.3163929 10.043425 7
-0.15727299 4.262054 9.2777014 7
-0.064705998 1.139863 8.9705067 7
-0.052427001 1.130196 8.5856943 7
-0.035726 1.121152 8.2190228 7
-0.017601 1.112929 7.8818479 7
-0.051026002 1.104221 7.5923591 7
-0.030241 1.097636 7.314312 7
-0.044643998 1.2697639 7.3409672 7
-0.021360001 1.092455 7.1051402 7
-0.034359001 1.255481 7.1264749 7
-0.061733998 4.8853202 -15.919823 7
0.013935 0.88453299 -14.124781 7
0.065590002 0.30113599 -12.652083 7
-0.065659001 -0.849015 -10.658194 7
-0.034318 -0.98788297 -8.6495705 7
-0.027417 -1.376801 -7.4607348 7
-0.011848 -1.39845 -6.476964 7
-0.044188999 4.62959 -5.3589001 7
-0.049926002 -1.409923 -5.7285738 7
-0.343633 -6.256629 -6.1528988 7
-0.092647001 4.5343142 -4.3319449 7
-0.038364999 -1.427443 -5.1767182 7
-0.029527999 -1.440749 -4.7298589 7
-0.029281 -1.394022 -3.9175191 7
-0.038911 -1.542046 -3.9161711 7
