# .PCD v0.7 - Point Cloud Data file format
VERSION 0.7
FIELDS x y z intensity
SIZE 4 4 4 4
TYPE F F F F
COUNT 1 1 1 1
WIDTH 1308
HEIGHT 1
VIEWPOINT 0 0 0 1 0 0 0
POINTS 1308
DATA ascii
0.213806 -1.5074461 -73.457031 7
0.272385 -1.634521 -71.217773 7
0.148331 -1.5500489 -67.491211 7
0.179718 -1.686646 -66.416992 7
0.139549 5.3337402 -67.683594 7
0.20521501 5.0030522 -65.46582 7
0.143768 4.9942632 -67.550781 7
0.123528 -1.8405761 -60.765625 7
0.15763099 -1.9549561 -59.726562 7
0.211906 -2.0432129 -58.077148 7
0.23052999 4.824585 -57.436523 7
0.181419 4.8023682 -58.923828 7
0.094383001 4.861084 -61.555664 7
0.049515001 -1.974243 -56.087891 7
0.12529799 -2.0353999 -54.036133 7
0.150299 -2.1403811 -53.353516 7
0.108795 -2.31604 -54.458984 7
0.132912 -2.4198 -53.798828 7
-0.85836798 -2.8425291 73.854492 7
-0.86624902 -1.128296 74.148438 7
0.17162301 4.9528809 -52.678711 7
0.230988 4.6817632 -51.087891 7
0.180191 4.546875 -52.467773 7
0.14321101 4.5 -53.470703 7
0.026946999 -2.057739 -51.246094 7
0.086189002 -2.122437 -49.791016 7
0.126755 -2.3188479 -48.78125 7
0.092049003 -2.4786379 -49.617188 7
-0.79323602 -3.3175049 66.323242 7
-0.85654402 -3.2312009 67.714844 7
-0.85660601 -3.0743411 67.728516 7
-0.83289301 -0.54162598 67.347656 7
-0.74625403 -0.22241201 65.466797 7
0.18950699 4.7950439 -47.136719 7
0.142563 4.7894292 -48.290039 7
0.208313 4.520752 -46.692383 7
0.16135401 4.5109859 -47.845703 7
0.13969401 4.4405522 -48.380859 7
0.074547 4.4598389 -49.976562 7
0.21260799 0.97399902 -46.854492 7
-0.000481 -2.2349851 -46.75 7
0.075966001 -2.264648 -45.226562 7
0.10247 -2.345093 -44.630859 7
0.047325 -2.5189209 -45.84082 7
0.093124002 -2.574219 -44.818359 7
0.122017 -2.6464839 -44.169922 7
-0.74195099 -0.62988299 59.980469 7
-0.67802399 -0.073119998 58.720703 7
0.17766599 4.6904302 -42.842773 7
0.13433801 4.6842041 -43.806641 7
0.107079 4.637207 -44.417969 7
0.172501 4.385498 -42.979492 7
0.135757 4.3579102 -43.798828 7
0.107956 4.3079829 -44.419922 7
-0.016617 -2.2871089 -43.494141 7
0.019286999 -2.3543701 -42.751953 7
0.045761 -2.4285891 -42.203125 7
0.073371999 -2.499023 -41.631836 7
0.017341999 -2.6698 -42.763672 7
0.050110001 -2.7323 -42.085938 7
0.069710001 -2.809082 -41.676758 7
0.107933 -2.8581541 -40.887695 7
0.125809 -2.932739 -40.513672 7
-0.648682 0.067382999 54.126953 7
0.125275 4.736938 -40.433594 7
0.071341999 4.6566162 -41.547852 7
0.122307 4.4442139 -40.518555 7
0.100204 4.3909912 -40.976562 7
0.075218 4.3414311 -41.492188 7
0.033133999 4.3239751 -42.359375 7
0.16378 0.93322802 -39.958984 7
0.16362 0.83532703 -39.960938 7
0.162331 0.73767102 -39.985352 7
0.21449301 0.62292498 -38.917969 7
-0.013283 -2.8560791 -39.425781 7
-0.00309 -2.938843 -39.225586 7
0.032242 -2.985718 -38.560547 7
0.047768001 -3.058105 -38.260742 7
0.050765999 -3.1474609 -38.195312 7
-0.60099798 -2.990845 48.90332 7
-0.60562903 -2.883301 48.991211 7
-0.53366101 -0.058837999 47.916992 7
-0.52512401 0.16113301 47.776367 7
0.081779003 4.7832031 -37.522461 7
0.061324999 4.7362061 -37.911133 7
0.041182999 4.686523 -38.293945 7
0.018227 4.6412349 -38.728516 7
0.17375199 1.197144 -35.987305 7
0.181465 1.104126 -35.844727 7
0.165016 1.023926 -36.149414 7
0.144508 0.94409198 -36.53125 7
0.154434 0.67028803 -36.34375 7
0.180328 0.57312 -35.861328 7
0.15668499 0.49011201 -36.300781 7
0.17598 0.396851 -35.939453 7
0.19279499 0.305664 -35.623047 7
-0.012321 -2.9906011 -36.228516 7
0.00351 -3.057251 -35.947266 7
0.015953001 -3.127686 -35.723633 7
0.030433999 -3.19397 -35.46582 7
-0.56197399 -2.7388921 44.90625 7
-0.494385 0.055054002 43.977539 7
-0.48601499 0.25610399 43.848633 7
0.074088998 4.858398 -34.591797 7
0.057709001 4.809937 -34.880859 7
0.039306998 4.7641602 -35.205078 7
0.015807999 4.728271 -35.616211 7
-0.012093 4.699707 -36.103516 7
0.032538999 4.5168462 -35.347656 7
0.16320799 1.193115 -33.274414 7
0.14136501 1.122681 -33.652344 7
0.123238 1.048462 -33.963867 7
0.132515 0.46301299 -33.949219 7
0.13056201 0.29577601 -33.979492 7
0.154182 0.209473 -33.570312 7
0.161072 0.043579001 -33.448242 7
0.117882 -0.040160999 -31.086914 7
0.144081 -0.116089 -30.671875 7
0.143227 -0.192261 -30.683594 7
-0.043761998 -3.194092 -33.547852 7
-0.031288002 -3.258301 -33.342773 7
-0.015845999 -3.3171389 -33.089844 7
-0.0044780001 -3.3812261 -32.901367 7
-0.029883999 -3.502197 -33.288086 7
-0.49105799 -2.831665 40.475586 7
-0.468582 -2.7159419 40.157227 7
-0.48082 -2.6364751 40.342773 7
-0.51183301 -2.5739751 40.803711 7
-0.43495199 0.22521999 39.820312 7
-0.43548599 0.40734899 39.830078 7
0.069870003 4.855835 -31.600586 7
0.049088001 4.8242192 -31.935547 7
0.024963001 4.7983398 -32.323242 7
0.002693 4.7667241 -32.681641 7
-0.023994001 4.7429199 -33.110352 7
-0.034446999 4.6826172 -33.283203 7
0.15873 1.475464 -30.446289 7
0.152954 1.327637 -30.541016 7
0.148399 1.254639 -30.613281 7
0.117554 1.1962889 -31.102539 7
0.115211 1.120239 -31.139648 7
0.106384 0.19274899 -31.273438 7
0.155807 0.036499001 -30.491211 7
0.103287 -0.033813 -29.296875 7
0.12853201 -0.105225 -28.922852 7
0.110596 -0.178589 -29.185547 7
0.12789901 -0.24890099 -28.927734 7
-0.044677999 -3.217041 -31.239258 7
-0.069426998 -3.330811 -31.592773 7
-0.051833998 -3.4594729 -31.314453 7
-0.039673001 -3.5174561 -31.125977 7
0.058219999 5.0030522 -29.527344 7
0.067230001 4.9084468 -29.407227 7
0.048553001 4.8778081 -29.689453 7
0.030678 4.8438721 -29.960938 7
0.0092390003 4.8165278 -30.28418 7
-0.01458 4.7930908 -30.642578 7
0.13060801 1.540894 -28.754883 7
0.113853 1.481079 -29.00293 7
0.14425699 1.388184 -28.556641 7
0.127113 1.328003 -28.811523 7
0.10601 1.268921 -29.123047 7
0.096123002 -0.236938 -26.96582 7
0.12592299 -0.366577 -26.555664 7
-0.08918 -3.47229 -29.351562 7
-0.077721 -3.5272219 -29.185547 7
-0.066253997 -3.581177 -29.021484 7
-0.055236999 -3.63501 -28.862305 7
-0.068680003 -3.72876 -29.032227 7
-0.086418003 -3.8305659 -29.260742 7
-0.36205301 0.57788098 34.001953 7
0.0634 4.9572749 -27.085938 7
0.053497002 4.912231 -27.229492 7
0.035896 4.8840332 -27.477539 7
0.022148 4.8460689 -27.672852 7
0.002419 4.820312 -27.949219 7
-0.017302999 4.793335 -28.226562 7
0.13758101 1.686035 -26.390625 7
0.126801 1.628418 -26.541992 7
0.113419 1.572021 -26.725586 7
0.140297 1.4855959 -26.361328 7
0.125221 1.429932 -26.569336 7
0.103714 1.377563 -26.864258 7
0.118195 1.30127 -26.669922 7
0.085685998 -0.34570301 -25.330078 7
0.088783003 -0.408447 -25.288086 7
0.108856 -0.46704099 -25.030273 7
0.083999999 -0.53588903 -25.34375 7
0.089873999 -0.59765601 -25.266602 7
0.105354 -0.65588403 -25.067383 7
0.098830998 -0.72082502 -25.146484 7
-0.095450997 -3.590698 -27.34082 7
-0.09787 -3.662231 -27.362305 7
-0.084679 -3.7086179 -27.185547 7
-0.071456999 -3.7545171 -27.008789 7
-0.062858999 -3.806885 -26.890625 7
-0.37222299 0.62219203 32.081055 7
0.030701 5.019165 -25.536133 7
0.026054 4.9656978 -25.606445 7
0.013176 4.9306641 -25.779297 7
-0.026314 4.8881841 -26.295898 7
-0.034621999 4.840332 -26.412109 7
0.106979 1.5344239 -24.925781 7
0.082840003 1.43042 -25.365234 7
0.074844003 -0.55847198 -23.540039 7
0.102798 -0.66760302 -23.205078 7
0.093131997 -0.84619099 -23.310547 7
-0.073684998 -3.925415 -24.938477 7
-0.068839997 -3.979126 -24.87207 7
0.020691 5.0404048 -23.654297 7
0.013733 4.9967041 -23.746094 7
0.0033420001 4.9604492 -23.87793 7
-0.0055999998 4.9202881 -23.993164 7
-0.021919001 4.895874 -24.194336 7
-0.041182999 4.8770752 -24.428711 7
0.093353003 1.902832 -23.174805 7
0.101654 1.837036 -23.080078 7
0.101082 1.779175 -23.089844 7
0.090651996 1.729614 -23.216797 7
0.116714 1.650146 -22.912109 7
0.103798 1.602051 -23.067383 7
0.056076001 -0.69262701 -22.086914 7
0.070266999 -0.743164 -21.927734 7
0.080215 -0.79467797 -21.81543 7
0.051589999 -0.861206 -22.12793 7
0.062606998 -0.91210902 -22.004883 7
0.069381997 -0.96460003 -21.926758 7
0.056061 -1.026123 -22.069336 7
-0.108063 -3.898315 -23.541992 7
-0.097046003 -3.9381101 -23.411133 7
-0.090813003 -3.985718 -23.333008 7
-0.087738 -4.0386958 -23.289062 7
-0.096863002 -4.1135249 -23.376953 7
0.002747 5.0814209 -22.113281 7
0.00057999999 5.030396 -22.148438 7
-0.005814 4.98877 -22.228516 7
-0.014282 4.9515381 -22.332031 7
-0.023841999 4.9162598 -22.446289 7
-0.041306 4.8977051 -22.646484 7
-0.045577999 4.849854 -22.704102 7
0.080269001 1.897827 -21.676758 7
0.085479997 1.838257 -21.62207 7
0.074326001 1.792847 -21.749023 7
0.095894001 1.720093 -21.514648 7
0.087371998 1.672241 -21.612305 7
0.074097 1.627686 -21.761719 7
0.059700001 -0.75024402 -20.527344 7
0.046622999 -0.80725098 -20.65918 7
0.061234001 -0.85351598 -20.506836 7
-0.00605 5.0341802 -20.618164 7
-0.01342 4.998291 -20.704102 7
-0.020226 4.960938 -20.78418 7
-0.036049001 4.9433589 -20.955078 7
-0.047935002 4.9162598 -21.086914 7
-0.039542999 4.8443599 -21.011719 7
0.083434999 1.92627 -20.134766 7
0.067024 1.889648 -20.308594 7
0.078231998 1.828247 -20.196289 7
0.083251998 1.772583 -20.148438 7
0.071327001 1.731079 -20.274414 7
0.063910998 1.685303 -20.353516 7
0.078506 1.622192 -20.206055 7
0.038307 -1.007812 -19.400391 7
0.029137 -1.110962 -19.483398 7
0.037445001 -1.155884 -19.398438 7
0.026558001 -1.211182 -19.500977 7
-0.017814999 5.0532231 -19.330078 7
-0.028046001 5.026978 -19.438477 7
-0.035278 4.9935298 -19.517578 7
-0.042518999 4.9597168 -19.597656 7
-0.057533 4.942749 -19.750977 7
-0.071967997 4.9238281 -19.899414 7
-0.063629001 4.855103 -19.832031 7
0.053534999 1.885132 -19.118164 7
0.064217001 1.778442 -19.022461 7
0.059944 1.733276 -19.067383 7
0.05381 1.640259 -19.133789 7
0.034935001 -0.993164 -18.152344 7
0.034217998 -1.039795 -18.15625 7
0.0079269996 -1.099365 -18.391602 7
0.019355999 -1.140259 -18.28418 7
0.021834999 -1.185425 -18.258789 7
0.023689 -1.230713 -18.238281 7
0.051750001 1.862793 -17.861328 7
0.045295998 1.82251 -17.923828 7
0.056747001 1.7668459 -17.824219 7
0.054703001 1.67688 -17.849609 7
0.048882 1.635376 -17.905273 7
0.002472 -0.99633801 -17.337891 7
0.015274 -1.034668 -17.225586 7
0.028053001 -1.072266 -17.113281 7
0.00293 -1.128906 -17.324219 7
0.001511 -1.174072 -17.333984 7
0.00074799999 -1.21875 -17.336914 7
0.0060959999 -1.260254 -17.287109 7
0.0046009999 -0.97973597 -16.248047 7
0.011688 -1.018188 -16.1875 7
0.019524001 -1.055908 -16.121094 7
0.0065230001 -1.104004 -16.222656 7
-0.009323 -1.154053 -16.347656 7
-6.9000002e-05 -1.191162 -16.270508 7
0.0026469999 -1.2730711 -16.240234 7
-0.047187999 5.0670171 -15.929688 7
-0.037200999 5.0031738 -15.862305 7
-0.04583 4.9812012 -15.94043 7
-0.050864998 4.9508061 -15.993164 7
-0.055900998 4.9204102 -16.043945 7
-0.066680998 4.9024658 -16.137695 7
-0.082465999 4.8945308 -16.272461 7
-0.072486997 4.8310552 -16.206055 7
0.034995999 1.588989 -15.878906 7
0.046402 1.5394289 -15.789062 7
0.054221999 1.493042 -15.728516 7
0.057746999 1.449829 -15.703125 7
0.044066999 1.4180911 -15.81543 7
0.045456 1.3762209 -15.807617 7
0.052574001 1.330811 -15.753906 7
0.058975 1.286011 -15.704102 7
0.063210003 1.242798 -15.672852 7
0.014404 -0.96081501 -15.197266 7
0.0075070001 -1.003296 -15.24707 7
-0.001663 -1.046997 -15.314453 7
0.010414 -1.080444 -15.21875 7
0.012634 -1.118652 -15.199219 7
0.0034479999 -1.162842 -15.266602 7
-0.014809 -1.212402 -15.40332 7
-0.00351 -1.245728 -15.313477 7
-0.003578 -1.285156 -15.310547 7
0.000153 -1.3223881 -15.27832 7
0.044456001 1.262207 -14.863281 7
0.052733999 1.218628 -14.802734 7
0.058738999 1.1767581 -14.758789 7
0.049598999 1.143066 -14.832031 7
0.041221999 1.108765 -14.898438 7
0.051764999 1.064575 -14.819336 7
0.057769999 1.0230711 -14.775391 7
0.063766003 0.98156703 -14.731445 7
0.066749997 0.94189501 -14.710938 7
0.011612 -0.98266602 -14.296875 7
0.015488 -1.055176 -14.262695 7
0.015411 -1.092163 -14.259766 7
0.012947 -1.130493 -14.274414 7
-0.0055689998 -1.1776119 -14.404297 7
-0.0056380001 -1.214844 -14.401367 7
0.001457 -1.285645 -14.34375 7
0.043724 0.93640101 -13.980469 7
0.049293999 0.897461 -13.942383 7
0.051651001 0.85974097 -13.926758 7
0.058014002 0.82092297 -13.881836 7
0.062752001 0.78259301 -13.848633 7
0.061912999 0.74670398 -13.857422 7
0.057838 0.71179199 -13.887695 7
0.054581001 0.67627001 -13.912109 7
0.0066379998 -1.005981 -13.535156 7
0.0081940005 -1.075684 -13.517578 7
0.0063860002 -1.1474611 -13.524414 7
-0.004646 -1.188599 -13.59668 7
-0.012314 -1.228271 -13.645508 7
-0.053055 4.9669189 -13.104492 7
-0.051399 4.9287109 -13.105469 7
-0.048904002 4.8886719 -13.100586 7
-0.049782 4.855835 -13.117188 7
0.056786001 0.606812 -13.121094 7
0.049995001 0.57397503 -13.169922 7
0.051635999 0.53894001 -13.15918 7
0.065482996 0.46887201 -13.174805 7
0.061172001 0.400635 -13.207031 7
0.061066002 0.33166501 -13.207031 7
0.057739001 -0.015381 -12.389648 7
0.052361 -0.048462 -12.423828 7
0.046089001 -0.081542999 -12.463867 7
0.046036001 -0.114502 -12.463867 7
0.050415002 -0.147339 -12.43457 7
0.055686999 -0.17968801 -12.398438 7
0.058295999 -0.212402 -12.379883 7
0.054687999 -0.24560501 -12.40332 7
0.052864 -0.27893099 -12.414062 7
0.0030439999 -1.091064 -12.799805 7
-0.067870997 4.9794922 -12.383789 7
-0.055496 4.919312 -12.320312 7
-0.056403998 4.8884282 -12.336914 7
-0.065277003 4.8748779 -12.402344 7
-0.067962997 4.8477778 -12.430664 7
-0.070625 4.8205571 -12.458984 7
0.043793 0.149902 -12.481445 7
-0.0055849999 -1.364136 -12.147461 7
-0.094856001 4.799438 -11.882812 7
-0.086525001 4.7502441 -11.844727 7
0.034453999 -0.34277299 -11.311523 7
0.033424001 -0.37304699 -11.317383 7
0.031417999 -0.403442 -11.327148 7
0.026481999 -0.434692 -11.354492 7
0.023499001 -0.465332 -11.37207 7
0.020515 -0.49633801 -11.387695 7
0.030258 -0.52429199 -11.329102 7
0.036072001 -0.55273402 -11.292969 7
0.036017999 -0.58288598 -11.291992 7
0.033034999 -0.61364698 -11.307617 7
-0.010178 -1.299072 -11.503906 7
-0.013168 -1.331177 -11.517578 7
-0.011253 -1.360718 -11.503906 7
-0.159348 -1.951538 14.71875 7
0.011955 -0.64990199 -10.854492 7
0.0087430002 -0.73791498 -10.867188 7
0.016883999 -0.76403803 -10.818359 7
0.019897001 -0.79187 -10.799805 7
0.0043179998 -0.94262701 -10.875977 7
0.0082240002 -0.97778302 -10.251953 7
-0.00041199999 -1.009155 -10.296875 7
-0.012253 -1.042725 -10.357422 7
-0.0069499998 -1.067871 -10.326172 7
0.00052599999 -1.091797 -10.28418 7
0.000481 -1.119385 -10.28125 7
-0.001732 -1.148193 -10.290039 7
-0.0049820002 -1.1776119 -10.304688 7
-0.0039599999 -1.204712 -10.295898 7
-0.010437 -1.235962 -10.327148 7
-0.021233 -1.269775 -10.380859 7
-0.0075150002 -0.96862799 -9.8251953 7
-0.0098040001 -0.996216 -9.8349609 7
0.00022099999 -1.017944 -9.7802734 7
0.001312 -1.043945 -9.7714844 7
-0.0032269999 -1.07251 -9.7919922 7
0.001198 -1.09668 -9.7666016 7
-0.01564 -1.1318361 -9.8505859 7
-0.015686 -1.158447 -9.8476562 7
-0.005661 -1.179443 -9.7919922 7
-0.011284 -1.209229 -9.8193359 7
-0.01358 -1.236938 -9.8271484 7
-0.010262 -1.261597 -9.8076172 7
-0.0096279997 -0.97790498 -9.3447266 7
-0.012009 -1.004395 -9.3544922 7
-0.012054 -1.029785 -9.3525391 7
-0.019104 -1.058472 -9.3837891 7
-0.01915 -1.084106 -9.3818359 7
-0.012199 -1.1062011 -9.34375 7
-0.012245 -1.13147 -9.3408203 7
-0.01461 -1.1580811 -9.3505859 7
-0.013481 -1.182983 -9.3427734 7
-0.015869001 -1.209839 -9.3505859 7
-0.01474 -1.234619 -9.3427734 7
-0.019478001 -1.262573 -9.3613281 7
-0.154579 -2.228394 12.399414 7
-0.139 -2.1877439 12.332031 7
-0.144958 -2.1673579 12.365234 7
-0.14374501 -2.140137 12.365234 7
-0.14370701 -2.1142581 12.369141 7
-0.141304 -2.0861821 12.364258 7
-0.13767201 -2.0570071 12.351562 7
-0.13524599 -2.0289309 12.345703 7
-0.13642099 -2.0041499 12.356445 7
-0.130402 -1.973145 12.333008 7
-0.13038599 -1.947144 12.338867 7
-0.064873002 4.7836909 -8.5107422 7
-0.074202999 4.7797852 -8.5634766 7
-0.073050998 4.753418 -8.5683594 7
-0.077735998 4.7393799 -8.6015615 7
-0.076583996 4.7131348 -8.6064453 7
-0.121613 -1.934448 11.838867 7
-0.115349 -1.904541 11.81543 7
-0.120316 -1.8837889 11.842773 7
-0.116554 -1.856323 11.830078 7
-0.117775 -1.832642 11.839844 7
-0.114006 -1.804932 11.827148 7
-0.112724 -1.779297 11.825195 7
-0.112701 -1.754639 11.830078 7
-0.108932 -1.727173 11.816406 7
-0.10643 -1.700684 11.80957 7
-0.106422 -1.675903 11.81543 7
-0.103897 -1.649536 11.807617 7
-0.106354 -1.626587 11.822266 7
-0.11132 -1.605469 11.849609 7
-0.087600999 4.7885742 -8.1083984 7
-0.080321997 4.7504878 -8.0888672 7
-0.082771003 4.7329102 -8.1113281 7
-0.085205004 4.715332 -8.1328115 7
-0.084014997 4.690063 -8.1367188 7
-0.088881999 4.6772461 -8.1689453 7
-0.099815004 4.6766362 -8.2275391 7
-0.090111002 4.6339111 -8.1953115 7
-0.099831 4.6307368 -8.2490234 7
-0.082847998 4.5734859 -8.1865234 7
-0.076789998 4.5383301 -8.1708984 7
-0.084076002 4.5300288 -8.2138672 7
-0.13199601 -2.2351069 11.342773 7
-0.131981 -2.2116699 11.348633 7
-0.129372 -2.185425 11.34375 7
-0.118935 -2.152344 11.304688 7
-0.113716 -2.124146 11.287109 7
-0.113686 -2.1005859 11.291992 7
-0.11367 -2.077271 11.297852 7
-0.109741 -2.050415 11.286133 7
-0.109726 -2.026978 11.290039 7
-0.107101 -2.0012209 11.28418 7
-0.104477 -1.9755861 11.27832 7
-0.105751 -1.953369 11.288086 7
-0.101822 -1.926636 11.275391 7
-0.100502 -1.902344 11.274414 7
-0.097878002 -1.876709 11.267578 7
-0.096550003 -1.852295 11.266602 7
-0.096527003 -1.8288569 11.271484 7
-0.093910001 -1.803589 11.264648 7
-0.089980997 -1.7771 11.250977 7
-0.086060002 -1.7507319 11.239258 7
-0.086029001 -1.7275389 11.243164 7
-0.083388999 -1.7023931 11.235352 7
-0.083374001 -1.679077 11.239258 7
-0.080742002 -1.653809 11.232422 7
-0.080719002 -1.630615 11.235352 7
-0.075507998 -1.6036381 11.217773 7
-0.079117 0.65222198 11.360352 7
-0.082976997 0.67700201 11.375977 7
-0.085533001 0.70141602 11.384766 7
-0.076416001 0.72204602 11.34375 7
-0.071181998 0.74389601 11.319336 7
-0.072425999 0.76782203 11.323242 7
-0.074982002 0.79223597 11.332031 7
-0.074959002 0.81567401 11.331055 7
-0.074905001 0.83911097 11.329102 7
-0.072273001 0.86169398 11.316406 7
-0.072235003 0.88513201 11.314453 7
-0.074799001 0.90954602 11.323242 7
-0.074759997 0.93298298 11.321289 7
-0.074715003 0.95654303 11.319336 7
-0.019081 -1.2861331 -8.0234385 7
-0.017798999 -1.307495 -8.0136719 7
-0.032402001 -1.338501 -8.0732422 7
-0.04039 -1.365723 -8.1035156 7
-0.035133 -1.38501 -8.078125 7
-0.023254 -1.399902 -8.0244141 7
-0.025970001 -1.4237061 -8.0302734 7
-0.028656 -1.447876 -8.0380859 7
-0.028702 -1.470215 -8.0351562 7
-0.036681999 -1.497803 -8.0654297 7
-0.045998 -1.526489 -8.1015615 7
-0.048675999 -1.550781 -8.109375 7
-0.052689001 -1.576172 -8.1220703 7
-0.136696 -2.2181399 10.952148 7
-0.142075 -2.200562 10.979492 7
-0.140701 -2.1767581 10.979492 7
-0.124458 -2.138916 10.917969 7
-0.116348 -2.108887 10.889648 7
-0.120361 -2.09021 10.911133 7
-0.131157 -2.0773931 10.960938 7
-0.131126 -2.05481 10.964844 7
-0.131119 -2.032104 10.970703 7
-0.121628 -2.001343 10.936523 7
-0.114853 -1.973022 10.913086 7
-0.113472 -1.949219 10.912109 7
-0.112083 -1.925537 10.912109 7
-0.226135 -4.4906011 -7.4570308 7
-0.22620399 -4.5115972 -7.4462891 7
-0.231796 -4.5427251 -7.4560552 7
-0.233292 -4.5874019 -7.4394531 7
-0.24303401 -4.6265869 -7.4628911 7
-0.243095 -4.647583 -7.452148 7
-0.243202 -4.6896968 -7.4306641 7
-0.244637 -4.7130132 -7.4248052 7
-0.246078 -4.7366939 -7.4179692 7
-0.25173199 -4.7893071 -7.4160161 7
-0.307556 -5.0889888 10.104492 7
-0.30615199 -5.0655522 10.112305 7
-0.304741 -5.0421138 10.118164 7
-0.300522 -5.0128169 10.116211 7
-0.30050701 -4.971436 10.139648 7
-0.307549 -4.9648442 10.175781 7
-0.31036401 -4.949585 10.198242 7
-0.30752599 -4.9232178 10.199219 7
-0.30893701 -4.9051509 10.21582 7
-0.306137 -4.8787842 10.21875 7
-0.30049899 -4.8469238 10.209961 7
-0.30050701 -4.8050542 10.233398 7
-0.093589999 -1.895874 10.435547 7
-0.106209 -1.8848881 10.490234 7
-0.101974 -1.859985 10.478516 7
-0.097732998 -1.835205 10.46582 7
-0.086464003 -1.783325 10.430664 7
-0.092055999 -1.766479 10.457031 7
-0.086410999 -1.740723 10.438477 7
-0.089194998 -1.721313 10.454102 7
-0.093399003 -1.703125 10.474609 7
-0.090553001 -1.679565 10.467773 7
-0.082115002 -1.651978 10.438477 7
-0.083472997 -1.610229 10.451172 7
-0.239044 -4.482666 -7.0888672 7
-0.233337 -4.492188 -7.0595698 7
-0.231949 -4.5093989 -7.0439448 7
-0.318634 -5.1175542 9.6972656 7
-0.31719199 -5.0948491 9.7050781 7
-0.31134 -5.0631099 9.6972656 7
-0.31279799 -5.0466309 9.7138672 7
-0.314262 -5.0299072 9.7304688 7
-0.30841801 -4.9984131 9.7236328 7
-0.30841801 -4.9787598 9.7353516 7
-0.312805 -4.9675288 9.7617188 7
-0.31134799 -4.9449458 9.7685547 7
-0.315712 -4.9337158 9.7949219 7
-0.31134 -4.905273 9.7919922 7
-0.30986801 -4.8825679 9.7988281 7
-0.30987501 -4.862915 9.8105469 7
-0.312805 -4.8483891 9.8320312 7
-0.31279799 -4.8284912 9.84375 7
-0.095550999 -1.908325 10.087891 7
-0.091164 -1.884155 10.075195 7
-0.099884003 -1.870972 10.113281 7
-0.101311 -1.85144 10.12207 7
-0.10276 -1.8319089 10.132812 7
-0.088165 -1.799683 10.082031 7
-0.082314 -1.774536 10.064453 7
-0.082314 -1.754028 10.069336 7
-0.079375997 -1.731323 10.061523 7
-0.076430999 -1.708618 10.054688 7
-0.086600997 -1.695923 10.098633 7
-0.085129 -1.674316 10.095703 7
-0.080742002 -1.650635 10.083008 7
-0.077797003 -1.627808 10.076172 7
-0.083610997 -1.61145 10.102539 7
-0.153275 4.168457 9.5703115 7
-0.14307401 4.1695561 9.5253906 7
-0.134323 4.1730962 9.4853516 7
-0.132805 4.1894531 9.4697266 7
-0.12841 4.2006841 9.4443359 7
-0.12979899 4.22229 9.4394531 7
-0.12831099 4.238647 9.4248047 7
-0.131157 4.2628169 9.4248047 7
-0.132553 4.2844238 9.4199219 7
-0.12669399 4.2927251 9.3896484 7
-0.126633 4.311523 9.3789062 7
-0.132378 4.341187 9.3896484 7
-0.13812999 4.3709722 9.3984385 7
-0.152573 4.4172359 9.4375 7
-0.151077 4.4334722 9.421875 7
-0.15537301 4.460815 9.4267578 7
-0.15531901 4.4797359 9.4160156 7
-0.24745899 -4.4936519 -6.6894531 7
-0.24752 -4.5128169 -6.6787109 7
-0.244591 -4.5262451 -6.6591802 7
-0.23867001 -4.5343022 -6.6289058 7
-0.24620099 -4.5671391 -6.641602 7
-0.246269 -4.58606 -6.6298828 7
-0.243324 -4.5994868 -6.610352 7
-0.244873 -4.6212158 -6.6044922 7
-0.24494199 -4.6401372 -6.592773 7
-0.25542399 -4.6789551 -6.6152339 7
-0.25249499 -4.6922612 -6.594727 7
-0.25254801 -4.7111821 -6.5839839 7
-0.27197301 -4.7675781 -6.6357422 7
-0.26756999 -4.777832 -6.609375 7
-0.263145 -4.7880859 -6.5839839 7
-0.31597099 -5.1011958 9.2470703 7
-0.32202899 -5.0948491 9.2792969 7
-0.31749001 -5.0670171 9.2773438 7
-0.305374 -5.0239258 9.25 7
-0.306885 -5.0083008 9.2675781 7
-0.30689201 -4.9897461 9.2792969 7
-0.093764998 -1.911621 9.7265615 7
-0.096763998 -1.894531 9.7402344 7
-0.099785 -1.877197 9.7568359 7
-0.096725002 -1.855103 9.75 7
-0.095183998 -1.834106 9.7480469 7
-0.105766 -1.822632 9.7919922 7
-0.092124999 -1.792236 9.7470703 7
-0.081528001 -1.76416 9.7128906 7
-0.083022997 -1.745605 9.7226562 7
-0.075438999 -1.720337 9.6982422 7
-0.086006001 -1.708618 9.7421885 7
-0.092049003 -1.693359 9.7685547 7
-0.081421003 -1.665771 9.7324219 7
-0.090484999 -1.652588 9.7705078 7
-0.090461999 -1.63269 9.7744141 7
-0.073813997 -1.601318 9.7167969 7
-0.15100101 4.169189 9.1572266 7
-0.141922 4.1713872 9.1191406 7
-0.14038099 4.1868901 9.1044922 7
-0.129776 4.1860352 9.0595703 7
-0.125221 4.1959229 9.0351562 7
-0.128189 4.2193599 9.0351562 7
-0.131134 4.2429199 9.0341797 7
-0.126579 4.252563 9.0097656 7
-0.128021 4.273315 9.0048828 7
-0.123466 4.282959 8.9794922 7
-0.12793 4.3093262 8.984375 7
-0.127869 4.327271 8.9746094 7
-0.13830601 4.382812 8.9882812 7
-0.148781 4.4206538 9.0107422 7
-0.147232 4.435791 8.9951172 7
-0.148697 4.456665 8.9902344 7
-0.083015002 4.78125 -5.7597661 7
-0.074134998 4.7454829 -5.742188 7
-0.07412 4.728394 -5.7539058 7
-0.25164801 -4.4864502 -6.328125 7
-0.25015301 -4.5019531 -6.3125 7
-0.247124 -4.5145259 -6.2929692 7
-0.242561 -4.5241699 -6.266602 7
-0.24417099 -4.545166 -6.2597661 7
-0.242676 -4.5603032 -6.2441411 7
-0.245804 -4.584229 -6.2431641 7
-0.24741399 -4.6053472 -6.2373052 7
-0.24437 -4.6174321 -6.2167969 7
-0.244431 -4.635498 -6.2050781 7
-0.250664 -4.6651611 -6.2138672 7
-0.25071001 -4.683228 -6.203125 7
-0.26617399 -4.730835 -6.2392578 7
-0.26779199 -4.7519531 -6.2324219 7
-0.26165801 -4.7581792 -6.203125 7
-0.26326001 -4.7789311 -6.1962891 7
-0.34478801 -6.2506099 -5.420898 7
-0.34485599 -6.2667241 -5.407227 7
-0.34336099 -6.2790532 -5.3876948 7
-0.34651199 -6.3027339 -5.3818359 7
-0.35119599 -6.3303218 -5.3779302 7
-0.35126501 -6.346436 -5.3632808 7
-0.34825099 -6.3543701 -5.3398442 7
-0.348297 -6.3704829 -5.3251948 7
-0.35144001 -6.394165 -5.3183589 7
-0.31942001 -5.1065669 8.8642578 7
-0.3116 -5.072998 8.8525391 7
-0.30690801 -5.045898 8.8515615 7
-0.30377999 -5.021729 8.8544922 7
-0.29911 -4.9946289 8.8525391 7
-0.30380201 -4.9864502 8.8789062 7
-0.30536699 -4.9719238 8.8955078 7
-0.30535901 -4.9542241 8.90625 7
-0.30535901 -4.9364009 8.9179688 7
-0.30381 -4.9154048 8.9257812 7
-0.30693799 -4.9039311 8.9472656 7
-0.310074 -4.8920898 8.9677734 7
-0.310074 -4.874023 8.9794922 7
-0.30536699 -4.8470459 8.9765615 7
-0.30536699 -4.829102 8.9882812 7
-0.30693799 -4.814209 9.0048828 7
-0.088287003 -1.915527 9.3974609 7
-0.096077003 -1.903198 9.4287109 7
-0.092941001 -1.881592 9.421875 7
-0.094481997 -1.864014 9.4326172 7
-0.096031003 -1.846069 9.4423828 7
-0.099151999 -1.82959 9.4580078 7
-0.092880003 -1.8056639 9.4404297 7
-0.088157997 -1.782959 9.4287109 7
-0.077209003 -1.755249 9.3955078 7
-0.078750998 -1.737793 9.4042969 7
-0.083411999 -1.722412 9.4248047 7
-0.080269001 -1.701172 9.4179688 7
-0.080254003 -1.682251 9.421875 7
-0.086493999 -1.667725 9.4482422 7
-0.081779003 -1.645264 9.4355469 7
-0.084885001 -1.62854 9.4501953 7
-0.081740998 -1.6073 9.4433594 7
-0.075272001 0.96032703 9.5400391 7
-0.070548996 0.97741699 9.5205078 7
-0.068953998 0.99585003 9.5126953 7
-0.068924002 1.015137 9.5107422 7
-0.065765001 1.032837 9.4970703 7
-0.068862997 1.053589 9.5058594 7
-0.068816997 1.07251 9.5029297 7
-0.076583996 1.0955811 9.5283203 7
-0.071877003 1.112427 9.5087891 7
-0.074965999 1.1331789 9.5175781 7
-0.074920997 1.152344 9.5146484 7
-0.074913003 1.171509 9.5136719 7
-0.071739003 1.189209 9.4990234 7
-0.071700998 1.208374 9.4960938 7
-0.077927001 1.230835 9.5166016 7
-0.073188998 1.247314 9.4960938 7
-0.073165998 1.266479 9.4931641 7
-0.078994997 4.7808838 -5.3652339 7
-0.060585 4.7098389 -5.3310552 7
-0.062111001 4.6807861 -5.3574219 7
-0.071327001 4.6838379 -5.3974609 7
-0.063637003 4.6514888 -5.3847661 7
-0.065186001 4.6221919 -5.4101558 7
-0.068230003 4.5958252 -5.4423828 7
-0.075920001 4.5784912 -5.4873052 7
-0.089706004 4.5899658 -5.5410161 7
-0.086646996 4.5671391 -5.5419922 7
-0.071327001 4.5032959 -5.515625 7
-0.24884801 -4.494873 -5.8994141 7
-0.24731401 -4.5093989 -5.8837891 7
-0.245773 -4.523438 -5.867188 7
-0.242615 -4.53479 -5.8466802 7
-0.242661 -4.5518799 -5.835938 7
-0.23790701 -4.559814 -5.8105469 7
-0.24276 -4.58606 -5.8144531 7
-0.24601001 -4.6091309 -5.813477 7
-0.24447601 -4.6230469 -5.796875 7
-0.242973 -4.6540532 -5.7714839 7
-0.244637 -4.6740718 -5.764648 7
-0.25748399 -4.7155762 -5.7910161 7
-0.255943 -4.7296138 -5.7753911 7
-0.264 -4.762207 -5.7871089 7
-0.26405299 -4.7791748 -5.7753911 7
-0.33850899 -6.080811 -5.0507808 7
-0.341759 -6.1038818 -5.0449219 7
-0.34181201 -6.119019 -5.030273 7
-0.345139 -6.157227 -5.0087891 7
-0.341988 -6.1644292 -4.985352 7
-0.35006699 -6.1992192 -4.992188 7
-0.348526 -6.2104492 -4.9726558 7
-0.345375 -6.2175288 -4.9501948 7
-0.351852 -6.248291 -4.9511719 7
-0.35670501 -6.275269 -4.9492192 7
-0.35195899 -6.2783198 -4.920898 7
-0.34400201 -6.273315 -4.8876948 7
-0.34085101 -6.280273 -4.8632808 7
-0.34091201 -6.295166 -4.8476558 7
-0.336151 -6.297729 -4.8212891 7
-0.34102601 -6.324585 -4.8183589 7
-0.34750399 -6.3552251 -4.8193359 7
-0.34755701 -6.3699951 -4.8037109 7
-0.31404901 -5.0987549 8.4169922 7
-0.31082901 -5.075562 8.4208984 7
-0.31245399 -5.0622559 8.4365234 7
-0.29784399 -5.0159912 8.4082031 7
-0.29784399 -4.9995122 8.4199219 7
-0.299454 -4.986084 8.4355469 7
-0.30270401 -4.9758301 8.4570312 7
-0.30110201 -4.939209 8.4765615 7
-0.29947701 -4.919312 8.4833984 7
-0.304344 -4.9121089 8.5087891 7
-0.30110899 -4.888916 8.5107422 7
-0.30436701 -4.8782959 8.5322266 7
-0.30761001 -4.8677979 8.5527344 7
-0.29785901 -4.8319092 8.5361328 7
-0.087456003 -1.912842 9.0664062 7
-0.090674996 -1.897339 9.0810547 7
-0.0858 -1.875244 9.0693359 7
-0.085777 -1.856934 9.0742188 7
-0.088996999 -1.841553 9.0888672 7
-0.095467001 -1.828491 9.1152344 7
-0.092216 -1.807739 9.1083984 7
-0.084060997 -1.7648931 9.0908203 7
-0.075934999 -1.740479 9.0673828 7
-0.077537999 -1.723511 9.0771484 7
-0.071021996 -1.682373 9.0625 7
-0.080727004 -1.671387 9.0996094 7
-0.080696002 -1.63501 9.1074219 7
-0.077431001 -1.61438 9.1005859 7
-0.076447003 4.770874 -4.9550781 7
-0.063704997 4.7287598 -4.9287109 7
-0.057358 4.700439 -4.921875 7
-0.055739999 4.6818848 -4.9287109 7
-0.058929 4.6733398 -4.9492192 7
-0.058922 4.6580811 -4.9599609 7
-0.065284997 4.6561279 -4.9892578 7
-0.063698001 4.637207 -4.9951172 7
-0.063721001 4.6221919 -5.0048828 7
-0.060524002 4.6002202 -5.0068359 7
-0.060532 4.5848389 -5.0175781 7
-0.063712999 4.5759282 -5.0380859 7
-0.073250003 4.579834 -5.0761719 7
-0.078018002 4.5739751 -5.101562 7
-0.079627998 4.561523 -5.117188 7
-0.081200004 4.5490718 -5.132812 7
-0.078018002 4.5273442 -5.1337891 7
-0.074836999 4.505127 -5.1357422 7
-0.078002997 4.4958501 -5.155273 7
-0.25105301 -4.489624 -5.5195308 7
-0.25775099 -4.518311 -5.5283198 7
-0.25116 -4.5223389 -5.4980469 7
-0.25289199 -4.541626 -5.4912109 7
-0.252922 -4.5579829 -5.4804692 7
-0.244675 -4.5587158 -5.445312 7
-0.251358 -4.5874019 -5.4550781 7
-0.24975599 -4.6005859 -5.4394531 7
-0.25146499 -4.6196289 -5.4326172 7
-0.248199 -4.6295171 -5.4130859 7
-0.24823 -4.645752 -5.4023442 7
-0.249962 -4.6650391 -5.3955078 7
-0.25000799 -4.6811519 -5.3847661 7
-0.26002499 -4.716187 -5.4003911 7
-0.26506001 -4.7419429 -5.4033198 7
-0.26343501 -4.7548828 -5.3876948 7
-0.26848599 -4.7805181 -5.389648 7
-0.26686099 -4.7932129 -5.374023 7
-0.34454301 -6.2149658 -4.4560552 7
-0.346275 -6.232666 -4.4443359 7
-0.35133401 -6.2589111 -4.4423828 7
-0.34805301 -6.2645259 -4.4199219 7
-0.35143301 -6.286499 -4.4121089 7
-0.343178 -6.279541 -4.3779302 7
-0.348221 -6.3054199 -4.374023 7
-0.34661099 -6.315063 -4.3554692 7
-0.33999601 -6.3118901 -4.3261719 7
-0.343391 -6.3338618 -4.3183589 7
-0.341782 -6.3432622 -4.2988281 7
-0.34516099 -6.3651118 -4.2919922 7
-0.34188801 -6.3701172 -4.2695308 7
-0.343613 -6.3875728 -4.257812 7
-0.30873901 -5.1152339 7.969727 7
-0.31715399 -5.1168208 8.0029297 7
-0.31715399 -5.1011958 8.0146484 7
-0.30706799 -5.0649409 8.0009766 7
-0.29698199 -5.0289311 7.9863281 7
-0.29194599 -5.0031738 7.985352 7
-0.29025301 -4.9841309 7.992188 7
-0.29699701 -4.9819341 8.0224609 7
-0.297012 -4.966187 8.0341797 7
-0.30037701 -4.9572749 8.0546885 7
-0.29532599 -4.9316411 8.0527344 7
-0.29028299 -4.9057622 8.0507812 7
-0.29197699 -4.893311 8.0673828 7
-0.300392 -4.894043 8.1015615 7
-0.30375701 -4.8848882 8.1220703 7
-0.298729 -4.8591309 8.1201172 7
-0.29705799 -4.8397222 8.1279297 7
-0.31050101 -4.8499761 8.1748047 7
-0.29705799 -4.8078609 8.1513672 7
-0.082526997 -1.90564 8.7402344 7
-0.084190004 -1.889526 8.75 7
-0.085860997 -1.873535 8.7597656 7
-0.084174998 -1.85498 8.7587891 7
-0.080788001 -1.834717 8.7529297 7
-0.092560001 -1.826782 8.7958984 7
-0.087485999 -1.805176 8.7832031 7
-0.084099002 -1.785156 8.7773438 7
-0.080719002 -1.765015 8.7695312 7
-0.073974997 -1.74231 8.7529297 7
-0.072273001 -1.723877 8.7509766 7
-0.073944002 -1.70752 8.7607422 7
-0.070564002 -1.687744 8.7539062 7
-0.072242998 -1.671631 8.7646484 7
-0.075584002 -1.656494 8.7792969 7
-0.073882997 -1.637817 8.7773438 7
-0.068816997 -1.6168211 8.7646484 7
-0.089332998 4.7880859 -4.6074219 7
-0.072815001 4.7390141 -4.5732422 7
-0.064544998 4.707397 -4.563477 7
-0.061248999 4.671875 -4.5761719 7
-0.064544998 4.6643071 -4.5966802 7
-0.067824997 4.6567378 -4.6162109 7
-0.064529002 4.6212158 -4.6289058 7
-0.062850997 4.603271 -4.6357422 7
-0.067780003 4.598022 -4.6611328 7
-0.067786999 4.5688481 -4.6826172 7
-0.085929997 4.591064 -4.7441411 7
-0.0942 4.592896 -4.7773442 7
-0.080986001 4.5516362 -4.7519531 7
-0.079323001 4.5187988 -4.7685552 7
-0.080971003 4.5074458 -4.7841802 7
-0.248688 -4.4884028 -5.1386719 7
-0.24529999 -4.4971919 -5.117188 7
-0.25394401 -4.528687 -5.1308589 7
-0.25398999 -4.544189 -5.1201172 7
-0.243744 -4.5402832 -5.0800781 7
-0.242073 -4.5522461 -5.0644531 7
-0.245552 -4.5740972 -5.063477 7
-0.24903899 -4.5957031 -5.061523 7
-0.24394201 -4.6013179 -5.0371089 7
-0.24741399 -4.6229248 -5.0341802 7
-0.24403401 -4.6317139 -5.014648 7
-0.24408001 -4.6469731 -5.0039058 7
-0.250992 -4.6751709 -5.0117192 7
-0.25105301 -4.6903081 -5 7
-0.25798801 -4.71875 -5.0068359 7
-0.268356 -4.7540278 -5.023438 7
-0.25979599 -4.7524409 -4.9902339 7
-0.26672399 -4.7808838 -4.9960942 7
-0.266785 -4.796021 -4.984375 7
-0.30011699 -5.1158452 7.539062 7
-0.307098 -5.115479 7.5683589 7
-0.30013999 -5.0866699 7.5644531 7
-0.30189499 -5.075439 7.5800781 7
-0.31059301 -5.0787349 7.6123052 7
-0.300163 -5.0428472 7.5996089 7
-0.29669201 -5.0209961 7.6025391 7
-0.28972599 -4.99231 7.5976558 7
-0.29321301 -4.9844971 7.6181641 7
-0.28974199 -4.9630132 7.6210942 7
-0.293221 -4.9550781 7.641602 7
-0.28800201 -4.9299321 7.639648 7
-0.29148901 -4.9219971 7.6601558 7
-0.28626999 -4.8968511 7.6591802 7
-0.29499799 -4.8991699 7.6933589 7
-0.296745 -4.8878169 7.7089839 7
-0.30023199 -4.8797612 7.7294922 7
-0.28978699 -4.8443599 7.7138672 7
-0.28630799 -4.8225098 7.7167969 7
-0.29500601 -4.8244629 7.75 7
-0.29154199 -4.8024902 7.7529302 7
-0.078429997 -1.9150389 8.4355469 7
-0.081878997 -1.901245 8.4501953 7
-0.078391999 -1.881714 8.4443359 7
-0.078368999 -1.865234 8.4482422 7
-0.078345999 -1.848511 8.4521484 7
-0.078345999 -1.831787 8.4580078 7
-0.090507999 -1.824829 8.4990234 7
-0.080054998 -1.799683 8.4716797 7
-0.076545998 -1.780273 8.4648438 7
-0.078285001 -1.765015 8.4746094 7
-0.066071004 -1.73877 8.4414062 7
-0.066055 -1.722046 8.4453115 7
-0.069533996 -1.7080081 8.4599609 7
-0.066032 -1.688843 8.453125 7
-0.066017002 -1.672119 8.4570312 7
-0.067740999 -1.656738 8.4667969 7
-0.074699 -1.64502 8.4921885 7
-0.067726001 -1.6231689 8.4755859 7
-0.067688003 -1.606567 8.4785156 7
-0.062622003 0.96972698 8.5947266 7
-0.045219 0.97912598 8.5371094 7
-0.050391998 0.99841303 8.5507812 7
-0.050368998 1.015381 8.5488281 7
-0.046859998 1.030396 8.5351562 7
-0.046829 1.047363 8.5332031 7
-0.050292999 1.065918 8.5429688 7
-0.050255001 1.082764 8.5400391 7
-0.051956002 1.1005861 8.5429688 7
-0.057137001 1.119995 8.5566406 7
-0.055374 1.135986 8.5488281 7
-0.057082999 1.153931 8.5517578 7
-0.050101999 1.167114 8.5263672 7
-0.053534999 1.185547 8.5341797 7
-0.050034001 1.200562 8.5205078 7
-0.058685001 1.222168 8.5449219 7
-0.051704001 1.235229 8.5214844 7
-0.056892 1.255005 8.5351562 7
-0.067284003 1.277832 8.5644531 7
-0.256134 -4.5148931 -4.7929692 7
-0.256172 -4.529541 -4.782227 7
-0.25978899 -4.5506592 -4.780273 7
-0.26162699 -4.5683589 -4.7724609 7
-0.25810999 -4.5765381 -4.7539058 7
-0.25637099 -4.587646 -4.7382808 7
-0.25286901 -4.5953369 -4.717773 7
-0.25291401 -4.6098628 -4.7060552 7
-0.25296801 -4.6243901 -4.695312 7
-0.260124 -4.6522222 -4.703125 7
-0.253059 -4.6529541 -4.672852 7
-0.25844601 -4.6776118 -4.6757808 7
-0.26028401 -4.695435 -4.6689448 7
-0.25854501 -4.7064209 -4.6542969 7
-0.25502801 -4.7137451 -4.632812 7
-0.263962 -4.7453609 -4.6455078 7
-0.27469599 -4.780273 -4.6601558 7
-0.265854 -4.7772222 -4.6269531 7
-0.34030199 -6.2033691 -3.4951169 7
-0.34035501 -6.2149658 -3.4794919 7
-0.352882 -6.2573242 -3.4892581 7
-0.35292801 -6.2687988 -3.4736331 7
-0.354774 -6.284668 -3.4619141 7
-0.36016801 -6.3095698 -3.4580081 7
-0.35488099 -6.3077388 -3.4326169 7
-0.35314199 -6.3145752 -3.414062 7
-0.35675001 -6.3349609 -3.40625 7
-0.34967801 -6.3284912 -3.3779299 7
-0.353302 -6.3485112 -3.3691411 7
-0.349785 -6.3509521 -3.347656 7
-0.353416 -6.3712158 -3.3388669 7
-0.35345501 -6.3824458 -3.324219 7
-0.35172999 -6.3890381 -3.3056641 7
-0.30667901 -4.90271 7.3701172 7
-0.303085 -4.8817139 7.3730469 7
-0.29409 -4.849854 7.3632808 7
-0.29589799 -4.8391109 7.3789058 7
-0.29052001 -4.8145752 7.3779302 7
-0.088340998 -1.918457 8.1953115 7
-0.082932003 -1.897949 8.1835938 7
-0.077522002 -1.877563 8.171875 7
-0.081100002 -1.864502 8.1865234 7
-0.077506997 -1.845459 8.1806641 7
-0.081084996 -1.832275 8.1953115 7
-0.077477001 -1.8132319 8.1894531 7
-0.088242002 -1.805786 8.2255859 7
-0.079239003 -1.782715 8.203125 7
-0.081032 -1.768066 8.2128906 7
-0.081009001 -1.751953 8.2167969 7
-0.070189998 -1.727417 8.1894531 7
-0.070175 -1.711426 8.1933594 7
-0.066559002 -1.692749 8.1865234 7
-0.070168003 -1.6793211 8.2021484 7
-0.070145003 -1.663208 8.2060547 7
-0.066536002 -1.6444089 8.1992188 7
-0.079108998 -1.637329 8.2402344 7
-0.062912002 -1.609741 8.1972656 7
-0.059586 0.96643102 8.3251953 7
-0.063164003 0.984375 8.3339844 7
-0.068503998 1.003296 8.3476562 7
-0.055907998 1.013916 8.3066406 7
-0.050484002 1.02771 8.2871094 7
-0.055847 1.046509 8.3007812 7
-0.054008 1.062012 8.2929688 7
-0.053978 1.078247 8.2910156 7
-0.053955 1.094604 8.2880859 7
-0.052124001 1.109863 8.2802734 7
-0.052094001 1.126099 8.2773438 7
-0.052071001 1.142334 8.2744141 7
-0.061028 1.163208 8.2998047 7
-0.055603001 1.1767581 8.2802734 7
-0.050186001 1.190063 8.2617188 7
-0.050156001 1.2062989 8.2587891 7
-0.057303999 1.22644 8.2773438 7
-0.064467996 1.2468261 8.296875 7
-0.062622003 1.261963 8.2880859 7
-0.060814001 1.2771 8.2802734 7
-0.152458 -1.966835 12.255497 7
-0.111163 -1.9865921 11.03709 7
-0.071576998 -1.722934 10.111828 7
-0.12783401 4.1917448 9.5237751 7
-0.308662 -4.9368529 9.9645758 7
-0.045649 -1.755008 9.3701057 7
-0.030301001 1.053489 9.4304686 7
-0.34434599 -5.0447688 8.7474918 7
-0.095261 -1.8163919 8.869772 7
-0.31605899 -5.1093869 7.7312021 7
-0.30989099 -4.9100509 7.9098129 7
-0.073527001 -1.83345 8.3613644 7
-0.058222 -1.617177 8.3428898 7
-0.045908 1.0504169 8.4361343 7
-0.051075 1.24235 8.4223042 7
-0.26628101 -4.9568462 6.751462 7
-0.272367 -4.8596611 6.9685349 7
-0.051240001 -1.834232 7.9085498 7
-0.038961001 -1.642257 7.9134269 7
-0.03655 0.97313201 8.114315 7
-0.02705 1.127882 8.0207329 7
-0.087640002 -1.862275 7.5797791 7
-0.070456997 -1.673842 7.572083 7
-0.050999001 1.037015 7.7014151 7
-0.061783001 1.206768 7.709919 7
-0.296325 -4.8091898 5.2141461 7
-0.077503003 -1.879135 7.2783251 7
-0.058212001 -1.697278 7.2684269 7
-0.043076001 0.97199303 7.473238 7
-0.042638998 1.11414 7.4300542 7
-0.049288999 1.2666399 7.4133282 7
-0.074152999 -1.7767971 7.10322 7
-0.053801998 -1.602455 7.0893722 7
-0.056754 -1.771487 6.822072 7
-0.049732 -1.6372139 6.8645802 7
0.039393 -1.29724 -7.9488258 7
0.048884001 -1.262071 -6.5980029 7
-0.174545 -4.580173 -7.585906 7
-0.181225 -4.638535 -6.3900499 7
-0.112258 -2.1042881 12.354971 7
-0.072504997 -1.7014 12.127024 7
0.061000001 -1.540074 -4.612042 7
-0.169183 -4.6251349 -5.259316 7
-0.28476301 -6.3317289 -5.0694828 7
-0.27700099 -5.1431861 11.479666 7
-0.152008 -1.970155 11.253835 7
-0.012486 -1.492013 -3.9314899 7
-0.25271201 -4.6174879 -4.3489971 7
-0.102674 -1.863281 10.362131 7
0.012103 -1.446115 -3.2502649 7
-0.238378 -4.6005611 -3.564075 7
-0.33475 -5.0458841 9.8452549 7
-0.088866003 -1.796178 9.8053017 7
0.029665999 -1.40921 -2.7032361 7
-0.22561499 -4.5779672 -2.8860099 7
-0.30764499 -4.9641762 9.1411152 7
-0.050519001 -1.720724 9.1751328 7
0.050758 -1.375597 -2.20332 7
-0.36311799 -4.9082518 8.5632706 7
-0.10982 -1.905134 8.7592878 7
-0.082725003 -1.659971 8.6789093 7
-0.323257 -4.9770908 7.800252 7
-0.33104801 -4.814815 8.0033855 7
-0.073770002 -1.829829 8.2948599 7
-0.058819 -1.611541 8.2745609 7
-0.248244 -4.6307931 -1.105697 7
-0.37262201 -6.4070969 0.58706802 7
-0.36309001 -6.4597511 0.83966303 7
-0.055287 -1.774734 7.9561 7
0.017431 -1.309911 -1.251029 7
-0.26570699 -4.8967948 6.7116098 7
-0.28107399 -4.801054 6.9235468 7
-0.044041999 -1.729798 7.6802931 7
0.028034 -1.2919509 -0.98414302 7
0.011345 -1.474409 -1.0243649 7
-0.22417299 -4.5199938 -0.319482 7
-0.222397 -4.6480899 -0.15228701 7
-0.306997 -4.9343152 6.193871 7
-0.077468 -1.8579839 7.3732061 7
-0.058338001 -1.674461 7.3442922 7
-0.266929 -4.6993289 0.33617601 7
-0.063638002 -1.811179 7.1458411 7
-0.045536999 -1.638142 7.1208959 7
-0.0085340003 -1.421826 -0.55228102 7
-0.023691 -1.586647 -0.57535899 7
-0.248687 -4.4980841 0.49433401 7
-0.262573 -4.640563 0.62100101 7
-0.25282699 -4.7080312 0.80161101 7
-0.30326101 -5.0812659 5.133615 7
-0.28940901 -4.957973 5.2820649 7
-0.27057499 -4.8148522 5.4151459 7
-0.052754 -1.7701761 6.9467878 7
-0.034246001 -1.605551 6.9204569 7
-0.00111 -1.40158 -0.367412 7
-0.0089199999 -1.5545599 -0.36349601 7
-0.240293 -4.527854 0.92017102 7
-0.250994 -4.6445789 1.056198 7
-0.238655 -4.6870151 1.2358561 7
-0.249147 -4.7914972 1.380215 7
-0.058327001 -1.890317 6.7745981 7
-0.042567 -1.732744 6.7650418 7
-0.271413 -4.5113568 1.330601 7
-0.27702299 -4.5967588 1.475104 7
-0.275518 -4.655931 1.632435 7
-0.273846 -4.7081852 1.791646 7
-0.28622201 -4.7958431 1.937741 7
-0.29695299 -4.8555088 4.2934198 7
-0.293042 -4.7966599 4.4504399 7
-0.26413801 -4.5506358 1.853178 7
-0.276739 -4.6357002 1.9926651 7
-0.27097601 -4.662097 2.1528471 7
-0.266882 -4.6868672 2.311666 7
-0.273646 -4.7374201 2.4637761 7
-0.28131101 -4.7561369 3.894011 7
-0.28874999 -4.7376342 4.0945969 7
-0.27929199 -4.670938 4.2429109 7
-0.284531 -4.6409311 4.400722 7
-0.25528699 -4.528852 2.35146 7
-0.25459301 -4.5562291 2.501466 7
-0.271346 -4.601212 3.8669779 7
-0.26369399 -4.5493612 4.0124369 7
-0.021599 4.7074752 -8.3890238 7
-0.036288001 4.6376801 -4.603456 7
-0.117408 0.69529998 11.231977 7
-0.17472699 4.1955209 9.4633217 7
-0.138714 4.3196239 9.0874367 7
-0.046160001 1.016986 8.2892094 7
-0.065136001 1.230244 8.3416586 7
-0.029011 1.0157959 7.951879 7
-0.049348 1.2151411 8.0102711 7
-0.062703997 1.013116 7.6561861 7
-0.077198997 1.198912 7.686202 7
-0.055410001 1.012172 7.429029 7
-0.062871002 1.187343 7.4307661 7
-0.019161999 1.241915 -15.064739 7
0.062132999 0.182237 -12.754393 7
-0.030521 -0.97933698 -10.016822 7
-0.013427 -1.400556 -8.285264 7
-0.093096003 4.6703148 -8.591177 7
0.001618 -1.421389 -7.0672479 7
0.010938 -1.4393491 -6.1997089 7
-0.18613601 -4.4822798 -7.5211811 7
-0.054930001 4.6201282 -5.5304689 7
-0.033691 -1.459771 -5.5598178 7
-0.26434001 -4.5148139 -6.5415478 7
-0.111346 4.6021051 -4.5254521 7
-0.015773 -1.280853 -5.0190721 7
-0.024742 -1.472355 -5.0424891 7
-0.23916399 -4.5838528 -5.4018111 7
-0.31486699 -6.1223221 -4.8048859 7
-0.0079269996 -1.304078 -4.597404 7
-0.016269 -1.476608 -4.608006 7
-0.21899299 -4.5805459 -4.433949 7
-0.21576101 -4.7178512 -4.2415819 7
-0.30717701 -6.1822448 -3.4767981 7
-0.308099 -6.3229079 -3.231776 7
0.000688 -1.315148 -4.229733 7
-0.016417 -1.5000761 -4.2910991 7
-0.19715799 -4.6045041 -3.3985 7
-0.205911 -4.783998 -3.2426219 7
-0.015262 -1.296236 -3.8636789 7
-0.035101 -1.470633 -3.9232631 7
-0.036373999 -1.593697 -3.873004 7
-0.014906 -1.322083 -3.643044 7
-0.022338999 -1.451018 -3.629066 7
-0.031594999 -1.587304 -3.6182699 7
-0.239263 -4.592494 -1.26197 7
-0.233688 -4.5808001 -1.069833 7
-0.010763 -1.331964 -3.4255171 7
-0.011446 -1.4316961 -3.3762319 7
-0.025431 -1.572632 -3.383517 7
-0.0050650002 -1.332512 -3.221833 7
-0.015424 -1.315931 -2.86096 7
-0.012721 -1.381935 -2.79884 7
-0.034003001 -1.518309 -2.8142741 7
-0.0286 -1.573602 -2.7359481 7
-0.0045949998 -1.294381 -2.6942649 7
-0.016402001 -1.395489 -2.679611 7
-0.01622 -1.4614379 -2.6228211 7
-0.006422 -1.288808 -2.5926881 7
-0.020997001 -1.540437 -2.181016 7
-0.0078539997 -1.345077 -2.2237329 7
-0.0063840002 -1.3879271 -2.1656859 7
-0.0094689997 -1.442243 -2.115242 7
-0.021733999 -1.523716 -2.0795979 7
-0.018549999 -1.5552 -2.0115359 7
-0.0066479999 -1.333915 -2.125998 7
0.010887 -1.3256561 -2.0372751 7
-0.0083849998 -1.4231009 -2.0181861 7
-0.016394001 -1.486728 -1.973459 7
0.0042309999 -1.293676 -2.0156541 7
-0.00091900001 -1.346911 -1.9716311 7
-0.026911 -1.528754 -1.266035 7
-0.028921001 -1.542541 -1.2022409 7
-0.030933 -1.5537111 -1.137502 7
-0.025832999 -1.5398411 -1.073113 7
-0.0261 -1.5401109 -1.008271 7
-0.0042119999 -1.407198 -1.256897 7
-0.0082569998 -1.426192 -1.198365 7
-0.0086310003 -1.431689 -1.138563 7
-0.0016740001 -1.4124531 -1.079578 7
-0.0075759999 -1.429701 -1.018476 7
-0.002533 -1.411262 -0.96037 7
-0.016272999 -1.346432 -1.266085 7
-0.024349 -1.3774281 -1.196272 7
-0.020932 -1.371758 -1.138644 7
-0.017557001 -1.363768 -1.081575 7
-0.018119 -1.364521 -1.0240951 7
-0.0090060001 -1.335533 -0.97022003 7
-0.0102 -1.28659 -1.2608581 7
-0.018609 -1.317275 -1.1941741 7
-0.0051389998 -1.28413 -1.139401 7
-0.011816 -1.303803 -1.084511 7
-0.0064440002 -1.288198 -1.031129 7
