# .PCD v0.7 - Point Cloud Data file format
VERSION 0.7
FIELDS x y z intensity
SIZE 4 4 4 4
TYPE F F F F
COUNT 1 1 1 1
WIDTH 1247
HEIGHT 1
VIEWPOINT 0 0 0 1 0 0 0
POINTS 1247
DATA ascii
0.25069401 -1.5012209 -72.708984 7
0.28683501 -1.645264 -71.306641 7
0.257797 -1.845215 -72.401367 7
0.229836 5.0632319 -72.890625 7
0.17342401 -1.714233 -67.171875 7
0.22183999 -1.8312989 -65.505859 7
0.18756101 -2.024292 -66.660156 7
0.21710201 -2.152832 -65.636719 7
0.204941 5.0435791 -65.569336 7
0.171349 4.967041 -66.713867 7
0.32883501 1.4423831 -61.40332 7
0.139587 -1.8469239 -60.714844 7
0.19474 -1.939941 -59.024414 7
0.23587801 -2.0397949 -57.762695 7
0.181274 -2.240845 -59.407227 7
0.22566999 -2.331665 -58.044922 7
0.247307 5.0957031 -56.985352 7
0.32112101 4.7679439 -54.764648 7
0.246437 4.82019 -57.025391 7
0.21269201 4.7626948 -58.051758 7
0.31256899 1.297974 -55.089844 7
0.078093998 -1.9675291 -55.672852 7
0.146042 -2.0345459 -53.821289 7
0.177711 -2.131592 -52.950195 7
0.142708 -2.299561 -53.886719 7
0.170074 -2.3977051 -53.131836 7
0.26085699 4.8780522 -50.289062 7
0.224152 4.8457031 -51.283203 7
0.187233 4.8092041 -52.286133 7
0.245323 4.545166 -50.729492 7
0.208832 4.504272 -51.719727 7
0.158508 4.489624 -53.083984 7
0.059006002 -2.1680911 -50.737305 7
0.119057 -2.226685 -49.253906 7
0.143364 -2.3188479 -48.647461 7
0.18032099 -2.3929441 -47.730469 7
0.120255 -2.584229 -49.19043 7
0.16243 -2.64856 -48.144531 7
-0.90234399 -3.106812 68.669922 7
-0.93322802 -2.9772949 69.355469 7
0.19959299 4.7988281 -46.930664 7
0.168449 4.7573242 -47.698242 7
0.23466501 4.4880371 -46.09082 7
0.19135299 4.4720459 -47.155273 7
0.155212 4.4356689 -48.046875 7
0.10463 -2.2510991 -44.824219 7
0.126755 -2.3352051 -44.322266 7
0.18148001 -2.378418 -43.095703 7
0.113945 -2.5673831 -44.584961 7
0.134506 -2.6494141 -44.118164 7
0.21976499 4.7124019 -41.910156 7
0.187813 4.6843262 -42.625 7
0.15744001 4.649292 -43.304688 7
0.121544 4.623291 -44.107422 7
0.183037 4.380249 -42.755859 7
0.15976 4.3249512 -43.27832 7
0.111748 4.3187261 -44.348633 7
0.035987999 -2.351685 -42.606445 7
0.064269997 -2.4234619 -42.016602 7
0.091743 -2.4932859 -41.446289 7
0.041625999 -2.656616 -42.460938 7
0.055663999 -2.74231 -42.162109 7
0.082557999 -2.8093259 -41.601562 7
0.119431 -2.859863 -40.835938 7
0.13492601 -2.9375 -40.508789 7
-0.684937 0.063354 54.741211 7
0.135056 4.6391602 -40.267578 7
0.111008 4.5931401 -40.767578 7
0.074401997 4.572144 -41.522461 7
0.122498 4.3681641 -40.549805 7
0.106148 4.302124 -40.892578 7
0.080077998 4.2541499 -41.431641 7
0.17882501 1.02356 -39.857422 7
0.191994 0.91955602 -39.583984 7
0.186966 0.824341 -39.685547 7
0.19134501 0.72534198 -39.59375 7
0.23580199 0.61425799 -38.676758 7
0.034049999 -2.905273 -38.695312 7
0.049789 -2.9780271 -38.391602 7
0.067740999 -3.0462649 -38.045898 7
0.078178003 -3.1239009 -37.84082 7
-0.56790203 0.17126501 48.477539 7
0.112373 4.8199458 -36.946289 7
0.089446999 4.7811279 -37.380859 7
0.072806999 4.7260742 -37.699219 7
0.050507002 4.6818848 -38.123047 7
0.031654 4.6282959 -38.482422 7
0.183586 1.2113039 -35.84082 7
0.19850899 1.11438 -35.561523 7
0.179291 1.036621 -35.920898 7
0.192871 0.58886701 -35.666992 7
0.20874 0.49682599 -35.370117 7
0.189522 0.41357401 -35.727539 7
0.20507 0.32287601 -35.436523 7
0.045288 -3.2744141 -35.330078 7
0.037987001 -3.3725591 -35.444336 7
-0.59270501 -2.864502 45.354492 7
-0.60399598 -2.771729 45.542969 7
-0.52951801 0.054809999 44.513672 7
-0.50691199 0.155884 44.15918 7
-0.52368897 0.258789 44.425781 7
0.086304002 4.8441162 -34.379883 7
0.066924997 4.802979 -34.72168 7
0.049561001 4.7556152 -35.02832 7
0.017975001 4.737915 -35.580078 7
-0.00074799999 4.690186 -35.90918 7
0.056793001 4.4803472 -34.93457 7
0.153366 0.372192 -33.733398 7
0.178551 0.2854 -33.295898 7
0.161507 0.204834 -33.588867 7
0.173187 0.121216 -33.385742 7
0.186874 0.038695998 -33.145508 7
0.171753 -0.022949001 -30.268555 7
0.16787 -0.17395 -30.326172 7
-0.014534 -3.2485349 -33.19043 7
-0.002869 -3.3125 -32.998047 7
0.015083 -3.3657229 -32.705078 7
-0.0039519998 -3.476685 -32.993164 7
-0.500687 -2.7407229 40.598633 7
-0.53370702 -2.6804199 41.088867 7
-0.550354 -2.602417 41.341797 7
-0.50322002 0.14379901 40.795898 7
-0.46279901 0.23376501 40.205078 7
-0.49135599 0.32922399 40.625 7
-0.45931199 0.41711399 40.157227 7
0.114197 4.9195561 -30.881836 7
0.102318 4.8704829 -31.078125 7
0.086364999 4.8299561 -31.338867 7
0.066711001 4.7965088 -31.65625 7
0.043724 4.769043 -32.026367 7
0.0063399998 4.7713618 -32.62207 7
-0.011108 4.7279048 -32.905273 7
0.165497 1.562866 -30.360352 7
0.18502 1.4729 -30.054688 7
0.15275601 1.420776 -30.566406 7
0.18225101 1.325195 -30.101562 7
0.159973 1.264282 -30.455078 7
0.126587 1.2080081 -30.983398 7
0.13750499 0.129517 -30.8125 7
0.121483 -0.037719999 -29.133789 7
0.14343999 -0.108887 -28.805664 7
0.16068999 -0.17883299 -28.548828 7
0.12659501 -0.25390601 -29.050781 7
-0.02726 -3.281738 -31.069336 7
-0.051964 -3.3959961 -31.421875 7
-0.038672999 -3.452759 -31.21582 7
-0.029327 -3.5148931 -31.069336 7
-0.023560001 -3.5822749 -30.973633 7
0.052901998 5.1008301 -29.588867 7
0.090407997 4.938477 -29.052734 7
0.073357001 4.9055181 -29.313477 7
0.059059002 4.8651118 -29.532227 7
0.040398002 4.8336182 -29.814453 7
0.009087 4.8287349 -30.282227 7
0.17054 1.597656 -28.183594 7
0.154625 1.539185 -28.419922 7
0.137527 1.480835 -28.674805 7
0.156845 1.395874 -28.392578 7
0.130638 1.342285 -28.78125 7
0.12352 -0.28637701 -26.615234 7
0.144394 -0.349365 -26.327148 7
0.117332 -0.42077601 -26.693359 7
0.123238 -0.486206 -26.610352 7
0.14028201 -0.54821801 -26.376953 7
0.120506 -0.62011701 -26.643555 7
-0.066955999 -3.523438 -29.123047 7
-0.040718 -3.625 -28.74707 7
-0.036194 -3.688354 -28.672852 7
-0.40045899 0.51318401 34.476562 7
-0.388924 0.58898902 34.329102 7
-0.39199799 0.66784698 34.368164 7
0.078437999 4.9987788 -26.865234 7
0.075393997 4.9385991 -26.916992 7
0.059555002 4.9078369 -27.141602 7
0.045364 4.872314 -27.341797 7
0.033356 4.830811 -27.515625 7
0.0068279998 4.8206792 -27.883789 7
0.153244 1.684204 -26.186523 7
0.15474699 1.486328 -26.174805 7
0.121216 1.377441 -26.634766 7
0.115005 -0.34521499 -25.033203 7
0.100716 -0.41064501 -25.212891 7
0.119339 -0.46935999 -24.972656 7
0.13019601 -0.52893102 -24.832031 7
0.10218 -0.59924299 -25.185547 7
0.12571 -0.716919 -24.879883 7
-0.082886003 -3.650269 -27.241211 7
-0.047568999 -3.7928469 -26.763672 7
-0.042679001 -3.850708 -26.689453 7
-0.63101202 -5.7518311 34.576172 7
-0.48979199 -3.741699 33.189453 7
0.046294998 4.9919429 -25.334961 7
0.043503001 4.9346919 -25.380859 7
0.032928001 4.89502 -25.524414 7
0.025101 4.8483891 -25.632812 7
0.0062870001 4.8259282 -25.880859 7
-0.01297 4.802979 -26.133789 7
0.132935 1.5294189 -24.609375 7
0.093741998 -0.55835003 -23.382812 7
0.113693 -0.66918898 -23.140625 7
0.091438003 -0.735107 -23.402344 7
0.093781002 -0.79284698 -23.371094 7
0.107941 -0.84582502 -23.199219 7
0.104858 -0.90527302 -23.231445 7
0.035461001 5.0731201 -23.463867 7
0.033943001 5.017334 -23.493164 7
0.025032001 4.9787598 -23.607422 7
0.015633 4.9404302 -23.727539 7
-0.00116 4.918335 -23.933594 7
-0.016960001 4.893188 -24.129883 7
0.117424 1.8937989 -22.900391 7
0.131653 1.8232419 -22.735352 7
0.115326 1.779785 -22.932617 7
0.12661 1.7125241 -22.802734 7
0.127037 1.654663 -22.800781 7
0.112183 1.608521 -22.979492 7
0.104225 1.556396 -23.077148 7
0.078644 -0.69018602 -21.895508 7
0.083290003 -0.74365199 -21.842773 7
0.094246 -0.79455602 -21.717773 7
0.085175 -0.85302699 -21.814453 7
0.070831001 -0.91406202 -21.970703 7
0.022163 5.043457 -21.895508 7
0.013161 5.008667 -22.003906 7
0.0030980001 4.9759521 -22.124023 7
-0.004311 4.936523 -22.21582 7
-0.030235 4.881104 -22.518555 7
0.103798 1.888672 -21.425781 7
0.093177997 1.84375 -21.546875 7
0.101044 1.782349 -21.463867 7
0.106789 1.723145 -21.404297 7
0.098816 1.675293 -21.495117 7
0.063308999 -0.80578601 -20.539062 7
0.070679002 -1.061523 -20.445312 7
0.072265998 -1.112305 -20.424805 7
0.015845999 5.0418701 -20.376953 7
0.0096209999 5.004395 -20.451172 7
0.0022509999 4.9691162 -20.537109 7
-0.0050960002 4.9334722 -20.624023 7
-0.019783 4.9136958 -20.783203 7
-0.037300002 4.8994141 -20.969727 7
-0.030579001 4.831543 -20.914062 7
0.089348003 1.878418 -20.081055 7
0.075759999 1.838989 -20.224609 7
0.101669 1.765625 -19.961914 7
0.094841003 1.720459 -20.03418 7
0.081817999 1.67981 -20.172852 7
0.082886003 1.627563 -20.166016 7
0.060660999 -1.001953 -19.227539 7
0.034187 -1.063843 -19.481445 7
0.043671001 -1.108276 -19.383789 7
0.045348998 -1.156616 -19.363281 7
0.046455 -1.205078 -19.348633 7
0.028976001 -1.2644041 -19.515625 7
-0.019737 5.0635991 -19.339844 7
-0.025169 5.0264888 -19.402344 7
-0.028191 4.9836431 -19.443359 7
-0.039597001 4.9594731 -19.5625 7
-0.055824 4.945312 -19.726562 7
-0.051665999 4.8859859 -19.698242 7
-0.037308 4.8044429 -19.574219 7
0.063210003 1.8874511 -19.03125 7
0.054763999 1.846191 -19.116211 7
0.073302999 1.781616 -18.939453 7
0.072662003 1.7336431 -18.950195 7
0.057007 1.697632 -19.105469 7
0.073761001 1.6357419 -18.947266 7
0.046760999 -0.992432 -18.083008 7
0.049247999 -1.037354 -18.057617 7
0.023605 -1.096313 -18.287109 7
0.033080999 -1.137817 -18.197266 7
0.034263998 -1.183594 -18.183594 7
0.039291002 -1.227051 -18.133789 7
0.055847 1.91272 -17.822266 7
0.065384001 1.858521 -17.739258 7
0.065971002 1.812256 -17.737305 7
0.065917999 1.7668459 -17.741211 7
0.061416999 1.7249759 -17.786133 7
0.070304997 1.671997 -17.708984 7
0.073455997 1.624023 -17.683594 7
0.024551 -0.99035603 -17.181641 7
0.028526001 -1.0324709 -17.144531 7
0.034515001 -1.073364 -17.089844 7
0.023605 -1.122803 -17.180664 7
0.01136 -1.1730959 -17.28125 7
0.011276 -1.217407 -17.279297 7
0.019958001 -1.256714 -17.201172 7
0.072913997 1.450684 -16.626953 7
0.027588001 -0.97351098 -16.091797 7
0.01532 -1.0205081 -16.1875 7
0.025269 -1.057251 -16.104492 7
0.02877 -1.097046 -16.073242 7
0.020804999 -1.142578 -16.133789 7
0.005684 -1.192261 -16.25293 7
0.013474 -1.229614 -16.186523 7
0.012672 -1.271606 -16.189453 7
-0.028023001 5.0275879 -15.771484 7
-0.028755 4.9881592 -15.789062 7
-0.036658999 4.9648442 -15.861328 7
-0.039542999 4.9301758 -15.895508 7
-0.046714999 4.9046631 -15.962891 7
-0.063216999 4.899292 -16.102539 7
-0.066832997 4.865356 -16.141602 7
0.051727001 1.583496 -15.745117 7
0.042343002 1.549316 -15.822266 7
0.048041999 1.504272 -15.780273 7
0.054458998 1.458984 -15.731445 7
0.068718001 1.408569 -15.618164 7
0.072258003 1.365723 -15.592773 7
0.052437 1.339722 -15.758789 7
0.05381 1.297974 -15.75 7
0.022247 -1.000122 -15.162109 7
0.01535 -1.042847 -15.210938 7
0.024367999 -1.077515 -15.139648 7
0.023529001 -1.117065 -15.141602 7
0.015114 -1.160645 -15.203125 7
0.001396 -1.207397 -15.304688 7
0.0088959998 -1.2425539 -15.244141 7
0.0087970002 -1.2819819 -15.240234 7
0.01326 -1.318604 -15.202148 7
-0.001984 -1.36731 -15.313477 7
-0.0028309999 -1.407349 -15.316406 7
0.048027001 1.268555 -14.839844 7
0.043442 1.232422 -14.876953 7
0.050216999 1.189941 -14.828125 7
0.060798999 1.1455081 -14.75 7
0.069091998 1.102783 -14.688477 7
0.065223999 1.027954 -14.722656 7
0.059113 0.992432 -14.771484 7
0.011757 -1.283325 -14.292969 7
0.010078 -1.321533 -14.301758 7
0.0059969998 -1.361084 -14.327148 7
-0.0044940002 -1.405151 -14.398438 7
0.074371003 0.60534698 -13.776367 7
0.072723001 0.56970203 -13.789062 7
0.073478997 0.53320301 -13.78418 7
0.077454001 0.49609399 -13.756836 7
0.082999997 0.45886201 -13.716797 7
0.086998001 0.421875 -13.689453 7
0.087752998 0.38586399 -13.68457 7
0.086914003 0.35009801 -13.691406 7
-0.058212001 5.0161128 -13.119141 7
-0.041374002 4.9439702 -13.020508 7
-0.042243998 4.911499 -13.037109 7
-0.046463002 4.88623 -13.077148 7
-0.047325 4.8536382 -13.09375 7
-0.047339998 4.8192139 -13.105469 7
0.0034940001 -1.362793 -12.788086 7
-0.078560002 5.1043701 -12.405273 7
-0.072365001 5.0574951 -12.379883 7
-0.064406998 5.0068359 -12.342773 7
-0.046714999 4.934937 -12.245117 7
-0.045853 4.9005132 -12.250977 7
-0.049392998 4.875854 -12.285156 7
-0.056488 4.858398 -12.34082 7
-0.055617999 4.82373 -12.347656 7
-0.060950998 4.8023682 -12.390625 7
-0.076012 4.8013921 -12.496094 7
-0.083107002 4.7834468 -12.550781 7
0.040405001 -0.64416498 -11.277344 7
0.041320998 -0.67382801 -11.269531 7
0.037354 -0.70507801 -11.291016 7
0.021667 -0.74035603 -11.381836 7
0.014778 -0.77294898 -11.419922 7
0.025443999 -0.79931599 -11.354492 7
0.027350999 -0.828857 -11.341797 7
0.030197 -0.85778803 -11.321289 7
0.028206 -0.88867199 -11.332031 7
0.019332999 -0.922607 -11.380859 7
0.014381 -0.95483398 -11.407227 7
-0.19364201 -4.2928472 -11.948242 7
-0.203049 -4.342773 -11.992188 7
-0.20017999 -4.3691411 -11.96582 7
-0.19634999 -4.3935552 -11.932617 7
-0.193497 -4.4196782 -11.90625 7
-0.19946299 -4.4620361 -11.928711 7
0.021523001 -0.64953601 -10.81543 7
0.024529001 -0.67724597 -10.795898 7
0.021415999 -0.70727497 -10.8125 7
0.020324999 -0.73657203 -10.81543 7
0.013107 -0.76794398 -10.854492 7
0.010002 -0.798096 -10.870117 7
0.019135 -0.82372999 -10.816406 7
0.022141 -0.85119599 -10.796875 7
0.025146 -0.87890601 -10.77832 7
0.024048001 -0.90820301 -10.78125 7
0.0086669996 -0.94360399 -10.864258 7
0.0095600002 -1.001099 -10.853516 7
0.011543 -1.029053 -10.839844 7
0.013527 -1.057007 -10.826172 7
0.012436 -1.086426 -10.829102 7
0.0031890001 -1.119995 -10.87793 7
0.002045 -1.1787111 -10.878906 7
0.017914001 -0.97607398 -10.213867 7
0.017859999 -1.00354 -10.210938 7
0.012428 -1.033447 -10.237305 7
0.0038069999 -1.065063 -10.280273 7
-0.0058980002 -1.097656 -10.329102 7
-0.00066399999 -1.150391 -10.295898 7
0.0046390002 -1.1750489 -10.263672 7
0.003517 -1.203369 -10.267578 7
0.001305 -1.232178 -10.275391 7
-0.015900001 -1.269653 -10.363281 7
-0.049339 4.7789311 -9.5449219 7
-0.046149999 4.7460942 -9.5400391 7
-0.046142999 4.7199712 -9.5517578 7
-0.051506002 4.7049561 -9.5888672 7
0.0034709999 -0.96606398 -9.7802734 7
-0.0033110001 -0.99560499 -9.8115234 7
-0.0067059998 -1.0238039 -9.8271484 7
0.0021820001 -1.046021 -9.7792969 7
0.0065919999 -1.07019 -9.7529297 7
0.006546 -1.09668 -9.7509766 7
0.0042420002 -1.124023 -9.7587891 7
-0.0069889999 -1.156494 -9.8144531 7
-0.001457 -1.1800539 -9.7822266 7
-0.001511 -1.2062989 -9.7792969 7
-0.004929 -1.234619 -9.7939453 7
-0.0060879998 -1.2618411 -9.796875 7
-0.31674999 -6.086792 -9.8505859 7
-0.31907699 -6.118896 -9.8466797 7
-0.31579599 -6.137085 -9.8173828 7
-0.31588 -6.1636958 -9.8017578 7
-0.31597099 -6.190186 -9.7880859 7
-0.316055 -6.2164311 -9.7724609 7
-0.315025 -6.2402339 -9.7529297 7
-0.31623101 -6.2694092 -9.7431641 7
-0.321922 -6.309937 -9.7529297 7
-0.328758 -6.353394 -9.7675781 7
-0.33335099 -6.3911128 -9.7724609 7
-0.0029829999 -0.97741699 -9.3232422 7
0.001526 -1.051147 -9.2939453 7
-0.0078739999 -1.081177 -9.3359385 7
-0.013763 -1.109375 -9.3623047 7
-0.0091549996 -1.1324461 -9.3359385 7
-0.003357 -1.154907 -9.3056641 7
-0.0080800001 -1.182739 -9.3261719 7
-0.0093149999 -1.208618 -9.328125 7
-0.011703 -1.235352 -9.3369141 7
-0.010597 -1.26001 -9.328125 7
-0.057769999 4.7692871 -8.4726562 7
-0.061264001 4.7532959 -8.4990234 7
-0.062438998 4.7320561 -8.515625 7
-0.063606001 4.710815 -8.5322266 7
-0.064765997 4.6894531 -8.5488281 7
-0.068268001 4.6730962 -8.5751953 7
-0.111572 -1.9094239 11.319336 7
-0.110237 -1.8848881 11.318359 7
-0.107605 -1.859131 11.3125 7
-0.106277 -1.834717 11.310547 7
-0.103638 -1.809204 11.303711 7
-0.102325 -1.78479 11.302734 7
-0.100998 -1.760254 11.301758 7
-0.098373003 -1.734985 11.293945 7
-0.095748998 -1.709595 11.287109 7
-0.093116999 -1.684204 11.279297 7
-0.091789 -1.659912 11.27832 7
-0.091759004 -1.636475 11.282227 7
-0.090415999 -1.612183 11.280273 7
-0.088898003 0.65393102 11.399414 7
-0.088852003 0.67749 11.398438 7
-0.096596003 0.70349097 11.430664 7
-0.083572 0.72314501 11.371094 7
-0.077033997 0.74450701 11.341797 7
-0.076987997 0.76794398 11.339844 7
-0.075653002 0.79101598 11.333008 7
-0.075622998 0.81457502 11.332031 7
-0.079460002 0.83947802 11.344727 7
-0.076828003 0.86206102 11.332031 7
-0.080681004 0.88720697 11.347656 7
-0.079346001 0.91015601 11.339844 7
-0.079314999 0.93359399 11.337891 7
-0.076668002 0.95605499 11.324219 7
-0.010979 -1.283325 -7.9951172 7
-0.012352 -1.306396 -7.9980469 7
-0.120819 -1.908325 10.950195 7
-0.118088 -1.883545 10.943359 7
-0.116707 -1.859985 10.941406 7
-0.116684 -1.83728 10.946289 7
-0.115311 -1.813477 10.945312 7
-0.115273 -1.790894 10.950195 7
-0.111198 -1.765381 10.936523 7
-0.108467 -1.740723 10.929688 7
-0.108444 -1.71814 10.933594 7
-0.105713 -1.693604 10.926758 7
-0.104324 -1.6700439 10.924805 7
-0.104301 -1.647583 10.928711 7
-0.097519003 -1.6201169 10.90625 7
-0.101448 0.65405297 11.053711 7
-0.10276 0.67736799 11.058594 7
-0.101379 0.69982898 11.050781 7
-0.109421 0.72534198 11.083984 7
-0.094535999 0.743164 11.019531 7
-0.09584 0.76647902 11.023438 7
-0.097144999 0.78979498 11.027344 7
-0.095779002 0.81213403 11.019531 7
-0.094375998 0.834351 11.011719 7
-0.095688 0.857544 11.015625 7
-0.094292 0.87976098 11.007812 7
-0.094254002 0.902466 11.005859 7
-0.092873 0.92468297 10.998047 7
-0.092804 0.94726598 10.995117 7
-0.106873 -1.9050291 10.485352 7
-0.118103 -1.892822 10.535156 7
-0.116684 -1.8701169 10.533203 7
-0.104004 -1.838379 10.488281 7
-0.098343 -1.812256 10.469727 7
-0.091286004 -1.7854 10.447266 7
-0.091247998 -1.763916 10.451172 7
-0.089827999 -1.741333 10.449219 7
-0.096840002 -1.725342 10.481445 7
-0.105263 -1.710083 10.519531 7
-0.101013 -1.685425 10.506836 7
-0.092560001 -1.657715 10.478516 7
-0.096755996 -1.63916 10.498047 7
-0.095329002 -1.6168211 10.496094 7
-0.23219299 -4.494873 -7.0566411 7
-0.226501 -4.5040278 -7.0263672 7
-0.223709 -4.5186772 -7.0058589 7
-0.228073 -4.5465088 -7.0097661 7
-0.229568 -4.5692139 -7.0039058 7
-0.229637 -4.5891109 -6.9931641 7
-0.23687001 -4.622437 -7.0068359 7
-0.232628 -4.6341548 -6.9804692 7
-0.239876 -4.6677251 -6.9951172 7
-0.241364 -4.6903081 -6.9882808 7
-0.24430101 -4.7158198 -6.9873052 7
-0.248665 -4.744019 -6.9912109 7
-0.248726 -4.763916 -6.9804692 7
-0.248787 -4.7836909 -6.96875 7
-0.33791399 -6.2175288 -6.3935552 7
-0.33510599 -6.2287598 -6.3691411 7
-0.33229101 -6.2402339 -6.3466802 7
-0.33524299 -6.2657471 -6.3398442 7
-0.33675399 -6.2874761 -6.329102 7
-0.33682999 -6.3056641 -6.3144531 7
-0.335464 -6.320435 -6.295898 7
-0.33839399 -6.3458252 -6.289062 7
-0.34278899 -6.375 -6.2871089 7
-0.101967 -1.911865 10.109375 7
-0.101952 -1.891479 10.114258 7
-0.1063 -1.87439 10.134766 7
-0.113579 -1.859619 10.166992 7
-0.107704 -1.834106 10.149414 7
-0.098953001 -1.806519 10.120117 7
-0.093085997 -1.78125 10.102539 7
-0.091614 -1.7593991 10.101562 7
-0.087219 -1.7355959 10.089844 7
-0.088653997 -1.716309 10.098633 7
-0.100281 -1.704468 10.146484 7
-0.095894001 -1.68042 10.134766 7
-0.090049997 -1.6555181 10.116211 7
-0.092941001 -1.636963 10.131836 7
-0.091461003 -1.615234 10.129883 7
-0.153427 4.168457 9.5693359 7
-0.143234 4.1695561 9.5244141 7
-0.13592499 4.175415 9.4902344 7
-0.138786 4.1998291 9.4902344 7
-0.13146999 4.205688 9.4550781 7
-0.135765 4.232666 9.4599609 7
-0.13427 4.2489009 9.4453115 7
-0.135658 4.270752 9.4394531 7
-0.135612 4.2895508 9.4296885 7
-0.13555899 4.3084722 9.4189453 7
-0.13114899 4.319458 9.3945312 7
-0.14415701 4.3626709 9.4287109 7
-0.14555401 4.384521 9.4238281 7
-0.158546 4.4281011 9.4580078 7
-0.15560199 4.4416499 9.4375 7
-0.158447 4.466064 9.4375 7
-0.244835 -4.4934082 -6.6835942 7
-0.237442 -4.4986572 -6.6474609 7
-0.23750301 -4.5177002 -6.6367192 7
-0.237572 -4.5366211 -6.625977 7
-0.245079 -4.5697021 -6.639648 7
-0.24066199 -4.5803218 -6.6152339 7
-0.23925 -4.596436 -6.5986328 7
-0.24227899 -4.6208501 -6.5976558 7
-0.24533799 -4.6455078 -6.5957031 7
-0.242401 -4.658936 -6.5761719 7
-0.24394999 -4.6804199 -6.5693359 7
-0.248474 -4.7080078 -6.5732422 7
-0.26345801 -4.7556152 -6.6113281 7
-0.262016 -4.7718511 -6.5957031 7
-0.26208499 -4.790771 -6.5839839 7
-0.349686 -6.1065669 -6.0371089 7
-0.345276 -6.1132808 -6.0087891 7
-0.342354 -6.1236572 -5.9863281 7
-0.34989199 -6.1591802 -5.9931641 7
-0.35593399 -6.1911621 -5.9960942 7
-0.353012 -6.2012939 -5.9726558 7
-0.354568 -6.2225342 -5.9628911 7
-0.35166201 -6.2325439 -5.938477 7
-0.35321799 -6.25354 -5.929688 7
-0.34581801 -6.252563 -5.8925781 7
-0.335457 -6.2437739 -5.8466802 7
-0.34446701 -6.2830811 -5.8574219 7
-0.33856201 -6.2853999 -5.8261719 7
-0.34011799 -6.3062739 -5.8154302 7
-0.34168199 -6.3270259 -5.804688 7
-0.34473401 -6.351562 -5.797852 7
-0.34481001 -6.3686519 -5.782227 7
-0.106483 -1.900757 9.7753906 7
-0.100403 -1.875977 9.7578115 7
-0.100372 -1.8562011 9.7617188 7
-0.101883 -1.8375241 9.7724609 7
-0.11396 -1.827515 9.8203115 7
-0.113922 -1.807495 9.8242188 7
-0.094246 -1.772339 9.7568359 7
-0.095740996 -1.753662 9.7666016 7
-0.092689998 -1.731567 9.7597656 7
-0.083580002 -1.7049561 9.7304688 7
-0.089615002 -1.689697 9.7568359 7
-0.089592002 -1.669922 9.7607422 7
-0.097130001 -1.65564 9.7919922 7
-0.085014001 -1.627075 9.7519531 7
-0.081963003 -1.605225 9.7441406 7
-0.086098 0.97888201 9.8759766 7
-0.083038002 0.99755901 9.8623047 7
-0.075461999 1.01416 9.8320312 7
-0.076926999 1.034668 9.8349609 7
-0.085929997 1.05896 9.8662109 7
-0.090407997 1.1011961 9.8789062 7
-0.085831001 1.118896 9.859375 7
-0.093353003 1.1427 9.8847656 7
-0.096336 1.1644289 9.8935547 7
-0.085708998 1.178955 9.8515615 7
-0.090202004 1.201172 9.8652344 7
-0.091689996 1.222168 9.8681641 7
-0.099189997 1.2462161 9.8935547 7
-0.088577002 1.260376 9.8505859 7
-0.16180401 4.168457 9.203125 7
-0.155746 4.176147 9.1738281 7
-0.152702 4.1889648 9.1552734 7
-0.133072 4.1721191 9.0800781 7
-0.132889 4.1912842 9.0703115 7
-0.128319 4.2010498 9.0458984 7
-0.13578799 4.2327881 9.0595703 7
-0.13875601 4.2564702 9.0595703 7
-0.131165 4.2607422 9.0244141 7
-0.135635 4.2868652 9.0283203 7
-0.13559 4.3050542 9.0185547 7
-0.12650301 4.3061519 8.9794922 7
-0.129463 4.3297119 8.9785156 7
-0.132416 4.353271 8.9785156 7
-0.154945 4.4136958 9.0419922 7
-0.157913 4.4373779 9.0419922 7
-0.159363 4.458374 9.0351562 7
-0.082374997 4.7980962 -5.7412109 7
-0.067809999 4.7489009 -5.7050781 7
-0.063354 4.7225342 -5.703125 7
-0.067795001 4.7148442 -5.7285161 7
-0.067786999 4.697876 -5.7392578 7
-0.063331999 4.6715088 -5.7363281 7
-0.061852001 4.6513672 -5.742188 7
-0.061843999 4.6342769 -5.7529302 7
-0.070724003 4.6352539 -5.7929692 7
-0.066276997 4.6091309 -5.7900391 7
-0.069243997 4.5978999 -5.8095698 7
-0.082572997 4.6079102 -5.8642578 7
-0.089980997 4.6054692 -5.898438 7
-0.076637 4.5609131 -5.867188 7
-0.076629996 4.5435791 -5.8779302 7
-0.067740999 4.5084229 -5.859375 7
-0.081078 4.5177002 -5.9130859 7
-0.078116998 4.4942632 -5.914062 7
-0.247604 -4.5015869 -6.3056641 7
-0.24304999 -4.51123 -6.280273 7
-0.23538999 -4.5151372 -6.2460942 7
-0.24007399 -4.541748 -6.249023 7
-0.238602 -4.5570068 -6.234375 7
-0.243286 -4.5838618 -6.2373052 7
-0.24334 -4.6019292 -6.226562 7
-0.240326 -4.6140141 -6.2060552 7
-0.237305 -4.6262212 -6.1855469 7
-0.241982 -4.652832 -6.188477 7
-0.246666 -4.67981 -6.1923828 7
-0.25753 -4.7186279 -6.2138672 7
-0.25296 -4.7276611 -6.1894531 7
-0.26072699 -4.760376 -6.2011719 7
-0.25923899 -4.7755132 -6.1855469 7
-0.26083401 -4.7963872 -6.1787109 7
-0.34744301 -6.2606201 -5.4287109 7
-0.345947 -6.2728271 -5.4091802 7
-0.338303 -6.2697749 -5.374023 7
-0.33374 -6.2741699 -5.3466802 7
-0.33843201 -6.3017578 -5.34375 7
-0.34777099 -6.3406978 -5.3525391 7
-0.33858499 -6.333374 -5.313477 7
-0.34018701 -6.353271 -5.3027339 7
-0.34642801 -6.3847661 -5.3037109 7
-0.344971 -6.396606 -5.2832031 7
-0.32657599 -5.118042 8.8837891 7
-0.32657599 -5.1002202 8.8964844 7
-0.31247699 -5.0539551 8.8652344 7
-0.31562799 -5.0427251 8.8876953 7
-0.30780801 -5.0091548 8.8759766 7
-0.30779999 -4.9914551 8.8876953 7
-0.309349 -4.9770508 8.9033203 7
-0.31092101 -4.9624019 8.9208984 7
-0.31405601 -4.9506841 8.9414062 7
-0.307785 -4.9206538 8.9345703 7
-0.31092799 -4.908813 8.9560547 7
-0.090415999 -1.915771 9.4023438 7
-0.096648999 -1.901978 9.4296885 7
-0.101326 -1.886963 9.4501953 7
-0.099724002 -1.866577 9.4492188 7
-0.102844 -1.85022 9.4648438 7
-0.105957 -1.833496 9.4804688 7
-0.10437 -1.81311 9.4794922 7
-0.098090999 -1.789062 9.4619141 7
-0.082428001 -1.757935 9.4101562 7
-0.087090001 -1.7425539 9.4306641 7
-0.091766 -1.727051 9.4511719 7
-0.088630997 -1.705688 9.4453115 7
-0.090186998 -1.687744 9.4550781 7
-0.093291998 -1.6711431 9.4707031 7
-0.090149 -1.64978 9.4628906 7
-0.086998001 -1.628418 9.4560547 7
-0.082282998 -1.605957 9.4433594 7
-0.078902997 0.960693 9.5527344 7
-0.075745001 0.97851598 9.5390615 7
-0.072577998 0.99658197 9.5253906 7
-0.074104004 1.016235 9.5283203 7
-0.072502002 1.034912 9.5205078 7
-0.072463997 1.054077 9.5175781 7
-0.075545996 1.074707 9.5263672 7
-0.072388001 1.092163 9.5126953 7
-0.080169998 1.115356 9.5380859 7
-0.080115996 1.134644 9.5351562 7
-0.080086 1.153809 9.5322266 7
-0.076935001 1.171509 9.5195312 7
-0.081580997 1.192993 9.5322266 7
-0.083107002 1.2130131 9.5361328 7
-0.081505001 1.231445 9.5273438 7
-0.087707996 1.25415 9.546875 7
-0.089240998 1.274048 9.5498047 7
-0.14946 4.1602778 8.8066406 7
-0.15096299 4.1802979 8.8017578 7
-0.140007 4.1782231 8.7568359 7
-0.133736 4.1842041 8.7275391 7
-0.133682 4.2015381 8.7177734 7
-0.125862 4.2045898 8.6826172 7
-0.128922 4.2276611 8.6826172 7
-0.125763 4.2390141 8.6630859 7
-0.12571 4.2562261 8.6533203 7
-0.12565599 4.2731929 8.6425781 7
-0.127167 4.293335 8.6376953 7
-0.124001 4.3044429 8.6171885 7
-0.127068 4.327271 8.6171885 7
-0.141022 4.370605 8.6503906 7
-0.15654799 4.4172359 8.6884766 7
-0.15027601 4.4224849 8.6591797 7
-0.153328 4.4456792 8.6582031 7
-0.150162 4.4567871 8.6376953 7
-0.077056997 4.7928472 -5.3417969 7
-0.069358997 4.760376 -5.3300781 7
-0.058632001 4.7218022 -5.3085942 7
-0.054024 4.6960449 -5.3066411 7
-0.054016002 4.67981 -5.3173828 7
-0.054008 4.6636958 -5.328125 7
-0.055527002 4.6507568 -5.344727 7
-0.05706 4.6378169 -5.360352 7
-0.055527002 4.6184082 -5.3662109 7
-0.054001 4.5991211 -5.3720698 7
-0.058586001 4.5922852 -5.3974609 7
-0.060112 4.579102 -5.4130859 7
-0.061652999 4.5657959 -5.4277339 7
-0.066246003 4.5588379 -5.453125 7
-0.081565998 4.5733638 -5.5117192 7
-0.083122 4.559937 -5.5253911 7
-0.076972999 4.53125 -5.5175781 7
-0.070823997 4.5021968 -5.5097661 7
-0.070823997 4.4857178 -5.5195308 7
-0.243164 -4.5054932 -5.8720698 7
-0.24642199 -4.528687 -5.8710942 7
-0.238464 -4.5310059 -5.835938 7
-0.240135 -4.551147 -5.8300781 7
-0.235397 -4.5592041 -5.8056641 7
-0.235443 -4.5761719 -5.7949219 7
-0.235512 -4.5932622 -5.7832031 7
-0.23876201 -4.616333 -5.782227 7
-0.23881499 -4.6333008 -5.7714839 7
-0.238876 -4.650146 -5.7597661 7
-0.23895299 -4.6671138 -5.749023 7
-0.24380501 -4.693481 -5.7519531 7
-0.25186199 -4.7258301 -5.764648 7
-0.25671399 -4.7520752 -5.7675781 7
-0.25677499 -4.7689209 -5.7558589 7
-0.256836 -4.7857671 -5.7441411 7
-0.345642 -6.368042 -4.797852 7
-0.34088901 -6.3704829 -4.7714839 7
-0.34095001 -6.3851318 -4.7558589 7
-0.33940899 -6.3955078 -4.7373052 7
-0.31982401 -5.0908198 8.4433594 7
-0.31168401 -5.0577388 8.4316406 7
-0.308456 -5.0345459 8.4345703 7
-0.30844101 -5.0012212 8.4580078 7
-0.30684701 -4.964355 8.4785156 7
-0.31010401 -4.9372559 8.5117188 7
-0.31172201 -4.9237061 8.5273438 7
-0.31008899 -4.903564 8.5341797 7
-0.31497201 -4.879395 8.5722656 7
-0.31010401 -4.8356929 8.5810547 7
-0.092873 -1.915771 9.0830078 7
-0.092857003 -1.897583 9.0869141 7
-0.092812002 -1.8612061 9.0957031 7
-0.100891 -1.8312989 9.1328115 7
-0.091118 -1.7869869 9.1074219 7
-0.078116998 -1.7587889 9.0683594 7
-0.086212002 -1.7468261 9.0996094 7
-0.073188998 -1.700562 9.0644531 7
-0.086143002 -1.67395 9.1162109 7
-0.082863003 -1.63501 9.1132812 7
-0.084457003 -1.618042 9.1220703 7
-0.058318999 0.98828101 9.15625 7
-0.058249999 1.0250241 9.1513672 7
-0.063079998 1.045776 9.1660156 7
-0.063033998 1.064087 9.1630859 7
-0.075920001 1.107056 9.203125 7
-0.072609 1.142212 9.1865234 7
-0.075774997 1.1806639 9.1923828 7
-0.078979 1.200806 9.2001953 7
-0.078933999 1.219238 9.1972656 7
-0.075622998 1.25415 9.1806641 7
-0.146286 4.17627 8.4042969 7
-0.146194 4.2094731 8.3837891 7
-0.14610299 4.242188 8.3642578 7
-0.146042 4.258667 8.3535156 7
-0.14438599 4.2720952 8.3388672 7
-0.064834997 4.7459722 -4.9160161 7
-0.058449 4.7174072 -4.9101558 7
-0.053679999 4.6920171 -4.907227 7
-0.056839 4.6685791 -4.938477 7
-0.056823999 4.6383061 -4.960938 7
-0.050446 4.5944819 -4.9638672 7
-0.056816 4.5924072 -4.992188 7
-0.05999 4.5836182 -5.0126948 7
-0.069533996 4.572144 -5.061523 7
-0.080673002 4.5637212 -5.1152339 7
-0.067932002 4.5224609 -5.0898442 7
-0.074286997 4.5196528 -5.1181641 7
-0.069510996 4.4945068 -5.1152339 7
-0.071106002 4.4820561 -5.1308589 7
-0.25018299 -4.5083008 -5.507812 7
-0.25025201 -4.5245361 -5.4960942 7
-0.250305 -4.540894 -5.485352 7
-0.24538399 -4.547729 -5.460938 7
-0.24376699 -4.5609131 -5.445312 7
-0.24880999 -4.5865479 -5.4492192 7
-0.245529 -4.596436 -5.429688 7
-0.24560501 -4.6124272 -5.4179692 7
-0.24565101 -4.62854 -5.407227 7
-0.245728 -4.6447749 -5.3955078 7
-0.245781 -4.6607671 -5.3837891 7
-0.244186 -4.673584 -5.3681641 7
-0.25087699 -4.7023931 -5.375977 7
-0.26089501 -4.7376709 -5.391602 7
-0.26428199 -4.7602539 -5.389648 7
-0.262665 -4.7730708 -5.374023 7
-0.26273301 -4.78894 -5.3623052 7
-0.335403 -6.0848389 -4.5527339 7
-0.340462 -6.1112061 -4.5498052 7
-0.340538 -6.125 -4.5351558 7
-0.332275 -6.1187739 -4.500977 7
-0.34066001 -6.1530762 -4.5058589 7
-0.34237701 -6.1711431 -4.4951172 7
-0.34077501 -6.1809082 -4.4775391 7
-0.342491 -6.198853 -4.4667969 7
-0.33590701 -6.1962891 -4.436523 7
-0.350952 -6.2469478 -4.4550781 7
-0.35432401 -6.269165 -4.4482422 7
-0.34108701 -6.2498779 -4.4033198 7
-0.347801 -6.2800288 -4.4033198 7
-0.34619901 -6.2895508 -4.3847661 7
-0.34291801 -6.2950439 -4.3623052 7
-0.333 -6.283813 -4.3251948 7
-0.33306101 -6.2972412 -4.3095698 7
-0.343117 -6.335815 -4.3173828 7
-0.34983799 -6.3658452 -4.3173828 7
-0.34326199 -6.3626709 -4.2861328 7
-0.34164399 -6.3719478 -4.2675781 7
-0.34503901 -6.3937988 -4.2597661 7
-0.091522001 -1.911377 8.7675781 7
-0.098220997 -1.899536 8.7939453 7
-0.086433001 -1.872437 8.7597656 7
-0.089782998 -1.857788 8.7753906 7
-0.091438003 -1.841797 8.7851562 7
-0.096465997 -1.828125 8.8066406 7
-0.094772004 -1.809204 8.8056641 7
-0.093079001 -1.790527 8.8046885 7
-0.099785 -1.77832 8.8300781 7
-0.079581998 -1.7451169 8.7695312 7
-0.077887997 -1.726318 8.7685547 7
-0.077872999 -1.708984 8.7724609 7
-0.077849999 -1.691528 8.7763672 7
-0.077835001 -1.674072 8.7802734 7
-0.079498 -1.657959 8.7890615 7
-0.079483002 -1.640381 8.7929688 7
-0.082817003 -1.625366 8.8076172 7
-0.082801998 -1.607788 8.8115234 7
-0.065948002 0.971802 8.8837891 7
-0.06089 0.98730499 8.8642578 7
-0.059165999 1.004272 8.8564453 7
-0.057457 1.020996 8.8496094 7
-0.05407 1.037109 8.8359385 7
-0.057395998 1.056152 8.8447266 7
-0.070777997 1.080322 8.8867188 7
-0.07914 1.102051 8.9111328 7
-0.064018004 1.112305 8.859375 7
-0.063979998 1.130005 8.8564453 7
-0.063942 1.1474611 8.8535156 7
-0.068924002 1.167725 8.8671885 7
-0.065552004 1.183594 8.8535156 7
-0.067184001 1.202148 8.8564453 7
-0.075545996 1.224243 8.8818359 7
-0.073830001 1.240967 8.8730469 7
-0.070435002 1.2568361 8.8583984 7
-0.075432003 1.277344 8.8720703 7
-0.086823002 4.7823491 -4.5976558 7
-0.088469997 4.7714839 -4.6123052 7
-0.091759004 4.7640381 -4.632812 7
-0.071938001 4.708252 -4.5917969 7
-0.060387 4.6697998 -4.5712891 7
-0.063666999 4.662354 -4.5908198 7
-0.058715999 4.6376948 -4.5888672 7
-0.058715999 4.623291 -4.5996089 7
-0.063652001 4.6191411 -4.624023 7
-0.062004 4.6011958 -4.6308589 7
-0.061981 4.5870361 -4.641602 7
-0.061996002 4.5725098 -4.6523442 7
-0.070235997 4.574707 -4.6855469 7
-0.075180002 4.57019 -4.7099609 7
-0.078468002 4.5621338 -4.7294922 7
-0.076820001 4.5440669 -4.735352 7
-0.080100998 4.5360112 -4.7558589 7
-0.080092996 4.5211182 -4.766602 7
-0.083405003 4.512939 -4.7861328 7
-0.075126998 4.481812 -4.7744141 7
-0.24614 -4.4871831 -5.1318359 7
-0.24447601 -4.4992681 -5.1162109 7
-0.247963 -4.5211182 -5.1152339 7
-0.251434 -4.5430908 -5.1142578 7
-0.249771 -4.5552979 -5.0986328 7
-0.23954 -4.55127 -5.0595698 7
-0.23957799 -4.5665278 -5.0498052 7
-0.24308801 -4.5881348 -5.046875 7
-0.243141 -4.603394 -5.0371089 7
-0.24317899 -4.6186519 -5.0263672 7
-0.241531 -4.6304932 -5.0097661 7
-0.24501 -4.6523442 -5.0087891 7
-0.250229 -4.6772461 -5.0107422 7
-0.248558 -4.6890869 -4.9951172 7
-0.25205201 -4.710938 -4.9931641 7
-0.253838 -4.7293701 -4.985352 7
-0.26078001 -4.7575679 -4.9912109 7
-0.26254299 -4.776123 -4.984375 7
-0.25916299 -4.7845459 -4.9648442 7
-0.299355 -4.9199219 7.6904302 7
-0.295883 -4.8981929 7.6933589 7
-0.297638 -4.8867192 7.7089839 7
-0.31157699 -4.8991699 7.7568359 7
-0.31330901 -4.8874512 7.7724609 7
-0.30635101 -4.8587651 7.766602 7
-0.297638 -4.8269038 7.7548828 7
-0.29765299 -4.8117681 7.766602 7
-0.089409001 -1.905884 8.4736328 7
-0.091124997 -1.890747 8.4824219 7
-0.087631002 -1.8712161 8.4765615 7
-0.092841998 -1.8586431 8.4970703 7
-0.091080002 -1.840454 8.4960938 7
-0.099770002 -1.830566 8.5283203 7
-0.094521001 -1.809692 8.515625 7
-0.10321 -1.799683 8.546875 7
-0.087531999 -1.7705081 8.5029297 7
-0.078812003 -1.746948 8.4785156 7
-0.075317003 -1.727661 8.4726562 7
-0.077041999 -1.712158 8.4814453 7
-0.077010997 -1.695435 8.4863281 7
-0.077003002 -1.678589 8.4902344 7
-0.076981001 -1.661865 8.4941406 7
-0.082207002 -1.648926 8.5146484 7
-0.078681998 -1.629761 8.5068359 7
-0.078674003 -1.613037 8.5107422 7
-0.25176999 -4.4954829 -4.7919922 7
-0.242928 -4.4936519 -4.7587891 7
-0.24830601 -4.518311 -4.7626948 7
-0.24304201 -4.5228271 -4.7382808 7
-0.26087999 -4.5705571 -4.7714839 7
-0.259148 -4.5819092 -4.7558589 7
-0.25031301 -4.5795898 -4.7236328 7
-0.24858899 -4.5908198 -4.7080078 7
-0.248634 -4.6052251 -4.6972661 7
-0.248695 -4.6196289 -4.6855469 7
-0.248741 -4.6340332 -4.6757808 7
-0.24880201 -4.648315 -4.664062 7
-0.25595099 -4.67627 -4.670898 7
-0.25601199 -4.6905522 -4.6601558 7
-0.25428799 -4.701416 -4.6445308 7
-0.25611901 -4.7192378 -4.6376948 7
-0.25795001 -4.7368159 -4.6308589 7
-0.26689899 -4.7684331 -4.640625 7
-0.26339 -4.7758789 -4.6210942 7
-0.267021 -4.7969971 -4.617188 7
-0.302055 -5.085815 7.1914058 7
-0.307457 -5.0830078 7.2158198 7
-0.31287399 -5.0803218 7.2412109 7
-0.30567899 -5.0518799 7.2363281 7
-0.30209401 -5.0307622 7.2402339 7
-0.305695 -5.0241699 7.2607422 7
-0.30750999 -5.013916 7.2763672 7
-0.2985 -4.981812 7.2675781 7
-0.303909 -4.9788818 7.2919922 7
-0.30391699 -4.9649658 7.3037109 7
-0.30032301 -4.9437261 7.3076172 7
-0.30032301 -4.929688 7.3183589 7
-0.30393201 -4.922852 7.3388672 7
-0.30394 -4.908813 7.3505859 7
-0.090674996 -1.902954 8.2050781 7
-0.094260998 -1.8898931 8.2216797 7
-0.092453003 -1.872192 8.2207031 7
-0.090636998 -1.854614 8.2197266 7
-0.092422001 -1.8399661 8.2294922 7
-0.090599 -1.8223881 8.2275391 7
-0.097770996 -1.812012 8.2529297 7
-0.086975001 -1.787231 8.2255859 7
-0.068947002 -1.75708 8.1748047 7
-0.085143998 -1.75354 8.2285156 7
-0.076141 -1.7305911 8.2060547 7
-0.077910997 -1.715942 8.2148438 7
-0.070694 -1.694458 8.1972656 7
-0.077872999 -1.6837161 8.2236328 7
-0.077858001 -1.66748 8.2275391 7
-0.077843003 -1.651489 8.2314453 7
-0.088630997 -1.643066 8.2685547 7
-0.074196003 -1.616577 8.2275391 7
-0.061675999 1.048218 8.3183594 7
-0.058060002 1.062866 8.3056641 7
-0.0616 1.081055 8.3134766 7
-0.057983 1.095459 8.2998047 7
-0.061539002 1.113525 8.3085938 7
-0.065086 1.131592 8.3164062 7
-0.057854 1.160522 8.2900391 7
-0.057815999 1.17688 8.2871094 7
-0.056000002 1.192139 8.2783203 7
-0.055962 1.208252 8.2753906 7
-0.068497002 1.231567 8.3115234 7
-0.063065 1.244873 8.2910156 7
-0.061241001 1.260254 8.2832031 7
-0.062996 1.2774661 8.2851562 7
-0.109635 -1.835743 11.060668 7
-0.114754 0.87458199 11.285754 7
-0.083172001 -1.878278 10.168661 7
-0.083287999 1.032174 10.362894 7
-0.13962699 4.1761899 8.9505558 7
-0.118185 4.2745051 8.6610451 7
-0.121837 -1.905861 9.4446583 7
-0.110222 -1.653307 9.4371052 7
-0.123703 1.160147 9.6617947 7
-0.330957 -4.9280901 8.7363329 7
-0.086819999 -1.696092 8.8525887 7
-0.085158996 1.027983 9.0240602 7
-0.089937001 1.243487 9.0109062 7
-0.29743499 -4.8061838 7.910459 7
-0.070152998 -1.734484 8.3776493 7
-0.25906801 -4.8883939 6.7810431 7
-0.059696998 -1.772439 7.9884839 7
-0.038534001 1.0184751 8.1156855 7
-0.0471 1.202264 8.1198502 7
-0.30403599 -4.9413862 5.8094082 7
-0.30064201 -4.8365479 6.003922 7
-0.084700003 -1.780565 7.602881 7
-0.071983002 -1.6024801 7.6119299 7
-0.070122004 1.103055 7.784616 7
-0.071878999 1.261907 7.7466359 7
-0.072010003 -1.797487 7.2921052 7
-0.060973 -1.635034 7.3137431 7
-0.053732999 1.022508 7.512877 7
-0.053291 1.166311 7.4676318 7
-0.067350999 -1.856153 7.0215759 7
-0.04724 -1.651535 7.0301118 7
-0.034836002 1.080251 7.2164779 7
-0.048057999 1.2345099 7.2276459 7
-0.071764 -1.89614 6.8214059 7
-0.060888 -1.751716 6.855145 7
-0.09533 -1.890865 6.580605 7
-0.087653004 -1.764522 6.6297321 7
-0.068556003 -1.613243 6.6343141 7
-0.061028998 -1.631343 6.436213 7
-0.329961 -6.1762719 -10.045639 7
0.039175 -1.331216 -5.6768789 7
-0.29051599 -6.2298241 -6.397428 7
0.043505002 -1.300019 -4.8236442 7
-0.181527 -4.7464619 -5.2956262 7
-0.171368 -1.9023269 11.413822 7
-0.034233999 -1.578002 -4.0707788 7
-0.242817 -4.6613808 -4.2379732 7
-0.129061 -1.808447 10.555421 7
-0.0075670001 -1.52319 -3.366827 7
-0.21821 -4.6058822 -3.404012 7
-0.093056999 -1.731122 9.8481665 7
-0.212502 -4.5976572 -2.7736919 7
-0.068122 -1.670207 9.2916813 7
0.023872999 -1.443783 -2.349072 7
-0.34633699 -4.9632092 8.4071693 7
-0.118758 -1.854974 8.8200693 7
-0.108312 -1.617594 8.8230371 7
-0.24798401 -4.6884761 -1.4674799 7
-0.33972099 -5.1178789 7.7668672 7
-0.31919101 -4.873528 7.8739901 7
-0.103405 -1.798842 8.4511986 7
-0.008657 -1.385074 -1.612604 7
-0.244361 -4.6608801 -1.04949 7
-0.301938 -5.010716 7.2093601 7
-0.075418003 -1.739663 8.0606585 7
-0.239591 -4.6251688 -0.66404998 7
-0.30016699 -5.1087232 6.6754498 7
-0.27472001 -4.8897581 6.7792611 7
-0.058704 -1.8785551 7.7056799 7
-0.040576998 -1.681666 7.6768942 7
-0.31953499 -4.8177519 6.4324241 7
-0.085233003 -1.821141 7.415935 7
-0.071746998 -1.639825 7.407845 7
-0.26857299 -4.4995208 0.052172001 7
-0.27942199 -4.650239 0.18433601 7
-0.30544201 -4.9582448 5.780757 7
-0.293062 -4.8158031 5.9214411 7
-0.064397 -1.7713881 7.1601648 7
-0.053690001 -1.60251 7.161531 7
-0.010523 -1.30388 -0.581716 7
-0.018343 -1.465428 -0.58185601 7
-0.26165399 -4.662642 0.66291499 7
-0.27229699 -4.789536 0.80414701 7
-0.27844 -4.8163929 5.4693942 7
-0.078364 -1.905547 7.0032792 7
-0.055179 -1.7335351 6.96628 7
-0.001911 -1.289034 -0.39064601 7
-0.0066740001 -1.441303 -0.38034001 7
-0.022152999 -1.599339 -0.40257201 7
-0.25555101 -4.593864 0.93004799 7
-0.24824999 -4.6569519 1.100557 7
-0.25391001 -4.751812 1.251024 7
-0.26715699 -4.868886 4.8891459 7
-0.052894 -1.849525 6.767776 7
-0.043540999 -1.696937 6.7785349 7
-0.28416401 -4.565032 1.349341 7
-0.289765 -4.6496301 1.496184 7
-0.28116399 -4.687223 1.664487 7
-0.28832 -4.7641778 1.814871 7
-0.29882401 -4.892488 4.1731 7
-0.29861301 -4.8492498 4.335187 7
-0.076702997 -1.80462 6.5828261 7
-0.060199 -1.655684 6.5700932 7
-0.264534 -4.5111408 1.739807 7
-0.27723101 -4.6006808 1.876774 7
-0.275213 -4.6426702 2.032789 7
-0.273029 -4.677866 2.1899409 7
-0.27076 -4.7064958 2.347872 7
-0.272017 -4.7392812 2.504179 7
-0.27499801 -4.7710471 2.6608031 7
-0.276003 -4.7907338 2.819428 7
-0.277601 -4.7302251 3.9703491 7
-0.28121299 -4.7063642 4.1284099 7
-0.083059996 -1.9131089 6.4384131 7
-0.064421996 -1.767077 6.4254212 7
-0.047598001 -1.624807 6.4113951 7
-0.25233299 -4.4946208 2.2423561 7
-0.25926101 -4.5480571 2.386009 7
-0.25664699 -4.5685301 2.537806 7
-0.26149401 -4.6044812 2.686388 7
-0.26624399 -4.6343212 2.8367529 7
-0.25796601 -4.5487561 3.9347601 7
-0.255954 -4.510354 4.0813522 7
-0.064158 4.6908522 -5.952507 7
-0.059448998 4.645185 -4.8419862 7
-0.088648997 1.101231 10.379953 7
-0.171334 4.2444339 9.3989134 7
-0.060373999 1.091917 9.7267542 7
-0.15675899 4.2199049 8.7784863 7
-0.16606601 4.451798 8.6435575 7
-0.101498 1.143912 9.1723366 7
-0.071341999 1.132125 8.6836348 7
-0.054497998 1.122931 8.311039 7
-0.038587999 1.114781 7.9794979 7
-0.06459 1.1052639 7.6496062 7
-0.052850001 1.099263 7.4054751 7
-0.060286999 1.273504 7.4035602 7
-0.034648001 1.093351 7.156414 7
-0.046252999 1.2581871 7.1720362 7
0.033218998 0.45584899 -13.582846 7
-0.075980999 -0.76368397 -10.848282 7
-0.054910999 -1.125591 -10.447134 7
-0.18098199 4.7881932 -12.052948 7
-0.109555 4.720253 -8.8485575 7
0.0027439999 -0.97771198 -7.1170478 7
-0.0046529998 -1.2491519 -7.1784639 7
-0.220642 -4.5008469 -9.2295485 7
0.0069510001 -1.288723 -6.2773228 7
-0.104475 4.635088 -5.2748699 7
-0.122379 4.5700941 -5.5736198 7
-0.037190001 -1.327353 -5.6268339 7
-0.28567201 -4.5184031 -6.7813978 7
-0.26729599 -4.6575441 -6.480876 7
-0.36378601 -6.3487358 -6.3364129 7
-0.25102001 -4.557529 -5.5585742 7
-0.32189 -6.2734962 -4.7189488 7
-0.018043 -1.369669 -4.6591048 7
-0.035962999 -1.575829 -4.7356319 7
-0.227358 -4.5536618 -4.5613341 7
-0.216405 -4.643465 -4.3338981 7
-0.011848 -1.384643 -4.3004909 7
-0.022479 -1.553282 -4.3166618 7
-0.19615699 -4.5367799 -3.484411 7
-0.19003201 -4.6135302 -3.2844269 7
-0.033410002 -1.375555 -3.9535899 7
-0.044877 -1.529945 -3.9633541 7
-0.026339 -1.38113 -3.6895831 7
-0.040546 -1.533177 -3.7073641 7
-0.016647 -1.373359 -3.440743 7
-0.028689001 -1.50867 -3.4425499 7
-0.010171 -1.369715 -3.231333 7
-0.027342999 -1.5122221 -3.2503121 7
-0.018242 -1.548072 -2.5546019 7
-0.003056 -1.310851 -2.5568719 7
-0.001606 -1.367692 -2.4997051 7
-0.001478 -1.426224 -2.444031 7
-0.016417 -1.530643 -2.4258051 7
-0.017549001 -1.590772 -2.366611 7
-0.0014609999 -1.30759 -2.4402211 7
0.001438 -1.355287 -2.379528 7
0.005816 -1.39579 -2.313458 7
-0.0083799995 -1.4918801 -2.2908909 7
-0.01187 -1.331952 -2.2597301 7
-0.015598 -1.539021 -1.880046 7
-0.015531 -1.572263 -1.816597 7
-0.000378 -1.399417 -1.887205 7
0.0028520001 -1.42274 -1.8249249 7
-0.010346 -1.495128 -1.783789 7
-0.015296 -1.540298 -1.7279969 7
-0.0038670001 -1.529992 -1.652176 7
-0.015626 -1.341218 -1.856094 7
-0.0052240002 -1.343107 -1.78678 7
-0.0054629999 -1.372622 -1.731619 7
-0.0039320001 -1.394667 -1.673174 7
-0.000612 -1.408842 -1.612164 7
-0.003058 -1.310757 -1.72157 7
-0.0031069999 -1.343017 -1.65367 7
