# .PCD v0.7 - Point Cloud Data file format
VERSION 0.7
FIELDS x y z intensity
SIZE 4 4 4 4
TYPE F F F F
COUNT 1 1 1 1
WIDTH 1153
HEIGHT 1
VIEWPOINT 0 0 0 1 0 0 0
POINTS 1153
DATA ascii
0.209518 -1.499512 -73.177734 7
0.25659201 -1.635864 -71.381836 7
0.13222501 -1.7149661 -67.639648 7
0.177826 -1.83667 -66.09082 7
0.152298 -2.021729 -66.933594 7
0.14024401 5.3426509 -67.671875 7
0.143555 5.0058589 -67.573242 7
0.115463 -1.836792 -60.702148 7
0.15668499 -1.944092 -59.451172 7
0.200844 -2.042603 -58.112305 7
0.175171 4.9705811 -59.109375 7
0.23943301 4.6722412 -57.178711 7
0.185165 4.6593022 -58.823242 7
0.038864002 -1.973511 -56.111328 7
0.113861 -2.0358889 -54.09082 7
0.14304399 -2.136353 -53.294922 7
0.102005 -2.3112791 -54.382812 7
0.131439 -2.4086909 -53.582031 7
-0.858253 -2.997314 73.756836 7
-0.86884302 -2.835938 74.020508 7
-0.85563701 -1.109741 73.80957 7
-0.85441601 -0.93786597 73.789062 7
0.209114 4.8675542 -51.663086 7
0.170479 4.834229 -52.712891 7
0.234657 4.5552979 -50.993164 7
0.187576 4.5378418 -52.268555 7
0.147614 4.4985352 -53.350586 7
0.035468999 -2.1629641 -50.814453 7
0.083809003 -2.2351069 -49.626953 7
0.108841 -2.327759 -49.008789 7
0.16276599 -2.3834231 -47.688477 7
0.092505999 -2.5863039 -49.381836 7
-0.76847798 -2.9698491 65.730469 7
-0.86293799 -2.907593 67.799805 7
0.148735 4.7816162 -48.130859 7
0.218124 4.5047612 -46.447266 7
0.17027301 4.4978032 -47.623047 7
0.072838001 4.4708252 -50.016602 7
0.207352 0.97424299 -46.801758 7
0.0084920004 -2.221313 -46.621094 7
0.071944997 -2.3687739 -45.12207 7
0.097457998 -2.448853 -44.549805 7
0.150307 -2.4927981 -43.376953 7
0.104492 -2.6568601 -44.375 7
0.17455301 4.7026372 -42.899414 7
0.14286 4.6695561 -43.608398 7
0.109329 4.6373291 -44.358398 7
0.174568 4.3861079 -42.926758 7
0.143379 4.347168 -43.623047 7
0.102196 4.3256841 -44.541016 7
0.001945 -2.3634031 -42.951172 7
0.031624001 -2.4346919 -42.337891 7
0.066780001 -2.496582 -41.614258 7
0.013985 -2.6630859 -42.676758 7
0.036201 -2.7388921 -42.214844 7
0.056701999 -2.8149409 -41.788086 7
0.096175998 -2.862793 -40.976562 7
0.110939 -2.941895 -40.666016 7
0.120888 4.6522222 -40.518555 7
0.095954999 4.6074219 -41.035156 7
0.070479997 4.5614009 -41.564453 7
0.050407 4.501709 -41.981445 7
0.097136997 4.302002 -41.038086 7
0.062224999 4.2712402 -41.757812 7
0.154266 0.93603498 -40.022461 7
0.16010299 0.83544898 -39.902344 7
0.156509 0.73877001 -39.974609 7
0.204475 0.62548798 -38.993164 7
-0.017769 -2.947144 -39.360352 7
0.027092 -2.9814451 -38.520508 7
0.0392 -3.058594 -38.285156 7
0.052260999 -3.1331789 -38.033203 7
-0.61286902 -2.879272 49.067383 7
-0.61888099 -2.7723391 49.180664 7
-0.64235699 -2.681519 49.588867 7
0.076256 4.7067871 -37.618164 7
0.057723999 4.6544189 -37.973633 7
0.012283 4.6582031 -38.825195 7
0.18325 1.2861331 -35.826172 7
0.164276 1.119873 -36.182617 7
0.17797901 1.02356 -35.928711 7
0.14399 0.58972198 -36.5625 7
0.170837 0.49304199 -36.060547 7
0.167923 0.40454099 -36.114258 7
0.193756 0.223511 -35.629883 7
-0.0023960001 -3.054565 -35.928711 7
-0.008041 -3.151001 -36.014648 7
0.007156 -3.2169189 -35.745117 7
0.02063 -3.2841799 -35.504883 7
-0.56627703 -2.8355711 44.924805 7
-0.57964301 -2.6424561 45.15332 7
-0.49444601 0.155884 43.942383 7
-0.476257 0.25524899 43.655273 7
-0.494156 0.35766599 43.941406 7
0.078239001 4.8518071 -34.501953 7
0.056152001 4.8164058 -34.891602 7
0.039138999 4.7679439 -35.191406 7
0.0089039998 4.7469478 -35.719727 7
-0.015923001 4.7116699 -36.154297 7
0.159279 1.201416 -33.355469 7
0.121857 0.38110399 -34.032227 7
0.148247 0.29333499 -33.576172 7
0.148094 0.21057101 -33.576172 7
0.147949 0.12768599 -33.577148 7
0.16244499 0.044555999 -33.326172 7
0.115524 -0.035278 -31.145508 7
0.154984 -0.186157 -30.518555 7
-0.043953001 -3.2657471 -33.43457 7
-0.031082001 -3.3287351 -33.224609 7
-0.0096509997 -3.377686 -32.879883 7
-0.47259501 -2.710938 40.179688 7
-0.50723302 -2.6533201 40.693359 7
-0.52586401 -2.578125 40.972656 7
-0.47309101 0.143188 40.341797 7
-0.47679901 0.328125 40.397461 7
-0.439583 0.41479501 39.854492 7
0.092864998 4.8833008 -31.21875 7
0.075066 4.8466802 -31.506836 7
0.053566001 4.816895 -31.853516 7
0.028748 4.7927251 -32.25293 7
0.0065080002 4.76123 -32.611328 7
-0.022376999 4.7424321 -33.074219 7
0.044082999 4.52002 -32.041992 7
0.161125 1.478882 -30.416992 7
0.15875199 1.329102 -30.458008 7
0.108635 1.206665 -31.251953 7
0.114944 0.119507 -31.157227 7
0.14523301 0.041382 -30.677734 7
0.093383998 -0.032837 -29.367188 7
0.11232 -0.104858 -29.086914 7
0.134811 -0.175171 -28.751953 7
0.098938003 -0.25085399 -29.27832 7
0.124222 -0.319702 -28.904297 7
0.13642099 -0.389038 -28.72168 7
-0.055098999 -3.530762 -31.258789 7
-0.46459201 -2.622437 37.686523 7
-0.48021701 -2.551636 37.907227 7
-0.485199 -2.469727 37.983398 7
-0.435303 0.47424299 37.435547 7
0.075165004 4.8918462 -29.273438 7
0.051773001 4.8721919 -29.625 7
-0.001778 4.767334 -30.438477 7
0.141747 1.537598 -28.59668 7
0.121414 1.408813 -28.900391 7
0.137169 1.326538 -28.669922 7
0.088371001 -0.23376501 -27.087891 7
0.127197 -0.36230499 -26.555664 7
0.109917 -0.499268 -26.786133 7
0.12655599 -0.56164598 -26.557617 7
-0.375824 0.508789 34.149414 7
-0.368866 0.584961 34.060547 7
0.030402999 5.1044922 -27.504883 7
0.064133003 4.9567871 -27.061523 7
0.051261999 4.9188228 -27.245117 7
0.037978999 4.8806152 -27.4375 7
0.025520001 4.8400879 -27.615234 7
0.001122 4.824707 -27.954102 7
-0.016449001 4.7932129 -28.203125 7
0.13484199 1.692505 -26.430664 7
0.108177 1.580322 -26.800781 7
0.139366 1.490479 -26.37793 7
0.121323 1.437012 -26.626953 7
0.097709998 1.386108 -26.950195 7
0.122482 1.302856 -26.616211 7
0.102211 -0.34130901 -25.061523 7
0.074988998 -0.40917999 -25.40625 7
0.101059 -0.46679699 -25.071289 7
0.111519 -0.52697802 -24.936523 7
0.077858001 -0.598755 -25.359375 7
-0.366539 0.62060499 31.987305 7
-0.364494 0.69238299 31.962891 7
-0.365356 0.76513702 31.972656 7
0.013306 5.0601811 -25.737305 7
0.034302 4.9475098 -25.484375 7
0.022384999 4.9103999 -25.645508 7
0.013176 4.8665771 -25.772461 7
-0.003334 4.838501 -25.990234 7
-0.023529001 4.8172612 -26.254883 7
0.116432 1.53186 -24.807617 7
0.103546 1.4786381 -24.974609 7
0.104401 1.413818 -25.038086 7
0.112099 1.346069 -24.943359 7
0.104179 1.288574 -25.044922 7
0.079727001 -0.55529797 -23.429688 7
0.078102 -0.61450201 -23.444336 7
0.091362 -0.66918898 -23.286133 7
0.093216002 -0.726807 -23.260742 7
0.070854001 -0.79357898 -23.521484 7
0.084091 -0.84728998 -23.362305 7
0.089438997 -0.90356398 -23.296875 7
0.015068 4.994019 -23.716797 7
0.0036929999 4.960083 -23.859375 7
-0.0072019999 4.8640141 -24.008789 7
-0.025970001 4.844727 -24.238281 7
-0.037331 4.8083501 -24.382812 7
0.113808 1.598145 -22.951172 7
0.094521001 1.554565 -23.181641 7
0.084105998 1.503418 -23.306641 7
0.10379 1.43103 -23.078125 7
0.102745 1.373535 -23.092773 7
0.111565 1.309692 -22.991211 7
0.061836001 -0.68884301 -21.976562 7
0.057487 -0.74548298 -22.021484 7
0.072754003 -0.79528803 -21.851562 7
0.076362997 -0.84887701 -21.80957 7
0.051888 -0.91418499 -22.074219 7
0.062896997 -0.96484399 -21.950195 7
0.068634003 -1.017334 -21.883789 7
0.053711001 -1.079834 -22.043945 7
0.010956 5.0065918 -22.021484 7
0.0040819999 4.9665532 -22.107422 7
-0.0038759999 4.9283452 -22.204102 7
-0.011284 4.8885498 -22.295898 7
-0.025543001 4.863647 -22.461914 7
-0.040359002 4.8391109 -22.633789 7
0.078644 1.90271 -21.693359 7
0.088088997 1.839233 -21.59375 7
0.080658004 1.790894 -21.678711 7
0.086410999 1.7312011 -21.619141 7
0.093223996 1.670898 -21.547852 7
0.084213004 1.623413 -21.650391 7
0.071479999 1.577881 -21.792969 7
0.047516 -0.80456501 -20.607422 7
0.052513 -0.85473597 -20.553711 7
-0.001114 5.0748291 -20.542969 7
0.001114 5.017334 -20.532227 7
-0.0056759999 4.9803472 -20.612305 7
-0.015282 4.949707 -20.720703 7
-0.022072 4.9121089 -20.800781 7
-0.043526001 4.9063721 -21.02832 7
-0.042998999 4.8518071 -21.03418 7
0.077041999 1.8837889 -20.202148 7
0.060637999 1.84668 -20.375977 7
0.085418999 1.774048 -20.124023 7
0.077477001 1.729004 -20.209961 7
0.067832999 1.685425 -20.3125 7
0.064415 1.63623 -20.350586 7
0.025993001 -0.96142602 -19.483398 7
0.038543999 -1.005127 -19.360352 7
0.042061001 -1.052368 -19.322266 7
0.018501 -1.113525 -19.545898 7
0.02623 -1.158936 -19.46875 7
0.024840999 -1.258545 -19.474609 7
-0.041939002 5.1079102 -19.543945 7
-0.040764 5.0554199 -19.544922 7
-0.044388 5.0135498 -19.59082 7
-0.046799 4.9689941 -19.625 7
-0.062424 4.9533691 -19.78418 7
-0.068435997 4.9160161 -19.853516 7
-0.045699999 4.8162842 -19.648438 7
0.052779999 1.8887939 -19.123047 7
0.043143999 1.848145 -19.220703 7
0.061089002 1.783813 -19.051758 7
0.058037002 1.737793 -19.083984 7
0.05381 1.692261 -19.128906 7
0.056152001 1.641602 -19.109375 7
0.020865999 -0.95068401 -18.248047 7
0.030387999 -0.99304199 -18.158203 7
0.034141999 -1.037354 -18.121094 7
0.010353 -1.0955811 -18.333984 7
0.016014 -1.13916 -18.27832 7
0.017212 -1.185059 -18.264648 7
0.022895999 -1.228394 -18.209961 7
0.049667001 1.9130861 -17.875 7
0.046440002 1.869873 -17.90918 7
0.052779999 1.818604 -17.854492 7
0.055930998 1.77002 -17.829102 7
0.048218001 1.7305911 -17.902344 7
0.057105999 1.6776119 -17.825195 7
0.057723999 1.631348 -17.824219 7
0.002235 -0.99401897 -17.30957 7
0.0055539999 -1.036743 -17.279297 7
0.017662 -1.0749511 -17.169922 7
0.002663 -1.126709 -17.296875 7
-0.013016 -1.1793211 -17.426758 7
-0.0042949999 -1.218994 -17.348633 7
-0.0036929999 -1.263062 -17.34082 7
-0.042052999 5.0985112 -17.004883 7
-0.033966001 5.0362549 -16.948242 7
-0.040091999 4.9625239 -17.022461 7
-0.036736 4.9111328 -17.006836 7
-0.042167999 4.8791499 -17.063477 7
-0.06044 4.875 -17.225586 7
0.013969 -0.97338903 -16.143555 7
-0.00048799999 -1.021606 -16.257812 7
0.0094830003 -1.0587161 -16.172852 7
0.012993 -1.098267 -16.141602 7
0.01078 -1.141113 -16.157227 7
-0.013008 -1.195435 -16.345703 7
-0.00161 -1.231079 -16.249023 7
-0.00096099998 -1.272339 -16.241211 7
-0.064438 5.1047359 -16.050781 7
-0.042975999 5.014771 -15.894531 7
-0.045853 4.9798579 -15.928711 7
-0.049438 4.9465332 -15.96875 7
-0.050903 4.9083252 -15.991211 7
-0.063087001 4.893311 -16.099609 7
-0.078139998 4.8841548 -16.227539 7
-0.060973998 4.805542 -16.105469 7
0.065971002 1.1624759 -15.654297 7
0.068801999 1.120239 -15.633789 7
0.0094450004 -1.000122 -15.207031 7
0.0032649999 -1.042114 -15.25 7
0.011566 -1.077759 -15.18457 7
0.01149 -1.116943 -15.181641 7
0.0023040001 -1.1611331 -15.248047 7
-0.0076600001 -1.205933 -15.320312 7
-0.003181 -1.24292 -15.283203 7
-0.00097699999 -1.281006 -15.262695 7
-0.00106 -1.320312 -15.259766 7
-0.011765 -1.366577 -15.337891 7
0.057746999 0.94848597 -14.779297 7
0.044829998 0.91528302 -14.880859 7
0.053893998 0.87292498 -14.8125 7
0.06295 0.830688 -14.745117 7
0.066726997 0.79077101 -14.71875 7
0.069710001 0.75134301 -14.696289 7
0.069678999 0.71301299 -14.698242 7
0.063568003 0.67663598 -14.74707 7
0.015518 -0.97900403 -14.245117 7
0.011421 -1.017944 -14.271484 7
0.00093099999 -1.060181 -14.344727 7
0.013702 -1.09082 -14.249023 7
0.013618 -1.127808 -14.246094 7
0.015968001 -1.1636961 -14.226562 7
-0.0057979999 -1.212646 -14.379883 7
-0.0066760001 -1.250366 -14.381836 7
0.00047299999 -1.283447 -14.327148 7
-0.00040399999 -1.3212889 -14.330078 7
-0.001259 -1.359009 -14.333008 7
0.066719003 0.60205102 -13.827148 7
0.069885001 0.56494099 -13.805664 7
0.067459002 0.52929699 -13.824219 7
0.061813001 0.49426299 -13.866211 7
0.060180999 0.45825201 -13.878906 7
0.068145998 0.42016599 -13.822266 7
0.072113 0.38330099 -13.793945 7
0.074486002 0.34667999 -13.777344 7
-0.193459 -4.166748 -14.325195 7
-0.198631 -4.2128911 -14.348633 7
-0.2089 -4.268311 -14.40625 7
-0.211533 -4.3104248 -14.413086 7
-0.20400199 -4.3339839 -14.351562 7
-0.2024 -4.3681641 -14.330078 7
-0.199936 -4.4007568 -14.302734 7
-0.19747899 -4.433105 -14.275391 7
-0.050415002 4.959106 -13.076172 7
-0.047042999 4.9173579 -13.066406 7
-0.050438002 4.8902588 -13.099609 7
0.045630999 -0.14550801 -12.46875 7
0.05088 -0.211182 -12.433594 7
0.046379 -0.27770999 -12.460938 7
-0.000153 -1.1242681 -12.796875 7
-0.001106 -1.158325 -12.799805 7
0.002388 -1.190063 -12.774414 7
-0.079147004 5.0681152 -12.419922 7
-0.082718 5.0432129 -12.453125 7
-0.063239999 4.967041 -12.345703 7
-0.053513002 4.8803711 -12.30957 7
-0.060600001 4.8630371 -12.364258 7
-0.059746001 4.8282471 -12.369141 7
-0.065071002 4.8067632 -12.413086 7
-0.086327001 4.7857671 -12.567383 7
-0.076606996 4.7319341 -12.518555 7
0.036263 -0.32824701 -11.947266 7
0.032471001 -0.36047399 -11.96875 7
0.031493999 -0.39233401 -11.973633 7
0.036079001 -0.42297399 -11.944336 7
0.038818002 -0.453857 -11.925781 7
0.040626999 -0.485107 -11.913086 7
0.035904001 -0.51770002 -11.941406 7
0.021872999 -0.55273402 -12.026367 7
0.014374 -0.58654797 -12.070312 7
0.028267 -0.61450201 -11.982422 7
0.0096819997 -0.64953601 -11.426758 7
0.018425001 -0.67688 -11.37207 7
0.025208 -0.70507801 -11.331055 7
0.025154 -0.73522902 -11.329102 7
0.024124 -0.765625 -11.333008 7
0.0083999997 -0.80151403 -11.423828 7
0.0024949999 -0.83410603 -11.456055 7
0.0092620002 -0.86169398 -11.413086 7
0.013123 -0.890625 -11.388672 7
0.016006 -0.91967797 -11.369141 7
0.012039 -0.95153803 -11.390625 7
0.0041430001 -0.98522902 -11.433594 7
-0.0047380002 -1.019653 -11.483398 7
-0.0038149999 -1.049683 -11.474609 7
-0.0097580003 -1.08313 -11.506836 7
-0.011772 -1.114624 -11.515625 7
-0.00106 -1.139526 -11.449219 7
-0.0040660002 -1.171631 -11.462891 7
-0.0041120001 -1.202026 -11.459961 7
-0.009079 -1.2351069 -11.487305 7
-0.024817999 -1.27478 -11.576172 7
-0.016113 -1.330933 -11.518555 7
-0.0022809999 -0.82763702 -10.907227 7
-0.001328 -0.85644501 -10.898438 7
0.0066300002 -0.96911597 -10.844727 7
-0.0087660002 -1.005005 -10.927734 7
-0.010872 -1.035278 -10.938477 7
-0.002754 -1.060547 -10.888672 7
-0.001785 -1.088989 -10.880859 7
-0.0028609999 -1.11853 -10.883789 7
-0.011108 -1.151855 -10.925781 7
-0.0091249999 -1.179932 -10.912109 7
-0.010201 -1.209717 -10.915039 7
-0.0092320004 -1.2381589 -10.907227 7
-0.024651 -1.276245 -10.990234 7
-0.0073620002 -0.98303199 -10.322266 7
-0.00095399999 -1.007812 -10.285156 7
0.007584 -1.031372 -10.237305 7
0.0042880001 -1.060547 -10.250977 7
0.001022 -1.089722 -10.266602 7
-0.0054779998 -1.120605 -10.297852 7
-0.019493001 -1.15564 -10.369141 7
-0.0055999998 -1.176025 -10.291992 7
-0.0067289998 -1.204224 -10.295898 7
-0.0089419996 -1.23291 -10.302734 7
-0.0089870002 -1.260864 -10.300781 7
-0.32666799 -6.0925288 -10.53418 7
-0.32999399 -6.1287842 -10.53418 7
-0.31612399 -6.1506348 -10.439453 7
-0.31512499 -6.1760249 -10.418945 7
-0.323845 -6.2253418 -10.445312 7
-0.33148199 -6.2722168 -10.46582 7
-0.33805099 -6.3164058 -10.481445 7
-0.34890699 -6.3718262 -10.517578 7
-0.058479 4.847168 -9.5644531 7
-0.054207001 4.811646 -9.5546885 7
-0.057418998 4.7923579 -9.5820312 7
-0.055289999 4.7617192 -9.5820312 7
-0.054214001 4.7331538 -9.5888672 7
-0.0056079999 -0.966187 -9.8027344 7
-0.010139 -0.99475098 -9.8222656 7
-0.013542 -1.022705 -9.8378906 7
-0.016975001 -1.051025 -9.8515615 7
-0.014771 -1.076538 -9.8388672 7
-0.0081019998 -1.099609 -9.8017578 7
-0.007034 -1.125488 -9.7929688 7
-0.011581 -1.1544189 -9.8125 7
-0.010513 -1.180298 -9.8037109 7
-0.011703 -1.20752 -9.8066406 7
-0.015099 -1.23584 -9.8203115 7
-0.018524 -1.26416 -9.8349609 7
-0.019707 -1.291504 -9.8369141 7
-0.018631 -1.317505 -9.8291016 7
-0.023163 -1.346802 -9.8486328 7
-0.025459001 -1.374756 -9.8564453 7
-0.02887 -1.403564 -9.8710938 7
-0.026695 -1.4287111 -9.8554688 7
-0.036842 -1.4619139 -9.9042969 7
-0.040268 -1.491089 -9.9179688 7
-0.33184099 -6.135376 -9.8828115 7
-0.328545 -6.153687 -9.8525391 7
-0.32637 -6.1748052 -9.828125 7
-0.32870501 -6.2069092 -9.8232422 7
-0.33554801 -6.2502441 -9.8388672 7
-0.33336601 -6.2713618 -9.8134766 7
-0.34133899 -6.3175049 -9.8339844 7
-0.347054 -6.3580322 -9.84375 7
-0.35164601 -6.3961182 -9.8486328 7
-0.33692199 -6.0843511 -9.3027344 7
-0.33818099 -6.1124272 -9.2929688 7
-0.34178901 -6.1464839 -9.2929688 7
-0.34303999 -6.1743159 -9.2832031 7
-0.071152002 4.7706299 -8.5410156 7
-0.069977 4.7443848 -8.5478516 7
-0.068816997 4.7182622 -8.5537109 7
-0.068810001 4.6943359 -8.5644531 7
-0.072310999 4.677979 -8.5908203 7
-0.021834999 -1.306396 -8.8964844 7
-0.027984999 -1.334473 -8.921875 7
-0.025612 -1.357422 -8.9072266 7
-0.030586001 -1.409058 -8.9228516 7
-0.037932999 -1.438477 -8.953125 7
-0.031891 -1.4588619 -8.921875 7
-0.040550001 -1.513428 -8.953125 7
-0.043090999 -1.564209 -8.9580078 7
-0.25151801 -4.701416 -9.0009766 7
-0.0062179998 -1.284912 -8.3603516 7
-0.019012 -1.315552 -8.4130859 7
-0.025428999 -1.342651 -8.4384766 7
-0.028023001 -1.36731 -8.4472656 7
-0.016609 -1.383667 -8.3935547 7
-0.017929001 -1.407593 -8.3945312 7
-0.019272 -1.431519 -8.3964844 7
-0.020592 -1.455444 -8.3984385 7
-0.025742 -1.482056 -8.4169922 7
-0.035980001 -1.512329 -8.4589844 7
-0.041129999 -1.539062 -8.4775391 7
-0.042458002 -1.563354 -8.4794922 7
-0.045051999 -1.588623 -8.4873047 7
-0.23262 -4.455688 -8.4599609 7
-0.225021 -4.4647222 -8.4169922 7
-0.111099 -1.908325 11.314453 7
-0.107162 -1.881592 11.301758 7
-0.107147 -1.858032 11.306641 7
-0.104507 -1.832642 11.299805 7
-0.103203 -1.808228 11.297852 7
-0.100563 -1.782715 11.291016 7
-0.097953998 -1.75708 11.285156 7
-0.097916 -1.733887 11.288086 7
-0.095291004 -1.708496 11.28125 7
-0.095268004 -1.685059 11.285156 7
-0.091347001 -1.658936 11.272461 7
-0.090011999 -1.634644 11.270508 7
-0.087394997 -1.609253 11.263672 7
-0.088264003 0.65454102 11.394531 7
-0.088234 0.67822301 11.393555 7
-0.093391001 0.70336902 11.414062 7
-0.076468997 0.72167999 11.337891 7
-0.073830001 0.744385 11.325195 7
-0.073775999 0.76770002 11.323242 7
-0.072448999 0.79089397 11.316406 7
-0.072411001 0.814331 11.313477 7
-0.073661998 0.83825701 11.317383 7
-0.072333999 0.86108398 11.310547 7
-0.073608004 0.88513201 11.314453 7
-0.073569998 0.90856898 11.311523 7
-0.073523998 0.93200701 11.30957 7
-0.076080002 0.95654303 11.319336 7
-0.010788 -1.2351069 -7.983398 7
-0.016243 -1.304688 -7.9960942 7
-0.24227101 -4.4924321 -8.0019531 7
-0.092704996 0.65258801 11.014648 7
-0.092666999 0.67517102 11.012695 7
-0.095337003 0.69885302 11.022461 7
-0.100693 0.72326702 11.043945 7
-0.085814998 0.74133301 10.979492 7
-0.084418997 0.76342797 10.972656 7
-0.087090001 0.78710902 10.982422 7
-0.088402003 0.81018102 10.986328 7
-0.087012999 0.83239698 10.978516 7
-0.086983003 0.85497999 10.976562 7
-0.088294998 0.878052 10.980469 7
-0.088257 0.90075701 10.977539 7
-0.086868003 0.92272902 10.969727 7
-0.088188 0.94592297 10.973633 7
-0.24129499 -4.4934082 -7.5126948 7
-0.234428 -4.5015869 -7.476562 7
-0.23867001 -4.530273 -7.4794922 7
-0.238731 -4.55127 -7.46875 7
-0.237404 -4.5697021 -7.453125 7
-0.24300399 -4.6010742 -7.4638672 7
-0.24583399 -4.6274409 -7.4628911 7
-0.24452201 -4.6455078 -7.4462891 7
-0.24733 -4.6719971 -7.4462891 7
-0.25295299 -4.7034912 -7.454102 7
-0.25853699 -4.7351069 -7.4628911 7
-0.25720999 -4.753418 -7.4472661 7
-0.25867501 -4.7771001 -7.4404302 7
-0.140305 -2.2142329 10.548828 7
-0.13749699 -2.190063 10.544922 7
-0.136032 -2.145386 10.548828 7
-0.113518 -2.103271 10.46582 7
-0.113503 -2.081665 10.470703 7
-0.12754101 -2.0727539 10.53125 7
-0.124702 -2.048584 10.524414 7
-0.131714 -2.033325 10.557617 7
-0.120445 -2.0018311 10.518555 7
-0.117592 -1.977783 10.510742 7
-0.111961 -1.951538 10.494141 7
-0.106308 -1.925171 10.475586 7
-0.247375 -4.4937739 -7.109375 7
-0.238884 -4.5180659 -7.0576172 7
-0.24187499 -4.563354 -7.0449219 7
-0.249184 -4.6169429 -7.0488281 7
-0.25362399 -4.6650391 -7.0419922 7
-0.26676199 -4.769897 -7.0419922 7
-0.34729001 -6.2484131 -6.3964839 7
-0.34877801 -6.2703862 -6.3876948 7
-0.35172999 -6.295898 -6.3818359 7
-0.354736 -6.3399658 -6.360352 7
-0.35912299 -6.368896 -6.358398 7
-0.360634 -6.3909912 -6.3476558 7
-0.25605801 -4.505249 -6.7089839 7
-0.25015301 -4.5133061 -6.6777339 7
-0.25020599 -4.5323491 -6.6669922 7
-0.25624099 -4.5626221 -6.6767578 7
-0.25629401 -4.5817871 -6.6660161 7
-0.25037399 -4.5896001 -6.6347661 7
-0.25044301 -4.608398 -6.6230469 7
-0.250496 -4.6274409 -6.6123052 7
-0.259514 -4.6635742 -6.6318359 7
-0.26255 -4.6881099 -6.6308589 7
-0.25813299 -4.6984859 -6.6044922 7
-0.27011099 -4.7406011 -6.632812 7
-0.27465099 -4.7680659 -6.6357422 7
-0.27171299 -4.7813721 -6.6152339 7
-0.357658 -6.0977778 -6.0664058 7
-0.357712 -6.1156011 -6.0517578 7
-0.35629299 -6.1295171 -6.032227 7
-0.35783401 -6.1507568 -6.0224609 7
-0.36695901 -6.207397 -6.0185552 7
-0.36253399 -6.2142329 -5.9912109 7
-0.36407501 -6.235352 -5.9804692 7
-0.37011001 -6.267334 -5.983398 7
-0.36421201 -6.2701421 -5.9501948 7
-0.35380599 -6.2617192 -5.905273 7
-0.35237101 -6.275269 -5.8857422 7
-0.35392001 -6.2962651 -5.875977 7
-0.36146501 -6.3317871 -5.882812 7
-0.358551 -6.3415532 -5.859375 7
-0.35860401 -6.3588872 -5.844727 7
-0.104248 -1.898315 9.7636719 7
-0.101196 -1.875977 9.7568359 7
-0.113281 -1.866089 9.8056641 7
-0.111763 -1.844727 9.8056641 7
-0.101151 -1.81665 9.7714844 7
-0.085991003 -1.784912 9.7197266 7
-0.087485999 -1.7663569 9.7294922 7
-0.096550003 -1.753662 9.7666016 7
-0.085937999 -1.72583 9.7324219 7
-0.090453997 -1.709473 9.7529297 7
-0.098015003 -1.695435 9.7851562 7
-0.099509999 -1.676514 9.7949219 7
-0.088875003 -1.64917 9.7597656 7
-0.088852003 -1.629395 9.7636719 7
-0.082801998 -1.605225 9.7451172 7
-0.151344 4.1690669 9.1591797 7
-0.14077 4.1682129 9.1142578 7
-0.12867001 4.1647949 9.0644531 7
-0.130127 4.1856689 9.0595703 7
-0.128571 4.2011719 9.0449219 7
-0.119492 4.2025151 9.0048828 7
-0.119453 4.2207031 8.9960938 7
-0.119408 4.2385249 8.9863281 7
-0.123871 4.264771 8.9902344 7
-0.122322 4.2799072 8.9755859 7
-0.117767 4.2894292 8.9511719 7
-0.125237 4.3212891 8.9648438 7
-0.12669399 4.342041 8.9599609 7
-0.129646 4.365479 8.9589844 7
-0.141647 4.40625 8.9882812 7
-0.14911699 4.4382319 9.0019531 7
-0.072571002 4.7740479 -5.7099609 7
-0.062187001 4.7349849 -5.688477 7
-0.063660003 4.721313 -5.704102 7
-0.065154999 4.7072749 -5.719727 7
-0.063683003 4.6872559 -5.7246089 7
-0.062180001 4.6669922 -5.7314448 7
-0.066628002 4.6590581 -5.7568359 7
-0.066628002 4.6419678 -5.7675781 7
-0.060676999 4.6126709 -5.7597661 7
-0.069580004 4.61377 -5.7988281 7
-0.068069004 4.5935059 -5.8056641 7
-0.081421003 4.603271 -5.860352 7
-0.090301998 4.6038818 -5.9003911 7
-0.078437999 4.5625 -5.8730469 7
-0.085854001 4.5600591 -5.907227 7
-0.078414999 4.527832 -5.8945308 7
-0.075455002 4.504272 -5.8945308 7
-0.25717899 -4.4929199 -6.335938 7
-0.25415 -4.5053711 -6.3154302 7
-0.252655 -4.520874 -6.2998052 7
-0.25272399 -4.539062 -6.289062 7
-0.25276899 -4.557251 -6.2783198 7
-0.252823 -4.575562 -6.2675781 7
-0.25287601 -4.5933838 -6.2568359 7
-0.25293699 -4.6115718 -6.2460942 7
-0.25300601 -4.6297612 -6.234375 7
-0.24996901 -4.6418462 -6.2148442 7
-0.257736 -4.674561 -6.2275391 7
-0.267059 -4.7105708 -6.2460942 7
-0.27174401 -4.7375488 -6.249023 7
-0.27334601 -4.7584229 -6.2431641 7
-0.27340701 -4.7766109 -6.2314448 7
-0.27499399 -4.797729 -6.2246089 7
-0.346764 -6.0882568 -5.5673828 7
-0.348373 -6.108521 -5.5566411 7
-0.34996799 -6.1287842 -5.546875 7
-0.35311899 -6.1524658 -5.5400391 7
-0.35318801 -6.1689448 -5.5253911 7
-0.36096999 -6.2042241 -5.532227 7
-0.36413601 -6.2280269 -5.5263672 7
-0.37191799 -6.2634282 -5.532227 7
-0.36579099 -6.2645259 -5.500977 7
-0.364319 -6.2771001 -5.4814448 7
-0.356644 -6.274292 -5.445312 7
-0.35206601 -6.2790532 -5.4179692 7
-0.355225 -6.302856 -5.4111328 7
-0.36303699 -6.3382568 -5.4160161 7
-0.36463201 -6.3582759 -5.40625 7
-0.36005399 -6.3626709 -5.3779302 7
-0.361664 -6.3824458 -5.367188 7
-0.360176 -6.3946528 -5.3476558 7
-0.092864998 -1.9169919 9.4091797 7
-0.100677 -1.904541 9.4414062 7
-0.099097997 -1.884155 9.4404297 7
-0.099074997 -1.865234 9.4443359 7
-0.10218 -1.848755 9.4599609 7
-0.106842 -1.833374 9.4804688 7
-0.103706 -1.8117681 9.4746094 7
-0.098990999 -1.78894 9.4619141 7
-0.084899999 -1.758911 9.4160156 7
-0.091141 -1.744995 9.4433594 7
-0.089561 -1.724609 9.4414062 7
-0.092666999 -1.7080081 9.4570312 7
-0.094223 -1.690063 9.4667969 7
-0.097321004 -1.673218 9.4814453 7
-0.094185002 -1.651855 9.4755859 7
-0.092597999 -1.631714 9.4736328 7
-0.080063 -1.6036381 9.4326172 7
-0.078185998 0.96105999 9.546875 7
-0.075026996 0.97876 9.5332031 7
-0.073432997 0.997437 9.5253906 7
-0.071837999 1.015747 9.5175781 7
-0.073363997 1.035767 9.5205078 7
-0.062408 1.049805 9.4785156 7
-0.071746998 1.073364 9.5097656 7
-0.079529002 1.096313 9.5351562 7
-0.074805997 1.1131589 9.5166016 7
-0.074767999 1.132324 9.5136719 7
-0.076293997 1.1524661 9.5166016 7
-0.079375997 1.173218 9.5244141 7
-0.080902003 1.1932369 9.5273438 7
-0.083984002 1.214111 9.5351562 7
-0.085518003 1.234253 9.5380859 7
-0.083930999 1.252686 9.5302734 7
-0.080771998 1.269897 9.515625 7
-0.14662901 4.171875 8.7861328 7
-0.145027 4.186523 8.7714844 7
-0.129417 4.1757808 8.7128906 7
-0.123154 4.1818848 8.6835938 7
-0.116875 4.1876221 8.6542969 7
-0.113724 4.1992192 8.6347656 7
-0.116798 4.2220459 8.6347656 7
-0.112068 4.2303472 8.6103516 7
-0.115135 4.2531738 8.609375 7
-0.115082 4.27002 8.5986328 7
-0.115028 4.287231 8.5888672 7
-0.107201 4.2895508 8.5546885 7
-0.107147 4.3062739 8.5439453 7
-0.114899 4.3378911 8.5585938 7
-0.119514 4.363647 8.5625 7
-0.135033 4.4101558 8.6005859 7
-0.14122 4.4389648 8.609375 7
-0.13650499 4.447021 8.5849609 7
-0.141113 4.4727778 8.5888672 7
-0.077598996 4.7911382 -5.3417969 7
-0.069922999 4.7587891 -5.3310552 7
-0.062233001 4.72644 -5.3193359 7
-0.057631999 4.7008061 -5.3154302 7
-0.053017002 4.6749272 -5.313477 7
-0.051491 4.6557622 -5.3193359 7
-0.054535002 4.6459961 -5.3408198 7
-0.056067999 4.6331792 -5.3554692 7
-0.057601999 4.6199951 -5.3710942 7
-0.059119999 4.6069341 -5.3876948 7
-0.057579 4.5875239 -5.3935552 7
-0.059096999 4.5744629 -5.4091802 7
-0.062164001 4.5643311 -5.4287109 7
-0.071381003 4.5666499 -5.467773 7
-0.079025 4.5656738 -5.5019531 7
-0.083618 4.5584722 -5.5283198 7
-0.074424997 4.523315 -5.5087891 7
-0.071335003 4.5006099 -5.5107422 7
-0.25277701 -4.4810791 -5.9130859 7
-0.25442499 -4.5013428 -5.907227 7
-0.26089501 -4.5305181 -5.9150391 7
-0.25293699 -4.532959 -5.8808589 7
-0.249779 -4.544312 -5.8613281 7
-0.248245 -4.5583501 -5.844727 7
-0.249901 -4.5784912 -5.8388672 7
-0.249947 -4.5955811 -5.828125 7
-0.254814 -4.6218262 -5.8310552 7
-0.256477 -4.6418462 -5.8242192 7
-0.25492099 -4.6558838 -5.8095698 7
-0.25337201 -4.6699219 -5.7939448 7
-0.25502801 -4.6899409 -5.7871089 7
-0.26469401 -4.7254639 -5.804688 7
-0.26956201 -4.7518311 -5.8076172 7
-0.26962301 -4.7689209 -5.795898 7
-0.26969099 -4.7858891 -5.7832031 7
-0.356583 -6.4017329 -4.8027339 7
-0.087250002 -1.910278 9.0605469 7
-0.096984997 -1.900146 9.0986328 7
-0.093735002 -1.87915 9.0927734 7
-0.092087001 -1.859619 9.0917969 7
-0.096946999 -1.8455811 9.1123047 7
-0.096915998 -1.8273931 9.1171885 7
-0.103394 -1.814087 9.1435547 7
-0.096878 -1.790771 9.1259766 7
-0.085495003 -1.7637939 9.0908203 7
-0.085479997 -1.745605 9.0947266 7
-0.078964002 -1.722412 9.0771484 7
-0.078948997 -1.704224 9.0810547 7
-0.075691 -1.6837161 9.0742188 7
-0.080544002 -1.669067 9.0947266 7
-0.090271004 -1.657959 9.1318359 7
-0.085372999 -1.63623 9.1191406 7
-0.075622998 -1.610962 9.0898438 7
-0.067299001 0.974365 9.1865234 7
-0.060798999 0.98986799 9.1621094 7
-0.060752999 1.008301 9.1591797 7
-0.059105001 1.025879 9.1513672 7
-0.060692001 1.044922 9.1542969 7
-0.059052002 1.0625 9.1464844 7
-0.059006002 1.080811 9.1445312 7
-0.063827999 1.10144 9.1582031 7
-0.071906999 1.124023 9.1835938 7
-0.070258997 1.141602 9.1757812 7
-0.071837999 1.160645 9.1787109 7
-0.070175 1.178223 9.1699219 7
-0.07502 1.199219 9.1835938 7
-0.071739003 1.21582 9.1689453 7
-0.074951001 1.235962 9.1777344 7
-0.073296003 1.253418 9.1689453 7
-0.07164 1.270752 9.1601562 7
-0.14177699 4.167603 8.3896484 7
-0.141747 4.1842041 8.3798828 7
-0.143318 4.2036128 8.375 7
-0.138428 4.2111821 8.3505859 7
-0.138367 4.2276611 8.3398438 7
-0.141571 4.2497559 8.3398438 7
-0.082732998 4.796875 -4.954102 7
-0.074738003 4.7648931 -4.9433589 7
-0.071548 4.7429199 -4.945312 7
-0.057204999 4.6976318 -4.9160161 7
-0.052414 4.672729 -4.9130859 7
-0.057174999 4.6522222 -4.9492192 7
-0.057167001 4.6369629 -4.960938 7
-0.055557001 4.6182861 -4.967773 7
-0.053970002 4.599854 -4.9736328 7
-0.053955 4.5845952 -4.984375 7
-0.057144001 4.5758061 -5.0039058 7
-0.063499004 4.5734859 -5.0332031 7
-0.074630998 4.565063 -5.0869141 7
-0.081000999 4.5623779 -5.1162109 7
-0.082580999 4.5498052 -5.1318359 7
-0.074607998 4.518311 -5.1181641 7
-0.077789001 4.5092769 -5.1386719 7
-0.074799001 4.4868159 -5.140625 7
-0.258331 -4.4827881 -5.5429692 7
-0.26170301 -4.5053711 -5.5419922 7
-0.265091 -4.5280762 -5.5410161 7
-0.26181799 -4.5383301 -5.5205078 7
-0.25688899 -4.5454102 -5.4960942 7
-0.256935 -4.561646 -5.485352 7
-0.255348 -4.5748291 -5.46875 7
-0.25538599 -4.591064 -5.4589839 7
-0.25379199 -4.604126 -5.4423828 7
-0.25883499 -4.6296391 -5.4443359 7
-0.258881 -4.645874 -5.4345698 7
-0.26060501 -4.6652832 -5.4277339 7
-0.249008 -4.6590581 -5.3847661 7
-0.25904801 -4.6943359 -5.4003911 7
-0.262413 -4.7166748 -5.3994141 7
-0.27078199 -4.7489009 -5.4101558 7
-0.27748901 -4.7779541 -5.4189448 7
-0.27920499 -4.7971191 -5.4111328 7
-0.35875699 -6.257935 -4.467773 7
-0.357155 -6.2677002 -4.4492192 7
-0.360535 -6.2897949 -4.4414058 7
-0.35560599 -6.2911382 -4.4150391 7
-0.35233301 -6.2966309 -4.3925781 7
-0.34406301 -6.2895508 -4.358398 7
-0.350784 -6.3200679 -4.359375 7
-0.35083801 -6.3334961 -4.34375 7
-0.35089901 -6.3470459 -4.328125 7
-0.35262299 -6.3648682 -4.3164058 7
-0.351013 -6.374146 -4.297852 7
-0.087302998 -1.907104 8.7519531 7
-0.088965997 -1.891113 8.7617188 7
-0.088936001 -1.8737791 8.7666016 7
-0.095673002 -1.861938 8.7929688 7
-0.092278004 -1.841675 8.7861328 7
-0.097313002 -1.828247 8.8066406 7
-0.097282 -1.8106689 8.8105469 7
-0.093918003 -1.790527 8.8046885 7
-0.085487001 -1.7663569 8.7822266 7
-0.080436997 -1.7451169 8.7705078 7
-0.080421001 -1.7275389 8.7744141 7
-0.082092002 -1.711426 8.7841797 7
-0.078704998 -1.691406 8.7773438 7
-0.075324997 -1.671509 8.7705078 7
-0.083701998 -1.660278 8.8007812 7
-0.078651004 -1.639038 8.7890615 7
-0.083678998 -1.625244 8.8085938 7
-0.078606002 -1.604126 8.7958984 7
-0.063392997 0.97143602 8.8740234 7
-0.061675999 0.98828101 8.8662109 7
-0.053252999 1.002075 8.8359385 7
-0.051537 1.0187989 8.8271484 7
-0.056557 1.038574 8.8417969 7
-0.056511 1.056152 8.8388672 7
-0.058182001 1.074707 8.8427734 7
-0.071563996 1.098755 8.8837891 7
-0.061478 1.11145 8.8486328 7
-0.066459998 1.131592 8.8623047 7
-0.073142998 1.152588 8.8808594 7
-0.058006 1.1624759 8.8300781 7
-0.061324999 1.1817631 8.8378906 7
-0.069687001 1.2038569 8.8613281 7
-0.066315003 1.219727 8.8496094 7
-0.062912002 1.235352 8.8349609 7
-0.066246003 1.254761 8.8417969 7
-0.077956997 1.279053 8.8769531 7
-0.250938 -4.48877 -5.1376948 7
-0.25960499 -4.52002 -5.1494141 7
-0.26308399 -4.5418701 -5.148438 7
-0.256248 -4.5444341 -5.1191411 7
-0.256302 -4.559937 -5.108398 7
-0.25291401 -4.5688481 -5.0878911 7
-0.25641599 -4.5906978 -5.085938 7
-0.25645399 -4.605957 -5.0751948 7
-0.25479099 -4.618042 -5.0605469 7
-0.251396 -4.626709 -5.0400391 7
-0.25488999 -4.64856 -5.0380859 7
-0.258385 -4.6702881 -5.0361328 7
-0.256706 -4.682373 -5.0205078 7
-0.26366401 -4.7105708 -5.0263672 7
-0.26716599 -4.7324219 -5.023438 7
-0.27237701 -4.75769 -5.0253911 7
-0.26898199 -4.7659912 -5.0058589 7
-0.27592501 -4.7946782 -5.0117192 7
-0.090248004 -1.906128 8.4726562 7
-0.090232998 -1.8894041 8.4775391 7
-0.088477999 -1.8712161 8.4765615 7
-0.090209998 -1.855835 8.4863281 7
-0.093673997 -1.841797 8.5029297 7
-0.091918997 -1.823486 8.5019531 7
-0.093650997 -1.808105 8.5117188 7
-0.097115003 -1.794189 8.5263672 7
-0.088394001 -1.7705081 8.5039062 7
-0.077941999 -1.745605 8.4746094 7
-0.079659 -1.730347 8.484375 7
-0.079643004 -1.713623 8.4882812 7
-0.074401997 -1.692749 8.4765615 7
-0.076118 -1.677368 8.4853516 7
-0.081321999 -1.6644289 8.5058594 7
-0.076087996 -1.6437989 8.4931641 7
-0.072594002 -1.624512 8.4863281 7
-0.077797003 -1.611694 8.5058594 7
-0.259987 -4.4890141 -4.8164058 7
-0.25646201 -4.497314 -4.797852 7
-0.25475299 -4.5085449 -4.782227 7
-0.27082101 -4.5527339 -4.811523 7
-0.261971 -4.5509028 -4.7783198 7
-0.26557201 -4.5722661 -4.7773442 7
-0.26561701 -4.5869141 -4.765625 7
-0.26212299 -4.594604 -4.7451172 7
-0.25682101 -4.5991211 -4.7216802 7
-0.26042899 -4.6204829 -4.719727 7
-0.26225999 -4.638062 -4.7128911 7
-0.262306 -4.6525879 -4.702148 7
-0.26236001 -4.6669922 -4.6914058 7
-0.26773801 -4.6916499 -4.6933589 7
-0.260681 -4.6923828 -4.664062 7
-0.26786 -4.720459 -4.670898 7
-0.27145401 -4.7418208 -4.6679692 7
-0.26796001 -4.749023 -4.6474609 7
-0.26979101 -4.7667241 -4.640625 7
-0.269844 -4.7811279 -4.6289058 7
-0.35690299 -6.2506099 -3.5058589 7
-0.367661 -6.2886958 -3.511719 7
-0.365944 -6.2957759 -3.4931641 7
-0.360634 -6.294189 -3.467773 7
-0.36425799 -6.3145752 -3.4599609 7
-0.364319 -6.3260498 -3.4443359 7
-0.36615801 -6.3419189 -3.4326169 7
-0.36263999 -6.3444819 -3.4111331 7
-0.36091599 -6.3513179 -3.3925779 7
-0.355591 -6.3492432 -3.3681641 7
-0.355652 -6.3604741 -3.3525391 7
-0.36462399 -6.394043 -3.3544919 7
-0.36110699 -6.3962402 -3.332031 7
-0.091545001 -1.902954 8.2060547 7
-0.096923999 -1.8913569 8.2275391 7
-0.095115997 -1.873657 8.2265615 7
-0.089699 -1.8531491 8.2148438 7
-0.095092997 -1.841431 8.2353516 7
-0.102272 -1.830933 8.2607422 7
-0.098647997 -1.812012 8.2548828 7
-0.089644998 -1.788574 8.2314453 7
-0.077026002 -1.762573 8.1982422 7
-0.075218 -1.7451169 8.1972656 7
-0.085998997 -1.737305 8.234375 7
-0.078789003 -1.71582 8.2158203 7
-0.080573998 -1.701172 8.2255859 7
-0.080550998 -1.684937 8.2294922 7
-0.078750998 -1.66748 8.2285156 7
-0.078743003 -1.6513669 8.2324219 7
-0.078697003 -1.635254 8.2353516 7
-0.080504999 -1.620239 8.2451172 7
-0.076880999 -1.60144 8.2382812 7
-0.15876 -1.87037 11.509138 7
-0.108701 0.64206398 11.251774 7
-0.099890999 0.93277699 11.144205 7
-0.121479 4.1890721 8.7627916 7
-0.104544 4.3015089 8.5001049 7
-0.150968 -1.915395 9.6568623 7
-0.150925 -1.67793 9.7272367 7
-0.106839 0.96271801 9.5756531 7
-0.112751 -1.700485 9.0294876 7
-0.083356999 1.077579 9.0024548 7
-0.096905001 -1.748332 8.5470095 7
-0.082084998 -1.782573 8.1235962 7
-0.32864499 -5.0420032 5.9044318 7
-0.320916 -4.9119248 6.0940251 7
-0.32845801 -4.8480821 6.3098011 7
-0.097386003 -1.77156 7.6787262 7
-0.091410004 -1.604838 7.718596 7
-0.070574 0.98563099 7.8175998 7
-0.062245 1.130347 7.7351542 7
-0.081768997 -1.785748 7.351521 7
-0.067209996 -1.613852 7.35708 7
-0.046656001 1.048694 7.4699111 7
-0.047384001 1.192589 7.428988 7
-0.062894002 -1.7823 7.0406961 7
-0.054985002 -1.637037 7.077878 7
-0.055376001 -1.797416 6.7990012 7
-0.048363 -1.6637681 6.8427768 7
0.145366 -1.076483 -10.115315 7
-0.221512 -4.415308 -9.7830286 7
0.031525001 -1.474028 -6.7246819 7
-0.21614499 -4.4891648 -8.1054201 7
0.025412999 -1.429496 -5.783493 7
-0.19800299 -4.5001931 -6.64642 7
0.059847999 -1.377426 -4.66324 7
-0.19661599 -4.5416179 -5.5720239 7
-0.33083099 -6.3627858 -5.5177841 7
-0.156602 -1.80778 11.330811 7
-0.107505 0.65779001 11.246395 7
-0.078313999 0.95165199 11.013029 7
-0.0044720001 -1.340287 -3.9064331 7
-0.28534299 -4.5601821 -4.651701 7
-0.127455 -1.731829 10.563762 7
-0.27240801 -4.5637798 -3.8514149 7
-0.389961 -6.2714 -3.3472421 7
-0.086961001 -1.659147 9.8270016 7
-0.253867 -4.5388541 -3.122499 7
-0.073132001 -1.860706 9.2731533 7
-0.054917 -1.600216 9.2298088 7
-0.117593 -1.796549 8.8291082 7
-0.288966 -4.6680679 -1.758458 7
-0.078768 -1.7286119 8.3460541 7
-0.073596001 -1.886611 8.0123892 7
-0.053374998 -1.675922 7.9721112 7
0.011562 -1.405331 -1.2610821 7
-0.26001701 -4.5690188 -0.85488701 7
-0.25901699 -4.7204528 -0.68395001 7
-0.049973 -1.8257149 7.68121 7
-0.034492001 -1.632116 7.661551 7
0.015687 -1.3841749 -1.023044 7
-0.0010629999 -1.5693361 -1.0591201 7
-0.242558 -4.6420212 -0.29221901 7
-0.23939 -4.7642698 -0.116482 7
-0.339892 -4.941318 6.3980131 7
-0.084413998 -1.777436 7.4246831 7
-0.27698699 -4.5536518 0.070141003 7
-0.26982599 -4.651443 0.248005 7
-0.31556001 -4.9368649 5.8852429 7
-0.32166699 -4.84513 6.0645471 7
-0.084749997 -1.9089299 7.2002091 7
-0.069555998 -1.734368 7.1906681 7
-0.0070250002 -1.342447 -0.56135899 7
-0.013352 -1.502564 -0.55419499 7
-0.246727 -4.6429238 0.733684 7
-0.246305 -4.7337322 0.89534402 7
-0.30614701 -5.0509658 5.2237792 7
-0.28577 -4.9046221 5.3592749 7
-0.284594 -4.8121281 5.5208578 7
-0.052924 -1.846488 6.9247389 7
-0.037517 -1.683562 6.9129658 7
0.00028000001 -1.326081 -0.37617001 7
-0.010575 -1.48057 -0.38669401 7
-0.238297 -4.5654578 1.001014 7
-0.24237201 -4.6595039 1.150291 7
-0.27535599 -4.877028 4.940876 7
-0.042603001 -1.805262 6.7438378 7
-0.028502 -1.650984 6.7362008 7
-0.27118599 -4.6726651 1.716126 7
-0.28003901 -4.7526999 1.864082 7
-0.323939 -4.9582448 4.232862 7
-0.31115001 -4.87503 4.3865728 7
-0.261457 -4.516397 1.780965 7
-0.277778 -4.6147709 1.914559 7
-0.27571601 -4.6550961 2.0710149 7
-0.27352399 -4.6887221 2.2285061 7
-0.27280599 -4.753839 2.5826819 7
-0.27938601 -4.793303 2.738462 7
-0.25929701 -4.587883 2.6117489 7
-0.267869 -4.6317062 2.7598121 7
-0.159848 4.816937 -16.262455 7
-0.067636997 4.5974941 -4.9652538 7
-0.103421 0.94764698 11.075321 7
-0.141991 4.2185202 9.1965675 7
-0.132165 4.2013898 8.6155014 7
-0.126764 4.382575 8.4138117 7
-0.10571 1.206251 9.1820145 7
-0.068823002 0.96124798 8.7021666 7
-0.071065001 1.1886539 8.6705208 7
-0.032894999 1.163278 7.9437609 7
-0.069238 0.96653801 7.6904588 7
-0.064836003 1.1511559 7.6426601 7
-0.051155999 0.968575 7.4177442 7
-0.050127 1.142282 7.3872499 7
-0.063270003 4.8995891 -15.962948 7
-0.32554299 -4.3999648 -14.928787 7
-0.051773999 -1.4313149 -8.8685322 7
-0.094437003 4.7671771 -8.57166 7
-0.032471001 -1.458588 -7.514626 7
-0.216189 -4.5616708 -9.1406593 7
-0.01511 -1.465095 -6.5018339 7
-0.096465997 4.718183 -5.0902772 7
-0.111162 4.6382852 -5.3655701 7
-0.124782 4.535181 -5.6327939 7
-0.060906999 -1.489862 -5.813714 7
-0.25541499 -4.6426511 -6.3528442 7
-0.348865 -6.2971611 -6.185277 7
-0.035289001 -1.2899669 -5.1877532 7
-0.046298999 -1.493685 -5.227293 7
-0.240135 -4.5393181 -5.4498682 7
-0.23947801 -4.736455 -5.2740889 7
-0.35188901 -6.1558928 -5.2766991 7
-0.026123 -1.316004 -4.742063 7
-0.038169999 -1.505007 -4.7791448 7
-0.22629499 -4.5882592 -4.512774 7
-0.22446001 -4.7385139 -4.32653 7
-0.31674799 -6.3274512 -3.381197 7
0.00036999999 -1.282926 -4.2436528 7
-0.023978001 -1.4892009 -4.354187 7
-0.21325999 -4.557898 -3.6793959 7
-0.206383 -4.6380992 -3.475332 7
-0.039586 -1.3313119 -4.0136681 7
-0.047423001 -1.476168 -4.0055089 7
-0.04685 -1.596786 -3.9449811 7
-0.025312999 -1.295648 -3.7219639 7
-0.02885 -1.4157259 -3.689373 7
-0.037176002 -1.550472 -3.6758189 7
-0.243668 -4.6709089 -0.72469801 7
-0.031373002 -1.546767 -1.23482 7
-0.029793 -1.548039 -1.169979 7
-0.026195999 -1.540699 -1.089229 7
-0.026435999 -1.5415649 -1.024393 7
-0.024941999 -1.534261 -0.96007597 7
-0.0051950002 -1.413854 -1.22765 7
-0.0092470003 -1.43168 -1.168539 7
-0.0059509999 -1.424809 -1.108798 7
-0.0060589998 -1.425503 -1.033913 7
-0.013768 -1.446297 -0.97093302 7
-0.017109999 -1.3541549 -1.223982 7
-0.021538001 -1.371783 -1.167366 7
-0.025957 -1.387069 -1.109408 7
-0.016737999 -1.3613321 -1.0530961 7
-0.015117 -1.353821 -0.98210001 7
-0.012555 -1.291006 -1.2748491 7
-0.011744 -1.300658 -1.166433 7
-0.014371 -1.3103909 -1.111636 7
-0.0090049999 -1.295941 -1.057701 7
-0.007675 -1.290264 -1.003626 7
