# .PCD v0.7 - Point Cloud Data file format
VERSION 0.7
FIELDS x y z intensity
SIZE 4 4 4 4
TYPE F F F F
COUNT 1 1 1 1
WIDTH 1236
HEIGHT 1
VIEWPOINT 0 0 0 1 0 0 0
POINTS 1236
DATA ascii
0.243599 -1.673584 -72.723633 7
0.281883 -1.812378 -71.245117 7
0.226318 5.0341802 -72.722656 7
0.32432601 1.600464 -69.874023 7
0.174088 -1.705688 -66.956055 7
0.21061701 -1.833496 -65.700195 7
0.183975 5.223877 -66.032227 7
0.184723 4.9012451 -66.020508 7
0.134224 4.860352 -67.730469 7
0.31340799 1.434814 -61.720703 7
0.130638 -1.84729 -60.832031 7
0.184799 -1.941895 -59.176758 7
0.23178101 -2.176147 -57.729492 7
0.29833201 4.933105 -55.266602 7
0.219971 4.8570561 -57.640625 7
0.278786 4.575439 -55.87793 7
0.231171 4.5500488 -57.319336 7
0.29914099 1.155273 -55.333984 7
0.079558998 -2.0938721 -55.5 7
0.143364 -2.161011 -53.764648 7
0.17189001 -2.2592771 -52.981445 7
0.13114201 -2.4362791 -54.069336 7
0.159462 -2.5318601 -53.291992 7
0.234993 4.8016362 -50.87793 7
0.211853 4.7329102 -51.505859 7
0.26600599 4.4805908 -50.058594 7
0.22791301 4.444458 -51.089844 7
0.186134 4.4118652 -52.220703 7
0.058983002 -2.1611331 -50.639648 7
0.10437 -2.235352 -49.518555 7
0.13686401 -2.319092 -48.712891 7
0.090026997 -2.493408 -49.845703 7
-0.89012903 -3.103271 68.592773 7
-0.88214898 -2.936523 68.430664 7
-0.87896699 -0.55664098 68.417969 7
0.214485 4.7398682 -46.449219 7
0.183754 4.6982422 -47.205078 7
0.15086401 4.657959 -48.014648 7
0.20725299 4.4145508 -46.650391 7
0.170517 4.3800049 -47.551758 7
0.113205 4.3848882 -48.956055 7
0.044792 -2.309937 -46.075195 7
0.095931999 -2.3642581 -44.930664 7
0.12524401 -2.4390869 -44.271484 7
0.177711 -2.4820559 -43.09668 7
0.101349 -2.6856689 -44.77832 7
0.13696299 -2.7470701 -43.977539 7
-0.78753698 -0.207275 61.011719 7
0.19615901 4.651001 -42.365234 7
0.166519 4.614502 -43.026367 7
0.14479101 4.5574951 -43.514648 7
0.19324499 4.344727 -42.454102 7
0.16571 4.2990718 -43.069336 7
0.141609 4.2434082 -43.610352 7
0.25821701 0.96862799 -41.147461 7
-0.003296 -2.38855 -43.342773 7
0.022217 -2.46521 -42.8125 7
0.049155999 -2.537842 -42.251953 7
0.078093998 -2.605103 -41.650391 7
0.030144 -2.768311 -42.619141 7
0.043938 -2.8538821 -42.326172 7
0.084037997 -2.901978 -41.49707 7
0.104698 -2.9737549 -41.063477 7
0.124222 -3.0452881 -40.654297 7
0.136292 4.617188 -40.158203 7
0.109894 4.5765381 -40.704102 7
0.082915999 4.5345459 -41.260742 7
0.047935002 4.5068359 -41.981445 7
0.094177 4.308228 -41.048828 7
0.080077998 4.2355962 -41.344727 7
0.223488 0.905518 -38.878906 7
0.21277601 0.81445301 -39.09668 7
0.214867 0.71777302 -39.051758 7
0.21535499 0.52600098 -39.036133 7
0.020531001 -2.917603 -38.895508 7
0.038818002 -2.987427 -38.543945 7
0.052101001 -3.0627439 -38.286133 7
0.068213999 -3.1325679 -37.975586 7
-0.63462102 -2.9094241 49.556641 7
-0.64435601 -2.805176 49.733398 7
-0.60143298 -0.052611999 49.148438 7
-0.57021302 0.059937 48.618164 7
-0.58709699 0.173096 48.910156 7
-0.55451202 0.28222701 48.353516 7
0.119072 4.792603 -36.767578 7
0.099578999 4.7460942 -37.138672 7
0.077887997 4.7027588 -37.549805 7
0.056807999 4.65625 -37.950195 7
0.026962001 4.6265869 -38.512695 7
0.200638 1.278198 -35.462891 7
0.17793299 1.204102 -35.887695 7
0.199806 1.103271 -35.480469 7
0.17838299 1.026611 -35.880859 7
0.19103201 0.49182099 -35.645508 7
0.205376 0.400879 -35.378906 7
0.18739299 0.31640601 -35.711914 7
0.20770299 0.22583 -35.333008 7
0.021895999 -3.2164309 -35.699219 7
-0.59944898 -2.8773191 45.551758 7
-0.60372198 -2.7771001 45.628906 7
-0.61901897 -2.687012 45.880859 7
-0.52038598 0.15356401 44.421875 7
-0.54560101 0.25793499 44.824219 7
-0.504623 0.355591 44.174805 7
0.099914998 4.8864751 -34.091797 7
0.093735002 4.8161621 -34.208008 7
0.073279999 4.77771 -34.566406 7
0.058952 4.723999 -34.820312 7
0.024940001 4.7119141 -35.412109 7
0.0079039996 4.6607671 -35.712891 7
0.175484 1.194702 -33.046875 7
0.15432 1.12439 -33.412109 7
0.143005 1.047485 -33.607422 7
0.142517 0.375366 -33.880859 7
0.167427 0.28832999 -33.449219 7
0.18351699 0.20410199 -33.168945 7
0.15831 0.123779 -33.601562 7
0.174751 0.040405001 -33.31543 7
0.165382 -0.03064 -30.333984 7
0.165306 -0.106079 -30.333984 7
0.14704099 -0.183228 -30.620117 7
0.166618 -0.25671399 -30.308594 7
-0.52428401 -2.769897 41.018555 7
-0.52854198 -2.6802981 41.088867 7
-0.54277003 -2.599854 41.305664 7
-0.57572198 -2.5358889 41.795898 7
-0.47848499 0.235718 40.507812 7
-0.47898099 0.42102101 40.517578 7
0.12471 4.8847661 -30.680664 7
0.113533 4.8345952 -30.864258 7
0.096084997 4.797852 -31.148438 7
0.076049998 4.7655029 -31.47168 7
0.046744999 4.7524409 -31.94043 7
0.018547 4.7347412 -32.390625 7
0.082511999 4.5168462 -31.400391 7
0.184746 1.464111 -30.020508 7
0.155754 1.409546 -30.479492 7
0.18311299 1.3156739 -30.049805 7
0.134399 1.19458 -30.821289 7
0.13614701 0.045288 -30.794922 7
0.148544 -0.178223 -28.702148 7
0.117165 -0.25329599 -29.162109 7
0.131668 -0.32336399 -28.945312 7
0.14852899 -0.39208999 -28.693359 7
-0.499634 -2.6636961 38.245117 7
-0.50461602 -2.581177 38.322266 7
-0.46746799 0.21728501 37.927734 7
-0.474419 0.39147899 38.026367 7
0.092093997 4.9251709 -28.99707 7
0.078178003 4.8851318 -29.210938 7
0.068618998 4.834229 -29.360352 7
0.021354999 4.7922359 -30.069336 7
0.037154999 4.6828609 -29.849609 7
0.168602 1.59021 -28.178711 7
0.15425099 1.5305181 -28.392578 7
0.140305 1.469604 -28.600586 7
0.154907 1.388428 -28.387695 7
0.129868 1.333984 -28.758789 7
0.118164 -0.36035201 -26.660156 7
0.142097 -0.42211899 -26.332031 7
0.109001 -0.49585 -26.780273 7
0.122223 -0.55920398 -26.598633 7
0.136749 -0.62133801 -26.399414 7
-0.39848301 0.51367199 34.504883 7
-0.39015201 0.59021002 34.398438 7
-0.39321899 0.66943401 34.438477 7
-0.38353699 0.74487299 34.314453 7
0.090461999 4.9619141 -26.675781 7
0.084449999 4.9093022 -26.768555 7
0.065559 4.8857422 -27.032227 7
0.055259999 4.8414311 -27.182617 7
0.038086001 4.8117681 -27.424805 7
0.013222 4.7979741 -27.769531 7
0.129189 1.56665 -26.49707 7
0.156532 1.480347 -26.12793 7
0.139771 1.426514 -26.358398 7
0.117432 1.375366 -26.666016 7
0.143494 1.292114 -26.3125 7
0.119003 -0.34289601 -24.963867 7
0.117516 -0.40564001 -24.980469 7
0.096329004 -0.4729 -25.248047 7
0.107666 -0.533081 -25.101562 7
0.122192 -0.59167498 -24.913086 7
0.046204001 4.984375 -25.3125 7
0.049828 4.9124761 -25.27832 7
0.040603999 4.869873 -25.404297 7
0.030959999 4.8275151 -25.537109 7
0.004799 4.8212891 -25.875977 7
-0.00856 4.785645 -26.052734 7
0.129631 1.524292 -24.62793 7
0.113983 1.4736331 -24.830078 7
0.103966 1.417236 -25.162109 7
0.123955 1.341064 -24.910156 7
0.101555 -0.67163098 -23.270508 7
0.109337 -0.72717297 -23.175781 7
0.078651004 -0.79699701 -23.535156 7
0.093819 -0.84985399 -23.352539 7
0.101585 -0.90490699 -23.255859 7
0.046036001 5.0410161 -23.322266 7
0.043526001 4.987915 -23.362305 7
0.034125999 4.950562 -23.482422 7
0.023727 4.9150391 -23.614258 7
0.0059429999 4.8953862 -23.832031 7
-0.0089490004 4.8078609 -24.027344 7
0.118126 1.885986 -22.87207 7
0.114571 1.773315 -22.921875 7
0.126366 1.705811 -22.787109 7
0.126297 1.648315 -22.790039 7
0.112923 1.60083 -22.951172 7
0.103493 1.5500489 -23.066406 7
0.075882003 -0.68957502 -21.915039 7
0.064696997 -0.74865699 -22.035156 7
0.080940001 -0.79785198 -21.851562 7
0.087692 -0.85022002 -21.774414 7
0.061195001 -0.91638201 -22.064453 7
0.07164 -0.96716303 -21.945312 7
0.076278999 -1.020142 -21.889648 7
0.025336999 5.0847168 -21.833008 7
0.031654 5.014648 -21.777344 7
0.021049 4.9838872 -21.90332 7
0.012543 4.8919678 -22.017578 7
-0.001221 4.8668208 -22.177734 7
-0.017082 4.8455811 -22.360352 7
0.108002 1.8781739 -21.363281 7
0.097923003 1.832642 -21.478516 7
0.101044 1.7755131 -21.448242 7
0.105705 1.6630861 -21.40332 7
0.093491003 1.618286 -21.540039 7
0.067244999 -0.85473597 -20.484375 7
0.059250001 -0.90978998 -20.563477 7
0.074836999 -1.0062259 -20.396484 7
0.016106 5.0871582 -20.348633 7
0.025658 5.013062 -20.264648 7
0.017731 4.9797359 -20.355469 7
0.0097960001 4.9458008 -20.448242 7
0.0035629999 4.9078369 -20.522461 7
-0.012817 4.8922119 -20.698242 7
-0.023560001 4.8631592 -20.818359 7
-0.020781999 4.8041992 -20.799805 7
0.097290002 1.8675539 -19.987305 7
0.075782999 1.835327 -20.212891 7
0.098328002 1.764771 -19.984375 7
0.093193002 1.718262 -20.041016 7
0.086937003 1.672119 -20.109375 7
0.083503999 1.623535 -20.148438 7
0.032837 -0.96411097 -19.492188 7
0.044739 -1.007935 -19.37207 7
0.048850998 -1.054932 -19.330078 7
0.018745 -1.119629 -19.619141 7
0.032448001 -1.161865 -19.482422 7
0.033530999 -1.2105711 -19.467773 7
0.038231 -1.257202 -19.416992 7
0.070266999 1.875244 -18.950195 7
0.056419 1.838745 -19.087891 7
0.068382002 1.779907 -18.976562 7
0.070129 1.729858 -18.962891 7
0.071296997 1.68042 -18.954102 7
0.062233001 1.638916 -19.045898 7
0.030663 -0.99853498 -18.222656 7
0.039512999 -1.040771 -18.139648 7
0.043228 -1.085083 -18.102539 7
0.014404 -1.1463619 -18.362305 7
0.024529001 -1.1875 -18.264648 7
0.025711 -1.233521 -18.250977 7
0.028183 -1.27832 -18.224609 7
0.064544998 1.901489 -17.735352 7
0.067703001 1.8531491 -17.710938 7
0.060005002 1.814209 -17.785156 7
0.072113 1.758423 -17.679688 7
0.078452997 1.707764 -17.625 7
0.061806001 1.6756589 -17.779297 7
0.068168998 1.625 -17.726562 7
0.086600997 1.520752 -17.56543 7
0.015732 -0.99304199 -17.251953 7
0.021049 -1.034546 -17.203125 7
0.029762 -1.074219 -17.125977 7
0.019539 -1.123291 -17.209961 7
0.0025180001 -1.176392 -17.353516 7
0.0058209999 -1.218994 -17.320312 7
0.012489 -1.2593991 -17.259766 7
-0.012177 5.0311279 -16.750977 7
-0.018959001 5.0031738 -16.819336 7
-0.029106 4.982666 -16.915039 7
-0.032515999 4.9466548 -16.955078 7
-0.036591001 4.9119868 -17 7
-0.050811999 4.8991699 -17.130859 7
-0.031897999 4.8138428 -16.984375 7
0.061195001 1.582764 -16.709961 7
0.072669998 1.531372 -16.615234 7
0.055038001 1.500977 -16.769531 7
0.044853002 1.4646 -16.859375 7
0.071158998 1.360474 -16.640625 7
0.06707 1.32019 -16.678711 7
0.062279001 1.280151 -16.72168 7
0.022697 -0.97460902 -16.12793 7
0.0082780002 -1.022827 -16.240234 7
0.020369999 -1.058594 -16.139648 7
0.024590001 -1.0979 -16.102539 7
0.017341999 -1.143066 -16.158203 7
0.00077099999 -1.193604 -16.288086 7
0.0064090001 -1.232178 -16.239258 7
0.0099029997 -1.271973 -16.207031 7
-0.174072 -4.19519 -17.229492 7
-0.172737 -4.2366939 -17.208008 7
-0.16996001 -4.2755132 -17.175781 7
-0.16864 -4.3170171 -17.15332 7
-0.165878 -4.3554692 -17.120117 7
-0.173172 -4.4125981 -17.166016 7
-0.18333399 -4.4758301 -17.236328 7
-0.060637999 4.9724121 -16.052734 7
-0.060660999 4.9306641 -16.064453 7
-0.059951998 4.8876948 -16.071289 7
-0.059967 4.8460689 -16.082031 7
0.065857001 1.2861331 -15.647461 7
0.076576002 1.23938 -15.563477 7
0.071510002 1.20166 -15.606445 7
0.057144001 1.168945 -15.724609 7
0.064277999 1.124512 -15.669922 7
0.073546998 1.079224 -15.59668 7
0.082832001 1.033936 -15.523438 7
0.084945999 0.99279797 -15.507812 7
0.020316999 -0.960693 -15.175781 7
0.01342 -1.00293 -15.225586 7
0.008781 -1.044556 -15.257812 7
0.019309999 -1.078613 -15.174805 7
0.019226 -1.117798 -15.171875 7
-0.0029140001 -1.208618 -15.333984 7
0.0045779999 -1.2437741 -15.273438 7
-0.18753099 -4.1949458 -16.25293 7
-0.192955 -4.2463379 -16.282227 7
-0.18707301 -4.3188481 -16.21582 7
-0.18337201 -4.3535161 -16.177734 7
-0.182716 -4.3937988 -16.162109 7
-0.191948 -4.4523931 -16.219727 7
0.063652001 0.94763201 -14.732422 7
0.065894999 0.90832502 -14.717773 7
0.066605002 0.86962903 -14.713867 7
0.058189001 0.79589802 -14.782227 7
0.067261003 0.75390601 -14.714844 7
0.074013002 0.674927 -14.665039 7
0.017578 -0.98278803 -14.275391 7
0.016693 -1.020264 -14.27832 7
0.0078119999 -1.061523 -14.339844 7
0.022964001 -1.091309 -14.226562 7
0.019684 -1.129761 -14.248047 7
0.022797 -1.165161 -14.220703 7
0.001083 -1.214111 -14.375 7
-0.00060299999 -1.252319 -14.383789 7
0.0073549999 -1.284912 -14.323242 7
0.0048600002 -1.32373 -14.336914 7
0.001587 -1.362793 -14.357422 7
-0.18752301 -4.19873 -15.216797 7
-0.19405399 -4.2493901 -15.251953 7
-0.195755 -4.2918701 -15.25293 7
-0.191025 -4.3223882 -15.209961 7
-0.186317 -4.3527832 -15.165039 7
-0.18720201 -4.3934331 -15.161133 7
-0.18891101 -4.4356689 -15.161133 7
-0.025734 4.9501948 -13.750977 7
-0.022545001 4.9068599 -13.740234 7
-0.020958001 4.8674321 -13.741211 7
-0.019378999 4.8276372 -13.740234 7
0.069068998 0.63928199 -13.80957 7
0.065025002 0.60437 -13.839844 7
0.062592 0.568726 -13.858398 7
0.064963996 0.53161597 -13.842773 7
0.071341999 0.49389601 -13.797852 7
0.076912001 0.456543 -13.757812 7
0.080077998 0.41980001 -13.735352 7
0.080848999 0.38354501 -13.730469 7
0.074378997 0.34863299 -13.777344 7
0.079887003 0.239502 -13.739258 7
0.083061002 0.203247 -13.71582 7
0.083816998 0.166748 -13.710938 7
0.082970001 0.130981 -13.717773 7
0.078933999 0.095092997 -13.74707 7
-0.189346 -4.176147 -14.341797 7
-0.197052 -4.2269292 -14.382812 7
-0.20475 -4.277832 -14.422852 7
-0.204849 -4.3153081 -14.412109 7
-0.199867 -4.3435059 -14.368164 7
-0.19743299 -4.3760991 -14.34082 7
-0.194122 -4.407227 -14.30957 7
-0.19338199 -4.442627 -14.292969 7
-0.062447 4.778564 -13.22168 7
-0.059928998 4.7384028 -13.216797 7
0.054267999 -0.340942 -12.407227 7
0.050689999 -0.37439001 -12.430664 7
0.046974 -0.50720203 -12.448242 7
0.047828998 -0.53991699 -12.442383 7
0.04335 -0.57409698 -12.469727 7
-0.0024029999 -1.096436 -12.852539 7
0.0046310001 -1.126343 -12.802734 7
0.002785 -1.161011 -12.811523 7
-0.012444 -1.236816 -12.904297 7
-0.016045 -1.272705 -12.925781 7
-0.199371 -4.195312 -13.556641 7
-0.204803 -4.2402339 -13.580078 7
-0.21199 -4.2884521 -13.614258 7
-0.217407 -4.3334961 -13.637695 7
-0.207726 -4.3513179 -13.566406 7
-0.20693199 -4.3850098 -13.550781 7
-0.20702399 -4.4204102 -13.540039 7
-0.20175201 -4.4458008 -13.49707 7
-0.004189 -1.333618 -12.15625 7
-0.21972699 -4.3679199 -12.864258 7
0.022697 -0.648682 -11.380859 7
0.021667 -0.67919898 -11.385742 7
0.016724 -0.711182 -11.413086 7
0.01667 -0.74133301 -11.411133 7
0.020508001 -0.77038598 -11.386719 7
0.025336999 -0.798706 -11.355469 7
0.028198 -0.82775903 -11.336914 7
0.027168 -0.85839802 -11.34082 7
0.014397 -0.89355499 -11.413086 7
0.003578 -0.92858899 -11.473633 7
0.013298 -0.95459002 -11.414062 7
0.019089 -0.98242199 -11.376953 7
0.01609 -1.014038 -11.392578 7
0.014084 -1.0450439 -11.401367 7
0.0071720001 -1.078735 -11.438477 7
-0.002655 -1.1142581 -11.493164 7
-0.0085829999 -1.147827 -11.525391 7
0.002113 -1.1726069 -11.459961 7
-0.00088499999 -1.20459 -11.473633 7
2.3000001e-05 -1.234497 -11.46582 7
-0.0059130001 -1.268311 -11.49707 7
-0.010033 -1.362183 -11.509766 7
-0.012054 -1.393921 -11.517578 7
0.0047070002 -0.85729998 -10.895508 7
-0.002502 -0.88928199 -10.933594 7
0.0055999998 -0.91491699 -10.884766 7
0.011597 -0.97033697 -10.845703 7
0.01461 -0.99804699 -10.826172 7
0.001259 -1.0330811 -10.898438 7
-0.010025 -1.067749 -10.958984 7
-0.0039670002 -1.093628 -10.921875 7
0.001083 -1.120361 -10.890625 7
-1.5e-05 -1.149902 -10.893555 7
-0.0041499999 -1.1812741 -10.914062 7
-0.0042269998 -1.210327 -10.910156 7
-0.0032649999 -1.239014 -10.902344 7
-0.016609 -1.275635 -10.973633 7
0.00075499999 -0.983154 -10.306641 7
-0.0089419996 -1.015381 -10.355469 7
-0.00042699999 -1.039062 -10.307617 7
0.0080949999 -1.062378 -10.258789 7
0.0048139999 -1.091675 -10.273438 7
0.0036929999 -1.119873 -10.276367 7
-0.0092540001 -1.154297 -10.342773 7
0.000359 -1.17688 -10.288086 7
-0.0029219999 -1.206177 -10.302734 7
-0.007278 -1.2362061 -10.322266 7
-0.0073239999 -1.263916 -10.320312 7
-0.32469201 -6.1607671 -10.520508 7
-0.32047999 -6.1783452 -10.485352 7
-0.32488301 -6.2171631 -10.490234 7
-0.33357999 -6.266602 -10.515625 7
-0.33583099 -6.3001709 -10.510742 7
-0.339149 -6.3365479 -10.510742 7
-0.347855 -6.386353 -10.537109 7
-0.04332 4.7897949 -9.5029297 7
-0.042243998 4.7614751 -9.5087891 7
-0.041182999 4.7332759 -9.5146484 7
-0.043327 4.7116699 -9.5371094 7
-0.044403002 4.6879878 -9.5527344 7
-0.002083 -0.96777302 -9.8095703 7
-0.0054930001 -0.99585003 -9.8242188 7
-0.0066829999 -1.022949 -9.8271484 7
-0.003365 -1.047729 -9.8085938 7
-0.0079190005 -1.07666 -9.828125 7
-0.014679 -1.106567 -9.859375 7
-0.0068970001 -1.129028 -9.8173828 7
-0.0036009999 -1.154053 -9.7978516 7
-0.004776 -1.18103 -9.7998047 7
-0.0059429999 -1.20813 -9.8037109 7
-0.0060040001 -1.234497 -9.8007812 7
-0.010544 -1.2637939 -9.8203115 7
-0.047065999 4.7878418 -8.953125 7
-0.048195001 4.7655029 -8.9697266 7
-0.05043 4.7454829 -8.9912109 7
-0.049300998 4.7182622 -8.9970703 7
-0.048179999 4.6911621 -9.0039062 7
-0.05043 4.670898 -9.0253906 7
-0.057137001 4.6600342 -9.0673828 7
-0.067215003 4.6557622 -9.1259766 7
-0.069443002 4.635376 -9.1474609 7
-0.067222998 4.6055908 -9.1474609 7
-0.056038 4.5576172 -9.1064453 7
-0.049346998 4.519043 -9.0849609 7
-0.052680999 4.5006099 -9.1123047 7
-0.054939002 4.480103 -9.1328115 7
-0.0032649999 -1.286743 -8.3662109 7
-0.0033110001 -1.309814 -8.3632812 7
-0.019897001 -1.342896 -8.4345703 7
-0.027626 -1.394165 -8.4619141 7
-0.017502001 -1.4111331 -8.4130859 7
-0.015022 -1.432739 -8.3984385 7
-0.017601 -1.45752 -8.4072266 7
-0.016372999 -1.479858 -8.3974609 7
-0.024078 -1.5081789 -8.4277344 7
-0.033034999 -1.5374759 -8.4628906 7
-0.036903001 -1.5637209 -8.4765615 7
-0.035698 -1.58606 -8.4667969 7
-0.23331501 -4.4916992 -8.46875 7
-0.23083501 -4.5102539 -8.4482422 7
-0.227074 -4.5263672 -8.4228516 7
-0.225876 -4.5472412 -8.4052734 7
-0.22849301 -4.5753169 -8.4052734 7
-0.227295 -4.5959468 -8.3896484 7
-0.23245201 -4.6290278 -8.3994141 7
-0.241455 -4.669312 -8.4248047 7
-0.240242 -4.690063 -8.4082031 7
-0.24160001 -4.7158198 -8.4013672 7
-0.24804699 -4.7513428 -8.4160156 7
-0.244278 -4.7669678 -8.3896484 7
-0.092949003 0.65539598 11.420898 7
-0.091614 0.678711 11.414062 7
-0.079856999 0.72241199 11.360352 7
-0.078475997 0.76904303 11.351562 7
-0.079742 0.79296899 11.356445 7
-0.079673998 0.84008801 11.351562 7
-0.079627998 0.86352497 11.349609 7
-0.078239001 0.910034 11.338867 7
-0.078201003 0.93347198 11.336914 7
-0.079452999 0.95752001 11.34082 7
-0.014748 -1.285156 -8.0117188 7
-0.014786 -1.307373 -8.0087891 7
-0.016151 -1.330566 -8.0117188 7
-0.028114 -1.359985 -8.0585938 7
-0.033463001 -1.3857419 -8.078125 7
-0.040123001 -1.412354 -8.1035156 7
-0.028267 -1.427002 -8.0498047 7
-0.025658 -1.447632 -8.0351562 7
-0.031013001 -1.473511 -8.0537109 7
-0.031082001 -1.49585 -8.0498047 7
-0.029793 -1.517212 -8.0410156 7
-0.051024999 -1.554443 -8.1269531 7
-0.053725999 -1.578735 -8.1347656 7
-0.240814 -4.5447998 -7.9902339 7
-0.24353801 -4.572021 -7.9902339 7
-0.24493399 -4.5968022 -7.983398 7
-0.24765 -4.624023 -7.983398 7
-0.246391 -4.6436772 -7.967773 7
-0.25576001 -4.6835942 -7.992188 7
-0.26398501 -4.7878418 -7.9785161 7
-0.244011 -4.4880371 -7.547852 7
-0.24407201 -4.5091548 -7.5380859 7
-0.24137101 -4.525269 -7.516602 7
-0.23867001 -4.5410161 -7.4970698 7
-0.24150801 -4.5672612 -7.4951172 7
-0.240189 -4.5856929 -7.4794922 7
-0.24439199 -4.614502 -7.484375 7
-0.245857 -4.6381841 -7.476562 7
-0.252846 -4.6723628 -7.4902339 7
-0.26397699 -4.7147222 -7.5205078 7
-0.261269 -4.7303472 -7.4980469 7
-0.255806 -4.7407231 -7.467773 7
-0.255867 -4.7618408 -7.4570308 7
-0.26146701 -4.793457 -7.4648442 7
-0.115395 -1.913208 10.523438 7
-0.109772 -1.886963 10.505859 7
-0.10833 -1.86438 10.504883 7
-0.111122 -1.8449709 10.520508 7
-0.105476 -1.818848 10.503906 7
-0.105446 -1.797363 10.508789 7
-0.102615 -1.773682 10.500977 7
-0.099776998 -1.749756 10.494141 7
-0.103989 -1.731567 10.515625 7
-0.099716 -1.7069089 10.50293 7
-0.094085999 -1.681152 10.484375 7
-0.094054997 -1.659668 10.488281 7
-0.091224998 -1.636108 10.481445 7
-0.091201998 -1.614624 10.485352 7
-0.25205201 -4.4924321 -7.1494141 7
-0.253555 -4.5152588 -7.1425781 7
-0.24358401 -4.5167241 -7.0966802 7
-0.240784 -4.5316162 -7.0761719 7
-0.245148 -4.5596919 -7.0810552 7
-0.24664301 -4.58252 -7.0751948 7
-0.250992 -4.6107178 -7.079102 7
-0.24533799 -4.619751 -7.0488281 7
-0.252563 -4.653564 -7.0625 7
-0.25263199 -4.6734619 -7.0507808 7
-0.25556201 -4.6989751 -7.0488281 7
-0.26279399 -4.7327881 -7.063477 7
-0.26000199 -4.7471919 -7.0419922 7
-0.27010301 -4.7868652 -7.0654302 7
-0.34943399 -6.2836909 -6.3994141 7
-0.346634 -6.2947998 -6.375 7
-0.34957901 -6.320435 -6.3691411 7
-0.35395101 -6.3496089 -6.367188 7
-0.35545301 -6.3717041 -6.3564448 7
-0.11232 -1.901001 10.158203 7
-0.113762 -1.88147 10.167969 7
-0.12394 -1.8687741 10.210938 7
-0.120987 -1.845703 10.204102 7
-0.109329 -1.815918 10.164062 7
-0.10347 -1.790405 10.146484 7
-0.097626001 -1.765259 10.128906 7
-0.099068001 -1.745728 10.139648 7
-0.096129999 -1.722778 10.132812 7
-0.101929 -1.706421 10.158203 7
-0.10482 -1.687988 10.172852 7
-0.101891 -1.664917 10.166016 7
-0.101852 -1.644287 10.169922 7
-0.098922998 -1.621582 10.163086 7
-0.098892003 -1.60083 10.166992 7
-0.060005002 4.7662349 -6.077148 7
-0.050018001 4.7272949 -6.054688 7
-0.051430002 4.7124019 -6.0712891 7
-0.048576001 4.688477 -6.0722661 7
-0.049988002 4.6734619 -6.0888672 7
-0.051414002 4.6584468 -6.1044922 7
-0.049995001 4.6376948 -6.110352 7
-0.04998 4.6196289 -6.1210942 7
-0.048546001 4.5987549 -6.1279302 7
-0.052825999 4.589478 -6.1533198 7
-0.062820002 4.5916748 -6.1982422 7
-0.065673999 4.5793462 -6.217773 7
-0.069939002 4.5698242 -6.2441411 7
-0.068512 4.5487061 -6.249023 7
-0.058517002 4.5102539 -6.2255859 7
-0.059937 4.494873 -6.242188 7
-0.26100901 -4.4858398 -6.7597661 7
-0.262573 -4.507812 -6.7529302 7
-0.25666001 -4.5161128 -6.7236328 7
-0.25376099 -4.5297852 -6.702148 7
-0.24785601 -4.5378418 -6.672852 7
-0.26133701 -4.5819092 -6.7050781 7
-0.259895 -4.5982671 -6.6894531 7
-0.25698099 -4.6118159 -6.6689448 7
-0.26300001 -4.6422119 -6.6777339 7
-0.26009399 -4.6556401 -6.65625 7
-0.26014701 -4.6746831 -6.6455078 7
-0.26319101 -4.6993408 -6.6445308 7
-0.26326001 -4.7183838 -6.632812 7
-0.285667 -4.7807622 -6.695312 7
-0.26635 -4.762085 -6.6201172 7
-0.27386501 -4.7957759 -6.6337891 7
-0.3554 -6.0864258 -6.0839839 7
-0.36293799 -6.1220698 -6.0908198 7
-0.36003101 -6.1324458 -6.0673828 7
-0.36008501 -6.1500239 -6.0527339 7
-0.36910999 -6.1894531 -6.063477 7
-0.37663999 -6.2252202 -6.0722661 7
-0.37371799 -6.2355962 -6.0488281 7
-0.37081099 -6.2458501 -6.023438 7
-0.36788899 -6.255981 -6.000977 7
-0.36945301 -6.2772222 -5.9902339 7
-0.36952201 -6.2947998 -5.9755859 7
-0.357658 -6.2825928 -5.9257808 7
-0.36966699 -6.3295898 -5.945312 7
-0.372711 -6.354248 -5.938477 7
-0.366806 -6.356689 -5.90625 7
-0.36687499 -6.374146 -5.891602 7
-0.366943 -6.3912349 -5.875977 7
-0.108284 -1.903198 9.7851562 7
-0.105225 -1.880859 9.7783203 7
-0.111259 -1.865967 9.8046885 7
-0.123337 -1.855835 9.8544922 7
-0.106682 -1.822632 9.796875 7
-0.112694 -1.807495 9.8232422 7
-0.106636 -1.782715 9.8056641 7
-0.103584 -1.7607419 9.7988281 7
-0.096008003 -1.734863 9.7753906 7
-0.095992997 -1.715088 9.7792969 7
-0.100494 -1.69873 9.7998047 7
-0.109558 -1.685425 9.8378906 7
-0.106506 -1.663452 9.8300781 7
-0.095908999 -1.6357419 9.7958984 7
-0.109482 -1.62561 9.8486328 7
-0.101891 -1.600464 9.8251953 7
-0.089722 0.960693 9.8945312 7
-0.089684002 0.98071301 9.8925781 7
-0.079079002 0.996216 9.8505859 7
-0.076018997 1.0148931 9.8369141 7
-0.079017997 1.0361331 9.8466797 7
-0.092566997 1.062378 9.8945312 7
-0.081969999 1.077515 9.8525391 7
-0.081932001 1.097412 9.8496094 7
-0.093979001 1.123413 9.8925781 7
-0.093933001 1.143311 9.8896484 7
-0.084839001 1.158813 9.8535156 7
-0.084807999 1.178833 9.8505859 7
-0.092308 1.202759 9.8759766 7
-0.092285 1.222778 9.8730469 7
-0.096763998 1.245361 9.8867188 7
-0.090697996 1.262085 9.8613281 7
-0.15519699 4.1760249 9.1738281 7
-0.146111 4.1781011 9.1347656 7
-0.134003 4.1746831 9.0839844 7
-0.12794501 4.1818848 9.0537109 7
-0.12938701 4.2028809 9.0488281 7
-0.123337 4.2098389 9.0195312 7
-0.118774 4.2194819 8.9951172 7
-0.127747 4.2541499 9.0146484 7
-0.124687 4.266602 8.9951172 7
-0.118614 4.2731929 8.9648438 7
-0.123077 4.299561 8.9697266 7
-0.1185 4.30896 8.9443359 7
-0.127487 4.34375 8.9638672 7
-0.13195799 4.3699951 8.9677734 7
-0.13492601 4.3937988 8.9677734 7
-0.151421 4.4431152 9.0107422 7
-0.151375 4.460938 9 7
-0.148315 4.4732671 8.9804688 7
-0.069312997 4.7852778 -5.6894531 7
-0.054482002 4.736938 -5.6533198 7
-0.050018001 4.7104492 -5.6503911 7
-0.054474 4.7030029 -5.6757808 7
-0.055946 4.689209 -5.6914058 7
-0.051491 4.6629639 -5.688477 7
-0.052971002 4.6490479 -5.704102 7
-0.047035001 4.619751 -5.6972661 7
-0.054435998 4.6181641 -5.7314448 7
-0.055916 4.6040039 -5.7470698 7
-0.054435998 4.5839839 -5.7529302 7
-0.067772001 4.5938721 -5.8066411 7
-0.073684998 4.5887451 -5.8369141 7
-0.067749001 4.5594478 -5.828125 7
-0.063323997 4.5332031 -5.8242192 7
-0.063331999 4.5158691 -5.8339839 7
-0.067763999 4.5074458 -5.859375 7
-0.26441199 -4.5153809 -6.3701172 7
-0.25985 -4.525146 -6.344727 7
-0.25684401 -4.5375981 -6.3242192 7
-0.253815 -4.5501709 -6.3037109 7
-0.25541699 -4.5714111 -6.297852 7
-0.257011 -4.5924072 -6.2919922 7
-0.257065 -4.6105962 -6.28125 7
-0.25559199 -4.625977 -6.264648 7
-0.257195 -4.6469731 -6.2587891 7
-0.25107601 -4.6531978 -6.2294922 7
-0.254219 -4.6772461 -6.2285161 7
-0.263542 -4.7130132 -6.2451172 7
-0.27284199 -4.749023 -6.2626948 7
-0.274445 -4.7701421 -6.2558589 7
-0.3536 -6.3087158 -5.4150391 7
-0.361397 -6.3442378 -5.420898 7
-0.36609599 -6.3718262 -5.4179692 7
-0.36615801 -6.387939 -5.4033198 7
-0.35919201 -6.3837891 -5.367188 7
-0.1017 -1.907104 9.4501953 7
-0.111053 -1.895752 9.4882812 7
-0.107918 -1.874146 9.4814453 7
-0.112587 -1.859009 9.5029297 7
-0.112572 -1.839722 9.5078115 7
-0.115677 -1.82312 9.5224609 7
-0.107857 -1.7976069 9.5 7
-0.096878 -1.770142 9.4658203 7
-0.092170998 -1.747192 9.4541016 7
-0.098403998 -1.733032 9.4794922 7
-0.099945001 -1.7149661 9.4892578 7
-0.098366 -1.694824 9.4882812 7
-0.099907003 -1.6767581 9.4970703 7
-0.10302 -1.659912 9.5126953 7
-0.101425 -1.639526 9.5107422 7
-0.090461999 -1.6125489 9.4755859 7
-0.081100002 0.96203601 9.5625 7
-0.081061997 0.98120099 9.5605469 7
-0.079467997 0.99975598 9.5517578 7
-0.077872999 1.018433 9.5439453 7
-0.079406999 1.038452 9.5478516 7
-0.076241001 1.056152 9.5332031 7
-0.080879003 1.077515 9.5478516 7
-0.085525997 1.099121 9.5625 7
-0.080817997 1.1162111 9.5439453 7
-0.082359001 1.135986 9.546875 7
-0.082314 1.155273 9.5439453 7
-0.085395999 1.176392 9.5527344 7
-0.086937003 1.1962889 9.5556641 7
-0.090019003 1.217407 9.5634766 7
-0.088417001 1.2355959 9.5546885 7
-0.091507003 1.256714 9.5634766 7
-0.088348001 1.274292 9.5488281 7
-0.149437 4.1774902 8.7949219 7
-0.152527 4.200562 8.7958984 7
-0.13533001 4.1870122 8.7314453 7
-0.122841 4.1817632 8.6826172 7
-0.119675 4.1933589 8.6621094 7
-0.114952 4.2019038 8.6386719 7
-0.116463 4.2216802 8.6337891 7
-0.113312 4.2331538 8.6142578 7
-0.11483 4.2531738 8.609375 7
-0.114777 4.27002 8.5986328 7
-0.124054 4.3043208 8.6162109 7
-0.110016 4.295166 8.5644531 7
-0.111504 4.315063 8.5585938 7
-0.113022 4.3349609 8.5537109 7
-0.117645 4.3607178 8.5566406 7
-0.123802 4.3892822 8.5654297 7
-0.136208 4.4300542 8.5927734 7
-0.13771801 4.4499512 8.5878906 7
-0.136108 4.4638672 8.5732422 7
-0.067832999 4.7723389 -5.3154302 7
-0.055557001 4.7303472 -5.2900391 7
-0.052483 4.7078862 -5.2919922 7
-0.044799998 4.6757808 -5.280273 7
-0.043251 4.6564941 -5.2861328 7
-0.043251 4.6405029 -5.296875 7
-0.049385 4.6373291 -5.3261719 7
-0.047844 4.618042 -5.3320308 7
-0.049369998 4.605103 -5.3476558 7
-0.055519 4.601562 -5.3769531 7
-0.049362 4.5726318 -5.3701172 7
-0.055504002 4.5689702 -5.398438 7
-0.055496 4.5526118 -5.4101558 7
-0.061623 4.5488281 -5.4394531 7
-0.075432003 4.5604248 -5.492188 7
-0.069274999 4.53125 -5.485352 7
-0.066223003 4.508667 -5.485352 7
-0.25096899 -4.4865718 -5.9169922 7
-0.25900999 -4.5187988 -5.9316411 7
-0.25268599 -4.5240479 -5.9003911 7
-0.25273901 -4.5412598 -5.889648 7
-0.255997 -4.5644531 -5.8886719 7
-0.254448 -4.5788569 -5.8730469 7
-0.25451699 -4.5960689 -5.8623052 7
-0.257774 -4.6191411 -5.8613281 7
-0.25302899 -4.6271968 -5.835938 7
-0.25788099 -4.653564 -5.8388672 7
-0.25153399 -4.6584468 -5.8095698 7
-0.253212 -4.6784668 -5.8027339 7
-0.26766199 -4.7232671 -5.8339839 7
-0.26931 -4.7435298 -5.827148 7
-0.27257499 -4.7667241 -5.8251948 7
-0.27904499 -4.7962651 -5.8330078 7
-0.350624 -6.0838618 -5.1113281 7
-0.35390499 -6.1069341 -5.1044922 7
-0.349152 -6.1104741 -5.077148 7
-0.35403401 -6.1375728 -5.0751948 7
-0.35408801 -6.1529541 -5.0605469 7
-0.354164 -6.1682129 -5.045898 7
-0.36223599 -6.2028809 -5.0517578 7
-0.36231199 -6.2181401 -5.0371089 7
-0.36396 -6.2373052 -5.0263672 7
-0.367241 -6.2602539 -5.0195308 7
-0.36476901 -6.2667241 -4.9960942 7
-0.36801901 -6.2897949 -4.9902339 7
-0.36328101 -6.2929692 -4.9619141 7
-0.35852101 -6.2962651 -4.9355469 7
-0.35536999 -6.3031011 -4.9130859 7
-0.357048 -6.322144 -4.9023442 7
-0.365143 -6.3569341 -4.90625 7
-0.36519599 -6.3719478 -4.891602 7
-0.36204499 -6.3787842 -4.8691411 7
-0.360497 -6.3895259 -4.8496089 7
-0.101425 -1.90564 9.1191406 7
-0.10141 -1.887329 9.1240234 7
-0.096534997 -1.86499 9.1113281 7
-0.104622 -1.853394 9.1435547 7
-0.111099 -1.840332 9.1699219 7
-0.111076 -1.8218991 9.1738281 7
-0.104576 -1.798462 9.1572266 7
-0.085074998 -1.765015 9.0947266 7
-0.088303 -1.749146 9.1103516 7
-0.081786998 -1.726074 9.0927734 7
-0.081772 -1.707886 9.0976562 7
-0.081763998 -1.689697 9.1015615 7
-0.088225998 -1.67627 9.1259766 7
-0.094681002 -1.662598 9.1523438 7
-0.081703 -1.635132 9.1132812 7
-0.086548001 -1.620239 9.1328115 7
-0.086510003 -1.602051 9.1357422 7
-0.14469101 4.190063 8.3886719 7
-0.133331 4.1860352 8.3447266 7
-0.12844101 4.193604 8.3203115 7
-0.11869 4.1922612 8.28125 7
-0.112175 4.1967769 8.2519531 7
-0.112137 4.2128911 8.2421885 7
-0.110497 4.2260742 8.2275391 7
-0.108826 4.2391362 8.2128906 7
-0.116852 4.2702641 8.2265615 7
-0.113579 4.2801509 8.2070312 7
-0.118362 4.3052979 8.2109385 7
-0.121552 4.3275151 8.2099609 7
-0.13279 4.3647461 8.2333984 7
-0.12952401 4.3748779 8.2138672 7
-0.132713 4.3970952 8.2128906 7
-0.135887 4.419189 8.2119141 7
-0.137474 4.438477 8.2070312 7
-0.137413 4.4544678 8.1962891 7
-0.137367 4.4705811 8.1855469 7
-0.080734 4.7939448 -4.9501948 7
-0.077537999 4.7720952 -4.952148 7
-0.075934999 4.75354 -4.9589839 7
-0.080711 4.748291 -4.984375 7
-0.069564998 4.7095952 -4.9628911 7
-0.067947 4.6757808 -4.9814448 7
-0.053596001 4.6307368 -4.9511719 7
-0.055183001 4.618896 -4.967773 7
-0.053589001 4.6004639 -4.9736328 7
-0.050384998 4.5786128 -4.9746089 7
-0.050377 4.5632319 -4.9863281 7
-0.058350001 4.564209 -5.0195308 7
-0.061516002 4.539917 -5.0498052 7
-0.063095003 4.5275879 -5.0664058 7
-0.061492998 4.5089111 -5.0722661 7
-0.064673997 4.4996338 -5.0917969 7
-0.254967 -4.4854741 -5.5439448 7
-0.26831099 -4.526123 -5.570312 7
-0.26672399 -4.5396729 -5.554688 7
-0.261787 -4.5467529 -5.530273 7
-0.261848 -4.5632319 -5.5195308 7
-0.26024601 -4.5762939 -5.5039058 7
-0.26362601 -4.598877 -5.5019531 7
-0.26534301 -4.6184082 -5.4960942 7
-0.25707999 -4.618896 -5.4619141 7
-0.25879699 -4.6384282 -5.4560552 7
-0.265495 -4.6671138 -5.4628911 7
-0.26056701 -4.6738281 -5.438477 7
-0.25898001 -4.6867681 -5.421875 7
-0.26402301 -4.7125239 -5.4248052 7
-0.27569601 -4.750977 -5.4443359 7
-0.28073901 -4.776855 -5.4472661 7
-0.27579501 -4.7833252 -5.422852 7
-0.36584499 -6.2984619 -4.4746089 7
-0.36090899 -6.2999272 -4.4482422 7
-0.35597199 -6.30127 -4.422852 7
-0.35437 -6.3109131 -4.4042969 7
-0.35443899 -6.3244629 -4.3886719 7
-0.35781899 -6.3466802 -4.3818359 7
-0.366211 -6.380981 -4.3847661 7
-0.36459401 -6.3905029 -4.3662109 7
-0.35633099 -6.3831792 -4.3330078 7
-0.095435999 -1.898193 8.7880859 7
-0.098801002 -1.883545 8.8037109 7
-0.098793 -1.866089 8.8085938 7
-0.097069003 -1.847046 8.8066406 7
-0.095375001 -1.828125 8.8056641 7
-0.092003003 -1.807983 8.7998047 7
-0.113838 -1.807861 8.875 7
-0.110443 -1.787354 8.8681641 7
-0.090271004 -1.754028 8.8066406 7
-0.086875997 -1.734253 8.7998047 7
-0.086860999 -1.716553 8.8037109 7
-0.088523999 -1.700439 8.8134766 7
-0.085152 -1.680176 8.8066406 7
-0.086806998 -1.664062 8.8154297 7
-0.098549001 -1.654907 8.8583984 7
-0.093506001 -1.6337889 8.8466797 7
-0.083388999 -1.608887 8.8164062 7
-0.070160002 0.97399902 8.9003906 7
-0.065086 0.98950201 8.8808594 7
-0.063377 1.006348 8.8730469 7
-0.05999 1.022583 8.859375 7
-0.059967 1.040283 8.8574219 7
-0.068320997 1.06189 8.8828115 7
-0.066597 1.078735 8.8740234 7
-0.063216999 1.094604 8.8603516 7
-0.068213999 1.114746 8.875 7
-0.068168998 1.132568 8.8720703 7
-0.071494997 1.151855 8.8808594 7
-0.074813999 1.171265 8.8886719 7
-0.071425997 1.187012 8.875 7
-0.076430999 1.20752 8.8886719 7
-0.076416001 1.22522 8.8867188 7
-0.074715003 1.242065 8.8789062 7
-0.076347001 1.260498 8.8808594 7
-0.074638002 1.277344 8.8720703 7
-0.26313001 -4.4882808 -5.1992192 7
-0.25629401 -4.4910889 -5.170898 7
-0.26152 -4.5162349 -5.1738281 7
-0.26328301 -4.5350342 -5.1679692 7
-0.265053 -4.5537109 -5.1621089 7
-0.261673 -4.5628662 -5.141602 7
-0.25830099 -4.5716548 -5.1220698 7
-0.25833899 -4.5870361 -5.1113281 7
-0.25841501 -4.6025391 -5.0996089 7
-0.25501999 -4.6114502 -5.0800781 7
-0.25679001 -4.630127 -5.0742192 7
-0.26200101 -4.6551509 -5.0761719 7
-0.260353 -4.6671138 -5.0605469 7
-0.26383999 -4.6890869 -5.0576172 7
-0.262169 -4.7009282 -5.0429692 7
-0.26223001 -4.7163091 -5.03125 7
-0.265724 -4.7380371 -5.0292969 7
-0.272652 -4.766602 -5.0361328 7
-0.27957901 -4.795166 -5.0429692 7
-0.098778002 -1.914673 8.5039062 7
-0.097015001 -1.896606 8.5029297 7
-0.097015001 -1.879639 8.5078115 7
-0.096984997 -1.862793 8.5126953 7
-0.095238 -1.844604 8.5117188 7
-0.10218 -1.833496 8.5371094 7
-0.100426 -1.815308 8.5361328 7
-0.103897 -1.801025 8.5517578 7
-0.103867 -1.784058 8.5556641 7
-0.088188 -1.755005 8.5117188 7
-0.086433001 -1.737061 8.5097656 7
-0.082932003 -1.7175291 8.5029297 7
-0.082915999 -1.700684 8.5068359 7
-0.082886003 -1.68396 8.5107422 7
-0.082878001 -1.667236 8.5146484 7
-0.098526001 -1.661621 8.5683594 7
-0.095031999 -1.642212 8.5615234 7
-0.079346001 -1.614014 8.515625 7
-0.255173 -4.487915 -4.8125 7
-0.26412201 -4.519043 -4.8242192 7
-0.26596099 -4.5371089 -4.8173828 7
-0.26601401 -4.5517578 -4.8066411 7
-0.26606801 -4.5664058 -4.796875 7
-0.27500901 -4.5977778 -4.8076172 7
-0.26617399 -4.5955811 -4.7744141 7
-0.262665 -4.6036382 -4.7548828 7
-0.26271099 -4.6182861 -4.7441411 7
-0.26276401 -4.6325679 -4.733398 7
-0.26636499 -4.6538091 -4.7314448 7
-0.26643401 -4.6682129 -4.719727 7
-0.26826501 -4.6862788 -4.7128911 7
-0.268318 -4.7008061 -4.702148 7
-0.26658601 -4.7115479 -4.686523 7
-0.26664001 -4.7259521 -4.6757808 7
-0.273819 -4.7541499 -4.6806641 7
-0.27387199 -4.7685552 -4.670898 7
-0.27569601 -4.786377 -4.664062 7
-0.36740899 -6.2939448 -3.515625 7
-0.378227 -6.3436279 -3.5068359 7
-0.37651101 -6.350708 -3.4873049 7
-0.371216 -6.348999 -3.4619141 7
-0.36771399 -6.35144 -3.4394529 7
-0.36777499 -6.362915 -3.425781 7
-0.36961401 -6.3787842 -3.4130859 7
-0.36788201 -6.3858638 -3.394531 7
-0.36615801 -6.3927002 -3.375977 7
-0.096832 -1.909058 8.2265615 7
-0.098618001 -1.8944089 8.2363281 7
-0.105797 -1.884155 8.2617188 7
-0.10218 -1.864868 8.2558594 7
-0.100365 -1.847046 8.2548828 7
-0.096763998 -1.828247 8.2480469 7
-0.112938 -1.8249511 8.3017578 7
-0.091324002 -1.791382 8.2402344 7
-0.103897 -1.785156 8.2832031 7
-0.100281 -1.765991 8.2763672 7
-0.094879001 -1.745728 8.2646484 7
-0.089478001 -1.725342 8.2529297 7
-0.091247998 -1.710449 8.2617188 7
-0.089438997 -1.692749 8.2607422 7
-0.087631002 -1.675415 8.2597656 7
-0.087608002 -1.65918 8.2636719 7
-0.100182 -1.651978 8.3056641 7
-0.087592997 -1.626709 8.2714844 7
-0.082153 -1.606445 8.2587891 7
-0.057312001 1.046631 8.3066406 7
-0.057266001 1.062744 8.3037109 7
-0.062583998 1.098022 8.3154297 7
-0.062560998 1.114502 8.3125 7
-0.062523 1.1307369 8.3095703 7
-0.057114001 1.144287 8.2910156 7
-0.060676999 1.1624759 8.2998047 7
-0.060646001 1.1787111 8.296875 7
-0.060600001 1.195068 8.2939453 7
-0.062378 1.21228 8.296875 7
-0.065917999 1.2468261 8.3027344 7
-0.069472998 1.265137 8.3105469 7
-0.065865003 1.279541 8.296875 7
-0.082245 -1.7471 10.196569 7
-0.092908002 4.2386498 9.1307688 7
-0.073259003 -1.820964 9.5692921 7
-0.052786998 1.028186 9.6079903 7
-0.061402999 1.275237 9.6286259 7
-0.083973996 4.2377868 8.3439217 7
-0.102474 -1.833096 8.9139118 7
-0.089947 -1.601159 8.9044819 7
-0.081208996 -1.85192 8.4045935 7
-0.071606003 -1.646144 8.419426 7
-0.066428997 -1.871869 7.9873128 7
-0.048152 -1.662991 7.9619508 7
-0.043361999 1.1535749 8.1107321 7
-0.10337 4.3291669 5.9617538 7
-0.098394997 4.388433 5.7724242 7
-0.079944998 -1.843822 7.545001 7
-0.075130999 -1.6841429 7.5936341 7
-0.060275 1.050014 7.7469358 7
-0.065416001 1.212608 7.7275319 7
-0.070565999 -1.862129 7.24929 7
-0.053644001 -1.686903 7.248877 7
-0.049281999 0.98023301 7.502089 7
-0.048836999 1.123579 7.458519 7
-0.056637999 1.27925 7.44661 7
-0.069724999 -1.893458 7.01194 7
-0.058177002 -1.739601 7.039721 7
-0.053459998 -1.8791161 6.7363839 7
-0.050399002 -1.756392 6.7986212 7
0.066692002 -1.2796921 -14.255479 7
0.070895001 -1.232615 -11.253266 7
-0.209655 -4.631237 -6.6856489 7
0.026881 -1.474839 -4.9258981 7
-0.183708 -4.5871949 -5.4214211 7
-0.30791301 -6.349587 -5.2934442 7
-0.026256001 0.75321001 11.290648 7
-0.043651 -1.429924 -4.1745839 7
-0.260212 -4.5649509 -4.4453182 7
-0.396772 -6.1909928 -4.3215432 7
-0.098823003 -1.639715 10.392138 7
-0.0088369995 -1.3863699 -3.4058199 7
-0.25229499 -4.5744581 -3.689934 7
-0.104375 -1.8759069 9.882638 7
0.010704 -1.3538899 -2.835012 7
-0.23984 -4.55967 -3.0044971 7
-0.065785997 -1.793077 9.2473583 7
-0.227156 -4.5347881 -2.3979709 7
-0.095105998 -1.724154 8.7287083 7
-0.086726002 -1.892349 8.3425341 7
-0.071714997 -1.671468 8.3248053 7
-0.070013002 -1.834637 8.0099039 7
-0.064652003 -1.633526 8.0355234 7
-0.056784999 -1.7848819 7.7232852 7
-0.007119 -1.437904 -1.115195 7
-0.077767998 -1.729756 7.4100261 7
-0.036733001 -1.410234 -0.84478498 7
-0.055913001 -1.5891761 -0.88512599 7
-0.071947001 -1.857946 7.1649628 7
-0.050864 -1.681595 7.1308851 7
-0.029817 -1.3901401 -0.64194 7
-0.049472 -1.560585 -0.68324202 7
-0.053608 -1.808985 6.9387012 7
-0.030498 -1.641273 6.8974342 7
-0.041786 -1.768488 6.751873 7
-0.0099099996 -1.35253 -0.26069501 7
-0.022557 -1.50319 -0.27571601 7
0.00093099999 -1.3355269 -0.087913997 7
-0.016789 -1.481189 -0.120242 7
-0.284363 -4.68153 1.621066 7
-0.293302 -4.7653818 1.7690769 7
-0.34715399 -5.0927382 3.952656 7
-0.34537601 -5.0530038 4.1222048 7
-0.27093101 -4.4999619 1.656996 7
-0.280577 -4.5972571 1.834774 7
-0.268713 -4.692246 2.3102951 7
-0.26999 -4.726584 2.4660561 7
-0.284024 -4.79283 2.616652 7
-0.316378 -4.859952 3.9120691 7
-0.314518 -4.8221478 4.0718842 7
-0.259076 -4.5396109 2.348716 7
-0.26218799 -4.57797 2.4968879 7
-0.27462599 -4.6373701 2.6421731 7
-0.268029 -4.6360192 2.797946 7
-0.291109 -4.7200618 3.2575331 7
-0.29540801 -4.7260599 3.413846 7
-0.293859 -4.7089648 3.5692489 7
-0.29975501 -4.7072802 3.7263861 7
-0.26697099 -4.5300069 3.2566521 7
-0.27917501 -4.558198 3.405988 7
-0.27165499 -4.5251708 3.552912 7
-0.27964801 -4.5297389 3.703054 7
-0.024087001 4.835815 -13.527987 7
-0.070396997 4.7590489 -4.8671269 7
-0.094463997 4.5303988 -5.2963262 7
-0.136491 0.68956101 11.370987 7
-0.12884399 4.2360692 9.0815125 7
-0.070970997 1.024104 9.8079433 7
-0.120798 4.2185421 8.517458 7
-0.105921 4.3662682 8.2724142 7
-0.080702998 1.01826 8.7539701 7
-0.086351998 1.248186 8.7370911 7
-0.043738 1.015661 8.020649 7
-0.045662999 1.21446 7.9931908 7
-0.072137997 1.013009 7.6961331 7
-0.074495003 1.198467 7.6748319 7
-0.135221 4.2614689 5.9269328 7
-0.054024 1.012189 7.4234219 7
-0.062885001 1.187345 7.4308228 7
-0.060702998 -1.039107 -10.557668 7
-0.400989 -4.3290319 -16.33774 7
-0.34658 -4.4285002 -12.860833 7
-0.249391 -4.5004182 -9.6424236 7
-0.033206001 4.5913048 -6.299859 7
-0.016093001 -1.296427 -6.5462689 7
-0.026377 -1.557897 -6.615202 7
-0.197384 -4.5598259 -7.631321 7
-0.090405002 4.6185021 -5.0899549 7
-0.101829 4.5122552 -5.3382678 7
-0.264429 -4.515368 -6.5422082 7
-0.243697 -4.626543 -6.2267599 7
-0.347056 -6.3454518 -6.1157961 7
-0.23598801 -4.5631518 -5.3826308 7
-0.32955199 -6.2377582 -4.873704 7
-0.036251999 -1.382346 -4.8040099 7
-0.043039002 -1.5589139 -4.8004789 7
-0.214853 -4.5527811 -4.4140739 7
-0.215848 -4.7184491 -4.2419729 7
-0.30940801 -6.3010712 -3.297996 7
-0.020238001 -1.37455 -4.3686099 7
-0.030865001 -1.545191 -4.3854189 7
-0.203959 -4.6518741 -3.421581 7
-0.046677001 -1.381202 -4.0412302 7
-0.054471999 -1.527711 -4.030704 7
-0.24384101 -4.6083078 -2.5068181 7
-0.242489 -4.6769242 -2.316541 7
-0.03063 -1.36549 -3.7247319 7
-0.043903001 -1.515357 -3.7387681 7
-0.02146 -1.336735 -3.489475 7
-0.020057 -1.432896 -3.4302061 7
-0.024796 -1.546101 -3.395488 7
-0.015243 -1.338374 -3.2795889 7
-0.0093989996 -1.280884 -2.852092 7
-0.0055249999 -1.34317 -2.78723 7
-0.020521 -1.459231 -2.78373 7
-0.022771999 -1.537457 -2.73242 7
-0.014193 -1.372207 -2.6861601 7
-0.010059 -1.426474 -2.618119 7
-0.02303 -1.531345 -2.599066 7
-0.0038040001 -1.281636 -2.584687 7
-0.031022999 -1.547479 -1.218617 7
-0.030937999 -1.553726 -1.137501 7
-0.027611 -1.545431 -1.072816 7
-0.027865 -1.545658 -1.007742 7
-0.021077 -1.521063 -0.94556201 7
-0.021384001 -1.516044 -0.88121301 7
-0.0041459999 -1.453804 -0.82914799 7
-0.010032 -1.42259 -1.273001 7
-0.010406 -1.431196 -1.213522 7
-0.0070830001 -1.426144 -1.153556 7
-0.0056469999 -1.424273 -1.093888 7
-0.016697001 -1.457357 -1.015835 7
-0.0043190001 -1.416666 -0.95962501 7
-0.0047619999 -1.412308 -0.899634 7
-0.0088419998 -1.416294 -0.83723998 7
-0.020214001 -1.357481 -1.266996 7
-0.024618 -1.37681 -1.210688 7
-0.019264 -1.366273 -1.153012 7
-0.019805999 -1.369971 -1.095612 7
-0.016438 -1.360198 -1.0388581 7
-0.010889 -1.34085 -0.96948397 7
-0.017281 -1.353223 -0.90971202 7
-0.014058 -1.3361109 -0.85462701 7
-0.01223 -1.292096 -1.2613111 7
-0.014836 -1.305699 -1.2075191 7
-0.011426 -1.3006361 -1.152817 7
-0.0080559999 -1.293367 -1.0986429 7
-0.010704 -1.300301 -1.043681 7
-0.0053320001 -1.282995 -0.99085701 7
-0.011737 -1.2939661 -0.92016101 7
