# .PCD v0.7 - Point Cloud Data file format
VERSION 0.7
FIELDS x y z intensity
SIZE 4 4 4 4
TYPE F F F F
COUNT 1 1 1 1
WIDTH 1119
HEIGHT 1
VIEWPOINT 0 0 0 1 0 0 0
POINTS 1119
DATA ascii
0.215042 -1.687012 -72.822266 7
0.25308201 -1.826538 -71.373047 7
0.28060201 4.9822998 -71.900391 7
0.120621 -1.7401119 -67.938477 7
0.19522101 -1.835327 -65.418945 7
0.18853 -2.1585691 -65.614258 7
0.17721599 5.15979 -67.274414 7
0.20503201 4.9272461 -66.330078 7
0.169807 4.8510742 -67.543945 7
0.32555401 1.450562 -62.253906 7
0.103325 -2.0089109 -60.979492 7
0.169029 -2.0882571 -58.998047 7
0.206047 -2.190186 -57.875977 7
0.191734 -2.34729 -58.291992 7
0.31949601 4.8104248 -55.383789 7
0.236176 4.8841548 -57.931641 7
0.24794801 4.714355 -57.582031 7
0.217041 4.6472168 -58.532227 7
0.31623101 1.298828 -55.577148 7
0.059951998 -2.1013179 -55.480469 7
0.114761 -2.1781011 -54.00293 7
0.151215 -2.2685549 -53.015625 7
0.109222 -2.446655 -54.126953 7
0.140221 -2.5394289 -53.285156 7
0.25870499 4.801147 -50.841797 7
0.224731 4.7593989 -51.774414 7
0.18515 4.7263179 -52.857422 7
0.24295799 4.4646001 -51.293945 7
0.206833 4.4199219 -52.28418 7
0.15010799 4.4154048 -53.834961 7
0.038017001 -2.1717529 -50.704102 7
0.091743 -2.237427 -49.388672 7
0.116554 -2.3295901 -48.775391 7
0.154884 -2.40271 -47.834961 7
0.092239 -2.5969241 -49.341797 7
-0.89899403 -2.947021 68.705078 7
0.198837 4.7154541 -47.357422 7
0.168663 4.669312 -48.107422 7
0.227043 4.4197998 -46.678711 7
0.18743899 4.3927002 -47.663086 7
0.150162 4.3557129 -48.587891 7
0.030471999 -2.3131101 -46.011719 7
0.076172002 -2.3742681 -45 7
0.106766 -2.447876 -44.316406 7
0.151436 -2.5010991 -43.323242 7
0.084305003 -2.6928711 -44.789062 7
0.11145 -2.7658689 -44.181641 7
0.149216 -2.821167 -43.339844 7
0.220222 4.6402588 -42.242188 7
0.18225101 4.624023 -43.09668 7
0.15681501 4.575562 -43.671875 7
0.212936 4.344604 -42.431641 7
0.17990901 4.311523 -43.174805 7
0.16415399 4.2385249 -43.535156 7
0.098976001 4.2648931 -44.995117 7
0.26452601 0.77355999 -41.415039 7
-0.0051040002 -2.485352 -43.051758 7
0.028069001 -2.551147 -42.368164 7
0.057799999 -2.618042 -41.754883 7
0.010124 -2.78125 -42.711914 7
0.026885999 -2.8630371 -42.360352 7
0.064087003 -2.915283 -41.59375 7
0.086654998 -2.984741 -41.125977 7
0.107773 -3.054199 -40.688477 7
0.139137 4.6542969 -40.47168 7
0.127174 4.5812988 -40.727539 7
0.104439 4.5307622 -41.203125 7
0.072898999 4.49646 -41.859375 7
0.111923 4.3123779 -41.066406 7
0.101364 4.2327881 -41.291992 7
0.07209 4.1894531 -41.902344 7
0.19580799 0.71337903 -39.145508 7
0.21571399 0.611206 -38.738281 7
0.200058 0.52014202 -39.054688 7
0.217682 0.42041001 -38.693359 7
-0.63645202 -2.793457 49.552734 7
-0.56569701 0.061035 48.489258 7
-0.59288001 0.17419399 48.957031 7
-0.55410802 0.283081 48.295898 7
0.113579 4.7539058 -37.18457 7
0.090515003 4.7139888 -37.625977 7
0.042801 4.6314702 -38.535156 7
0.031845 4.5596919 -38.75 7
0.187874 1.210083 -36.004883 7
0.183746 1.123413 -36.083008 7
0.18865199 1.03186 -35.992188 7
0.15712 0.95788598 -36.584961 7
0.156464 0.59704602 -36.597656 7
0.186882 0.49902299 -36.026367 7
0.201447 0.40710399 -35.75293 7
0.18328901 0.32177699 -36.092773 7
0.206238 0.22998001 -35.660156 7
-0.57104498 -2.8443601 45.063477 7
-0.604065 -2.773926 45.595703 7
-0.60832202 -2.6733401 45.670898 7
-0.51727301 0.154907 44.314453 7
-0.54656202 0.259399 44.782227 7
-0.50996399 0.357178 44.202148 7
0.104942 4.8275151 -34.276367 7
0.086014003 4.7857671 -34.612305 7
0.070785999 4.7341309 -34.884766 7
0.048156999 4.6976318 -35.285156 7
0.018784 4.6737061 -35.799805 7
0.042640999 4.53479 -35.399414 7
0.177635 1.20459 -33.269531 7
0.137016 1.0606689 -33.976562 7
0.149368 0.28417999 -33.542969 7
0.169991 0.199341 -33.186523 7
0.14565299 0.118896 -33.601562 7
0.165939 0.035521999 -33.250977 7
0.1577 -0.029053001 -30.673828 7
0.170151 -0.104614 -30.474609 7
0.150536 -0.182129 -30.78418 7
0.171082 -0.255981 -30.455078 7
-0.52334601 -2.672363 40.983398 7
-0.54119903 -2.5955811 41.25293 7
-0.56180602 -2.520386 41.561523 7
-0.48708299 0.329956 40.600586 7
-0.48535901 0.422607 40.577148 7
0.124176 4.8431401 -30.911133 7
0.104652 4.8114009 -31.229492 7
0.084389001 4.7799072 -31.558594 7
0.060081001 4.7558589 -31.952148 7
0.036850002 4.7275391 -32.327148 7
0.0070270002 4.7120361 -32.807617 7
0.070937999 4.4946289 -31.810547 7
0.191551 1.470825 -30.125 7
0.146744 1.197144 -30.844727 7
0.135254 1.126953 -31.029297 7
0.129051 0.047851998 -31.128906 7
0.143089 -0.039917 -28.625977 7
0.113556 -0.112671 -29.058594 7
0.13488799 -0.182861 -28.742188 7
0.14627101 -0.252808 -28.572266 7
0.14203601 -0.39550799 -28.628906 7
0.13474999 -0.468384 -28.733398 7
-0.48691601 -2.6480711 38.041992 7
-0.47439599 0.219116 37.978516 7
-0.47924 0.393188 38.047852 7
0.072044 5.0053711 -29.481445 7
0.091674998 4.8858638 -29.204102 7
0.075874001 4.8494868 -29.446289 7
0.061271999 4.809082 -29.670898 7
0.038795002 4.7852778 -30.010742 7
0.018669 4.7545171 -30.317383 7
0.156982 1.540161 -28.545898 7
0.13641401 1.483887 -28.851562 7
0.16473401 1.392334 -28.435547 7
0.14181501 1.336426 -28.777344 7
0.114799 -0.361206 -26.870117 7
0.139893 -0.42321801 -26.525391 7
0.105293 -0.497803 -26.99707 7
0.112892 -0.56335402 -26.890625 7
0.137115 -0.62304699 -26.556641 7
0.065971002 5.049561 -27.164062 7
0.090178996 4.924561 -26.848633 7
0.078231998 4.8851318 -27.021484 7
0.060745001 4.8574219 -27.269531 7
0.046234 4.8218989 -27.476562 7
0.027488999 4.7950439 -27.741211 7
0.013412 4.7564702 -27.942383 7
0.12863199 1.577637 -26.666992 7
0.15625 1.4906009 -26.291016 7
0.139999 1.436157 -26.515625 7
0.119499 1.383423 -26.799805 7
0.133911 1.307129 -26.603516 7
0.091751002 -0.475586 -25.182617 7
0.096244998 -0.53735399 -25.123047 7
0.011147 5.0948491 -25.898438 7
0.054848 4.9285889 -25.359375 7
0.047049999 4.88269 -25.46875 7
0.036086999 4.8435059 -25.617188 7
0.01873 4.8178711 -25.84668 7
0.00091599999 4.7919922 -26.082031 7
-0.0036770001 4.7364502 -26.150391 7
0.106354 1.614746 -25.068359 7
0.135941 1.529663 -24.692383 7
0.12265 1.4769289 -24.864258 7
0.12072 1.333374 -24.827148 7
0.093024999 -0.67456102 -23.263672 7
0.104805 -0.72888201 -23.123047 7
0.081421003 -0.79589802 -23.394531 7
0.085258 -0.85290498 -23.345703 7
0.094566002 -0.907471 -23.233398 7
0.048454002 5.0018311 -23.424805 7
0.039618999 4.9632568 -23.540039 7
0.018433001 4.8922119 -23.80957 7
-0.002693 4.879395 -24.067383 7
-0.014015 4.84375 -24.210938 7
0.122986 1.834229 -22.941406 7
0.118523 1.780273 -22.998047 7
0.129715 1.655151 -22.87207 7
0.11837 1.606079 -23.010742 7
0.101624 1.5606689 -23.211914 7
0.081359997 -0.85278302 -21.751953 7
0.034476999 4.976562 -21.863281 7
0.017105 4.960815 -22.0625 7
0.0092160003 4.9229741 -22.160156 7
-0.0029140001 4.8939209 -22.302734 7
-0.018692 4.872437 -22.486328 7
-0.014534 4.806519 -22.451172 7
0.10141 1.894287 -21.543945 7
0.100777 1.785522 -21.558594 7
0.107559 1.72522 -21.485352 7
0.099113002 1.6776119 -21.583008 7
0.084876999 1.634033 -21.744141 7
0.052276999 -0.91223103 -20.551758 7
0.071319997 -1.00708 -20.348633 7
0.025009001 5.036377 -20.361328 7
0.021049 4.993896 -20.414062 7
0.016533 4.9520259 -20.47168 7
0.0075300001 4.9205322 -20.573242 7
-0.0026090001 4.8907471 -20.686523 7
-0.020042 4.8768311 -20.874023 7
-0.025703 4.83606 -20.942383 7
0.098373003 1.875977 -20.070312 7
0.086539999 1.835205 -20.196289 7
0.080315001 1.789185 -20.263672 7
0.094322003 1.725952 -20.124023 7
0.086966999 1.68042 -20.202148 7
0.073996998 1.639038 -20.339844 7
0.030624 -0.96472198 -19.439453 7
0.039558001 -1.009766 -19.349609 7
0.043685999 -1.0567631 -19.306641 7
0.026733 -1.114502 -19.466797 7
0.026039001 -1.164307 -19.469727 7
0.028343 -1.212402 -19.444336 7
0.034874 -1.25769 -19.376953 7
0.071144 1.883301 -19.025391 7
0.061569002 1.84314 -19.123047 7
0.062706001 1.793213 -19.115234 7
0.072844997 1.736084 -19.021484 7
0.072800003 1.6875 -19.025391 7
0.058417998 1.649902 -19.167969 7
0.021423001 -1.002075 -18.240234 7
0.032883 -1.042969 -18.132812 7
0.039818 -1.0855711 -18.066406 7
0.023087 -1.140503 -18.21582 7
0.01915 -1.188965 -18.24707 7
0.021614 -1.234131 -18.22168 7
0.024094 -1.279053 -18.194336 7
-0.158783 -4.2235112 -19.416016 7
-0.14861301 -4.2537842 -19.31543 7
-0.144234 -4.2946782 -19.264648 7
-0.143051 -4.341187 -19.243164 7
-0.147644 -4.39856 -19.273438 7
-0.163826 -4.4781489 -19.405273 7
0.0068819998 -0.99658197 -17.270508 7
0.014938 -1.0369869 -17.197266 7
0.018242 -1.0793459 -17.166016 7
0.0059509999 -1.129395 -17.268555 7
-0.005684 -1.1800539 -17.364258 7
-0.0023650001 -1.2225339 -17.332031 7
0.0077209999 -1.260986 -17.242188 7
-0.18401299 -4.1723628 -18.44043 7
-0.178673 -4.2095952 -18.385742 7
-0.174713 -4.2492681 -18.341797 7
-0.17208099 -4.290894 -18.308594 7
-0.169487 -4.33252 -18.275391 7
-0.175034 -4.3892822 -18.310547 7
-0.166954 -4.4205322 -18.232422 7
-0.033592001 5.0986328 -16.993164 7
-0.014091 5.010376 -16.841797 7
-0.020835999 4.9820561 -16.90918 7
-0.028922999 4.956665 -16.989258 7
-0.032303002 4.9204102 -17.029297 7
-0.043777 4.9016109 -17.135742 7
-0.058600999 4.889771 -17.271484 7
0.058814999 1.591553 -16.796875 7
0.065528996 1.543457 -16.742188 7
0.060104001 1.50415 -16.791992 7
0.045921002 1.470459 -16.917969 7
0.052620001 1.422485 -16.863281 7
0.066071004 1.3701169 -16.750977 7
0.071419001 1.323486 -16.707031 7
0.021217 -0.97485399 -16.086914 7
0.0089260004 -1.021973 -16.183594 7
0.01387 -1.061157 -16.139648 7
0.018805999 -1.0999759 -16.095703 7
0.021599 -1.1398931 -16.070312 7
-0.002197 -1.1943361 -16.257812 7
0.002754 -1.2331541 -16.214844 7
0.005539 -1.273193 -16.188477 7
-0.182289 -4.1958008 -17.236328 7
-0.184563 -4.2436519 -17.242188 7
-0.180336 -4.2797852 -17.198242 7
-0.176109 -4.31604 -17.154297 7
-0.174042 -4.355957 -17.12793 7
-0.17703199 -4.4051509 -17.139648 7
-0.185783 -4.4654541 -17.196289 7
-0.049263 4.963623 -16.019531 7
-0.059264999 4.9442139 -16.109375 7
-0.059280001 4.9025879 -16.121094 7
-0.060013 4.8625488 -16.138672 7
0.067222998 1.25 -15.696289 7
0.075057998 1.204712 -15.635742 7
0.058594 1.1730959 -15.771484 7
0.054985002 1.134277 -15.803711 7
0.065651 1.087891 -15.71875 7
0.076355003 1.04187 -15.634766 7
0.084167004 0.99768102 -15.573242 7
0.017937001 -0.96130401 -15.146484 7
0.013321 -1.002686 -15.178711 7
0.001755 -1.086792 -15.260742 7
0.01461 -1.119629 -15.160156 7
0.011482 -1.1604 -15.180664 7
-0.00081599999 -1.24585 -15.266602 7
-0.191696 -4.2302251 -16.219727 7
-0.198631 -4.2844238 -16.260742 7
-0.192635 -4.315186 -16.205078 7
-0.192055 -4.3969731 -16.179688 7
-0.19825 -4.4500728 -16.213867 7
0.054581001 0.95581102 -14.856445 7
0.061301999 0.87560999 -14.807617 7
0.061271999 0.83703601 -14.80957 7
0.058219999 0.79956102 -14.834961 7
0.066459998 0.71935999 -14.775391 7
0.073242001 0.67858899 -14.723633 7
0.078483999 0.63854998 -14.68457 7
0.081428997 0.561279 -14.664062 7
0.018921001 -0.98168898 -14.222656 7
0.01403 -1.020874 -14.254883 7
0.0035250001 -1.062988 -14.328125 7
0.015511 -1.094238 -14.239258 7
0.015427 -1.1312259 -14.236328 7
0.016953001 -1.167358 -14.22168 7
0.001617 -1.212769 -14.329102 7
-0.0024639999 -1.252319 -14.355469 7
0.0022809999 -1.286743 -14.317383 7
0.00059499999 -1.3249511 -14.325195 7
0.000504 -1.362061 -14.321289 7
-0.010811 -1.406494 -14.398438 7
-0.193451 -4.1965332 -15.211914 7
-0.204834 -4.2558589 -15.28125 7
-0.20571899 -4.296875 -15.277344 7
-0.19855499 -4.3232422 -15.21582 7
-0.194618 -4.35498 -15.177734 7
-0.19472501 -4.3942871 -15.166016 7
-0.191597 -4.4274902 -15.133789 7
-0.054816999 5.1031489 -13.969727 7
-0.051635999 5.0592041 -13.959961 7
-0.034874 4.9849849 -13.856445 7
-0.020508001 4.9165039 -13.768555 7
-0.019707 4.8787842 -13.775391 7
-0.017318999 4.8374019 -13.769531 7
-0.018928999 4.804688 -13.792969 7
-0.034111001 4.80127 -13.90918 7
0.063346997 0.607544 -13.898438 7
0.062514998 0.571289 -13.905273 7
0.060089 0.53552198 -13.923828 7
0.064034 0.498169 -13.895508 7
0.069587998 0.46044901 -13.855469 7
0.075172 0.42297399 -13.816406 7
0.078322999 0.38635299 -13.793945 7
0.078293003 0.349976 -13.794922 7
-0.195686 -4.175415 -14.341797 7
-0.203392 -4.2261958 -14.382812 7
-0.21111301 -4.2772222 -14.422852 7
-0.21035799 -4.3129878 -14.407227 7
-0.20620701 -4.3426509 -14.368164 7
-0.20629901 -4.3798828 -14.357422 7
-0.204697 -4.4143071 -14.335938 7
-0.201401 -4.4449458 -14.302734 7
-0.032127 4.9335942 -12.994141 7
-0.028763 4.8919678 -12.983398 7
-0.032990001 4.8668208 -13.022461 7
-0.036346 4.8398442 -13.056641 7
-0.038864002 4.810791 -13.083984 7
-0.038887002 4.7762451 -13.094727 7
0.052032001 -0.341187 -12.460938 7
0.052878998 -0.374268 -12.454102 7
0.045761 -0.408447 -12.499023 7
0.039528001 -0.442871 -12.538086 7
0.035057001 -0.477173 -12.56543 7
0.039452001 -0.509399 -12.536133 7
0.044723999 -0.54126 -12.5 7
0.045577999 -0.57409698 -12.493164 7
0.040222 -0.60888702 -12.526367 7
0.0030749999 -0.99218798 -12.791016 7
0.002136 -1.026245 -12.794922 7
0.000145 -1.127808 -12.797852 7
0.00096099998 -1.1611331 -12.789062 7
0.0026779999 -1.193848 -12.775391 7
-0.207184 -4.162231 -13.578125 7
-0.20636 -4.1962891 -13.5625 7
-0.21179999 -4.2409668 -13.585938 7
-0.221687 -4.2940669 -13.637695 7
-0.22444899 -4.334229 -13.644531 7
-0.22007 -4.361938 -13.605469 7
-0.214828 -4.3876948 -13.561523 7
-0.21402 -4.4212651 -13.544922 7
-0.208755 -4.4468989 -13.500977 7
-0.070343003 4.7987061 -12.492188 7
-0.067703001 4.7598882 -12.486328 7
-0.069481 4.7307129 -12.508789 7
0.03215 -0.64843798 -11.958984 7
0.032104 -0.68005401 -11.958008 7
0.019928001 -0.71557599 -12.03125 7
0.011475 -0.75024402 -12.081055 7
0.018874999 -0.779419 -12.033203 7
0.02533 -0.80883801 -11.991211 7
0.025269 -0.84045398 -11.989258 7
0.025192 -0.87231398 -11.986328 7
0.030724 -0.90161097 -11.950195 7
-0.001938 -0.94726598 -12.149414 7
-0.21440899 -4.4143071 -12.777344 7
-0.208878 -4.4371338 -12.734375 7
-0.211769 -4.4758301 -12.739258 7
0.021751 -0.64929199 -11.358398 7
0.017769 -0.680664 -11.379883 7
0.017708 -0.71093798 -11.37793 7
0.01178 -0.74328601 -11.411133 7
0.0058439998 -0.775635 -11.444336 7
0.014595 -0.80273402 -11.389648 7
0.020416001 -0.830688 -11.353516 7
0.022315999 -0.860107 -11.339844 7
0.023224 -0.88977098 -11.331055 7
0.012398 -0.924438 -11.392578 7
0.00058699999 -0.96008301 -11.459961 7
0.005417 -0.98803699 -11.427734 7
0.010254 -1.016235 -11.397461 7
0.011177 -1.045898 -11.388672 7
0.0071950001 -1.078125 -11.40918 7
0.0032269999 -1.110474 -11.429688 7
-0.01152 -1.148438 -11.513672 7
-0.001793 -1.17395 -11.453125 7
-0.001862 -1.204224 -11.450195 7
-0.0048600002 -1.2362061 -11.464844 7
-0.0068740002 -1.267944 -11.472656 7
-0.013908 -1.363403 -11.504883 7
-0.015991 -1.425781 -11.508789 7
-0.0041809999 -0.91894501 -10.913086 7
-0.00116 -0.94665498 -10.894531 7
0.0069579999 -0.97216803 -10.845703 7
0.0068970001 -1.001099 -10.84375 7
0.0099179996 -1.028564 -10.823242 7
-0.00038899999 -1.0625 -10.87793 7
-0.015778 -1.099365 -10.961914 7
-0.0097120004 -1.125366 -10.924805 7
-0.005684 -1.152222 -10.898438 7
-0.0057370001 -1.181396 -10.896484 7
-0.006813 -1.21106 -10.899414 7
-0.0089260004 -1.241333 -10.908203 7
-0.013092 -1.272705 -10.926758 7
-0.036063999 4.7819819 -10.152344 7
-0.034012001 4.75 -10.15332 7
-0.038100999 4.730957 -10.185547 7
-0.002663 -0.98425299 -10.299805 7
-0.001648 -1.011353 -10.291016 7
-0.010307 -1.043213 -10.334961 7
-0.002838 -1.067261 -10.291992 7
0.00248 -1.092163 -10.260742 7
0.00028199999 -1.120972 -10.269531 7
-0.001923 -1.149658 -10.279297 7
-0.012718 -1.183105 -10.333008 7
-0.0063399998 -1.207275 -10.295898 7
-0.0053249998 -1.234375 -10.287109 7
-0.01075 -1.265137 -10.3125 7
-0.038070999 4.788208 -9.4970703 7
-0.041267 4.7689209 -9.5244141 7
-0.042343002 4.7449951 -9.5410156 7
-0.043411002 4.721436 -9.5566406 7
-0.04126 4.6905522 -9.5585938 7
-0.047690999 4.677979 -9.5996094 7
-0.046394002 4.770752 -8.9794922 7
-0.047485001 4.7484131 -8.9970703 7
-0.047501002 4.7236328 -9.0078115 7
-0.046379 4.6962891 -9.0136719 7
-0.047485001 4.6739502 -9.0302734 7
-0.050827 4.6560059 -9.0566406 7
-0.060867 4.651855 -9.1152344 7
-0.068695001 4.6428218 -9.1630859 7
-0.067557998 4.615356 -9.1689453 7
-0.056396 4.5672612 -9.1269531 7
-0.053055 4.535522 -9.1220703 7
-0.053040002 4.510376 -9.1328115 7
-0.053070001 4.485229 -9.1425781 7
-0.015876999 -1.2869869 -9.3310547 7
-0.013588 -1.311035 -9.3164062 7
-0.030029001 -1.346069 -9.3925781 7
-0.030083001 -1.371704 -9.3886719 7
-0.026611 -1.39502 -9.3691406 7
-0.025497001 -1.419678 -9.3603516 7
-0.029083 -1.44751 -9.3730469 7
-0.027961999 -1.47229 -9.3642578 7
-0.031502001 -1.500122 -9.3779297 7
-0.042091001 -1.532715 -9.4257812 7
-0.044495001 -1.560059 -9.4326172 7
-0.044539999 -1.5855711 -9.4296885 7
-0.021423001 -1.284668 -8.9003906 7
-0.021477001 -1.30896 -8.8964844 7
-0.019081 -1.3319089 -8.8828115 7
-0.026443001 -1.360718 -8.9130859 7
-0.028945999 -1.386719 -8.9208984 7
-0.031417999 -1.412598 -8.9296885 7
-0.031463999 -1.437134 -8.9257812 7
-0.029129 -1.484253 -8.9082031 7
-0.034065001 -1.511963 -8.9267578 7
-0.0032200001 -1.285767 -8.3496094 7
-0.0057979999 -1.310303 -8.3574219 7
-0.013496 -1.338135 -8.3886719 7
-0.019905001 -1.365234 -8.4140615 7
-0.027611 -1.393188 -8.4443359 7
-0.017479001 -1.409912 -8.3955078 7
-0.012421 -1.429932 -8.3701172 7
-0.018844999 -1.457153 -8.3935547 7
-0.021438999 -1.482056 -8.4023438 7
-0.020233 -1.504272 -8.3925781 7
-0.031738002 -1.535278 -8.4394531 7
-0.035606001 -1.561401 -8.453125 7
-0.036934 -1.5855711 -8.4550781 7
-0.236046 -4.487915 -8.4638672 7
-0.230988 -4.5018311 -8.4335938 7
-0.236176 -4.5344238 -8.4423828 7
-0.232384 -4.5506592 -8.4169922 7
-0.233734 -4.5762939 -8.4101562 7
-0.236359 -4.604248 -8.4101562 7
-0.24151599 -4.637207 -8.4208984 7
-0.246704 -4.6702881 -8.4296885 7
-0.249336 -4.6983638 -8.4296885 7
-0.24939001 -4.7216802 -8.4189453 7
-0.257126 -4.7598882 -8.4375 7
-0.25079301 -4.7706299 -8.4013672 7
-0.018355999 -1.286377 -8.0126953 7
-0.018409999 -1.308594 -8.0097656 7
-0.018463001 -1.330933 -8.0068359 7
-0.027771 -1.358765 -8.0419922 7
-0.035774 -1.386108 -8.0732422 7
-0.046432 -1.415527 -8.1142578 7
-0.034545999 -1.430298 -8.0605469 7
-0.029297 -1.448975 -8.0341797 7
-0.031998001 -1.473145 -8.0419922 7
-0.032042999 -1.495483 -8.0390615 7
-0.036063999 -1.5205081 -8.0527344 7
-0.049392998 -1.552002 -8.1035156 7
-0.056061 -1.579224 -8.1279297 7
-0.25276899 -4.625 -7.9892578 7
-0.25814801 -4.6573491 -7.9980469 7
-0.257294 -4.4832759 -7.5957031 7
-0.255981 -4.5018311 -7.579102 7
-0.24497201 -4.502686 -7.5273442 7
-0.245033 -4.5238042 -7.516602 7
-0.24507099 -4.5449219 -7.5068359 7
-0.249275 -4.573853 -7.5107422 7
-0.25212899 -4.6000981 -7.5097661 7
-0.25079301 -4.6184082 -7.4941411 7
-0.26053599 -4.657959 -7.5195308 7
-0.26059699 -4.6789551 -7.5087891 7
-0.26343501 -4.7053218 -7.5068359 7
-0.26349601 -4.72644 -7.4960942 7
-0.264938 -4.7502441 -7.4892578 7
-0.26776901 -4.7767329 -7.4882808 7
-0.267822 -4.7974849 -7.476562 7
-0.25839201 -4.4963379 -7.1601558 7
-0.25700399 -4.5140381 -7.1435552 7
-0.252747 -4.526123 -7.1181641 7
-0.254242 -4.5489502 -7.1123052 7
-0.251434 -4.5637212 -7.0917969 7
-0.25292999 -4.5865479 -7.085938 7
-0.251564 -4.6037598 -7.0693359 7
-0.25591999 -4.6320801 -7.0732422 7
-0.25453901 -4.6494141 -7.0576172 7
-0.26036099 -4.6801758 -7.0654302 7
-0.264709 -4.7087402 -7.070312 7
-0.273415 -4.7453609 -7.0878911 7
-0.27346 -4.7653809 -7.077148 7
-0.279259 -4.7965088 -7.085938 7
-0.062935002 4.778687 -6.0966802 7
-0.050094999 4.7336431 -6.0644531 7
-0.041533999 4.6976318 -6.046875 7
-0.048652999 4.6948242 -6.0820308 7
-0.047210999 4.6739502 -6.0878911 7
-0.047194999 4.6558838 -6.0996089 7
-0.044349998 4.6322021 -6.1005859 7
-0.047180001 4.6199951 -6.1210942 7
-0.048599001 4.60498 -6.1376948 7
-0.047173001 4.584106 -6.1425781 7
-0.054283001 4.5805659 -6.1787109 7
-0.061393999 4.5770259 -6.2138672 7
-0.065681003 4.5675049 -6.2402339 7
-0.069939002 4.5577388 -6.265625 7
-0.058533002 4.516602 -6.2363281 7
-0.057098001 4.4954829 -6.242188 7
-0.26145199 -4.4985352 -6.7392578 7
-0.26001 -4.5148931 -6.7246089 7
-0.263069 -4.5395508 -6.7226558 7
-0.26011699 -4.5533452 -6.702148 7
-0.257195 -4.566895 -6.6826172 7
-0.26172599 -4.5943599 -6.6855469 7
-0.26626599 -4.6219478 -6.6904302 7
-0.25738499 -4.624023 -6.6474609 7
-0.26043701 -4.6488042 -6.6464839 7
-0.26942399 -4.684937 -6.6660161 7
-0.26799801 -4.7010498 -6.6494141 7
-0.27848801 -4.7401118 -6.672852 7
-0.28153199 -4.7648931 -6.671875 7
-0.284576 -4.7897949 -6.6689448 7
-0.375092 -6.195312 -6.0751948 7
-0.38114199 -6.2275391 -6.077148 7
-0.37970701 -6.2415771 -6.0585942 7
-0.38574201 -6.2738042 -6.061523 7
-0.37834901 -6.2730708 -6.0244141 7
-0.37542701 -6.2832031 -6 7
-0.37847099 -6.3079829 -5.9941411 7
-0.36956 -6.3033452 -5.953125 7
-0.35766599 -6.2910161 -5.9033198 7
-0.36370799 -6.3233638 -5.905273 7
-0.36228201 -6.3369141 -5.8857422 7
-0.378777 -6.39502 -5.9189448 7
-0.37285599 -6.3974609 -5.8867192 7
-0.111427 -1.90564 9.7958984 7
-0.117462 -1.890747 9.8232422 7
-0.118942 -1.87207 9.8320312 7
-0.111374 -1.845947 9.8095703 7
-0.124962 -1.836792 9.8642578 7
-0.115868 -1.809692 9.8349609 7
-0.102249 -1.779297 9.7890615 7
-0.097678997 -1.755859 9.7763672 7
-0.099182002 -1.737183 9.7861328 7
-0.103722 -1.720825 9.8076172 7
-0.10067 -1.698608 9.8007812 7
-0.100647 -1.678833 9.8046885 7
-0.109688 -1.665405 9.8417969 7
-0.108154 -1.6444089 9.8408203 7
-0.097548999 -1.616943 9.8056641 7
-0.146805 4.1968989 9.1240234 7
-0.13470501 4.1932368 9.0732422 7
-0.119598 4.184082 9.0146484 7
-0.122559 4.2076421 9.0136719 7
-0.121017 4.2228999 9 7
-0.11795 4.2351069 8.9794922 7
-0.117905 4.2530522 8.9697266 7
-0.116348 4.268188 8.9541016 7
-0.120804 4.294312 8.9589844 7
-0.11322 4.2980962 8.9238281 7
-0.111679 4.3129878 8.9091797 7
-0.125175 4.3563228 8.9433594 7
-0.125145 4.3742681 8.9335938 7
-0.13713101 4.4147949 8.9628906 7
-0.146111 4.4500728 8.9814453 7
-0.13853499 4.4534912 8.9462891 7
-0.059319001 4.7529302 -5.6767578 7
-0.054862998 4.726562 -5.6748052 7
-0.045981999 4.690918 -5.657227 7
-0.047485001 4.6772461 -5.672852 7
-0.045990001 4.657104 -5.679688 7
-0.051902998 4.6524658 -5.7099609 7
-0.051888 4.635498 -5.7207031 7
-0.048912 4.6124272 -5.7216802 7
-0.05336 4.6043701 -5.7470698 7
-0.056313001 4.5933838 -5.766602 7
-0.057776999 4.5792241 -5.7832031 7
-0.065177999 4.577148 -5.8173828 7
-0.065169998 4.559937 -5.828125 7
-0.066657998 4.5455322 -5.842773 7
-0.065140001 4.5253911 -5.8496089 7
-0.059234999 4.4960942 -5.8398442 7
-0.066628002 4.4935298 -5.875 7
-0.26442 -4.4899902 -6.3720698 7
-0.26447299 -4.5084229 -6.3613281 7
-0.26607499 -4.5296631 -6.3554692 7
-0.26458699 -4.545166 -6.3398442 7
-0.26155099 -4.5577388 -6.320312 7
-0.260086 -4.5727539 -6.3027339 7
-0.26013201 -4.591187 -6.2919922 7
-0.261742 -4.6121831 -6.2861328 7
-0.26486999 -4.63623 -6.2841802 7
-0.261841 -4.648438 -6.264648 7
-0.260353 -4.6636958 -6.2480469 7
-0.26658601 -4.693604 -6.2558589 7
-0.27279699 -4.7233891 -6.264648 7
-0.280563 -4.7565918 -6.2783198 7
-0.280624 -4.7746582 -6.266602 7
-0.27913699 -4.7900391 -6.250977 7
-0.36094701 -6.3189702 -5.4277339 7
-0.36102301 -6.3349609 -5.4130859 7
-0.368797 -6.3704829 -5.4189448 7
-0.364227 -6.375 -5.390625 7
-0.367378 -6.3986821 -5.3837891 7
-0.10038 -1.905884 9.4462891 7
-0.112854 -1.897095 9.4941406 7
-0.106583 -1.872925 9.4765615 7
-0.109688 -1.856079 9.4921885 7
-0.112816 -1.8396 9.5078115 7
-0.115921 -1.822998 9.5224609 7
-0.103394 -1.793945 9.4833984 7
-0.097130001 -1.769897 9.4648438 7
-0.089286998 -1.744995 9.4423828 7
-0.098640002 -1.733032 9.4785156 7
-0.098647997 -1.7138669 9.4833984 7
-0.095496997 -1.692261 9.4765615 7
-0.101715 -1.677856 9.5019531 7
-0.10482 -1.661011 9.5175781 7
-0.095427997 -1.63501 9.4882812 7
-0.101646 -1.620239 9.5136719 7
-0.140457 4.1601558 8.7666016 7
-0.14974999 4.194458 8.7861328 7
-0.137245 4.1893311 8.7363281 7
-0.123192 4.1812739 8.6816406 7
-0.118477 4.1899409 8.6582031 7
-0.115318 4.201416 8.6376953 7
-0.112144 4.212769 8.6191406 7
-0.113647 4.2325439 8.6123047 7
-0.115158 4.2524409 8.6074219 7
-0.115128 4.2696528 8.5986328 7
-0.11351 4.2836909 8.5839844 7
-0.113472 4.3005371 8.5742188 7
-0.107201 4.3057861 8.5439453 7
-0.108704 4.325562 8.5380859 7
-0.113319 4.3513179 8.5429688 7
-0.12262 4.3857422 8.5615234 7
-0.139671 4.4354248 8.6035156 7
-0.139633 4.4525151 8.59375 7
-0.139595 4.4694819 8.5839844 7
-0.063835002 4.7694092 -5.3105469 7
-0.051559001 4.727417 -5.2851558 7
-0.050018001 4.708252 -5.2919922 7
-0.042366002 4.676147 -5.2783198 7
-0.040824998 4.6568599 -5.2851558 7
-0.042335998 4.644165 -5.3017578 7
-0.045387 4.634521 -5.3212891 7
-0.048447002 4.6247559 -5.3417969 7
-0.048439 4.608521 -5.3525391 7
-0.046882998 4.5892329 -5.359375 7
-0.049934 4.5792241 -5.3789058 7
-0.049927 4.5631099 -5.389648 7
-0.051453002 4.5498052 -5.40625 7
-0.057571001 4.546021 -5.4345698 7
-0.068297997 4.5515141 -5.4785161 7
-0.074409001 4.5471191 -5.5087891 7
-0.063683003 4.5090332 -5.485352 7
-0.063666999 4.4925542 -5.4970698 7
-0.26681501 -4.5263672 -5.9462891 7
-0.262077 -4.53479 -5.9199219 7
-0.26052099 -4.5489502 -5.905273 7
-0.25740799 -4.5775151 -5.874023 7
-0.265549 -4.6269531 -5.875 7
-0.26082599 -4.6522222 -5.8398442 7
-0.26089501 -4.669189 -5.828125 7
-0.265755 -4.6956792 -5.8310552 7
-0.278671 -4.7545171 -5.8457031 7
-0.35655999 -6.1209722 -5.0908198 7
-0.36469999 -6.171021 -5.0820308 7
-0.363152 -6.182373 -5.0625 7
-0.368027 -6.2093511 -5.0605469 7
-0.36815599 -6.2397461 -5.030273 7
-0.37468699 -6.2860112 -5.0175781 7
-0.363556 -6.2884521 -4.9599609 7
-0.36360899 -6.3034668 -4.945312 7
-0.36687499 -6.3265381 -4.9375 7
-0.36539501 -6.352417 -4.9033198 7
-0.367111 -6.3861079 -4.8769531 7
-0.096763998 -1.919678 9.0976562 7
-0.104836 -1.890015 9.1347656 7
-0.099936999 -1.849365 9.1269531 7
-0.111282 -1.840332 9.1699219 7
-0.111252 -1.822021 9.1738281 7
-0.093399003 -1.771118 9.1230469 7
-0.091759004 -1.751709 9.1220703 7
-0.090111002 -1.732056 9.1201172 7
-0.081978001 -1.689575 9.1015615 7
-0.093307003 -1.679932 9.1435547 7
-0.094916999 -1.662598 9.1533203 7
-0.080283999 -1.615479 9.1113281 7
-0.071167 0.97595203 9.2021484 7
-0.064650998 0.99145502 9.1777344 7
-0.067855999 1.01123 9.1865234 7
-0.061324999 1.045166 9.1601562 7
-0.083945997 1.092773 9.2324219 7
-0.080642998 1.1281739 9.2167969 7
-0.080605 1.146606 9.2138672 7
-0.072463997 1.160767 9.1826172 7
-0.077271 1.200195 9.1943359 7
-0.085297003 1.241333 9.2167969 7
-0.085220002 1.278442 9.2109385 7
-0.14177699 4.1835942 8.3789062 7
-0.14172401 4.2000728 8.3691406 7
-0.123901 4.1843262 8.3056641 7
-0.109276 4.190186 8.2421885 7
-0.107574 4.219604 8.21875 7
-0.107483 4.2518311 8.1992188 7
-0.109047 4.2706299 8.1933594 7
-0.109009 4.2867432 8.1835938 7
-0.102455 4.306396 8.1435547 7
-0.112045 4.356689 8.1513672 7
-0.132935 4.4285889 8.1923828 7
-0.131271 4.4414058 8.1777344 7
-0.13767999 4.4699712 8.1855469 7
-0.26451099 -4.49646 -5.5625 7
-0.26457199 -4.512939 -5.5517578 7
-0.27293399 -4.5445561 -5.563477 7
-0.26966101 -4.5549321 -5.5439448 7
-0.26639599 -4.565186 -5.523438 7
-0.26145199 -4.572144 -5.499023 7
-0.26150501 -4.588501 -5.4882808 7
-0.26486999 -4.6109619 -5.4873052 7
-0.26492301 -4.6273189 -5.4755859 7
-0.26663199 -4.646606 -5.469727 7
-0.26335901 -4.6567378 -5.4492192 7
-0.263428 -4.672729 -5.4375 7
-0.266785 -4.695312 -5.436523 7
-0.26352701 -4.7050781 -5.4150391 7
-0.27353701 -4.740479 -5.4326172 7
-0.28024301 -4.7694092 -5.4394531 7
-0.27864099 -4.782227 -5.422852 7
-0.36991099 -6.301147 -4.4794922 7
-0.36996499 -6.315063 -4.4638672 7
-0.36335799 -6.3123779 -4.4345698 7
-0.36006901 -6.3181152 -4.4121089 7
-0.36844599 -6.3525391 -4.4160161 7
-0.36851501 -6.3662109 -4.4013672 7
-0.3619 -6.3632808 -4.3710942 7
-0.36695901 -6.3892822 -4.3662109 7
-0.095542997 -1.915527 8.7832031 7
-0.098907001 -1.901001 8.7998047 7
-0.100578 -1.884644 8.8095703 7
-0.098869003 -1.865845 8.8085938 7
-0.098862 -1.848511 8.8125 7
-0.102211 -1.833496 8.828125 7
-0.107239 -1.8199461 8.8486328 7
-0.102165 -1.79834 8.8359385 7
-0.095435999 -1.775635 8.8193359 7
-0.095412999 -1.757935 8.8232422 7
-0.086989999 -1.734009 8.7998047 7
-0.086975001 -1.716553 8.8037109 7
-0.085281 -1.697754 8.8027344 7
-0.086952001 -1.681519 8.8125 7
-0.090317003 -1.66626 8.828125 7
-0.086937003 -1.6463619 8.8212891 7
-0.090263002 -1.631104 8.8359385 7
-0.086883999 -1.611328 8.828125 7
-0.070777997 0.974365 8.8994141 7
-0.062346999 0.98828101 8.8691406 7
-0.062325001 1.005981 8.8671885 7
-0.063965 1.024536 8.8701172 7
-0.065636002 1.042847 8.8740234 7
-0.058890998 1.057373 8.8505859 7
-0.060539 1.075684 8.8535156 7
-0.062180001 1.094116 8.8564453 7
-0.068855003 1.11499 8.8759766 7
-0.072189003 1.134521 8.8837891 7
-0.073836997 1.152832 8.8867188 7
-0.075484999 1.171509 8.8896484 7
-0.073775999 1.188354 8.8818359 7
-0.070389003 1.204224 8.8681641 7
-0.075393997 1.224365 8.8818359 7
-0.080375999 1.244995 8.8945312 7
-0.070297003 1.25708 8.859375 7
-0.073601 1.276611 8.8671885 7
-0.13739 4.174561 8.0058594 7
-0.264191 -4.4997559 -5.1855469 7
-0.259087 -4.5056152 -5.1601558 7
-0.27118701 -4.543457 -5.1816411 7
-0.27122501 -4.559082 -5.170898 7
-0.27300999 -4.5777588 -5.164062 7
-0.26445001 -4.577148 -5.1308589 7
-0.262779 -4.5892329 -5.1152339 7
-0.26110101 -4.601562 -5.1005859 7
-0.26288599 -4.6201172 -5.09375 7
-0.26637301 -4.6419678 -5.0908198 7
-0.271584 -4.6669922 -5.09375 7
-0.26647201 -4.6724849 -5.0693359 7
-0.26308399 -4.6812739 -5.0488281 7
-0.26829499 -4.7064209 -5.0517578 7
-0.27178201 -4.728394 -5.0498052 7
-0.27355999 -4.7468262 -5.0429692 7
-0.27875501 -4.7720952 -5.0449219 7
-0.27536801 -4.7805181 -5.0253911 7
-0.35533899 -6.084229 -4.171875 7
-0.102356 -1.917725 8.5146484 7
-0.097098999 -1.896484 8.5029297 7
-0.097098999 -1.879639 8.5078115 7
-0.100555 -1.865723 8.5224609 7
-0.095321998 -1.844604 8.5107422 7
-0.10228 -1.833374 8.5380859 7
-0.107475 -1.8206789 8.5576172 7
-0.098762996 -1.796875 8.5351562 7
-0.095275998 -1.777222 8.5292969 7
-0.086571001 -1.753662 8.5058594 7
-0.084807999 -1.7355959 8.5048828 7
-0.086533003 -1.7199709 8.5146484 7
-0.083053999 -1.700684 8.5078115 7
-0.084762998 -1.684937 8.5175781 7
-0.083015002 -1.66687 8.5166016 7
-0.093437001 -1.657593 8.5527344 7
-0.089951001 -1.638428 8.5458984 7
-0.082961999 -1.616455 8.5273438 7
-0.086425997 -1.602051 8.5419922 7
-0.26844001 -4.5064702 -4.8398442 7
-0.27204099 -4.5279541 -4.8388672 7
-0.26319101 -4.526123 -4.8056641 7
-0.26857001 -4.5506592 -4.8085942 7
-0.27218601 -4.572021 -4.8066411 7
-0.27581799 -4.5931401 -4.8037109 7
-0.27585599 -4.6079102 -4.7929692 7
-0.270569 -4.6124272 -4.7685552 7
-0.26882201 -4.6236572 -4.7529302 7
-0.263542 -4.6281738 -4.7285161 7
-0.268929 -4.652832 -4.7304692 7
-0.268967 -4.6672359 -4.7207031 7
-0.26901999 -4.6817632 -4.7089839 7
-0.27085099 -4.6994629 -4.702148 7
-0.27445999 -4.7207031 -4.7001948 7
-0.27451301 -4.7351069 -4.688477 7
-0.276344 -4.7529302 -4.6816411 7
-0.26570901 -4.7467041 -4.6435552 7
-0.283562 -4.7955322 -4.6767578 7
-0.38145399 -6.3475342 -3.5097661 7
-0.385086 -6.368042 -3.500977 7
-0.37799099 -6.3618159 -3.4736331 7
-0.37447399 -6.364502 -3.4511721 7
-0.36561599 -6.3536382 -3.4189451 7
-0.369232 -6.374023 -3.4111331 7
-0.096931003 -1.908936 8.2255859 7
-0.10231 -1.897217 8.2470703 7
-0.102325 -1.881104 8.2529297 7
-0.100517 -1.863403 8.2519531 7
-0.100479 -1.847046 8.2558594 7
-0.102272 -1.832397 8.265625 7
-0.107658 -1.820435 8.2861328 7
-0.105843 -1.802856 8.2851562 7
-0.098640002 -1.780884 8.2675781 7
-0.098618001 -1.764526 8.2724609 7
-0.093223996 -1.744141 8.2597656 7
-0.089592002 -1.72522 8.2529297 7
-0.089584 -1.709106 8.2578115 7
-0.089561 -1.692749 8.2617188 7
-0.089553997 -1.676514 8.265625 7
-0.089530997 -1.660278 8.2695312 7
-0.093124002 -1.646729 8.2841797 7
-0.091301002 -1.62915 8.2822266 7
-0.093085997 -1.614136 8.2910156 7
-0.049095001 0.961182 8.2900391 7
-0.057960998 1.0305181 8.3085938 7
-0.05793 1.046753 8.3056641 7
-0.059707999 1.063965 8.3105469 7
-0.057861 1.095703 8.2998047 7
-0.065017998 1.115479 8.3193359 7
-0.063187003 1.130981 8.3115234 7
-0.05957 1.145386 8.296875 7
-0.050551999 1.157104 8.2666016 7
-0.064902999 1.180908 8.3085938 7
-0.050476 1.189453 8.2617188 7
-0.057640001 1.209595 8.28125 7
-0.070183001 1.232788 8.3164062 7
-0.068351999 1.2481689 8.3085938 7
-0.066536002 1.263428 8.2998047 7
-0.062904 1.277588 8.2851562 7
-0.112922 4.347146 9.2603092 7
-0.080292001 4.2176018 8.3235645 7
-0.087944001 4.447823 8.1946716 7
-0.113499 -1.716863 9.4425144 7
-0.106251 -1.790288 8.9549551 7
-0.10054 0.995175 9.1322699 7
-0.110641 1.223009 9.1542463 7
-0.084305003 -1.813175 8.440217 7
-0.073729001 -1.847892 8.0437546 7
-0.056430999 -1.6399159 8.0221796 7
-0.051964 0.993806 8.2002354 7
-0.049481999 1.163214 8.144495 7
-0.101545 -1.857561 7.6613989 7
-0.087742999 -1.673882 7.6687279 7
-0.074992001 1.070639 7.81916 7
-0.076761 1.230842 7.7825341 7
-0.102777 -1.905718 7.4034228 7
-0.077570997 -1.706318 7.3685889 7
-0.061230998 0.99609798 7.5576348 7
-0.053672001 1.130942 7.4807248 7
-0.086185999 -1.902378 7.0950799 7
-0.074602 -1.745463 7.1227288 7
-0.042695999 1.058333 7.2612972 7
-0.044730999 1.195622 7.2254248 7
-0.061106998 -1.75223 6.8559618 7
-0.036120001 0.99851501 7.080493 7
-0.082036003 -1.778788 6.5933371 7
-0.068806998 -1.613778 6.6351628 7
-0.083943002 -1.809083 6.4199471 7
-0.068487003 -1.672969 6.4429021 7
0.021199999 -1.302511 -8.1655645 7
0.031725999 -1.266445 -6.779572 7
-0.181968 -4.6408472 -6.396214 7
0.037847001 -1.5530649 -4.810205 7
-0.167826 -4.620883 -5.24927 7
-0.28262499 -6.322753 -5.055418 7
-0.03339 -1.5018589 -4.082798 7
-0.24856 -4.6053772 -4.3233948 7
-0.000933 -1.451793 -3.3378329 7
-0.238492 -4.6008968 -3.5647149 7
-0.087982997 -1.79554 9.7998772 7
-0.059517998 -1.726805 9.2269669 7
-0.212265 -4.7545762 -2.104444 7
-0.114384 -1.908823 8.7823982 7
-0.095032997 -1.6673321 8.7419004 7
-0.26096699 -4.6811862 -1.5612971 7
-0.089187004 -1.841615 8.3688126 7
-0.083553001 -1.6255209 8.394434 7
-0.25948501 -4.6638222 -1.1455491 7
-0.078942999 -1.791883 8.0638552 7
-0.050634999 -1.73434 7.708878 7
0.0086270003 -1.297399 -1.070451 7
0.006027 -1.476879 -1.04783 7
-0.24308001 -4.710464 -0.210774 7
-0.080412999 -1.860307 7.3847132 7
-0.064124003 -1.678084 7.3671551 7
-0.030632 -1.449988 -0.81187302 7
-0.27979401 -4.4995942 -0.015862999 7
-0.28471199 -4.635859 0.13091999 7
-0.288008 -4.7614908 0.286964 7
-0.060761999 -1.80901 7.1350799 7
-0.051557001 -1.641745 7.1436691 7
-0.020477001 -1.426625 -0.59820497 7
-0.040072002 -1.595823 -0.63777298 7
-0.281138 -4.7926769 0.74545598 7
-0.055943999 -1.772481 6.9582348 7
-0.034357 -1.6056139 6.920857 7
-0.012009 -1.405768 -0.407581 7
-0.027499 -1.564519 -0.43135801 7
-0.26642001 -4.6029129 0.870354 7
-0.25919601 -4.668715 1.041604 7
-0.263282 -4.7610779 1.195222 7
-0.055206001 -1.887714 6.7639799 7
-0.033055 -1.726154 6.732265 7
0.000355 -1.3850681 -0.21758001 7
-0.015404 -1.535851 -0.242236 7
0.01169 -1.3662651 -0.044968002 7
-0.28431901 -4.6814051 1.621122 7
-0.29327601 -4.765306 1.769106 7
-0.28619599 -4.795764 1.937768 7
-0.065304004 -1.830237 6.5360332 7
-0.050567999 -1.683894 6.5300088 7
-0.042805001 -1.5090539 -0.071285002 7
-0.26965201 -4.5111361 1.696054 7
-0.27872401 -4.5920019 1.836848 7
-0.273092 -4.6252131 1.996302 7
-0.278276 -4.6833401 2.1464691 7
-0.26869699 -4.6921992 2.310308 7
-0.27731901 -4.7483048 2.4614849 7
-0.25964901 -4.5058308 2.199245 7
-0.26285601 -4.5503411 2.3459799 7
-0.26973301 -4.5995698 2.4923401 7
-0.029509 4.7007461 -13.755658 7
-0.140643 4.3253121 9.0975227 7
-0.11663 4.2553992 8.4541664 7
-0.120281 4.4575882 8.294054 7
-0.105636 1.0822411 9.2078505 7
-0.074901998 1.075501 8.7132235 7
-0.053812001 1.0699919 8.3175297 7
-0.036848001 1.065261 7.980185 7
-0.046121001 1.263818 7.9849601 7
-0.067001 1.0593311 7.6673179 7
-0.076076001 1.244779 7.6724758 7
-0.052694 1.055794 7.411664 7
-0.058722001 1.229988 7.4059162 7
-0.033186998 1.052447 7.1569438 7
-0.044766001 1.2170939 7.1742382 7
-0.096767001 4.863554 -16.956758 7
-0.0046330001 0.63760197 -14.670533 7
-0.089621 -1.200881 -11.068675 7
-0.025604 -1.3049949 -7.447742 7
-0.038254999 4.6379371 -6.3521128 7
-0.004712 -1.321611 -6.4080458 7
-0.19691999 -4.6308231 -7.5878258 7
-0.02867 4.5891628 -5.14992 7
-0.043938 4.522264 -5.4377861 7
-0.047541998 -1.306085 -5.7305989 7
-0.26285201 -4.5675511 -6.489831 7
-0.035698 -1.334047 -5.1795468 7
-0.048037998 -1.542536 -5.2277889 7
-0.247382 -4.4823322 -5.5777268 7
-0.236305 -4.6154909 -5.3420548 7
-0.35065001 -6.2507658 -5.153039 7
-0.33333099 -6.3163829 -4.8314052 7
-0.025095001 -1.351519 -4.7226338 7
-0.040082999 -1.549826 -4.7792249 7
-0.231846 -4.5409451 -4.6266589 7
-0.22230101 -4.6433902 -4.4058571 7
-0.01141 -1.349492 -4.3100252 7
-0.022871001 -1.520228 -4.333231 7
-0.20537201 -4.5687232 -3.5616529 7
-0.209739 -4.722537 -3.3950729 7
-0.038394 -1.3588001 -3.994416 7
-0.048021998 -1.508705 -3.9949279 7
-0.026721001 -1.3546979 -3.704423 7
-0.041951001 -1.509533 -3.728837 7
-0.24665301 -4.607758 -1.4557199 7
-0.25169301 -4.6736689 -1.2638609 7
-0.24604601 -4.6619358 -1.068325 7
-0.015999001 -1.346653 -3.450557 7
-0.025992 -1.475498 -3.44419 7
-0.024464 -1.569524 -3.379113 7
-0.0094750002 -1.345041 -3.241266 7
-0.028746 -1.53447 -1.26645 7
-0.030758999 -1.548292 -1.202417 7
-0.025634 -1.537076 -1.137689 7
-0.020571001 -1.5233001 -1.073993 7
-0.022312 -1.527645 -0.99331403 7
-0.013779 -1.496958 -0.93290299 7
-0.024658 -1.524338 -0.86322302 7
-0.0079399999 -1.418401 -1.257708 7
-0.017492 -1.4540811 -1.199213 7
-0.0050010001 -1.420691 -1.138689 7
9.2000002e-05 -1.4070981 -1.079864 7
-0.0057799998 -1.424257 -1.018996 7
-0.002573 -1.411383 -0.96035397 7
-0.017274 -1.448135 -0.87748802 7
-0.0051179999 -1.354273 -0.835944 7
-0.01606 -1.347769 -1.251994 7
-0.022422001 -1.371991 -1.1961091 7
-0.019051 -1.366437 -1.138707 7
-0.015656 -1.358385 -1.081864 7
-0.014297 -1.353704 -1.025133 7
-0.010981 -1.34111 -0.96944797 7
-0.020963 -1.361764 -0.89342999 7
-0.0061610001 -1.311691 -0.84567797 7
-0.012029 -1.293384 -1.24779 7
-0.012613 -1.3009109 -1.193688 7
-0.011232 -1.30081 -1.139199 7
-0.0078299996 -1.292881 -1.085102 7
-0.0065080002 -1.288371 -1.031112 7
