# .PCD v0.7 - Point Cloud Data file format
VERSION 0.7
FIELDS x y z intensity
SIZE 4 4 4 4
TYPE F F F F
COUNT 1 1 1 1
WIDTH 1153
HEIGHT 1
VIEWPOINT 0 0 0 1 0 0 0
POINTS 1153
DATA ascii
0.21408799 -1.8494869 -72.238281 7
0.093307003 -1.750977 -68.330078 7
0.15194701 -1.862183 -66.359375 7
0.14226501 5.0773931 -68.419922 7
0.168617 4.8483891 -67.527344 7
0.141899 4.746582 -68.449219 7
0.071785003 -2.0267329 -61.505859 7
0.16722099 -2.0773931 -58.652344 7
0.109932 -2.2823491 -60.342773 7
0.157204 -2.3730471 -58.921875 7
0.16842701 4.9024658 -59.956055 7
0.225601 4.6218262 -58.223633 7
0.17919201 4.5861821 -59.646484 7
0.081726 -2.200562 -54.546875 7
0.116402 -2.294189 -53.611328 7
0.074142002 -2.473877 -54.723633 7
0.104874 -2.568604 -53.892578 7
-0.86391401 -1.116455 74.134766 7
-0.849213 -0.93969703 73.791992 7
0.24002101 4.842773 -51.30957 7
0.19294 4.831543 -52.59668 7
0.167114 4.7641602 -53.307617 7
0.223289 4.505127 -51.791016 7
0.182861 4.4689941 -52.897461 7
0.12912001 4.4564209 -54.367188 7
0.003082 -2.1962891 -51.270508 7
0.057815999 -2.2624509 -49.938477 7
0.081528001 -2.357178 -49.353516 7
0.038651001 -2.52771 -50.376953 7
-0.81375098 -0.37890601 66.978516 7
-0.73891401 -0.21777301 65.347656 7
0.179489 4.639648 -47.805664 7
0.14506499 4.6003418 -48.661133 7
0.20684101 4.3455811 -47.151367 7
0.136162 4.3813481 -48.897461 7
0.1875 0.964966 -46.996094 7
-0.032051001 -2.2741699 -47.926758 7
0.001671 -2.3293459 -46.401367 7
0.046813998 -2.3961179 -45.40918 7
0.073028997 -2.4759519 -44.825195 7
0.12939499 -2.5162351 -43.581055 7
0.053328998 -2.719604 -45.233398 7
0.087029003 -2.7850339 -44.484375 7
0.200508 4.6824951 -42.649414 7
0.166199 4.6568599 -43.423828 7
0.141029 4.6070561 -43.992188 7
0.102005 4.585083 -44.871094 7
0.162117 4.3458252 -43.542969 7
0.139549 4.2862549 -44.052734 7
0.089272 4.2808838 -45.180664 7
-0.027512001 -2.5007319 -43.30957 7
0.0086899996 -2.5635991 -42.566406 7
0.037384 -2.6324461 -41.976562 7
-0.014565 -2.801147 -43.015625 7
0.0054469998 -2.8796389 -42.599609 7
0.029808 -2.9501951 -42.09668 7
0.062546 -3.00647 -41.424805 7
0.081421003 -3.0800779 -41.03125 7
-0.65710402 -0.054198999 54.307617 7
-0.606812 0.19323701 53.376953 7
0.094322003 4.7518311 -41.362305 7
0.117516 4.5986328 -40.897461 7
0.092789002 4.5517578 -41.413086 7
0.061271999 4.5170898 -42.070312 7
0.104034 4.3248291 -41.201172 7
0.088386998 4.2553711 -41.532227 7
0.054878 4.219727 -42.229492 7
0.18557 0.80969203 -39.183594 7
0.192413 0.61511201 -39.041016 7
0.180122 0.522461 -39.289062 7
-0.59393299 -2.8648679 48.814453 7
-0.61330402 -2.7719729 49.154297 7
-0.62582397 -2.6706541 49.37793 7
-0.55024701 0.059204001 48.21875 7
-0.51696002 0.16821299 47.652344 7
-0.53115797 0.27917501 47.896484 7
0.094681002 4.700562 -37.520508 7
0.072867997 4.6560059 -37.938477 7
0.055098999 4.6008301 -38.28125 7
0.034531001 4.5499272 -38.674805 7
0.015503 4.4942632 -39.041016 7
0.133186 0.876831 -37.026367 7
0.172401 0.41210899 -36.290039 7
-0.57008398 -2.8444819 45.044922 7
-0.56591803 -2.736938 44.987305 7
-0.5783 -2.645752 45.191406 7
-0.472092 0.25781199 43.648438 7
-0.491447 0.360596 43.958008 7
-0.473297 0.45825201 43.669922 7
0.074509002 4.8078609 -34.787109 7
0.049812 4.6898189 -35.233398 7
0.033920001 4.637085 -35.517578 7
0.000504 4.619873 -36.102539 7
-0.019104 4.5714111 -36.449219 7
0.15982801 1.130859 -33.571289 7
0.14051101 1.057739 -33.905273 7
0.114494 0.986206 -34.359375 7
0.126251 0.28564501 -33.811523 7
0.14933001 0.200073 -33.415039 7
0.122849 0.119019 -33.865234 7
0.14114401 0.035156 -33.549805 7
0.147881 -0.029906999 -30.824219 7
0.13672601 -0.184204 -30.999023 7
-0.465233 -2.7077639 40.125977 7
-0.50848401 -2.565552 40.774414 7
-0.52912098 -2.4912109 41.083984 7
-0.47850001 0.32788101 40.472656 7
-0.43798801 0.50524902 39.879883 7
0.106651 4.8803711 -31.166992 7
0.089690998 4.842041 -31.443359 7
0.071258999 4.8057861 -31.745117 7
0.051010001 4.7723389 -32.074219 7
0.030356999 4.7380371 -32.40918 7
-0.006821 4.737915 -33.005859 7
-0.025627 4.696167 -33.311523 7
0.127174 1.362183 -31.142578 7
0.117508 1.213135 -31.300781 7
0.119293 1.134521 -31.274414 7
0.101234 0.12597699 -31.567383 7
0.089638002 -0.114136 -29.316406 7
0.118164 -0.39953601 -28.886719 7
0.113258 -0.47229001 -28.956055 7
-0.481033 -2.556396 37.966797 7
-0.477097 -2.466187 37.919922 7
-0.49993899 -2.400146 38.239258 7
-0.40788299 0.387573 37.102539 7
-0.43195301 0.47644001 37.43457 7
-0.39746901 0.554443 36.959961 7
0.080811001 4.834106 -29.354492 7
0.062668003 4.802124 -29.631836 7
0.045318998 4.7667241 -29.897461 7
0.022041 4.7434082 -30.249023 7
-0.000443 4.7166748 -30.588867 7
0.044043999 4.5461431 -29.948242 7
0.14686599 1.475098 -28.688477 7
0.116455 1.424561 -29.141602 7
0.14123499 1.335693 -28.777344 7
0.098968998 1.216675 -29.407227 7
0.081955001 -0.29956099 -27.322266 7
0.106194 -0.363525 -26.989258 7
0.116768 -0.42883301 -26.84082 7
0.086037003 -0.50329602 -27.260742 7
0.105164 -0.56616199 -26.996094 7
0.108093 -0.63281202 -26.954102 7
0.075240999 4.955811 -27.035156 7
0.065009996 4.9119868 -27.183594 7
0.048774999 4.880981 -27.413086 7
0.035133 4.8433838 -27.608398 7
0.013824 4.8216548 -27.908203 7
-0.0053559998 4.7938228 -28.178711 7
0.108475 1.591797 -26.935547 7
0.140793 1.500854 -26.496094 7
0.125854 1.444824 -26.704102 7
0.101524 1.3944089 -27.039062 7
0.115952 1.317505 -26.84375 7
0.076439001 -0.54150403 -25.304688 7
-0.83199298 -7.6765141 36.665039 7
0.001053 5.1142578 -26.006836 7
0.037505999 4.9649658 -25.560547 7
0.034766998 4.9069819 -25.606445 7
0.022880999 4.8695068 -25.766602 7
0.0091859996 4.8352051 -25.951172 7
-0.007706 4.807251 -26.175781 7
-0.021872999 4.7723389 -26.365234 7
0.115311 1.543823 -24.950195 7
0.107513 1.486694 -25.052734 7
0.084862001 1.417969 -25.214844 7
0.10083 1.342407 -25.014648 7
0.069358997 -0.68115199 -23.480469 7
0.086135998 -0.73425299 -23.279297 7
0.069633 -0.79882801 -23.470703 7
0.075851001 -0.91394001 -23.390625 7
0.0024339999 5.105835 -23.946289 7
0.032372002 4.9763179 -23.608398 7
0.026962001 4.9289551 -23.68457 7
0.01712 4.891602 -23.810547 7
0.0067980001 4.8546138 -23.942383 7
-0.013367 4.838623 -24.1875 7
-0.029083 4.8120122 -24.382812 7
0.081367001 1.515503 -23.448242 7
0.052719001 -1.028809 -22 7
0.054214001 -1.083496 -21.980469 7
0.018417001 5.0098882 -22.022461 7
0.015251 4.9614258 -22.068359 7
0.0052490002 4.9282231 -22.188477 7
-0.001595 4.8873291 -22.274414 7
-0.012657 4.8555908 -22.40625 7
-0.032104 4.8413091 -22.628906 7
0.085495003 1.8525389 -21.716797 7
0.084403999 1.79834 -21.732422 7
0.090668 1.683228 -21.670898 7
0.084320001 1.6331789 -21.745117 7
0.045699999 -0.96545398 -20.566406 7
0.053543001 -1.0137939 -20.482422 7
0.034706 -1.0749511 -20.671875 7
0.033477999 -1.12793 -20.681641 7
0.040741 -1.175903 -20.603516 7
0.038361002 -1.229614 -20.624023 7
0.0074080001 5.073853 -20.526367 7
0.0085220002 5.019043 -20.526367 7
0.004005 4.9772949 -20.583984 7
-0.0055470001 4.9465332 -20.692383 7
-0.014557 4.914062 -20.795898 7
-0.030869 4.8973389 -20.972656 7
-0.038199998 4.8599849 -21.057617 7
0.082053997 1.889282 -20.232422 7
0.068526998 1.849731 -20.376953 7
0.069618002 1.796875 -20.368164 7
0.076912001 1.739136 -20.297852 7
0.072388001 1.6912839 -20.347656 7
0.060532 1.648438 -20.474609 7
0.01239 -0.971313 -19.572266 7
0.024948001 -1.015015 -19.448242 7
0.024857 -1.0643311 -19.445312 7
0.013885 -1.119141 -19.546875 7
0.0053409999 -1.173584 -19.626953 7
0.013084 -1.218872 -19.547852 7
0.015991 -1.266724 -19.515625 7
-0.15873 -4.2270508 -20.782227 7
-0.15582301 -4.2739258 -20.744141 7
-0.157143 -4.3287349 -20.746094 7
-0.062233001 4.9709468 -19.847656 7
-0.061652999 4.919189 -19.853516 7
0.055633999 1.895996 -19.170898 7
0.060936 1.744751 -19.131836 7
0.059113 1.697144 -19.15332 7
0.0042949999 -1.008423 -18.356445 7
0.018959001 -1.0480959 -18.219727 7
0.021446001 -1.093384 -18.195312 7
0.0065839998 -1.1474611 -18.325195 7
-0.0038069999 -1.199829 -18.415039 7
0.0063860002 -1.240845 -18.320312 7
-0.17423999 -4.1922612 -19.522461 7
-0.169212 -4.2325439 -19.466797 7
-0.163506 -4.2713618 -19.40625 7
-0.16104899 -4.315918 -19.373047 7
-0.159233 -4.3614502 -19.345703 7
-0.176743 -4.4432368 -19.489258 7
0.047005001 1.832275 -17.970703 7
0.047531001 1.647217 -17.981445 7
-0.015312 -1.005493 -17.426758 7
-0.000443 -1.0430911 -17.296875 7
-0.00054899999 -1.08728 -17.293945 7
-0.001312 -1.131958 -17.296875 7
-0.021805 -1.187134 -17.46875 7
-0.015099 -1.228027 -17.40625 7
-0.0083849998 -1.268555 -17.345703 7
-0.191521 -4.1767578 -18.469727 7
-0.197754 -4.2347412 -18.511719 7
-0.186279 -4.2611079 -18.40332 7
-0.186386 -4.3078609 -18.394531 7
-0.187187 -4.3560791 -18.388672 7
-0.19207001 -4.4116211 -18.417969 7
-0.051757999 5.0926509 -17.145508 7
-0.017418001 4.9709468 -16.871094 7
-0.032912999 4.9622798 -17.011719 7
-0.039634999 4.933228 -17.080078 7
-0.043694001 4.8981929 -17.125 7
-0.053817999 4.8762212 -17.220703 7
-0.06797 4.8624272 -17.350586 7
0.047478002 1.5556639 -16.892578 7
0.057571001 1.504761 -16.80957 7
0.056885 1.4619139 -16.819336 7
0.039322 1.430298 -16.973633 7
0.038635001 1.387085 -16.982422 7
0.052772999 1.334473 -16.864258 7
0.062850997 1.28479 -16.780273 7
0.0067139999 -0.97997999 -16.173828 7
0.001602 -1.024048 -16.212891 7
-0.0020979999 -1.0673831 -16.238281 7
0.0057299999 -1.105225 -16.171875 7
0.010681 -1.144043 -16.12793 7
-0.013893 -1.198853 -16.322266 7
-0.014702 -1.2412111 -16.325195 7
-0.0075909998 -1.278931 -16.264648 7
-0.00047299999 -1.316528 -16.204102 7
-0.194481 -4.296875 -17.27832 7
-0.191689 -4.3356929 -17.245117 7
-0.189629 -4.375977 -17.217773 7
-0.198402 -4.4360352 -17.275391 7
0.047508001 1.2607419 -15.853516 7
0.055344 1.21521 -15.791992 7
0.061751999 1.170776 -15.742188 7
0.04744 1.137573 -15.861328 7
0.052429002 1.093872 -15.824219 7
0.061668001 1.007568 -15.75293 7
0.070937999 0.96227998 -15.679688 7
0.0068890001 -0.96508801 -15.205078 7
-0.0085070003 -1.050903 -15.31543 7
0.0036009999 -1.084473 -15.220703 7
0.00351 -1.1237791 -15.217773 7
0.0019 -1.16394 -15.226562 7
-0.011101 -1.210327 -15.322266 7
-0.013466 -1.251587 -15.336914 7
-0.011276 -1.289795 -15.316406 7
-0.203659 -4.1601558 -16.301758 7
-0.210068 -4.2967529 -16.316406 7
-0.20863301 -4.335815 -16.294922 7
-0.209488 -4.3791499 -16.291016 7
-0.20578 -4.41394 -16.251953 7
0.043639999 0.92089802 -14.94043 7
0.051918 0.878784 -14.876953 7
0.051162999 0.84021002 -14.885742 7
0.04583 0.80346698 -14.927734 7
0.046539001 0.76428199 -14.922852 7
0.048027001 0.72485399 -14.913086 7
0.05632 0.68347198 -14.851562 7
0.063102998 0.64270002 -14.800781 7
-0.017128 -1.259033 -14.436523 7
-0.0091549996 -1.29187 -14.375977 7
-0.011658 -1.330566 -14.389648 7
-0.0069269999 -1.36499 -14.350586 7
-0.20593999 -4.1713872 -15.28418 7
-0.210052 -4.2180181 -15.302734 7
-0.219826 -4.2747798 -15.359375 7
-0.217499 -4.309937 -15.333008 7
-0.212769 -4.3408198 -15.288086 7
-0.21125001 -4.3773189 -15.266602 7
-0.20649 -4.4078369 -15.223633 7
-0.210632 -4.4547119 -15.240234 7
0.055893 0.60913098 -13.950195 7
0.050292999 0.57421899 -13.993164 7
0.046271998 0.53845203 -14.023438 7
0.049446002 0.50085402 -14.001953 7
0.057411 0.46240199 -13.944336 7
0.065361001 0.387817 -13.888672 7
0.066138998 0.35119599 -13.883789 7
0.062904 0.31542999 -13.907227 7
0.060486 0.27917501 -13.925781 7
0.062858999 0.24255399 -13.908203 7
0.064423002 0.20581099 -13.897461 7
0.069182999 0.169067 -13.863281 7
0.069931 0.096436001 -13.858398 7
0.067505002 0.059937 -13.875 7
0.049872998 0.024048001 -14.001953 7
0.057579 -0.017821999 -13.195312 7
0.054131001 -0.052611999 -13.21875 7
0.048996001 -0.087279998 -13.25293 7
0.042992 -0.122314 -13.292969 7
0.045479 -0.157104 -13.275391 7
0.051323 -0.191284 -13.235352 7
0.052948002 -0.225586 -13.222656 7
0.052878998 -0.260254 -13.222656 7
0.048569001 -0.29541001 -13.25 7
-0.21855199 -4.2084961 -14.472656 7
-0.222031 -4.2518311 -14.484375 7
-0.232315 -4.3076172 -14.540039 7
-0.227318 -4.3361821 -14.49707 7
-0.220634 -4.3615718 -14.441406 7
-0.219864 -4.3973389 -14.425781 7
-0.218262 -4.4316411 -14.40332 7
-0.21665201 -4.4659419 -14.381836 7
-0.050140001 4.9705811 -13.103516 7
-0.039223 4.877563 -13.055664 7
-0.044257998 4.8193359 -13.112305 7
0.031647 -0.344971 -12.592773 7
0.036942001 -0.37731901 -12.557617 7
0.039565999 -0.41015601 -12.540039 7
0.03334 -0.44457999 -12.579102 7
0.024467001 -0.47997999 -12.635742 7
0.021774 -0.51391602 -12.651367 7
0.024398999 -0.54675299 -12.632812 7
0.031456001 -0.57836902 -12.584961 7
0.033211 -0.61108398 -12.573242 7
-0.215912 -4.1706538 -13.613281 7
-0.220474 -4.2137451 -13.629883 7
-0.225906 -4.2589111 -13.654297 7
-0.23761 -4.315186 -13.71582 7
-0.240364 -4.3555908 -13.72168 7
-0.231537 -4.3752441 -13.655273 7
-0.228058 -4.4044189 -13.623047 7
-0.225464 -4.4350591 -13.595703 7
-0.225548 -4.4705811 -13.584961 7
0.020187 -0.65173298 -12.017578 7
0.025726 -0.68176299 -11.981445 7
0.020065 -0.71521002 -12.014648 7
0.0069269999 -0.75134301 -12.092773 7
0.0096739996 -0.78234899 -12.073242 7
0.012421 -0.81310999 -12.055664 7
0.018874999 -0.842529 -12.012695 7
0.0094680004 -0.87792999 -12.067383 7
0.014076 -0.90783697 -12.037109 7
0.0084079998 -0.94213903 -12.069336 7
0.016212 -0.65051299 -11.376953 7
0.012222 -0.68200701 -11.397461 7
0.012161 -0.71227998 -11.395508 7
0.010147 -0.74328601 -11.40625 7
0.0061570001 -0.77477998 -11.426758 7
-0.00076299999 -0.80773902 -11.464844 7
0.011917 -0.83313 -11.387695 7
0.012756 -0.89331102 -11.37793 7
0.0097580003 -0.92480499 -11.393555 7
-0.0060040001 -0.96203601 -11.482422 7
-0.0099790003 -0.99401897 -11.50293 7
-0.003181 -1.021484 -11.459961 7
0.00068699999 -1.050171 -11.435547 7
0.001602 -1.0799561 -11.426758 7
-0.001411 -1.111816 -11.442383 7
-0.021103 -1.152344 -11.552734 7
-0.014297 -1.1793211 -11.510742 7
-0.012398 -1.208984 -11.496094 7
-0.012459 -1.23938 -11.494141 7
-0.014488 -1.270996 -11.501953 7
-0.0047530001 -0.97668499 -10.897461 7
-0.00070999999 -1.003906 -10.873047 7
0.00025899999 -1.032349 -10.864258 7
-0.00083199999 -1.06189 -10.867188 7
-0.022438001 -1.101685 -10.984375 7
-0.024544001 -1.13208 -10.994141 7
-0.017418001 -1.157715 -10.951172 7
-0.014404 -1.185181 -10.931641 7
-0.01857 -1.216675 -10.951172 7
-0.014542 -1.243408 -10.925781 7
-0.018715 -1.274902 -10.944336 7
-0.036201 -1.314453 -11.039062 7
-0.037292 -1.344604 -11.041016 7
-0.02916 -1.368896 -10.992188 7
-0.032303002 -1.400146 -11.005859 7
-0.032356001 -1.4293211 -11.001953 7
-0.040619001 -1.464233 -11.044922 7
-0.050934002 -1.50061 -11.099609 7
-0.050995 -1.5300291 -11.095703 7
-0.052085999 -1.560425 -11.097656 7
-0.053185001 -1.590698 -11.100586 7
-0.044349998 4.8244629 -10.177734 7
-0.044334002 4.796875 -10.19043 7
-0.044319 4.769165 -10.201172 7
-0.042282 4.737061 -10.202148 7
-0.042282 4.7095952 -10.212891 7
-0.041244999 4.679565 -10.21875 7
-0.0093769999 -0.98657203 -10.324219 7
-0.013756 -1.016113 -10.342773 7
-0.017044 -1.045532 -10.358398 7
-0.016022 -1.072876 -10.349609 7
-0.00856 -1.096802 -10.307617 7
-0.0096969996 -1.125 -10.30957 7
-0.0097430004 -1.152832 -10.307617 7
-0.017325999 -1.184448 -10.344727 7
-0.01416 -1.2105711 -10.325195 7
-0.016380001 -1.2392581 -10.333008 7
-0.017502001 -1.267822 -10.335938 7
-0.018654 -1.296265 -10.338867 7
-0.020865999 -1.325317 -10.34668 7
-0.030609 -1.359009 -10.395508 7
-0.029587001 -1.386353 -10.385742 7
-0.032883 -1.41626 -10.399414 7
-0.034012001 -1.4449461 -10.402344 7
-0.038376 -1.475708 -10.421875 7
-0.048133999 -1.510132 -10.46875 7
-0.047111999 -1.537598 -10.459961 7
-0.051483002 -1.568481 -10.478516 7
-0.055840001 -1.599731 -10.498047 7
-0.047729 4.7800288 -9.5517578 7
-0.048804998 4.7562261 -9.5683594 7
-0.048797999 4.730103 -9.5791016 7
-0.047722001 4.7016602 -9.5849609 7
-0.04879 4.6776118 -9.6005859 7
-0.065880001 4.660645 -9.7089844 7
-0.075507998 4.6540532 -9.7666016 7
-0.073357001 4.6228032 -9.7675781 7
-0.061584 4.5723882 -9.7197266 7
-0.059441 4.5412598 -9.7197266 7
-0.059425 4.514648 -9.7314453 7
-0.059441 4.4881592 -9.7412109 7
-0.021553 -1.2937011 -9.8388672 7
-0.037323002 -1.329834 -9.9160156 7
-0.027275 -1.350342 -9.8613281 7
-0.028472999 -1.377686 -9.8642578 7
-0.028526001 -1.404297 -9.8603516 7
-0.033066001 -1.43396 -9.8808594 7
-0.034247998 -1.461182 -9.8818359 7
-0.037666 -1.490356 -9.8964844 7
-0.038970999 -1.5712889 -9.890625 7
-0.051987 4.7800288 -9.0009766 7
-0.053084999 4.7575679 -9.0185547 7
-0.053084999 4.7325439 -9.0292969 7
-0.053070001 4.7077641 -9.0400391 7
-0.051949002 4.6804199 -9.046875 7
-0.055289999 4.6625981 -9.0732422 7
-0.066444002 4.660645 -9.1367188 7
-0.073135003 4.649292 -9.1787109 7
-0.070900001 4.6193848 -9.1796885 7
-0.065300003 4.5828862 -9.1650391 7
-0.058609001 4.5440669 -9.1435547 7
-0.058600999 4.5189209 -9.1542969 7
-0.054122999 4.4847412 -9.1435547 7
-0.015807999 -1.285767 -9.3193359 7
-0.036942001 -1.323853 -9.4189453 7
-0.041694999 -1.352173 -9.4384766 7
-0.035889 -1.3742681 -9.40625 7
-0.035994999 -1.425293 -9.4003906 7
-0.036102001 -1.476562 -9.3935547 7
-0.049049001 -1.5107419 -9.4521484 7
-0.052627999 -1.53894 -9.4648438 7
-0.051521 -1.5637209 -9.4560547 7
-0.055091999 -1.5919189 -9.46875 7
-0.03788 -1.219116 -8.9785156 7
-0.011581 -1.289917 -8.3779297 7
-0.018074 -1.340088 -8.4003906 7
-0.034697998 -1.373535 -8.4697266 7
-0.022041 -1.412109 -8.4072266 7
-0.024651 -1.43689 -8.4150391 7
-0.02729 -1.484985 -8.4199219 7
-0.038895 -1.539307 -8.4628906 7
-0.047835998 -1.567993 -8.4980469 7
-0.247353 -4.504395 -8.5009766 7
-0.247421 -4.52771 -8.4902344 7
-0.244987 -4.5698242 -8.4589844 7
-0.25023699 -4.6260991 -8.4570312 7
-0.26052099 -4.6689448 -8.4873047 7
-0.264496 -4.723022 -8.4804688 7
-0.26456499 -4.7463379 -8.4697266 7
-0.024223 -1.28833 -8.0292969 7
-0.024277 -1.3106689 -8.0263672 7
-0.025658 -1.3338619 -8.0292969 7
-0.036300998 -1.362427 -8.0712891 7
-0.053596001 -1.39563 -8.140625 7
-0.047005001 -1.414062 -8.109375 7
-0.045731001 -1.4356689 -8.1005859 7
-0.037819002 -1.452881 -8.0634766 7
-0.041855 -1.477905 -8.0771484 7
-0.040587999 -1.49939 -8.0683594 7
-0.040626999 -1.521606 -8.0634766 7
-0.055282999 -1.554199 -8.1210938 7
-0.057999 -1.578613 -8.1279297 7
-0.271873 -4.5007319 -8.1318359 7
-0.26926401 -4.518311 -8.1113281 7
-0.261345 -4.526123 -8.0693359 7
-0.26139799 -4.5484619 -8.0585938 7
-0.26546499 -4.5783691 -8.0634766 7
-0.264191 -4.598145 -8.046875 7
-0.26424399 -4.620605 -8.0361328 7
-0.26564801 -4.6453862 -8.0302734 7
-0.268372 -4.6726069 -8.0292969 7
-0.27642801 -4.7102051 -8.0488281 7
-0.28181499 -4.7427979 -8.0566406 7
-0.28055599 -4.7625728 -8.0400391 7
-0.285934 -4.7952881 -8.0507812 7
-0.26366401 -4.4907231 -7.610352 7
-0.25957501 -4.5045171 -7.5849609 7
-0.252716 -4.5128169 -7.547852 7
-0.25277701 -4.5340581 -7.5371089 7
-0.25560799 -4.5603032 -7.5371089 7
-0.25843 -4.586792 -7.5361328 7
-0.264038 -4.6185298 -7.545898 7
-0.26547199 -4.6420898 -7.539062 7
-0.26416001 -4.660645 -7.523438 7
-0.27390301 -4.700439 -7.547852 7
-0.27397901 -4.721436 -7.5361328 7
-0.27403301 -4.7426758 -7.5253911 7
-0.274086 -4.7636719 -7.514648 7
-0.369553 -6.2381592 -7.0185552 7
-0.36685199 -6.2514648 -6.9941411 7
-0.36969 -6.2780762 -6.9892578 7
-0.37391701 -6.308105 -6.9873052 7
-0.38230899 -6.3486328 -7 7
-0.38237801 -6.3684082 -6.984375 7
-0.37688401 -6.3743901 -6.9511719 7
-0.070251003 0.75036597 10.526367 7
-0.073021002 0.77307099 10.536133 7
-0.075797997 0.795654 10.545898 7
-0.078567997 0.818115 10.555664 7
-0.070106998 0.83679199 10.519531 7
-0.074294999 0.85998499 10.53418 7
-0.074248999 0.88159198 10.532227 7
-0.074225999 0.90307599 10.530273 7
-0.071381003 0.92358398 10.516602 7
-0.071350001 0.94519001 10.514648 7
-0.051261999 4.7354741 -6.4814448 7
-0.045731001 4.7049561 -6.4736328 7
-0.049842998 4.6947021 -6.499023 7
-0.052588999 4.6817632 -6.5195308 7
-0.042961001 4.6427002 -6.4960942 7
-0.045699999 4.6295171 -6.5175781 7
-0.047058001 4.6134028 -6.5341802 7
-0.045669999 4.5915532 -6.5400391 7
-0.064911 4.611938 -6.6191411 7
-0.062141001 4.5871582 -6.6201172 7
-0.066253997 4.576416 -6.6464839 7
-0.064865001 4.5543208 -6.6523442 7
-0.059372 4.5239258 -6.6425781 7
-0.059363998 4.5047612 -6.6533198 7
-0.26321399 -4.4813228 -7.1816411 7
-0.267593 -4.5097661 -7.1855469 7
-0.26621199 -4.5273442 -7.1689448 7
-0.26052099 -4.5368652 -7.139648 7
-0.262016 -4.559814 -7.132812 7
-0.26064301 -4.577148 -7.117188 7
-0.26501501 -4.6053472 -7.1210942 7
-0.26507601 -4.6256099 -7.110352 7
-0.266563 -4.648315 -7.1035161 7
-0.266624 -4.6685791 -7.092773 7
-0.27532199 -4.7049561 -7.110352 7
-0.279686 -4.733398 -7.1142578 7
-0.28262299 -4.7590332 -7.1123052 7
-0.2798 -4.7736821 -7.0917969 7
-0.36534899 -6.0856929 -6.6132808 7
-0.36396801 -6.1011958 -6.59375 7
-0.36978099 -6.1340332 -6.5976558 7
-0.37416101 -6.1633301 -6.5957031 7
-0.375664 -6.1856689 -6.585938 7
-0.37861601 -6.2115479 -6.5800781 7
-0.377235 -6.2268071 -6.5605469 7
-0.37441999 -6.238647 -6.5371089 7
-0.37160501 -6.2503662 -6.5136719 7
-0.36735499 -6.2585449 -6.485352 7
-0.36741599 -6.2771001 -6.4707031 7
-0.36602801 -6.2921138 -6.4511719 7
-0.36608899 -6.3106689 -6.436523 7
-0.366173 -6.3293462 -6.420898 7
-0.37485501 -6.3692632 -6.4326172 7
-0.111008 -1.89978 10.151367 7
-0.110977 -1.879028 10.15625 7
-0.119713 -1.865234 10.193359 7
-0.122604 -1.8469239 10.208984 7
-0.113853 -1.819214 10.180664 7
-0.10215 -1.768555 10.144531 7
-0.096313 -1.743408 10.12793 7
-0.097755 -1.723877 10.137695 7
-0.10936 -1.69104 10.189453 7
-0.109352 -1.670288 10.194336 7
-0.081649996 -1.629639 10.09082 7
-0.086104997 0.76916498 10.243164 7
-0.088950999 0.81201202 10.251953 7
-0.088927999 0.83300799 10.25 7
-0.091705002 0.91784698 10.25293 7
-0.091674998 0.93884301 10.250977 7
-0.068274997 4.787354 -6.1123052 7
-0.049713001 4.730103 -6.061523 7
-0.048278999 4.709229 -6.0664058 7
-0.046844002 4.6885991 -6.0732422 7
-0.048255999 4.673584 -6.0888672 7
-0.053947002 4.667603 -6.1191411 7
-0.048248 4.6376948 -6.1113281 7
-0.049660001 4.6228032 -6.1269531 7
-0.051064 4.6075439 -6.1425781 7
-0.052483 4.5924072 -6.1582031 7
-0.056740001 4.5830078 -6.1845698 7
-0.065300003 4.582397 -6.2236328 7
-0.068130001 4.5700679 -6.2441411 7
-0.070969 4.557373 -6.264648 7
-0.066689 4.5305181 -6.2607422 7
-0.062401 4.50354 -6.2568359 7
-0.060959 4.4824219 -6.2626948 7
-0.27092701 -4.4929199 -6.7753911 7
-0.27545199 -4.5203862 -6.7792969 7
-0.27551299 -4.5397949 -6.7685552 7
-0.26512101 -4.5396729 -6.7236328 7
-0.27264401 -4.572876 -6.7373052 7
-0.274185 -4.5948491 -6.7314448 7
-0.26677701 -4.5999761 -6.695312 7
-0.26533499 -4.616333 -6.6806641 7
-0.26988199 -4.6439209 -6.6835942 7
-0.27442899 -4.6713872 -6.6875 7
-0.27148399 -4.684937 -6.6669922 7
-0.283485 -4.7268071 -6.6943359 7
-0.29102299 -4.7602539 -6.7070308 7
-0.294067 -4.7851558 -6.704102 7
-0.28815499 -4.7928472 -6.6738281 7
-0.38337699 -6.2628169 -6.047852 7
-0.38643599 -6.2878418 -6.0419922 7
-0.37902099 -6.2868652 -6.0048828 7
-0.36712599 -6.275146 -5.9560552 7
-0.36867499 -6.2961431 -5.945312 7
-0.37322199 -6.3244629 -5.9433589 7
-0.38526201 -6.37146 -5.960938 7
-0.380844 -6.3778081 -5.9335942 7
-0.37791401 -6.3876948 -5.9091802 7
-0.108231 -1.903198 9.7851562 7
-0.1082 -1.883301 9.7890615 7
-0.112732 -1.867188 9.8105469 7
-0.121788 -1.8544919 9.8476562 7
-0.10817 -1.823853 9.8027344 7
-0.108139 -1.803833 9.8076172 7
-0.099036999 -1.776978 9.7773438 7
-0.10508 -1.7618411 9.8037109 7
-0.102028 -1.739624 9.796875 7
-0.094460003 -1.713989 9.7744141 7
-0.100487 -1.69873 9.7998047 7
-0.109528 -1.685547 9.8369141 7
-0.095908999 -1.65564 9.7910156 7
-0.101929 -1.640137 9.8173828 7
-0.095871001 -1.615845 9.7988281 7
-0.101906 -1.600342 9.8242188 7
-0.088211 0.98144501 9.8857422 7
-0.074593 0.99572802 9.8330078 7
-0.076072998 1.016235 9.8359385 7
-0.082076997 1.03894 9.8564453 7
-0.077522002 1.0567631 9.8369141 7
-0.080504999 1.078369 9.8466797 7
-0.085006997 1.100342 9.8603516 7
-0.080436997 1.118286 9.8408203 7
-0.084945999 1.140503 9.8554688 7
-0.090957999 1.163452 9.8759766 7
-0.081863001 1.1787111 9.8388672 7
-0.098426998 1.20752 9.8984385 7
-0.095383003 1.226074 9.8837891 7
-0.08326 1.23938 9.8359385 7
-0.08625 1.260986 9.84375 7
-0.111824 4.2432861 8.9492188 7
-0.108772 4.2553711 8.9287109 7
-0.102699 4.2618408 8.9003906 7
-0.110191 4.2937012 8.9140615 7
-0.111633 4.314209 8.9082031 7
-0.105568 4.3205571 8.8779297 7
-0.104019 4.3354492 8.8632812 7
-0.111504 4.367188 8.8779297 7
-0.134041 4.427979 8.9404297 7
-0.13096599 4.440063 8.9199219 7
-0.135452 4.4664311 8.9238281 7
-0.072617002 4.7969971 -5.7099609 7
-0.059287999 4.751709 -5.6787109 7
-0.047424 4.7098389 -5.6523442 7
-0.05336 4.7054439 -5.6816411 7
-0.054825 4.6915278 -5.6972661 7
-0.051842 4.668335 -5.6992192 7
-0.056267001 4.6603999 -5.7246089 7
-0.053291 4.6375728 -5.7255859 7
-0.047348 4.6080322 -5.717773 7
-0.048813 4.5941162 -5.734375 7
-0.052878998 4.5839839 -5.7529302 7
-0.064713001 4.591064 -5.8027339 7
-0.064713001 4.57373 -5.813477 7
-0.067635 4.5626221 -5.8339839 7
-0.072075002 4.5541992 -5.859375 7
-0.066132002 4.5250239 -5.8505859 7
-0.060203999 4.495728 -5.8417969 7
-0.273911 -4.4857178 -6.407227 7
-0.27555799 -4.5253911 -6.391602 7
-0.27407801 -4.5410161 -6.375 7
-0.27104899 -4.5535889 -6.3554692 7
-0.27270499 -4.5931401 -6.3378911 7
-0.27429199 -4.6142578 -6.3320308 7
-0.271263 -4.6268311 -6.311523 7
-0.27138501 -4.6630859 -6.2880859 7
-0.28538501 -4.7261958 -6.3095698 7
-0.288589 -4.7684331 -6.296875 7
-0.29327399 -4.7957759 -6.2998052 7
-0.366615 -6.1004639 -5.648438 7
-0.37441301 -6.1357422 -5.655273 7
-0.37916601 -6.1801758 -5.6386719 7
-0.37922701 -6.1966548 -5.6230469 7
-0.38702399 -6.2320561 -5.6289058 7
-0.39333299 -6.280396 -5.6162109 7
-0.376434 -6.2718511 -5.5400391 7
-0.37191799 -6.2932129 -5.4980469 7
-0.37821999 -6.341064 -5.484375 7
-0.38755801 -6.380249 -5.4941411 7
-0.38607001 -6.3927002 -5.4746089 7
-0.106514 -1.9111331 9.4667969 7
-0.108063 -1.893433 9.4765615 7
-0.104912 -1.871582 9.4707031 7
-0.112701 -1.859009 9.5019531 7
-0.11425 -1.841064 9.5117188 7
-0.114258 -1.821777 9.5175781 7
-0.100159 -1.791382 9.4716797 7
-0.090774998 -1.765137 9.4433594 7
-0.095435999 -1.749634 9.4638672 7
-0.095412999 -1.7305911 9.4677734 7
-0.096969999 -1.712769 9.4775391 7
-0.095389999 -1.692505 9.4765615 7
-0.10318 -1.679077 9.5078115 7
-0.096909001 -1.655396 9.4892578 7
-0.093758002 -1.634033 9.4824219 7
-0.087494001 -1.610474 9.4638672 7
-0.136154 4.1696782 8.7421885 7
-0.13610099 4.1868901 8.7314453 7
-0.118935 4.1732178 8.6669922 7
-0.112656 4.1789551 8.6376953 7
-0.114166 4.19873 8.6328115 7
-0.106331 4.2015381 8.5986328 7
-0.110962 4.2272949 8.6025391 7
-0.104698 4.232666 8.5742188 7
-0.106194 4.252563 8.5683594 7
-0.107712 4.2723389 8.5634766 7
-0.106117 4.286499 8.5488281 7
-0.099838004 4.291626 8.5185547 7
-0.099792004 4.308228 8.5087891 7
-0.10598 4.336792 8.5175781 7
-0.107498 4.3565669 8.5126953 7
-0.118347 4.3944092 8.5361328 7
-0.13542899 4.4438481 8.578125 7
-0.126022 4.4428711 8.5380859 7
-0.129097 4.4656978 8.5380859 7
-0.066422001 4.7724609 -5.3164058 7
-0.061806001 4.746582 -5.313477 7
-0.052597001 4.7113042 -5.296875 7
-0.047997002 4.6854248 -5.2939448 7
-0.044914 4.6629639 -5.295898 7
-0.043365002 4.6437988 -5.3027339 7
-0.05407 4.6500239 -5.3457031 7
-0.050995 4.627563 -5.3476558 7
-0.049446002 4.6081538 -5.3544922 7
-0.049431 4.5919189 -5.3652339 7
-0.052483 4.5820308 -5.3847661 7
-0.050934002 4.5627441 -5.390625 7
-0.055534001 4.5557861 -5.4160161 7
-0.060112 4.5488281 -5.4414058 7
-0.075438999 4.563354 -5.4980469 7
-0.069297999 4.5344238 -5.4892578 7
-0.067749001 4.5148931 -5.4960942 7
-0.063133001 4.4892578 -5.4931641 7
-0.26686901 -4.4884028 -5.9638672 7
-0.274948 -4.520752 -5.976562 7
-0.273399 -4.5350342 -5.960938 7
-0.26863101 -4.5435791 -5.936523 7
-0.26708201 -4.5578609 -5.920898 7
-0.268738 -4.5782471 -5.9150391 7
-0.26879099 -4.5955811 -5.9042969 7
-0.27207199 -4.619019 -5.9003911 7
-0.27052301 -4.6330571 -5.8857422 7
-0.27377301 -4.6563721 -5.8837891 7
-0.27224001 -4.6705322 -5.867188 7
-0.26906601 -4.6817632 -5.8476558 7
-0.277145 -4.7139888 -5.859375 7
-0.29002401 -4.755981 -5.8867192 7
-0.29167199 -4.7762451 -5.8798828 7
-0.28531599 -4.7810059 -5.8496089 7
-0.36799601 -6.144165 -5.1162109 7
-0.37126899 -6.1671138 -5.108398 7
-0.37615201 -6.1943359 -5.1064448 7
-0.37619799 -6.2097168 -5.0917969 7
-0.37625101 -6.2249761 -5.077148 7
-0.37952399 -6.2481689 -5.070312 7
-0.38279 -6.2712402 -5.063477 7
-0.38443801 -6.2905269 -5.0527339 7
-0.382889 -6.3017578 -5.0341802 7
-0.38135499 -6.3129878 -5.014648 7
-0.373375 -6.3083501 -4.9794922 7
-0.375038 -6.3275151 -4.96875 7
-0.37510699 -6.3424072 -4.953125 7
-0.37836501 -6.365356 -4.9462891 7
-0.38002801 -6.3843989 -4.9355469 7
-0.37525901 -6.3874512 -4.9091802 7
-0.372116 -6.394165 -4.8857422 7
-0.096634001 -1.9198 9.0976562 7
-0.099868998 -1.904175 9.1132812 7
-0.098236002 -1.884644 9.1123047 7
-0.101463 -1.869141 9.1279297 7
-0.104683 -1.853394 9.1425781 7
-0.112785 -1.841431 9.1757812 7
-0.104652 -1.81665 9.1513672 7
-0.10788 -1.801025 9.1679688 7
-0.099753998 -1.7763669 9.1435547 7
-0.086760998 -1.747803 9.1044922 7
-0.088371001 -1.731079 9.1142578 7
-0.086731002 -1.711548 9.1132812 7
-0.083466001 -1.690796 9.1054688 7
-0.088310003 -1.676147 9.1259766 7
-0.086685002 -1.656616 9.125 7
-0.086669996 -1.63855 9.1289062 7
-0.086654998 -1.620239 9.1328115 7
-0.086639002 -1.6019289 9.1367188 7
-0.06089 0.97277802 9.1679688 7
-0.062469002 0.99182099 9.1708984 7
-0.055984002 1.007324 9.1464844 7
-0.055939 1.025635 9.1435547 7
-0.059142999 1.045532 9.1523438 7
-0.059119999 1.063843 9.1503906 7
-0.075301997 1.0899661 9.2041016 7
-0.070412003 1.106079 9.1845703 7
-0.070358001 1.124512 9.1816406 7
-0.078437999 1.146729 9.2070312 7
-0.070312001 1.1611331 9.1767578 7
-0.070274003 1.179565 9.1738281 7
-0.076729 1.201416 9.1933594 7
-0.071846001 1.217041 9.1738281 7
-0.070189998 1.234619 9.1650391 7
-0.078277998 1.2574461 9.1914062 7
-0.070137002 1.2713619 9.1601562 7
-0.13407101 4.185791 8.3447266 7
-0.132393 4.1992192 8.3291016 7
-0.124268 4.2008061 8.2949219 7
-0.117775 4.2054439 8.2666016 7
-0.103188 4.1949458 8.2128906 7
-0.099922001 4.2049561 8.1933594 7
-0.098259002 4.2180181 8.1787109 7
-0.096602999 4.2310791 8.1640615 7
-0.101402 4.255981 8.1679688 7
-0.098122001 4.2658691 8.1484385 7
-0.098076001 4.2818599 8.1376953 7
-0.098044999 4.297729 8.1289062 7
-0.094756998 4.3074951 8.1083984 7
-0.093108997 4.32019 8.09375 7
-0.094673 4.3391109 8.0878906 7
-0.104324 4.3734131 8.1054688 7
-0.115593 4.4108891 8.1289062 7
-0.131699 4.4580078 8.1669922 7
-0.128426 4.4676509 8.1464844 7
-0.12515301 4.4771729 8.1269531 7
-0.26790601 -4.4830322 -5.578125 7
-0.27793899 -4.5177002 -5.594727 7
-0.27799201 -4.5343022 -5.5849609 7
-0.28135699 -4.5568848 -5.5830078 7
-0.27808401 -4.5672612 -5.563477 7
-0.27148399 -4.5712891 -5.5332031 7
-0.27154499 -4.587769 -5.523438 7
-0.27159899 -4.6040039 -5.5126948 7
-0.27164501 -4.6203609 -5.500977 7
-0.27335399 -4.6398931 -5.4951172 7
-0.27673301 -4.662354 -5.492188 7
-0.27512401 -4.675415 -5.4775391 7
-0.270172 -4.6821289 -5.452148 7
-0.27860299 -4.7304692 -5.453125 7
-0.28697199 -4.7626948 -5.4648442 7
-0.287018 -4.7788091 -5.453125 7
-0.28874201 -4.7983398 -5.4462891 7
-0.098762996 -1.918457 8.7939453 7
-0.097053997 -1.899658 8.7929688 7
-0.100426 -1.884766 8.8095703 7
-0.100388 -1.86731 8.8134766 7
-0.095337003 -1.845703 8.8007812 7
-0.107079 -1.8375241 8.84375 7
-0.096977003 -1.812134 8.8154297 7
-0.098647997 -1.7956541 8.8251953 7
-0.090225004 -1.771606 8.8017578 7
-0.085175 -1.750244 8.7900391 7
-0.091888003 -1.737915 8.8164062 7
-0.090202004 -1.718994 8.8154297 7
-0.078400001 -1.692627 8.7802734 7
-0.081734002 -1.677734 8.7949219 7
-0.088448003 -1.665283 8.8212891 7
-0.083405003 -1.644043 8.8085938 7
-0.086739004 -1.628906 8.8242188 7
-0.073273003 -1.601685 8.7832031 7
-0.063499004 0.97241199 8.8769531 7
-0.061790001 0.98950201 8.8691406 7
-0.058403 1.005493 8.8554688 7
-0.056708999 1.022339 8.8476562 7
-0.056685999 1.039917 8.8457031 7
-0.056648001 1.057495 8.8427734 7
-0.056609999 1.075073 8.8398438 7
-0.059944 1.09436 8.8486328 7
-0.071663 1.117676 8.8857422 7
-0.068282999 1.1337889 8.8720703 7
-0.063225001 1.148682 8.8525391 7
-0.068222001 1.169067 8.8662109 7
-0.066497996 1.185791 8.8574219 7
-0.071517996 1.205933 8.8720703 7
-0.074836999 1.2255861 8.8798828 7
-0.071471997 1.241577 8.8671885 7
-0.078156002 1.262817 8.8857422 7
-0.074767999 1.278564 8.8720703 7
-0.26753199 -4.4873052 -5.202148 7
-0.26931801 -4.5057368 -5.195312 7
-0.27625301 -4.5341802 -5.203125 7
-0.278023 -4.552856 -5.1962891 7
-0.272888 -4.55896 -5.172852 7
-0.269485 -4.5681152 -5.1523442 7
-0.27300999 -4.5899658 -5.1494141 7
-0.26962301 -4.5991211 -5.1289058 7
-0.26966101 -4.614502 -5.1191411 7
-0.27144599 -4.6331792 -5.1113281 7
-0.27321601 -4.651855 -5.1054692 7
-0.27326199 -4.6669922 -5.094727 7
-0.26985899 -4.6757808 -5.0742192 7
-0.275078 -4.7010498 -5.077148 7
-0.26995799 -4.7064209 -5.0517578 7
-0.28895599 -4.7580571 -5.0908198 7
-0.28555301 -4.7668462 -5.070312 7
-0.29422799 -4.7988281 -5.0810552 7
-0.10218 -1.917847 8.5146484 7
-0.095229998 -1.89502 8.4980469 7
-0.096923999 -1.862915 8.5117188 7
-0.095192 -1.844604 8.5107422 7
-0.103859 -1.817871 8.5478516 7
-0.089928001 -1.7900389 8.5078115 7
-0.098609999 -1.7800291 8.5400391 7
-0.079437003 -1.748413 8.4833984 7
-0.082915999 -1.717407 8.5029297 7
-0.081130996 -1.6826169 8.5048828 7
-0.089821003 -1.672119 8.5371094 7
-0.082824998 -1.633301 8.5224609 7
-0.084549002 -1.617676 8.5322266 7
-0.060637999 0.96935999 8.5888672 7
-0.055397 0.98400903 8.5693359 7
-0.050133001 1.015503 8.5478516 7
-0.050087001 1.049316 8.5439453 7
-0.048331998 1.06543 8.5361328 7
-0.058678001 1.104126 8.5634766 7
-0.055183001 1.119507 8.5498047 7
-0.060348999 1.156006 8.5615234 7
-0.058540002 1.1887209 8.5507812 7
-0.061988998 1.207642 8.5595703 7
-0.051498 1.235718 8.5195312 7
-0.056678999 1.255249 8.5332031 7
-0.27346 -4.4836431 -4.8710942 7
-0.273514 -4.498291 -4.8613281 7
-0.27001199 -4.5065918 -4.8408198 7
-0.270042 -4.5212402 -4.8300781 7
-0.27545199 -4.545898 -4.8330078 7
-0.27370501 -4.5574951 -4.8173828 7
-0.28622401 -4.5950928 -4.8378911 7
-0.280922 -4.5999761 -4.8144531 7
-0.275635 -4.6046138 -4.7900391 7
-0.27745801 -4.6225591 -4.7832031 7
-0.277504 -4.637085 -4.7724609 7
-0.27577999 -4.648438 -4.7558589 7
-0.27761099 -4.6662598 -4.749023 7
-0.277679 -4.6807861 -4.7373052 7
-0.27770999 -4.695435 -4.7275391 7
-0.28131101 -4.7165532 -4.7246089 7
-0.27602401 -4.7208252 -4.7001948 7
-0.28676599 -4.7558589 -4.7148442 7
-0.28146401 -4.7597661 -4.6904302 7
-0.28150901 -4.774292 -4.679688 7
-0.105782 -1.916626 8.2529297 7
-0.102165 -1.897217 8.2470703 7
-0.096755996 -1.876709 8.234375 7
-0.098534003 -1.845825 8.25 7
-0.098526001 -1.829468 8.2539062 7
-0.103928 -1.817627 8.2744141 7
-0.087684996 -1.772583 8.234375 7
-0.098472998 -1.764648 8.2705078 7
-0.085868999 -1.73877 8.2373047 7
-0.087638997 -1.707764 8.25 7
-0.085845999 -1.690308 8.25 7
-0.082236998 -1.671265 8.2431641 7
-0.085793003 -1.641479 8.2626953 7
-0.067786999 -1.612427 8.2119141 7
-0.085762002 -1.609131 8.2695312 7
-0.064773999 0.96923798 8.3398438 7
-0.059326001 0.99963403 8.3193359 7
-0.055709999 1.01416 8.3056641 7
-0.055686999 1.03064 8.3027344 7
-0.062812999 1.06665 8.3203115 7
-0.05381 1.078613 8.2900391 7
-0.059158001 1.097656 8.3037109 7
-0.048324998 1.124634 8.265625 7
-0.050094999 1.141968 8.2685547 7
-0.051856998 1.159058 8.2714844 7
-0.046425 1.188599 8.2490234 7
-0.051787999 1.207642 8.2626953 7
-0.058936998 1.227905 8.2822266 7
-0.066071004 1.2644041 8.2988281 7
-0.062454 1.278809 8.2851562 7
-0.079695001 -1.676852 10.192942 7
-0.087480001 0.77104002 10.430457 7
-0.052147001 -1.713972 9.4340191 7
-0.065614 1.164364 9.6829319 7
-0.106474 4.212491 8.5944386 7
-0.086558998 4.2995229 8.3162327 7
-0.104538 -1.786431 8.9444294 7
-0.094278999 1.0400929 9.0824203 7
-0.107901 1.2721649 9.124855 7
-0.092863001 -1.833241 8.4885807 7
-0.074520998 1.139063 8.5953426 7
-0.073785 -1.848027 8.0440454 7
-0.059516001 -1.6467021 8.0385342 7
-0.046888001 1.03017 8.1621418 7
-0.04541 1.1995029 8.1105509 7
-0.103871 -1.863027 7.671967 7
-0.091182001 -1.681293 7.6846619 7
-0.072710998 1.106818 7.797286 7
-0.081220999 1.2774 7.7917762 7
-0.098100998 -1.894462 7.3837342 7
-0.075258002 -1.701169 7.3586369 7
-0.057661001 1.027916 7.531086 7
-0.058389999 1.174323 7.490972 7
-0.086253002 -1.9025429 7.0953431 7
-0.077156 -1.7513 7.1329389 7
-0.037714001 1.084545 7.2289872 7
-0.039739002 1.220576 7.192008 7
-0.070743002 -1.893595 6.8177142 7
-0.063784003 -1.7584831 6.8659039 7
-0.048951998 -1.605716 6.8779688 7
-0.030886 1.0228159 7.0487628 7
-0.098474003 -1.898445 6.5906692 7
-0.082285002 -1.752326 6.61204 7
-0.063196003 -1.601828 6.616168 7
-0.052478001 -1.612744 6.409235 7
0.118723 -1.50551 -10.3807 7
-0.0089330003 -1.433242 -8.4880314 7
0.040454999 -1.367281 -6.6594591 7
0.044041 -1.32963 -5.6306858 7
-0.308061 -6.3017578 -6.5306931 7
-0.319664 -6.2355042 -5.5140929 7
-0.022252999 -1.571463 -3.984272 7
-0.25900301 -4.7095518 -4.3370981 7
-0.016221 -1.52756 -3.42483 7
-0.248483 -4.6964288 -3.5721419 7
-0.079117 -1.72194 9.7623043 7
-0.23025399 -4.650887 -2.8633671 7
-0.069456004 -1.919551 9.2351551 7
-0.053284999 -1.6610661 9.206007 7
-0.22586399 -4.6390309 -2.302768 7
-0.104255 -1.844009 8.7464161 7
-0.099477001 -1.612779 8.7777147 7
-0.094005004 -1.792122 8.4059849 7
-0.071734004 -1.737166 8.0438328 7
-0.052216999 -1.873219 7.6777959 7
-0.034120999 -1.677508 7.648829 7
-0.076741003 -1.814787 7.3826499 7
-0.060451001 -1.633215 7.36309 7
-0.058501001 -1.76717 7.138041 7
-0.017854 -1.305946 -0.610066 7
-0.022754 -1.467376 -0.59877998 7
-0.040917002 -1.636322 -0.63100398 7
-0.069137998 -1.897864 6.9704838 7
-0.055210002 -1.733556 6.9663901 7
-0.0079920003 -1.290671 -0.413187 7
-0.014296 -1.444522 -0.40837499 7
-0.031346001 -1.6046129 -0.43606901 7
-0.048475999 -1.767754 -0.45652699 7
-0.043274 -1.841838 6.7349319 7
-0.038786002 -1.693812 6.762104 7
-0.061253998 -1.793211 6.5339799 7
-0.048202001 -1.648403 6.5317049 7
-0.070596002 -1.902687 6.400938 7
-0.110325 4.2849841 8.3807592 7
-0.062652998 1.079972 8.9715462 7
-0.040532 1.073854 8.534894 7
-0.022263 1.0686181 8.1625824 7
-0.034017 1.275394 8.1785488 7
-0.0048969998 1.063995 7.8312511 7
-0.020137001 1.257764 7.8648138 7
-0.035982002 1.058313 7.5361729 7
-0.050310999 1.239412 7.5643568 7
-0.018920001 1.054786 7.2752652 7
-0.03748 1.2257921 7.3207421 7
-0.008227 1.05177 7.0604749 7
-0.021159999 1.212665 7.0836391 7
-0.016178999 -1.091108 -15.011187 7
-0.112018 -0.81465203 -11.495204 7
-0.082460999 -1.185351 -10.940471 7
-0.36706999 -4.316617 -15.713807 7
-0.31764001 -4.3935819 -12.410613 7
-0.022008 -1.295409 -7.4015169 7
-0.042061999 4.6097212 -6.430779 7
-0.011236 -1.340006 -6.4811602 7
-0.034251999 4.5902338 -5.2362032 7
-0.059098002 -1.385374 -5.8223052 7
-0.25738701 -4.5332112 -6.4497218 7
-0.37666801 -6.18332 -6.6489611 7
-0.055224001 -1.430804 -5.32445 7
-0.242148 -4.6539998 -5.3769898 7
-0.040380999 -1.43314 -4.8214879 7
-0.238878 -4.586833 -4.6617422 7
-0.022321001 -1.415118 -4.36972 7
-0.035321999 -1.594288 -4.4001288 7
-0.28691301 -4.604054 -3.831506 7
-0.044909 -1.283024 -4.068295 7
-0.048202001 -1.4164619 -4.0368161 7
-0.053199999 -1.554968 -4.009285 7
-0.26166901 -4.5917668 -2.821821 7
-0.258623 -4.662262 -2.629427 7
-0.25125799 -4.696681 -2.426492 7
-0.030680001 -1.2818249 -3.76228 7
-0.036201999 -1.408913 -3.7405679 7
-0.042587999 -1.539382 -3.717694 7
-0.022941001 -1.391342 -3.4706731 7
-0.030825 -1.5152121 -3.4524701 7
-0.006978 -1.36049 -3.2173481 7
