# .PCD v0.7 - Point Cloud Data file format
VERSION 0.7
FIELDS x y z intensity
SIZE 4 4 4 4
TYPE F F F F
COUNT 1 1 1 1
WIDTH 1204
HEIGHT 1
VIEWPOINT 0 0 0 1 0 0 0
POINTS 1204
DATA ascii
0.121544 -1.749756 -68.746094 7
0.14122 -1.897339 -68.063477 7
0.163376 4.9407959 -66.561523 7
0.123726 4.7076421 -67.904297 7
0.27417001 1.307373 -62.80957 7
0.094260998 -1.8798831 -61.936523 7
0.13623799 -2.1357419 -60.639648 7
0.27732801 4.8409419 -55.77832 7
0.26548001 4.5968022 -56.144531 7
0.20778701 4.59375 -57.882812 7
0.17572001 4.5246582 -58.850586 7
0.275002 1.166504 -55.870117 7
0.030121 -2.1424561 -56.838867 7
0.092178002 -2.214478 -55.149414 7
0.126572 -2.3095701 -54.208984 7
0.082634002 -2.493408 -55.383789 7
-0.83711201 -2.6373291 73.243164 7
-0.82774401 -0.93176299 73.123047 7
0.231934 4.7999272 -50.858398 7
0.192192 4.7706299 -51.929688 7
0.15550999 4.729126 -52.920898 7
0.21355399 4.4681401 -51.370117 7
0.17252301 4.4328609 -52.476562 7
0.11145 4.4351811 -54.120117 7
-0.001534 -2.2228999 -52.124023 7
0.053153999 -2.2906489 -50.773438 7
0.094985999 -2.3665769 -49.739258 7
0.036263 -2.5576169 -51.166992 7
-0.83818799 -2.8900149 67.356445 7
0.213783 4.733398 -46.383789 7
0.17527799 4.710083 -47.326172 7
0.13852701 4.5596919 -48.233398 7
0.19923399 4.3095698 -46.764648 7
0.123558 4.3548579 -48.611328 7
0.18292999 0.98877001 -47.762695 7
0.010872 -2.345947 -46.827148 7
0.043869 -2.4226069 -46.085938 7
0.082122996 -2.489624 -45.227539 7
0.023186 -2.672852 -46.524414 7
0.066719003 -2.7298579 -45.548828 7
0.189796 4.658813 -42.4375 7
0.158485 4.6257319 -43.135742 7
0.12876099 4.58606 -43.798828 7
0.096106999 4.549561 -44.525391 7
0.155655 4.313477 -43.219727 7
0.12908199 4.2623291 -43.811523 7
0.093262002 4.2270508 -44.608398 7
-0.043983001 -2.433228 -44.177734 7
-0.016205 -2.5093989 -43.599609 7
0.014755 -2.578979 -42.957031 7
0.040282998 -2.6522219 -42.426758 7
0.055808999 -2.7358401 -42.097656 7
-0.59333003 0.064819001 53.116211 7
-0.62643403 0.189697 53.735352 7
0.096306004 4.7008061 -40.912109 7
0.10247 4.5865479 -40.794922 7
0.074561998 4.546021 -41.371094 7
0.042931002 4.5108638 -42.020508 7
0.043625001 4.1992192 -42.02832 7
0.135544 0.84643602 -40.662109 7
0.139671 0.74511701 -40.576172 7
0.12442 0.65051299 -40.888672 7
0.180672 0.53515601 -39.731445 7
-0.61296099 -2.7670901 49.0625 7
-0.52095002 0.058472 47.706055 7
-0.51770002 0.168091 47.65332 7
-0.51207697 0.27697799 47.55957 7
0.086418003 4.6781011 -37.345703 7
0.066223003 4.630127 -37.727539 7
0.046349 4.5793462 -38.104492 7
0.013596 4.5540771 -38.719727 7
0.00091599999 4.4846191 -38.961914 7
0.156509 1.214478 -36.207031 7
0.15415999 1.1262209 -36.25 7
0.144905 1.041504 -36.422852 7
0.12796 0.868774 -36.737305 7
0.122658 0.50769001 -36.831055 7
0.167656 0.31884801 -35.991211 7
0.16925 0.14086901 -35.957031 7
-0.55600703 -2.825562 44.749023 7
-0.57134998 -2.7384031 45.000977 7
-0.58042097 -2.6437991 45.15332 7
0.083534002 4.8347168 -34.344727 7
0.065757997 4.7897949 -34.658203 7
0.043922 4.7524409 -35.041016 7
0.028847 4.6982422 -35.306641 7
-0.0086289998 4.6911621 -35.955078 7
-0.021338999 4.6289058 -36.180664 7
0.150131 1.207275 -33.413086 7
0.10051 1.067261 -34.265625 7
0.116165 0.29602101 -34.319336 7
0.13974801 0.20886201 -33.911133 7
0.110817 0.127197 -34.408203 7
0.135406 0.041747998 -33.980469 7
0.12397 -0.03125 -30.916016 7
0.137604 -0.107544 -30.701172 7
0.111832 -0.185791 -31.102539 7
0.13659699 -0.26013201 -30.710938 7
-0.494225 -2.7331541 40.482422 7
-0.49929801 -2.6456299 40.56543 7
-0.50715601 -2.560425 40.6875 7
-0.538185 -2.4959719 41.148438 7
-0.42198199 0.320068 39.585938 7
-0.42140201 0.501831 39.624023 7
0.103333 4.8540039 -30.99707 7
0.085814998 4.816895 -31.280273 7
0.065742001 4.7844238 -31.604492 7
0.040833 4.7611079 -32.003906 7
0.017006001 4.733521 -32.383789 7
-0.010872 4.7130132 -32.828125 7
0.162056 1.478027 -30.323242 7
0.138817 1.342407 -30.691406 7
0.13758899 1.2668459 -30.710938 7
0.115189 1.203369 -31.064453 7
0.11544 1.125977 -31.061523 7
0.1007 0.046021 -31.28418 7
0.082336001 -0.110229 -29.670898 7
0.110718 -0.39892599 -29.242188 7
-0.40917999 0.299683 37.109375 7
-0.41244501 0.384644 37.15625 7
-0.412743 0.469482 37.161133 7
0.068747997 4.9033198 -29.324219 7
0.072227001 4.822144 -29.283203 7
0.055884998 4.785645 -29.532227 7
0.040732998 4.745605 -29.762695 7
0.01767 4.7216802 -30.108398 7
0.043708999 4.5906978 -29.738281 7
0.133453 1.47229 -28.651367 7
0.106743 1.418945 -29.045898 7
0.135612 1.327881 -28.623047 7
0.090515003 1.211182 -29.288086 7
0.081055 -0.36608899 -27.108398 7
0.106712 -0.42858899 -26.755859 7
0.079971001 -0.501831 -27.118164 7
0.085433997 -0.56823701 -27.041016 7
0.102936 -0.63049299 -26.798828 7
0.02877 5.09729 -27.462891 7
0.066803001 4.9395752 -26.962891 7
0.058556002 4.8909912 -27.083008 7
0.044762 4.854248 -27.279297 7
0.028388999 4.8225098 -27.509766 7
0.0047380002 4.8057861 -27.837891 7
-0.012505 4.7736821 -28.079102 7
0.101768 1.585205 -26.828125 7
0.130402 1.496948 -26.44043 7
0.114868 1.44165 -26.654297 7
0.089027002 1.391968 -27.007812 7
0.106941 1.31311 -26.766602 7
-0.0093919998 5.1113281 -25.994141 7
0.035439 4.942749 -25.443359 7
0.031235 4.8884282 -25.505859 7
0.019234 4.8510742 -25.667969 7
0.0026700001 4.8233638 -25.885742 7
-0.019866999 4.807251 -26.178711 7
0.108612 1.662598 -24.851562 7
0.112083 1.535156 -24.8125 7
0.094100997 1.485474 -25.044922 7
0.085372999 1.429565 -25.383789 7
0.082549997 1.367798 -25.422852 7
0.093422003 1.297485 -25.286133 7
0.063965 -0.68310499 -23.707031 7
0.076683 -0.73803699 -23.553711 7
0.048485 -0.80786097 -23.884766 7
0.057250999 -0.86413598 -23.776367 7
0.066513002 -0.91979998 -23.664062 7
0.0030670001 5.0731201 -23.801758 7
0.031615999 4.9475098 -23.481445 7
0.022163 4.9095459 -23.601562 7
0.01368 4.868896 -23.709961 7
-0.001198 4.842041 -23.894531 7
-0.018051 4.818604 -24.100586 7
-0.029479999 4.7824712 -24.244141 7
0.103661 1.780396 -23.019531 7
0.105385 1.604614 -23.007812 7
0.038291998 -1.037964 -22.303711 7
0.045051999 -1.09082 -22.225586 7
-0.142822 -4.0250239 -23.947266 7
-0.129196 -4.060791 -23.788086 7
-0.002235 5.0854492 -22.117188 7
0.018828999 4.980957 -21.901367 7
0.011368 4.9422612 -21.993164 7
0.00019799999 4.9117432 -22.124023 7
-0.0072559998 4.8721919 -22.21582 7
-0.022652 4.8496089 -22.393555 7
-0.031753998 4.8187261 -22.518555 7
0.071869001 1.908447 -21.732422 7
0.089240998 1.838135 -21.545898 7
0.078048997 1.7930911 -21.671875 7
0.073746003 1.741455 -21.722656 7
0.084236003 1.677979 -21.610352 7
0.076233 1.629517 -21.702148 7
0.059746001 1.58667 -21.885742 7
0.038810998 -0.97045898 -20.764648 7
0.045502 -1.019653 -20.692383 7
-0.159126 -4.0725098 -22.424805 7
0.011955 5.0379639 -20.383789 7
0.0068049999 4.9976811 -20.446289 7
-0.00059499999 4.9624019 -20.532227 7
-0.006302 4.922852 -20.600586 7
-0.018219 4.8968511 -20.731445 7
-0.035209998 4.8814702 -20.913086 7
-0.037537001 4.833252 -20.947266 7
0.079337999 1.881592 -20.150391 7
0.065117002 1.842651 -20.298828 7
0.062781997 1.792847 -20.326172 7
0.074577004 1.731323 -20.208008 7
0.068839997 1.68457 -20.269531 7
0.054085001 1.644165 -20.424805 7
0.001083 -0.97790498 -19.792969 7
0.01358 -1.022217 -19.668945 7
0.016502 -1.0706789 -19.637695 7
-0.0045699999 -1.131348 -19.837891 7
-0.000443 -1.1793211 -19.794922 7
0.0030439999 -1.227417 -19.757812 7
0.0035550001 -1.2771 -19.748047 7
-0.178139 -4.177856 -21.111328 7
-0.174637 -4.2246089 -21.067383 7
-0.16873901 -4.2670898 -21 7
-0.16883101 -4.3200679 -20.990234 7
0.050797001 1.890381 -19.117188 7
0.052528001 1.8399661 -19.103516 7
0.047653001 1.795166 -19.155273 7
0.054786999 1.740356 -19.088867 7
0.052306999 1.693604 -19.116211 7
0.050438002 1.646118 -19.136719 7
-0.0069729998 -1.015259 -18.560547 7
0.010185 -1.054199 -18.400391 7
0.013924 -1.099243 -18.363281 7
-0.0072169998 -1.157104 -18.552734 7
-0.0066829999 -1.2038569 -18.542969 7
-0.0041959998 -1.25 -18.517578 7
-0.190437 -4.1921391 -19.790039 7
-0.185417 -4.2330322 -19.735352 7
-0.17847399 -4.2703862 -19.662109 7
-0.1754 -4.314209 -19.62207 7
-0.173584 -4.3604741 -19.594727 7
-0.194809 -4.449707 -19.772461 7
0.043648001 1.596069 -17.931641 7
0.052544001 1.543579 -17.853516 7
0.060157999 1.49231 -17.788086 7
0.066474997 1.4423831 -17.732422 7
0.053619001 1.405151 -17.852539 7
0.053543001 1.359375 -17.856445 7
0.054131001 1.3132319 -17.853516 7
-0.013908 -1.006348 -17.501953 7
-0.0092470003 -1.048828 -17.458008 7
-0.001892 -1.089722 -17.392578 7
-0.006699 -1.136719 -17.429688 7
-0.026381999 -1.191895 -17.595703 7
-0.024436999 -1.2355959 -17.575195 7
-0.019104 -1.2774661 -17.526367 7
-0.210464 -4.1820068 -18.735352 7
-0.205818 -4.221313 -18.685547 7
-0.20319401 -4.263916 -18.652344 7
-0.19854701 -4.3027339 -18.602539 7
-0.193901 -4.3415532 -18.552734 7
-0.19467901 -4.3900151 -18.547852 7
-0.058104999 5.086792 -17.131836 7
-0.023674 4.96521 -16.857422 7
-0.031151 4.9382319 -16.932617 7
-0.037292 4.9082031 -16.994141 7
-0.042075999 4.8745122 -17.044922 7
-0.054290999 4.8570561 -17.157227 7
0.036757998 1.512085 -16.907227 7
0.048195001 1.4605711 -16.8125 7
0.047455002 1.417725 -16.820312 7
0.044693001 1.3762209 -16.847656 7
0.040557999 1.335327 -16.885742 7
0.046585001 1.2880861 -16.835938 7
0.0031590001 -1.150146 -16.266602 7
-0.21471401 -4.2185059 -17.557617 7
-0.21481299 -4.2633061 -17.546875 7
-0.209885 -4.2990718 -17.49707 7
-0.20710801 -4.338501 -17.464844 7
-0.202179 -4.374023 -17.415039 7
-0.21305799 -4.4385991 -17.488281 7
0.031479001 1.264282 -15.90918 7
0.040755998 1.217773 -15.835938 7
0.062164001 1.1242681 -15.667969 7
0.051346 1.089233 -15.757812 7
0.042663999 1.0526119 -15.829102 7
0.048981 0.967529 -15.78125 7
0.064002998 0.91992199 -15.662109 7
0.067528002 0.87780797 -15.635742 7
0.063095003 0.79821801 -15.674805 7
-0.22209901 -4.2097168 -16.516602 7
-0.232841 -4.270752 -16.585938 7
-0.224663 -4.3408198 -16.50293 7
-0.22021499 -4.3751221 -16.458984 7
-0.21953601 -4.415894 -16.443359 7
0.065323003 0.44641101 -14.71875 7
0.066780001 0.407837 -14.708008 7
-0.22074901 -4.1740718 -15.467773 7
-0.223244 -4.2181401 -15.475586 7
-0.231361 -4.2723389 -15.521484 7
-0.231461 -4.3123779 -15.510742 7
-0.225914 -4.3422852 -15.461914 7
-0.223602 -4.3778081 -15.43457 7
-0.219658 -4.4103999 -15.396484 7
-0.22619601 -4.4619141 -15.429688 7
0.055137999 0.31457499 -13.900391 7
0.063049003 0.24084499 -13.84082 7
0.057312001 0.16870099 -13.883789 7
0.054039001 0.132324 -13.908203 7
0.056389 0.095825002 -13.889648 7
0.057921998 0.059448 -13.876953 7
0.060272001 0.022949001 -13.860352 7
0.041451 -0.015381 -13.356445 7
0.047295 -0.050292999 -13.31543 7
0.047240999 -0.085083 -13.31543 7
0.044647001 -0.119995 -13.332031 7
0.038695998 -0.155396 -13.373047 7
0.035262998 -0.19067401 -13.395508 7
0.041106999 -0.225098 -13.354492 7
0.041901 -0.25988799 -13.347656 7
0.043533001 -0.29455599 -13.334961 7
-0.034821 -1.279175 -13.811523 7
-0.024796 -1.309082 -13.738281 7
-0.023232 -1.379761 -13.720703 7
-0.231949 -4.2097168 -14.632812 7
-0.23034699 -4.2445068 -14.611328 7
-0.24394999 -4.306519 -14.691406 7
-0.23728199 -4.33252 -14.635742 7
-0.235664 -4.3674321 -14.614258 7
-0.23407 -4.4021001 -14.592773 7
-0.23331501 -4.438477 -14.576172 7
-0.229164 -4.4683838 -14.538086 7
-0.05204 4.960938 -13.081055 7
-0.039466999 4.8642578 -13.021484 7
-0.041175999 4.8334961 -13.043945 7
-0.043761998 4.8044429 -13.071289 7
0.015213 -0.380371 -12.641602 7
0.012489 -0.41442901 -12.65918 7
0.019539 -0.44641101 -12.612305 7
0.023941001 -0.479004 -12.582031 7
0.026535001 -0.51147503 -12.5625 7
0.0095370002 -0.58252001 -12.669922 7
0.013863 -0.64831501 -12.638672 7
0.018105 -0.68457001 -12.745117 7
0.011833 -0.72021502 -12.78418 7
-0.044975001 -1.28894 -13.108398 7
-0.033539001 -1.316528 -13.029297 7
-0.033592001 -1.3505861 -13.026367 7
-0.030998001 -1.383057 -13.006836 7
-0.031952001 -1.417725 -13.008789 7
-0.044426002 -1.459839 -13.085938 7
-0.044479001 -1.494141 -13.083008 7
-0.233391 -4.1802979 -13.789062 7
-0.232582 -4.2146001 -13.773438 7
-0.239777 -4.262939 -13.808594 7
-0.251434 -4.319458 -13.870117 7
-0.25238001 -4.3570561 -13.866211 7
-0.245361 -4.3803711 -13.810547 7
-0.24189 -4.4100342 -13.77832 7
-0.241074 -4.4442139 -13.762695 7
-0.23851 -4.4753418 -13.734375 7
0.0067210002 -0.65539598 -12.144531 7
0.003853 -0.688232 -12.15918 7
0.012177 -0.717529 -12.105469 7
0.011185 -0.74987799 -12.109375 7
0.00090799999 -0.78552198 -12.170898 7
-0.0038069999 -0.81945801 -12.198242 7
-0.0029219999 -0.85119599 -12.19043 7
-0.001129 -0.88269001 -12.176758 7
0.005318 -0.91210902 -12.133789 7
0.0052800002 -0.94409198 -12.132812 7
-0.0037080001 -0.80908197 -11.521484 7
-0.013542 -0.84338403 -11.577148 7
-0.0067520002 -0.87146002 -11.535156 7
-6.0999999e-05 -0.96032703 -11.489258 7
-0.016739 -0.998169 -11.583984 7
-0.019722 -1.030396 -11.598633 7
-0.012939 -1.057739 -11.556641 7
-0.009079 -1.086426 -11.530273 7
-0.010117 -1.1175539 -11.533203 7
-0.019943001 -1.15332 -11.587891 7
-0.020973001 -1.18457 -11.591797 7
-0.022003001 -1.21582 -11.594727 7
-0.023041001 -1.247192 -11.59668 7
-0.026024001 -1.279541 -11.611328 7
-0.025832999 -0.98669398 -11.051758 7
-0.016685 -1.012085 -10.998047 7
-0.010605 -1.038208 -10.960938 7
-0.010658 -1.067627 -10.958008 7
-0.021957001 -1.1025389 -11.018555 7
-0.036316 -1.139282 -11.095703 7
-0.036362 -1.168823 -11.09375 7
-0.024162 -1.19165 -11.021484 7
-0.024208 -1.221191 -11.019531 7
-0.026320999 -1.251465 -11.027344 7
-0.040801998 4.7797852 -10.150391 7
-0.043900002 4.7589111 -10.176758 7
-0.045952 4.7355962 -10.199219 7
-0.050055999 4.7163091 -10.231445 7
-0.015938001 -0.96240199 -10.393555 7
-0.021346999 -0.99267602 -10.420898 7
-0.023544 -1.021606 -10.429688 7
-0.022522001 -1.049194 -10.421875 7
-0.027930999 -1.07959 -10.447266 7
-0.024757 -1.106079 -10.427734 7
-0.018386999 -1.130859 -10.390625 7
-0.019493001 -1.15918 -10.393555 7
-0.021698 -1.1882319 -10.402344 7
-0.02282 -1.216675 -10.405273 7
-0.0261 -1.246582 -10.419922 7
-0.026154 -1.274536 -10.416016 7
-0.364914 -6.1126709 -10.782227 7
-0.36499 -6.1413569 -10.768555 7
-0.361839 -6.162354 -10.739258 7
-0.356552 -6.177979 -10.698242 7
-0.36524999 -6.2277832 -10.724609 7
-0.36425799 -6.2537842 -10.705078 7
-0.365417 -6.2851558 -10.694336 7
-0.37519801 -6.337646 -10.724609 7
-0.37851 -6.3742681 -10.724609 7
-0.044495001 4.790894 -9.5058594 7
-0.043442 4.7624512 -9.5126953 7
-0.047745001 4.745605 -9.5449219 7
-0.044555999 4.712646 -9.5400391 7
-0.047775 4.6932368 -9.5673828 7
-0.049957 4.6715088 -9.5888672 7
-0.031013001 -1.1413569 -9.9375 7
-0.033318002 -1.169312 -9.9453115 7
-0.029083 -1.300781 -9.9082031 7
-0.25044999 -4.4857178 -10.239258 7
-0.24826799 -4.5090332 -10.216797 7
-0.25507399 -4.5490718 -10.238281 7
-0.25065601 -4.5682368 -10.206055 7
-0.25634 -4.6062012 -10.22168 7
-0.262016 -4.6445308 -10.238281 7
-0.073951997 4.7940669 -9.1005859 7
-0.07621 4.7736821 -9.1220703 7
-0.072861001 4.7415771 -9.1181641 7
-0.071777001 4.7139888 -9.1230469 7
-0.06955 4.684082 -9.1240234 7
-0.069572002 4.6591802 -9.1337891 7
-0.071823001 4.6385498 -9.15625 7
-0.071837999 4.6132808 -9.1679688 7
-0.067390002 4.578979 -9.15625 7
-0.060699001 4.5401611 -9.1357422 7
-0.060715001 4.5150151 -9.1464844 7
-0.057388 4.4832759 -9.1416016 7
-0.03334 -1.297852 -9.4335938 7
-0.032226998 -1.322632 -9.4238281 7
-0.04628 -1.356812 -9.4902344 7
-0.049842998 -1.384644 -9.5039062 7
-0.045219 -1.4074709 -9.4775391 7
-0.045258 -1.433228 -9.4746094 7
-0.044135999 -1.458374 -9.4658203 7
-0.044188999 -1.484009 -9.4619141 7
-0.052421998 -1.515015 -9.4980469 7
-0.058318999 -1.544922 -9.5224609 7
-0.060699001 -1.572266 -9.5292969 7
-0.021652 -1.297119 -8.4453115 7
-0.024223 -1.3218991 -8.4541016 7
-0.028107001 -1.3475339 -8.4667969 7
-0.037055999 -1.376465 -8.5039062 7
-0.044716001 -1.404663 -8.5341797 7
-0.033333 -1.420898 -8.4794922 7
-0.033363 -1.444214 -8.4765615 7
-0.035957001 -1.46936 -8.484375 7
-0.038536001 -1.494385 -8.4921885 7
-0.039871 -1.518677 -8.4941406 7
-0.053893998 -1.55188 -8.5537109 7
-0.053947002 -1.575195 -8.5498047 7
-0.25975001 -4.5371089 -8.5732422 7
-0.26109299 -4.5631099 -8.5683594 7
-0.26370201 -4.5915532 -8.5673828 7
-0.25994101 -4.6077881 -8.5410156 7
-0.263832 -4.6386719 -8.5458984 7
-0.269005 -4.6717529 -8.5556641 7
-0.275444 -4.70752 -8.5703115 7
-0.27933499 -4.738647 -8.5742188 7
-0.280678 -4.764648 -8.5683594 7
-0.28202799 -4.790771 -8.5615234 7
-0.032515999 -1.29541 -8.0859385 7
-0.035202 -1.319214 -8.0927734 7
-0.033920001 -1.34082 -8.0839844 7
-0.043242998 -1.369019 -8.1201172 7
-0.056511 -1.399658 -8.1738281 7
-0.060532 -1.424927 -8.1875 7
-0.048659999 -1.439941 -8.1328115 7
-0.050026 -1.463379 -8.1347656 7
-0.048758999 -1.484985 -8.125 7
-0.050110001 -1.508423 -8.1279297 7
-0.052802999 -1.532715 -8.1357422 7
-0.066086002 -1.5643311 -8.1884766 7
-0.071425997 -1.59082 -8.2080078 7
-0.27854201 -4.4995122 -8.1884766 7
-0.27860299 -4.5222168 -8.1777344 7
-0.27467301 -4.5375981 -8.1523438 7
-0.27607 -4.5627441 -8.1455078 7
-0.27479601 -4.5827641 -8.1298828 7
-0.27486399 -4.6052251 -8.1191406 7
-0.27625301 -4.630249 -8.1132812 7
-0.277641 -4.655273 -8.1074219 7
-0.28435501 -4.6903081 -8.1210938 7
-0.293686 -4.7305908 -8.1464844 7
-0.293762 -4.7532959 -8.1347656 7
-0.296471 -4.7808838 -8.1337891 7
-0.29122201 -4.7929692 -8.1025391 7
-0.279228 -4.4855962 -7.7080078 7
-0.272369 -4.4945068 -7.671875 7
-0.26551801 -4.5031738 -7.6367192 7
-0.26972201 -4.5323491 -7.640625 7
-0.26563999 -4.545898 -7.6152339 7
-0.265701 -4.5671391 -7.6035161 7
-0.26991299 -4.596313 -7.608398 7
-0.26859301 -4.6151118 -7.592773 7
-0.27694699 -4.6521001 -7.6123052 7
-0.279778 -4.6787109 -7.609375 7
-0.28813201 -4.7155762 -7.6289058 7
-0.29373899 -4.7475591 -7.6367192 7
-0.29103899 -4.7634282 -7.6162109 7
-0.29109201 -4.7849121 -7.6044922 7
-0.048645001 4.7255859 -6.4658198 7
-0.041763 4.6923828 -6.453125 7
-0.048659999 4.6879878 -6.4873052 7
-0.051414002 4.6558838 -6.5205078 7
-0.052795 4.6398931 -6.5361328 7
-0.055565 4.6265869 -6.5566411 7
-0.052825999 4.5828862 -6.5693359 7
-0.052841 4.5635991 -6.5800781 7
-0.065215997 4.5698242 -6.6347661 7
-0.065238997 4.5313721 -6.65625 7
-0.059746001 4.500977 -6.6464839 7
-0.278534 -4.497437 -7.2617192 7
-0.28147101 -4.523315 -7.2607422 7
-0.27722901 -4.535645 -7.235352 7
-0.27442899 -4.5507808 -7.2138672 7
-0.27590901 -4.5740972 -7.2080078 7
-0.27310899 -4.5888672 -7.1875 7
-0.27603099 -4.614624 -7.186523 7
-0.27896899 -4.6402588 -7.1855469 7
-0.28475201 -4.6715088 -7.1943359 7
-0.27907601 -4.6807861 -7.1630859 7
-0.28630799 -4.7148442 -7.1777339 7
-0.290665 -4.7431641 -7.1806641 7
-0.293594 -4.769043 -7.179688 7
-0.297966 -4.797852 -7.1826172 7
-0.37908199 -6.0922852 -6.7011719 7
-0.38201901 -6.1181641 -6.6943359 7
-0.38496399 -6.1442871 -6.6894531 7
-0.38645899 -6.166748 -6.679688 7
-0.392281 -6.199707 -6.6826172 7
-0.39665201 -6.229248 -6.6806641 7
-0.39242601 -6.237793 -6.6523442 7
-0.38818401 -6.24646 -6.624023 7
-0.38536099 -6.2583008 -6.6005859 7
-0.381111 -6.2667241 -6.5722661 7
-0.38406399 -6.292603 -6.5664058 7
-0.38268301 -6.3079829 -6.546875 7
-0.38274401 -6.3267822 -6.532227 7
-0.389999 -6.3634028 -6.539062 7
-0.38862601 -6.3782959 -6.5195308 7
-0.063865997 4.7922359 -6.0810552 7
-0.059593 4.7651372 -6.077148 7
-0.049621999 4.7261958 -6.054688 7
-0.043922 4.6962891 -6.0449219 7
-0.043922 4.6783452 -6.0556641 7
-0.045348998 4.6634521 -6.0732422 7
-0.043938 4.6427002 -6.078125 7
-0.046783 4.6304932 -6.1005859 7
-0.043945 4.606812 -6.0996089 7
-0.04538 4.5917969 -6.117188 7
-0.049667001 4.5826421 -6.1425781 7
-0.052521002 4.570312 -6.1630859 7
-0.061096001 4.5697021 -6.202148 7
-0.065375999 4.5601811 -6.2285161 7
-0.063956998 4.539062 -6.234375 7
-0.058258001 4.5092769 -6.2255859 7
-0.056839 4.4882808 -6.2314448 7
-0.28102899 -4.480957 -6.8466802 7
-0.288551 -4.513916 -6.859375 7
-0.28859699 -4.5333252 -6.8486328 7
-0.28122699 -4.5393071 -6.813477 7
-0.273819 -4.5449219 -6.7773442 7
-0.28133401 -4.5780029 -6.7919922 7
-0.28883401 -4.6113281 -6.8056641 7
-0.28143299 -4.6168208 -6.7695308 7
-0.28298199 -4.638916 -6.7636719 7
-0.29197699 -4.6750488 -6.782227 7
-0.28756699 -4.6859131 -6.7568359 7
-0.28762099 -4.7052002 -6.7460942 7
-0.29363999 -4.7357178 -6.7539058 7
-0.29967499 -4.7667241 -6.7617192 7
-0.393639 -6.316895 -6.0761719 7
-0.386246 -6.3162842 -6.039062 7
-0.39077801 -6.344727 -6.0371089 7
-0.40278599 -6.3919678 -6.0556641 7
-0.349525 -5.1080322 9.3847656 7
-0.33287799 -5.055542 9.3447266 7
-0.329842 -5.0307622 9.3466797 7
-0.329842 -5.0118408 9.359375 7
-0.335899 -5.0050049 9.3896484 7
-0.338936 -4.992065 9.4121094 7
-0.33136699 -4.958252 9.3994141 7
-0.33589199 -4.9481201 9.4248047 7
-0.33892801 -4.9350591 9.4472656 7
-0.33438101 -4.907227 9.4433594 7
-0.335899 -4.8911128 9.4599609 7
-0.331375 -4.8631592 9.4589844 7
-0.335915 -4.8527832 9.484375 7
-0.32077 -4.804688 9.4472656 7
-0.113564 -1.90564 9.796875 7
-0.11203 -1.884644 9.7958984 7
-0.125626 -1.875854 9.8496094 7
-0.122581 -1.853394 9.84375 7
-0.11499 -1.8273931 9.8203115 7
-0.107407 -1.801392 9.796875 7
-0.10891 -1.782959 9.8066406 7
-0.098282002 -1.754639 9.7724609 7
-0.096755996 -1.7336431 9.7714844 7
-0.095215 -1.712891 9.7695312 7
-0.107315 -1.702148 9.8183594 7
-0.099730998 -1.676636 9.7939453 7
-0.101204 -1.657837 9.8027344 7
-0.108772 -1.643433 9.8349609 7
-0.107231 -1.622437 9.8330078 7
-0.1222 4.333252 8.9443359 7
-0.125145 4.3569341 8.9433594 7
-0.121994 4.4042969 8.9042969 7
-0.127968 4.4337158 8.9130859 7
-0.13091999 4.4571528 8.9121094 7
-0.055550002 4.7390141 -5.657227 7
-0.052574001 4.7158198 -5.6591802 7
-0.051093999 4.6958008 -5.6660161 7
-0.049614001 4.6757808 -5.671875 7
-0.049628999 4.658813 -5.6826172 7
-0.046668999 4.6357422 -5.6835942 7
-0.054076999 4.6341548 -5.71875 7
-0.049637001 4.6080322 -5.7148442 7
-0.045189001 4.5817871 -5.710938 7
-0.057053 4.5889888 -5.7617192 7
-0.061516002 4.5809331 -5.7861328 7
-0.067436002 4.5758061 -5.8164058 7
-0.071898997 4.5673828 -5.8417969 7
-0.065971002 4.538208 -5.8330078 7
-0.073386997 4.5357671 -5.8681641 7
-0.067459002 4.5065918 -5.859375 7
-0.073386997 4.483398 -5.9003911 7
-0.28505701 -4.5137939 -6.4560552 7
-0.29127499 -4.5437012 -6.4648442 7
-0.283638 -4.547852 -6.429688 7
-0.28060201 -4.5609131 -6.4091802 7
-0.28219599 -4.5820308 -6.4033198 7
-0.282249 -4.6005859 -6.3925781 7
-0.27923599 -4.6132808 -6.3710942 7
-0.282372 -4.6373291 -6.3701172 7
-0.27934301 -4.6499019 -6.3496089 7
-0.277863 -4.6652832 -6.3339839 7
-0.284073 -4.695312 -6.342773 7
-0.29492199 -4.7342529 -6.3642578 7
-0.29961401 -4.7614751 -6.367188 7
-0.29811901 -4.776855 -6.351562 7
-0.29971299 -4.7982178 -6.344727 7
-0.380669 -6.0943599 -5.742188 7
-0.389999 -6.1331792 -5.7529302 7
-0.38079801 -6.1280522 -5.7138672 7
-0.390129 -6.1669922 -5.7236328 7
-0.38710001 -6.1763921 -5.7011719 7
-0.390259 -6.200562 -5.695312 7
-0.39495099 -6.2287598 -5.6923828 7
-0.402733 -6.2641602 -5.6992192 7
-0.398155 -6.2696528 -5.671875 7
-0.39359999 -6.2750239 -5.6435552 7
-0.392113 -6.2878418 -5.625 7
-0.396355 -6.3157959 -5.6230469 7
-0.391785 -6.3210449 -5.5957031 7
-0.39186901 -6.337646 -5.5800781 7
-0.39346299 -6.3579102 -5.5693359 7
-0.39659899 -6.3820801 -5.5625 7
-0.38894701 -6.379395 -5.5263672 7
-0.38901499 -6.3956299 -5.5117192 7
-0.341492 -5.0930181 8.9628906 7
-0.33837101 -5.0688481 8.9658203 7
-0.32897201 -5.032227 8.9492188 7
-0.32585099 -5.007935 8.9521484 7
-0.32429501 -4.987061 8.9599609 7
-0.32899499 -4.978394 8.9853516 7
-0.33055899 -4.963501 9.0029297 7
-0.33211499 -4.9486079 9.0185547 7
-0.33055899 -4.9273682 9.0263672 7
-0.32899499 -4.9064941 9.0322266 7
-0.33368701 -4.8974609 9.0585938 7
-0.33839399 -4.8883061 9.0849609 7
-0.33525801 -4.8642578 9.0859385 7
-0.33055899 -4.8370361 9.0839844 7
-0.33056599 -4.8187261 9.0957031 7
-0.111778 -1.913574 9.4785156 7
-0.111771 -1.8944089 9.4833984 7
-0.111763 -1.875244 9.4892578 7
-0.114861 -1.858765 9.5039062 7
-0.114853 -1.839478 9.5087891 7
-0.114838 -1.82019 9.5136719 7
-0.110123 -1.797485 9.5 7
-0.094460003 -1.766113 9.4511719 7
-0.097557001 -1.749512 9.4648438 7
-0.102242 -1.734131 9.4853516 7
-0.102226 -1.715088 9.4902344 7
-0.102211 -1.695923 9.4941406 7
-0.10688 -1.6800539 9.5146484 7
-0.102165 -1.657593 9.5019531 7
-0.095886 -1.634033 9.4833984 7
-0.095879003 -1.614868 9.4873047 7
-0.124657 4.16748 8.6972656 7
-0.130844 4.1960449 8.7080078 7
-0.116783 4.1876221 8.6542969 7
-0.107399 4.1876221 8.6152344 7
-0.104233 4.1989751 8.5957031 7
-0.101074 4.2102051 8.5761719 7
-0.099463999 4.2241211 8.5605469 7
-0.102531 4.2468262 8.5605469 7
-0.100922 4.2609859 8.5458984 7
-0.100868 4.27771 8.5351562 7
-0.10083 4.2945561 8.5253906 7
-0.096123002 4.3026118 8.5019531 7
-0.094512999 4.3164058 8.4863281 7
-0.10379 4.3508301 8.5048828 7
-0.103745 4.3676758 8.4951172 7
-0.120811 4.4171138 8.5361328 7
-0.12543499 4.4429932 8.5410156 7
-0.126938 4.4628911 8.5351562 7
-0.126884 4.4796138 8.5244141 7
-0.062752001 4.5510249 -5.4433589 7
-0.071967997 4.5533452 -5.4824219 7
-0.070441999 4.5333252 -5.4882808 7
-0.065842003 4.50769 -5.485352 7
-0.065857001 4.4912109 -5.4951172 7
-0.283485 -4.4914551 -6.045898 7
-0.28994799 -4.520752 -6.0556641 7
-0.28359199 -4.5266109 -6.0244141 7
-0.28846699 -4.552979 -6.0283198 7
-0.27891499 -4.552856 -5.9892578 7
-0.277367 -4.5672612 -5.9726558 7
-0.27902201 -4.587769 -5.967773 7
-0.28227201 -4.611084 -5.9667969 7
-0.28553 -4.6343989 -5.9638672 7
-0.28558299 -4.651855 -5.953125 7
-0.28401899 -4.6663818 -5.938477 7
-0.28249401 -4.680542 -5.921875 7
-0.28573599 -4.703979 -5.9199219 7
-0.2938 -4.7365718 -5.9326172 7
-0.30504599 -4.7753911 -5.9550781 7
-0.29871401 -4.780396 -5.9238281 7
-0.394272 -6.2950439 -5.1191411 7
-0.39271501 -6.306396 -5.0996089 7
-0.38798499 -6.3100591 -5.0712891 7
-0.38162199 -6.3096919 -5.0410161 7
-0.38648999 -6.336792 -5.0371089 7
-0.38333899 -6.3439941 -5.014648 7
-0.38661999 -6.367065 -5.0068359 7
-0.39147899 -6.394165 -5.0039058 7
-0.344971 -5.1064448 8.5371094 7
-0.33523601 -5.0531011 8.5332031 7
-0.332008 -5.012939 8.5488281 7
-0.33850899 -5.0087891 8.578125 7
-0.33527401 -4.985352 8.5810547 7
-0.338516 -4.9576421 8.6142578 7
-0.33852401 -4.9234619 8.6376953 7
-0.341766 -4.8955078 8.6699219 7
-0.33852401 -4.8720698 8.671875 7
-0.340157 -4.8580322 8.6884766 7
-0.33367199 -4.8110352 8.6933594 7
-0.105263 -1.906738 9.125 7
-0.10524 -1.870239 9.1347656 7
-0.113297 -1.84021 9.1699219 7
-0.108414 -1.817993 9.1582031 7
-0.108414 -1.799683 9.1630859 7
-0.092139997 -1.750366 9.1162109 7
-0.090484999 -1.712646 9.1191406 7
-0.096931003 -1.680908 9.1494141 7
-0.093666002 -1.660278 9.1416016 7
-0.096909001 -1.644165 9.1582031 7
-0.090384997 -1.602905 9.1435547 7
-0.066582002 0.97412097 9.1855469 7
-0.058456 0.98877001 9.1552734 7
-0.061638001 1.0271 9.1621094 7
-0.0616 1.04541 9.1591797 7
-0.063179001 1.064575 9.1630859 7
-0.076103002 1.089111 9.2050781 7
-0.072829999 1.106079 9.1914062 7
-0.072792001 1.12439 9.1884766 7
-0.076012 1.1444089 9.1982422 7
-0.075934999 1.1812741 9.1923828 7
-0.075905003 1.199829 9.1904297 7
-0.075866997 1.2180181 9.1875 7
-0.077445999 1.2375489 9.1904297 7
-0.079025 1.256714 9.1923828 7
-0.070900001 1.27063 9.1611328 7
-0.130318 4.1800542 8.3349609 7
-0.12862401 4.2098389 8.3115234 7
-0.118889 4.2084961 8.2724609 7
-0.102707 4.1950679 8.2148438 7
-0.096190996 4.1992192 8.1855469 7
-0.092903003 4.209229 8.1660156 7
-0.091193996 4.2381592 8.1416016 7
-0.095963001 4.2789311 8.1357422 7
-0.094254002 4.3077388 8.1113281 7
-0.094208002 4.3234859 8.1015615 7
-0.089302003 4.3299561 8.0771484 7
-0.092483997 4.3519292 8.0751953 7
-0.106964 4.3956299 8.1083984 7
-0.122993 4.458374 8.1337891 7
-0.28867301 -4.4949951 -5.670898 7
-0.28707099 -4.5085449 -5.655273 7
-0.287117 -4.525146 -5.6445308 7
-0.28883401 -4.5449219 -5.6386719 7
-0.28722399 -4.5585942 -5.6230469 7
-0.28561401 -4.572021 -5.6074219 7
-0.28235599 -4.582397 -5.585938 7
-0.28241 -4.598877 -5.5751948 7
-0.28411901 -4.6186519 -5.5693359 7
-0.28916201 -4.6442871 -5.5722661 7
-0.284233 -4.6513672 -5.546875 7
-0.285927 -4.671021 -5.5419922 7
-0.28099799 -4.6782231 -5.515625 7
-0.28437799 -4.7006841 -5.5136719 7
-0.28444701 -4.717041 -5.5019531 7
-0.29445601 -4.7524409 -5.5185552 7
-0.302818 -4.78479 -5.530273 7
-0.34408599 -5.1196289 8.1074219 7
-0.345772 -5.1072998 8.1230469 7
-0.342415 -5.0843511 8.1279297 7
-0.34409299 -5.0718989 8.1435547 7
-0.337372 -5.042603 8.1386719 7
-0.33065 -5.0131841 8.1318359 7
-0.334023 -5.0037842 8.1533203 7
-0.33235899 -4.984375 8.1611328 7
-0.32562301 -4.9552002 8.1542969 7
-0.32730901 -4.9425049 8.1699219 7
-0.328987 -4.92981 8.1865234 7
-0.327324 -4.9103999 8.1933594 7
-0.32900199 -4.897583 8.2099609 7
-0.33239001 -4.887939 8.2314453 7
-0.33742499 -4.8817139 8.2568359 7
-0.342484 -4.8751221 8.2822266 7
-0.32229599 -4.8198242 8.2392578 7
-0.329018 -4.8166499 8.2675781 7
-0.329041 -4.800415 8.2802734 7
-0.097588003 -1.9156491 8.7841797 7
-0.099257998 -1.8994139 8.7939453 7
-0.102623 -1.884766 8.8095703 7
-0.100914 -1.865845 8.8085938 7
-0.100883 -1.848267 8.8125 7
-0.100891 -1.830811 8.8173828 7
-0.112617 -1.82251 8.8603516 7
-0.109245 -1.802368 8.8535156 7
-0.102501 -1.7794189 8.8359385 7
-0.085662998 -1.749023 8.7861328 7
-0.090697996 -1.735229 8.8056641 7
-0.088996999 -1.716309 8.8046885 7
-0.085608996 -1.696411 8.7978516 7
-0.085602 -1.679077 8.8017578 7
-0.088942997 -1.66394 8.8164062 7
-0.093987003 -1.6500241 8.8369141 7
-0.087233998 -1.627686 8.8183594 7
-0.080481999 -1.605225 8.8017578 7
-0.067795001 0.97314501 8.8896484 7
-0.067772001 0.99084502 8.8876953 7
-0.062706001 1.006348 8.8681641 7
-0.062668003 1.024048 8.8662109 7
-0.062637001 1.041626 8.8632812 7
-0.062599003 1.0593261 8.8613281 7
-0.057533 1.074463 8.8417969 7
-0.062537998 1.0944819 8.8554688 7
-0.072571002 1.116943 8.8867188 7
-0.069191001 1.1331789 8.8730469 7
-0.072509997 1.1524661 8.8818359 7
-0.075843997 1.171997 8.890625 7
-0.075805999 1.189575 8.8876953 7
-0.077445999 1.20813 8.890625 7
-0.072379999 1.223145 8.8710938 7
-0.075699002 1.242676 8.8789062 7
-0.075668 1.260376 8.8759766 7
-0.122253 4.1787109 7.9433589 7
-0.125534 4.2001948 7.9423828 7
-0.132202 4.2279048 7.952148 7
-0.122116 4.2249761 7.914062 7
-0.103668 4.2064209 7.8525391 7
-0.095261 4.2061772 7.8193359 7
-0.095206998 4.221313 7.8095698 7
-0.096832 4.239502 7.8037109 7
-0.100136 4.2609859 7.8037109 7
-0.100082 4.276001 7.7929692 7
-0.10672 4.3035889 7.8007808 7
-0.115044 4.3345952 7.8144531 7
-0.113319 4.346436 7.7988281 7
-0.118286 4.3710942 7.8027339 7
-0.118233 4.3861079 7.7919922 7
-0.119865 4.4044189 7.7861328 7
-0.118149 4.4162598 7.7714839 7
-0.113075 4.4217529 7.7470698 7
-0.123062 4.4559331 7.7636719 7
-0.112923 4.4664311 7.7158198 7
-0.277412 -4.480957 -5.257812 7
-0.28434801 -4.5091548 -5.265625 7
-0.29298401 -4.5406489 -5.2792969 7
-0.286163 -4.5438228 -5.249023 7
-0.28964999 -4.5657959 -5.2480469 7
-0.29486099 -4.591064 -5.250977 7
-0.284592 -4.5875239 -5.2119141 7
-0.27776301 -4.590332 -5.1826172 7
-0.276108 -4.6027832 -5.1669922 7
-0.28130299 -4.6279302 -5.1699219 7
-0.28651401 -4.6530762 -5.171875 7
-0.284843 -4.6654048 -5.157227 7
-0.284897 -4.6810298 -5.1464839 7
-0.27978501 -4.686646 -5.1210942 7
-0.288445 -4.7183838 -5.132812 7
-0.291931 -4.740356 -5.1298828 7
-0.29541799 -4.7624512 -5.1289058 7
-0.30578601 -4.797729 -5.1445308 7
-0.38434601 -6.250977 -4.1347661 7
-0.38956499 -6.2767329 -4.1308589 7
-0.39134201 -6.2940669 -4.1191411 7
-0.389671 -6.302979 -4.101562 7
-0.388008 -6.311523 -4.0820308 7
-0.388069 -6.324585 -4.0673828 7
-0.38811499 -6.3374019 -4.0527339 7
-0.383003 -6.337646 -4.0273442 7
-0.38822201 -6.3632808 -4.0224609 7
-0.38828999 -6.375977 -4.007812 7
-0.38661999 -6.3843989 -3.988281 7
-0.34534499 -5.1148682 7.7207031 7
-0.34535199 -5.099854 7.7324219 7
-0.34709901 -5.088501 7.749023 7
-0.33839399 -5.0559082 7.7402339 7
-0.338402 -5.0410161 7.7519531 7
-0.33317599 -5.0155029 7.750977 7
-0.336685 -5.0073242 7.7714839 7
-0.331467 -4.9819341 7.7705078 7
-0.33145899 -4.9669189 7.782227 7
-0.32972699 -4.9482422 7.789062 7
-0.33147401 -4.936646 7.804688 7
-0.32800299 -4.9145508 7.8076172 7
-0.33497599 -4.9129639 7.8378911 7
-0.33846301 -4.9046631 7.8574219 7
-0.33149001 -4.875854 7.851562 7
-0.328033 -4.8536382 7.8544922 7
-0.33152801 -4.8450928 7.875977 7
-0.32804099 -4.8231201 7.8779302 7
-0.097397 -1.911743 8.4941406 7
-0.1026 -1.899292 8.515625 7
-0.095619 -1.876709 8.4970703 7
-0.093864001 -1.858521 8.4960938 7
-0.099059999 -1.846069 8.5175781 7
-0.102531 -1.832031 8.5322266 7
-0.111221 -1.8218991 8.5644531 7
-0.099022001 -1.795532 8.5302734 7
-0.100761 -1.779907 8.5400391 7
-0.085068002 -1.750977 8.4951172 7
-0.086792 -1.7355959 8.5048828 7
-0.085037 -1.717285 8.5039062 7
-0.081534997 -1.697998 8.4970703 7
-0.078033 -1.678589 8.4902344 7
-0.084991001 -1.66687 8.515625 7
-0.083237 -1.6488039 8.5146484 7
-0.083199002 -1.631958 8.5175781 7
-0.086677998 -1.617676 8.5332031 7
-0.065033004 0.97033697 8.6015615 7
-0.056313001 0.98352098 8.5712891 7
-0.052811 0.99890101 8.5576172 7
-0.052788001 1.015991 8.5556641 7
-0.052749999 1.032715 8.5527344 7
-0.054458998 1.050415 8.5566406 7
-0.054420002 1.0673831 8.5537109 7
-0.054382 1.084229 8.5507812 7
-0.056084 1.101807 8.5537109 7
-0.063004002 1.122192 8.5732422 7
-0.057762001 1.136719 8.5546885 7
-0.062958002 1.15625 8.5683594 7
-0.066376001 1.174927 8.5761719 7
-0.055923 1.186401 8.5410156 7
-0.061096001 1.206055 8.5537109 7
-0.062798001 1.223877 8.5576172 7
-0.073196001 1.246338 8.5869141 7
-0.060997002 1.256592 8.5458984 7
-0.069656 1.278564 8.5712891 7
-0.28234899 -4.505981 -4.9013672 7
-0.29306799 -4.5406489 -4.9189448 7
-0.284233 -4.539185 -4.8847661 7
-0.28428599 -4.553833 -4.8730469 7
-0.28433201 -4.5687261 -4.8623052 7
-0.29505199 -4.6035161 -4.8798828 7
-0.293327 -4.6148682 -4.8632808 7
-0.28802499 -4.619751 -4.8398442 7
-0.28451499 -4.627686 -4.8193359 7
-0.284576 -4.642334 -4.8076172 7
-0.29352599 -4.6739502 -4.8193359 7
-0.28468299 -4.6717529 -4.7861328 7
-0.28829199 -4.6931152 -4.7841802 7
-0.28478199 -4.7010498 -4.7636719 7
-0.29016101 -4.7258301 -4.766602 7
-0.286652 -4.733521 -4.7460942 7
-0.28847501 -4.7515869 -4.7392578 7
-0.29208401 -4.7728271 -4.7363281 7
-0.29749301 -4.797729 -4.7382808 7
-0.28685001 -4.791626 -4.7011719 7
-0.346008 -5.118042 7.3408198 7
-0.34062201 -5.0930181 7.3398442 7
-0.346046 -5.0898442 7.3652339 7
-0.338844 -5.0612788 7.360352 7
-0.33705899 -5.043457 7.3681641 7
-0.33165699 -5.0185552 7.3681641 7
-0.333473 -5.0081792 7.3837891 7
-0.342484 -5.0117192 7.4169922 7
-0.33528101 -4.983398 7.4111328 7
-0.342484 -4.9832759 7.4394531 7
-0.33170301 -4.9476318 7.4267578 7
-0.33530399 -4.9403081 7.4462891 7
-0.32991001 -4.9156489 7.4462891 7
-0.32992601 -4.9013672 7.4580078 7
-0.33712801 -4.901001 7.4863281 7
-0.340736 -4.8934331 7.5068359 7
-0.333527 -4.8651118 7.5 7
-0.32274601 -4.829834 7.4863281 7
-0.31558201 -4.8015141 7.4814448 7
-0.104294 -1.913452 8.2431641 7
-0.10067 -1.894165 8.2363281 7
-0.106056 -1.8824461 8.2568359 7
-0.106056 -1.866333 8.2626953 7
-0.10244 -1.84729 8.2548828 7
-0.100616 -1.82959 8.2539062 7
-0.115005 -1.824707 8.3017578 7
-0.100594 -1.796997 8.2636719 7
-0.091599002 -1.7738039 8.2402344 7
-0.093369 -1.759033 8.25 7
-0.09877 -1.7468261 8.2714844 7
-0.095154002 -1.728027 8.2646484 7
-0.091545001 -1.708984 8.2578115 7
-0.087929003 -1.690063 8.2509766 7
-0.089713998 -1.675171 8.2607422 7
-0.087890998 -1.657715 8.2587891 7
-0.086081997 -1.640381 8.2578115 7
-0.080665998 -1.6201169 8.2451172 7
-0.091445997 -1.611572 8.28125 7
-0.067443997 0.96935999 8.3466797 7
-0.072800003 0.98828101 8.3613281 7
-0.061988998 0.99975598 8.3261719 7
-0.060164999 1.015137 8.3183594 7
-0.061928 1.0324709 8.3212891 7
-0.058295999 1.047119 8.3076172 7
-0.061852001 1.065063 8.3154297 7
-0.058235001 1.07959 8.3017578 7
-0.054595999 1.094238 8.2880859 7
-0.058173999 1.112305 8.296875 7
-0.056334998 1.127686 8.2880859 7
-0.063506998 1.147705 8.3085938 7
-0.065269001 1.164795 8.3115234 7
-0.059852999 1.178345 8.2929688 7
-0.068810001 1.199463 8.3183594 7
-0.054398 1.2080081 8.2705078 7
-0.054366998 1.224243 8.2675781 7
-0.068703003 1.248413 8.3085938 7
-0.057891998 1.258667 8.2724609 7
-0.057868998 1.274902 8.2695312 7
-0.092669003 4.1884451 8.4751167 7
-0.083954997 4.3321071 8.2596378 7
-0.13550501 -1.647126 9.6233788 7
-0.37190601 -5.0720859 8.9745445 7
-0.375801 -4.869833 9.1911011 7
-0.105805 -1.737596 8.9696236 7
-0.10408 1.10649 9.1347923 7
-0.145675 4.1800628 7.78514 7
-0.33264899 -4.9331198 8.0973454 7
-0.106474 -1.817469 8.5837479 7
-0.073179998 0.99378997 8.618269 7
-0.073636003 1.18534 8.5788631 7
-0.295378 -4.9071121 7.1380959 7
-0.082241997 -1.82581 8.1064758 7
-0.072970003 -1.6334651 8.1263199 7
-0.053022999 1.082198 8.1859417 7
-0.045476001 1.242211 8.0990086 7
-0.109929 -1.838625 7.7180791 7
-0.093856998 -1.648543 7.7137418 7
-0.078907996 0.99644601 7.8587179 7
-0.068342999 1.139522 7.7649031 7
-0.089109004 -1.8378741 7.364501 7
-0.079264 -1.674911 7.3928552 7
-0.051885001 1.0561481 7.4940748 7
-0.047853 1.1933481 7.4311261 7
-0.071842 -1.835431 7.0577369 7
-0.058981001 -1.6778719 7.0773172 7
-0.042022999 0.98983401 7.2786269 7
-0.034139 1.112365 7.20259 7
-0.032400001 1.2409281 7.1484098 7
-0.063428998 -1.846205 6.8100438 7
-0.052554999 -1.702822 6.8415198 7
-0.115712 -4.4744568 -12.689145 7
-0.24190199 -4.472888 -10.004297 7
-0.033893 -1.505031 -7.4130368 7
-0.22096001 -4.5031199 -8.1511431 7
-0.036768999 -1.4558721 -6.372221 7
-0.21511801 -4.5507259 -6.7902522 7
0.012428 -1.395609 -5.071239 7
-0.204668 -4.5657039 -5.6324158 7
-0.042096 -1.352349 -4.1800208 7
-0.033209998 -1.324455 -3.5844491 7
-0.097300999 -1.6652991 9.890852 7
-0.34193 -4.8871088 9.4396868 7
-0.077225 -1.863957 9.2966042 7
-0.064943001 -1.605794 9.2878428 7
-0.40463001 -4.862638 8.8644638 7
-0.12665699 -1.802927 8.8752689 7
-0.39216 -5.089848 8.1341782 7
-0.38119799 -4.8605881 8.2742491 7
-0.088303998 -1.734956 8.3920422 7
-0.34920701 -4.947402 7.57971 7
-0.077436998 -1.889755 8.0297871 7
-0.062167998 -1.681466 8.012373 7
-0.018068001 -1.41698 -1.399093 7
-0.32895499 -4.867425 7.149076 7
-0.057923999 -1.831903 7.7154889 7
-0.041111998 -1.636081 7.6904011 7
-0.367275 -5.0547018 6.4199681 7
-0.350373 -4.8748808 6.550199 7
-0.088822 -1.780555 7.442009 7
-0.090823002 -1.913976 7.2227888 7
-0.071190998 -1.735474 7.1968212 7
-0.059255999 -1.851528 6.9473181 7
-0.045366 -1.688647 6.9412861 7
-0.018282 -1.331791 -0.44484699 7
-0.023094 -1.486334 -0.43263999 7
-0.037099 -1.646029 -0.44723901 7
-0.055796001 -1.811277 -0.47135499 7
-0.044365998 -1.806608 6.7498751 7
-0.025443999 -1.649084 6.7256031 7
-0.081772 4.6654181 -6.1746302 7
-0.098734997 4.6314659 -2.8343699 7
-0.132112 4.2012372 8.615242 7
-0.11223 4.3384442 8.3458748 7
-0.096478999 4.2774358 7.8225942 7
-0.084657997 1.142059 9.079958 7
-0.062436 1.131217 8.6375189 7
-0.038079001 1.121375 8.2305555 7
-0.022546999 1.113366 7.90486 7
-0.051043 1.1042221 7.5924311 7
-0.031682 1.0977401 7.3201218 7
-0.040397 1.268748 7.3239708 7
-0.018453 1.092259 7.093925 7
-0.027019 1.253812 7.0983601 7
0.040509 -0.064122997 -13.382099 7
0.061645001 -0.548159 -12.771699 7
-0.041370999 -1.1916341 -10.197427 7
-0.33865601 -4.3210182 -15.187331 7
-0.29895899 -4.408761 -12.109122 7
-0.0057219998 -1.316018 -7.1823521 7
-0.271211 -4.5402431 -9.9387932 7
-0.029312 4.6783419 -6.1812329 7
-0.049632002 4.6141839 -6.5489559 7
-0.001862 -1.369102 -6.3652749 7
-0.26191199 -4.5940351 -8.4657307 7
-0.053794 -1.420535 -5.7629981 7
-0.332243 -4.59202 -7.2566652 7
-0.051486999 -1.464728 -5.281765 7
-0.288827 -4.6324511 -5.9216609 7
-0.37186599 -6.0872402 -5.6112919 7
-0.354433 -6.3826261 -5.0513139 7
-0.050333001 4.6016688 -2.6674609 7
-0.051906999 4.5162268 -2.852159 7
-0.063421004 4.5091572 -3.068768 7
-0.042300999 -1.478038 -4.8223829 7
-0.26889399 -4.5081668 -5.074337 7
-0.255768 -4.6085329 -4.833971 7
-0.24898 -4.7390461 -4.6231222 7
-0.35314801 -6.3224339 -3.9946051 7
-0.020112 -1.304924 -4.3921051 7
-0.042055 -1.508505 -4.4866042 7
-0.22844601 -4.6601019 -3.736002 7
-0.050158001 -1.327808 -4.0861659 7
-0.066295996 -1.498628 -4.1248159 7
-0.278375 -4.6237478 -2.999912 7
-0.279585 -4.7288909 -2.815722 7
-0.044117 -1.345439 -3.8206129 7
-0.061335001 -1.50904 -3.85642 7
-0.26759899 -4.6778841 -1.7570879 7
-0.26190099 -4.686821 -1.559605 7
-0.258881 -4.7048101 -1.363225 7
-0.25851899 -4.7320452 -1.166113 7
-0.25987101 -4.7624769 -0.96665502 7
-0.040631998 -1.363178 -3.5947139 7
-0.046466999 -1.4848779 -3.5685771 7
-0.045844 -1.575435 -1.576368 7
-0.040699001 -1.579942 -1.507327 7
-0.028580001 -1.468025 -1.547307 7
-0.030587001 -1.493162 -1.48764 7
-0.039778002 -1.537873 -1.430512 7
-0.034570001 -1.536189 -1.364211 7
-0.041914999 -1.5705971 -1.302204 7
-0.029251 -1.398587 -1.592034 7
-0.014639 -1.377233 -1.52273 7
-0.013108 -1.390554 -1.464468 7
-0.011572 -1.401418 -1.4057519 7
-0.019329 -1.437459 -1.3504471 7
-0.023337999 -1.460204 -1.291536 7
-0.015658 -1.3144571 -1.565438 7
-0.010319 -1.3189549 -1.506866 7
-0.012645 -1.3424309 -1.4534529 7
-0.027495001 -1.3534631 -1.39656 7
-0.024007 -1.356088 -1.338775 7
-0.03036 -1.3837841 -1.2837729 7
-0.021544 -1.294219 -1.385691 7
-0.016058 -1.2911479 -1.329682 7
