# .PCD v0.7 - Point Cloud Data file format
VERSION 0.7
FIELDS x y z intensity
SIZE 4 4 4 4
TYPE F F F F
COUNT 1 1 1 1
WIDTH 1179
HEIGHT 1
VIEWPOINT 0 0 0 1 0 0 0
POINTS 1179
DATA ascii
0.234741 -1.853394 -72.428711 7
0.115341 -1.917969 -68.411133 7
0.15627301 -2.0419919 -67.019531 7
0.130264 -2.2323 -67.884766 7
0.18140399 4.799438 -66.772461 7
0.137108 4.7397461 -68.28418 7
0.098145001 -2.0224609 -61.390625 7
0.13258401 -2.135376 -60.344727 7
0.185127 -2.2228999 -58.754883 7
0.121399 -2.4407959 -60.660156 7
0.17238601 4.8779302 -59.600586 7
0.231346 4.5938721 -57.814453 7
0.181541 4.5664058 -59.331055 7
0.283806 1.178833 -56.216797 7
0.027336 -2.1420901 -56.572266 7
0.095100001 -2.2076421 -54.742188 7
0.124115 -2.3079829 -53.953125 7
0.086319 -2.483887 -54.958984 7
-0.85874897 -2.838623 73.806641 7
-0.87866199 -2.6845701 74.293945 7
0.19967701 4.8018799 -52.270508 7
0.165886 4.75354 -53.19043 7
0.227051 4.4832759 -51.540039 7
0.18202201 4.4593511 -52.739258 7
0.13852701 4.424561 -53.922852 7
0.015564 -2.3275149 -51.425781 7
0.063927002 -2.3978269 -50.239258 7
0.10051 -2.476562 -49.338867 7
-0.84933501 -2.7498779 67.541992 7
-0.79525 -0.228882 66.482422 7
0.18244199 4.6230469 -47.594727 7
0.148048 4.5836182 -48.445312 7
0.21085399 4.3270259 -46.911133 7
0.16027801 4.3199458 -48.15625 7
0.141563 4.2408452 -48.62207 7
0.18590499 0.85766602 -47.392578 7
0.011253 -2.342407 -46.597656 7
0.047897 -2.414551 -45.779297 7
0.20436899 4.559814 -42.492188 7
0.14262401 4.5942378 -43.869141 7
0.107704 4.4533691 -44.660156 7
0.158401 4.2376709 -43.541016 7
0.13988499 4.168335 -43.958008 7
0.097000003 4.1453862 -44.917969 7
0.23943301 0.67907703 -41.785156 7
-0.61644697 0.064208999 53.487305 7
-0.65746301 0.19043 54.253906 7
0.110718 4.6069341 -40.949219 7
0.086983003 4.5576172 -41.442383 7
0.058678001 4.5157471 -42.02832 7
0.040610999 4.449585 -42.405273 7
0.073151 4.279541 -41.746094 7
0.048537999 4.2253418 -42.255859 7
0.17646 0.818726 -39.619141 7
0.174072 0.72241199 -39.666992 7
0.19260401 0.619385 -39.288086 7
0.175606 0.52734399 -39.634766 7
0.19301599 0.42639199 -39.279297 7
-0.60633099 -2.7684331 48.984375 7
-0.611305 -2.660645 49.078125 7
-0.532143 0.162598 47.867188 7
-0.561737 0.27575701 48.375 7
-0.52224702 0.38146999 47.703125 7
0.092620999 4.6986079 -37.508789 7
0.072250001 4.6507568 -37.898438 7
0.052170001 4.6005859 -38.28125 7
0.030228 4.5523682 -38.698242 7
0.00235 4.5145259 -39.225586 7
0.130905 0.87695301 -36.9375 7
0.13433801 0.51171899 -36.868164 7
0.156059 0.23632801 -36.456055 7
0.178711 0.144897 -36.029297 7
0.136536 -0.047729 -33.820312 7
0.158226 -0.129639 -33.446289 7
-0.57652998 -2.6474609 45.121094 7
-0.598885 -2.564697 45.483398 7
-0.487564 0.25415 43.84668 7
-0.486168 0.45519999 43.828125 7
0.30303201 20.728516 24.092773 7
0.30252099 20.790283 24.052734 7
0.30201 20.851685 24.011719 7
0.078789003 4.7929692 -34.676758 7
0.074630998 4.7163091 -34.757812 7
0.048179999 4.6882319 -35.220703 7
0.032196 4.6351318 -35.505859 7
0 4.6165771 -36.054688 7
-0.020393001 4.5698242 -36.414062 7
0.14205199 1.223145 -33.771484 7
0.15274 1.133545 -33.587891 7
0.13398699 1.060059 -33.911133 7
0.105408 0.98974597 -34.405273 7
0.118073 0.204468 -34.140625 7
0.122345 0.036010999 -34.066406 7
0.104752 -0.028564001 -31.404297 7
0.133064 -0.10498 -30.953125 7
0.13439199 -0.181641 -30.928711 7
0.119843 -0.26037601 -31.15625 7
-0.497208 -2.6503911 40.5625 7
-0.55512202 -2.423584 41.431641 7
-0.43808001 0.31738299 39.84668 7
-0.45732099 0.50329602 40.130859 7
-0.462791 3.6368411 40.111328 7
0.101524 4.8110352 -31.235352 7
0.089272 4.76123 -31.4375 7
0.069283001 4.7275391 -31.761719 7
0.053344999 4.6834722 -32.021484 7
0.002045 4.7147222 -32.835938 7
-0.020653 4.598999 -33.210938 7
0.162643 1.413208 -30.49707 7
0.113037 1.136963 -31.285156 7
0.081092998 -0.188354 -29.585938 7
0.11039 -0.25793499 -29.15332 7
0.125412 -0.32800299 -28.929688 7
-0.42094401 0.38501 37.248047 7
-0.45479599 0.47607401 37.713867 7
-0.421967 0.55529797 37.263672 7
-0.51070398 3.5627439 38.382812 7
-0.48214 3.611938 37.983398 7
-0.449783 3.6538091 37.53418 7
-0.42167699 3.699707 37.142578 7
0.074577004 4.8457031 -29.429688 7
0.063056998 4.7982178 -29.607422 7
0.043265998 4.768311 -29.908203 7
0.022675 4.7388921 -30.220703 7
0.001694 4.7087402 -30.538086 7
0.038033001 4.556396 -30.004883 7
0.135506 1.553467 -28.783203 7
0.134216 1.482666 -28.804688 7
0.109596 1.427734 -29.170898 7
0.139893 1.335205 -28.723633 7
0.093445003 1.218872 -29.412109 7
0.083847001 -0.36462399 -27.208984 7
0.111832 -0.493774 -26.822266 7
0.098030001 -0.56445301 -27.006836 7
0.091918997 -0.63391101 -27.087891 7
-0.36732501 0.50207502 34.054688 7
-0.361725 0.57824701 33.983398 7
0.070793003 4.8970952 -27.095703 7
0.065605 4.8409419 -27.176758 7
0.050186001 4.8076172 -27.395508 7
0.01339 4.750854 -27.913086 7
-0.0067139999 4.7243652 -28.196289 7
-0.010651 4.6619868 -28.258789 7
0.122665 1.579468 -26.685547 7
0.104187 1.5263669 -26.9375 7
0.13438401 1.437744 -26.52832 7
0.119774 1.380981 -26.729492 7
0.088927999 1.333618 -27.152344 7
0.096169002 -0.664307 -25.163086 7
0.094123997 -0.85388201 -25.180664 7
-0.087600999 -3.922363 -27.19043 7
-7.5999997e-05 5.116333 -26.018555 7
0.023987001 4.9952388 -25.726562 7
0.031219 4.914062 -25.646484 7
0.01973 4.8754878 -25.800781 7
0.0082630003 4.8361821 -25.956055 7
-0.0073469998 4.8050542 -26.163086 7
-0.025673 4.7789311 -26.405273 7
0.083137996 1.630249 -25.305664 7
0.113655 1.543823 -24.919922 7
0.080696002 1.423462 -25.357422 7
0.054878 -0.92663598 -23.741211 7
0.070137002 -0.97888201 -23.557617 7
0.074538998 -1.035889 -23.503906 7
0.059638999 -1.102661 -23.676758 7
-0.121078 -3.8868411 -25.514648 7
-0.118202 -3.9455571 -25.469727 7
-0.10788 -3.9910891 -25.34082 7
-0.103035 -4.0457759 -25.271484 7
-0.094681002 -4.0936279 -25.164062 7
-0.001328 5.1147461 -23.991211 7
0.027092 4.9885249 -23.671875 7
0.025528001 4.932251 -23.699219 7
0.015137 4.895874 -23.833008 7
0.0067369998 4.8544922 -23.941406 7
-0.0095520001 4.8299561 -24.141602 7
-0.029747 4.8129878 -24.388672 7
0.092720002 1.91748 -23.250977 7
0.088211 1.862671 -23.308594 7
0.105835 1.7886961 -23.101562 7
0.095412999 1.739136 -23.229492 7
0.091866001 1.68335 -23.274414 7
0.105057 1.61438 -23.119141 7
0.080275998 1.515381 -23.418945 7
0.050179001 -0.81115699 -22.133789 7
0.045348998 -0.86889601 -22.183594 7
0.056876998 -0.97509801 -22.050781 7
0.054581001 -1.142944 -22.067383 7
-0.106339 -3.842407 -23.536133 7
-0.12655599 -3.9356689 -23.746094 7
-0.13456701 -4.0089111 -23.823242 7
-0.126717 -4.054565 -23.727539 7
-0.118309 -4.0992432 -23.625 7
-0.112038 -4.1469731 -23.545898 7
0.014099 5.020752 -22.073242 7
0.013519 4.966187 -22.09082 7
0.004524 4.930542 -22.199219 7
-0.002907 4.8908691 -22.291992 7
-0.014008 4.8588872 -22.423828 7
-0.034591999 4.8470459 -22.657227 7
0.070548996 1.919922 -21.845703 7
0.087844998 1.849243 -21.658203 7
0.076164 1.8043211 -21.790039 7
0.070808001 1.75354 -21.852539 7
0.087585002 1.684692 -21.669922 7
0.079062998 1.636353 -21.767578 7
0.042273998 -0.970581 -20.686523 7
0.050689999 -1.0187989 -20.59668 7
0.041565001 -1.075439 -20.686523 7
0.026817 -1.135376 -20.834961 7
0.038063001 -1.181885 -20.71582 7
0.041397002 -1.232178 -20.677734 7
-0.139542 -4.0369868 -22.195312 7
-0.143021 -4.098877 -22.22168 7
-0.134598 -4.139648 -22.125 7
-0.130722 -4.1881099 -22.075195 7
-0.12569401 -4.234375 -22.013672 7
-0.13199601 -4.3013921 -22.067383 7
-0.0025249999 5.0986328 -20.633789 7
0.0058439998 5.0267329 -20.560547 7
0.00016 4.9874272 -20.628906 7
-0.005508 4.9476318 -20.698242 7
-0.017371999 4.9215088 -20.829102 7
-0.034843002 4.907104 -21.017578 7
-0.041655999 4.8685298 -21.097656 7
-0.034981001 4.800415 -21.040039 7
0.079406999 1.889648 -20.238281 7
0.063683003 1.853027 -20.399414 7
0.070350997 1.795532 -20.333984 7
0.075889997 1.739014 -20.279297 7
0.070175 1.692017 -20.34082 7
0.056586999 1.650757 -20.485352 7
0.009567 -0.97595203 -19.673828 7
0.025734 -1.018188 -19.513672 7
0.026870999 -1.067017 -19.5 7
0.019012 -1.120361 -19.572266 7
0.0063319998 -1.177002 -19.691406 7
0.012291 -1.223511 -19.630859 7
0.016449001 -1.270874 -19.586914 7
-0.17352299 -4.1689448 -21.044922 7
-0.167595 -4.21106 -20.977539 7
-0.15802 -4.2467041 -20.875977 7
-0.152687 -4.2894292 -20.813477 7
-0.15757801 -4.3509521 -20.849609 7
-0.171509 -4.42981 -20.97168 7
0.044266 1.905396 -19.257812 7
0.050170999 1.85083 -19.203125 7
0.053107999 1.799438 -19.178711 7
0.045249999 1.7568361 -19.259766 7
0.053551 1.700928 -19.181641 7
0.056458 1.64978 -19.15625 7
0.0044630002 -1.011719 -18.422852 7
0.015289 -1.053345 -18.322266 7
0.019714 -1.0979 -18.27832 7
0.0043029999 -1.1524661 -18.415039 7
-0.003426 -1.203491 -18.482422 7
0.0054700002 -1.245728 -18.397461 7
-0.178123 -4.2193599 -19.650391 7
-0.16923501 -4.2529302 -19.560547 7
-0.164818 -4.2944341 -19.509766 7
-0.162323 -4.3389888 -19.477539 7
-0.166252 -4.395752 -19.500977 7
-0.179153 -4.4694819 -19.604492 7
-0.011841 5.0241699 -17.980469 7
-0.014427 4.9838872 -18.014648 7
-0.014473 4.9376221 -18.027344 7
0.051254001 1.550537 -17.936523 7
0.058205001 1.499756 -17.876953 7
0.073432997 1.443359 -17.740234 7
0.061882 1.405273 -17.847656 7
0.054802001 1.364014 -17.915039 7
0.059195999 1.31543 -17.87793 7
-0.0052490002 -1.003906 -17.399414 7
-0.018166 -1.054565 -17.506836 7
-0.006027 -1.093262 -17.400391 7
0.002045 -1.133545 -17.328125 7
0.005386 -1.176147 -17.295898 7
-0.025818 -1.237671 -17.55957 7
-0.018417001 -1.278198 -17.493164 7
-0.18540999 -4.184937 -18.5 7
-0.193726 -4.2937012 -18.546875 7
-0.186996 -4.3286128 -18.480469 7
-0.186386 -4.3743901 -18.463867 7
-0.187134 -4.422729 -18.459961 7
-0.050407 5.0926509 -17.144531 7
-0.034965999 5.0135498 -17.027344 7
-0.02829 4.9545898 -16.983398 7
-0.037085999 4.9302979 -17.068359 7
-0.043198001 4.8995361 -17.129883 7
-0.049973 4.8702388 -17.198242 7
-0.067528002 4.86377 -17.356445 7
-0.075661004 4.8364258 -17.435547 7
0.051787999 1.421753 -16.845703 7
0.055091999 1.375977 -16.819336 7
0.046928 1.337769 -16.892578 7
0.0066069998 -0.98303199 -16.228516 7
0.0021899999 -1.068481 -16.257812 7
0.003578 -1.109497 -16.244141 7
0.0071180002 -1.149292 -16.211914 7
0.014259 -1.187012 -16.151367 7
-0.0066069998 -1.240479 -16.316406 7
-0.00094599999 -1.320801 -16.264648 7
-0.18918601 -4.1734619 -17.34375 7
-0.19860099 -4.2344971 -17.407227 7
-0.20874 -4.2971191 -17.475586 7
-0.198715 -4.3236079 -17.387695 7
-0.195282 -4.4057622 -17.337891 7
-0.195343 -4.4500728 -17.327148 7
0.040236998 1.2648931 -15.893555 7
0.035896 1.226074 -15.931641 7
0.032951001 1.186523 -15.956055 7
0.041473001 1.140625 -15.890625 7
0.048560999 1.095703 -15.834961 7
0.055656001 1.051025 -15.779297 7
0.065605 1.005493 -15.700195 7
0.051941 0.97106898 -15.813477 7
0.048301999 0.93151897 -15.844727 7
0.054664999 0.88769501 -15.793945 7
0.063919 0.84314001 -15.720703 7
0.072425999 0.79919398 -15.652344 7
0.07164 0.758789 -15.660156 7
0.068007998 0.71935999 -15.691406 7
0.057197999 0.68225098 -15.779297 7
0.057121001 0.64123499 -15.780273 7
-0.010307 -1.332397 -15.355469 7
-0.0088579999 -1.3712161 -15.34082 7
-0.201584 -4.1741939 -16.354492 7
-0.202415 -4.2175288 -16.350586 7
-0.21615601 -4.283936 -16.441406 7
-0.21395101 -4.3218989 -16.414062 7
-0.210205 -4.3572998 -16.375977 7
-0.20877101 -4.3964839 -16.354492 7
-0.207306 -4.435791 -16.333008 7
0.056564 0.60620099 -14.830078 7
0.054985002 0.56799299 -14.84375 7
0.057197999 0.52856398 -14.827148 7
0.053337 0.49096701 -14.857422 7
0.061615001 0.45043901 -14.795898 7
0.064575002 0.411255 -14.772461 7
0.068305999 0.371948 -14.745117 7
0.070510998 0.33325201 -14.728516 7
-0.206039 -4.1887212 -15.347656 7
-0.207718 -4.2312012 -15.348633 7
-0.220634 -4.2937012 -15.427734 7
-0.22071099 -4.3334961 -15.417969 7
-0.21674301 -4.3660889 -15.379883 7
-0.21440899 -4.4013672 -15.352539 7
-0.212051 -4.436523 -15.325195 7
-0.20810699 -4.4685059 -15.287109 7
-0.058525 4.7437739 -14.114258 7
-0.067351997 4.7253418 -14.185547 7
0.049720999 0.31799299 -13.982422 7
0.048035 0.28149399 -13.994141 7
0.049568001 0.24475101 -13.982422 7
0.054313999 0.20751999 -13.948242 7
0.056655999 0.17089801 -13.931641 7
0.063781999 0.133911 -13.879883 7
0.065330997 0.097411998 -13.869141 7
0.059668999 0.061156999 -13.90918 7
0.056396 0.02478 -13.932617 7
0.039955001 -0.052855998 -13.347656 7
0.036536999 -0.088013001 -13.370117 7
0.038192999 -0.122803 -13.358398 7
0.044876002 -0.19189499 -13.311523 7
0.048218001 -0.22656199 -13.288086 7
0.049026001 -0.260986 -13.28125 7
0.047295 -0.296143 -13.291992 7
-0.026374999 -1.311401 -13.736328 7
-0.020515 -1.343506 -13.692383 7
-0.021415999 -1.379761 -13.695312 7
-0.017227 -1.41272 -13.663086 7
-0.024033001 -1.452881 -13.705078 7
-0.032524001 -1.4942631 -13.759766 7
-0.210243 -4.210083 -14.473633 7
-0.217072 -4.259521 -14.507812 7
-0.23152199 -4.322998 -14.592773 7
-0.223198 -4.3833008 -14.515625 7
-0.222473 -4.4569092 -14.489258 7
-0.043288998 4.855835 -13.105469 7
0.023193 -0.344971 -12.62793 7
0.028441999 -0.37744099 -12.591797 7
0.024848999 -0.41137701 -12.614258 7
0.017685 -0.446289 -12.660156 7
0.012299 -0.480957 -12.693359 7
0.015784999 -0.51354998 -12.668945 7
0.021926999 -0.54553199 -12.626953 7
0.028076001 -0.577393 -12.584961 7
0.026245 -0.611206 -12.595703 7
0.019073 -0.64672899 -12.639648 7
0.014534 -0.68737799 -12.75293 7
0.017181 -0.72009301 -12.734375 7
0.020691 -0.75207502 -12.709961 7
0.023314999 -0.78478998 -12.69043 7
0.019722 -0.81921399 -12.711914 7
-0.24173 -4.3751221 -13.785156 7
0.0042719999 -0.65783697 -12.145508 7
0.0023729999 -0.690552 -12.155273 7
0.0051350002 -0.72143602 -12.136719 7
0.013474 -0.750732 -12.083984 7
0.015297 -0.78185999 -12.070312 7
0.018059 -0.81274402 -12.050781 7
0.0087200003 -0.84826702 -12.106445 7
-0.00069399999 -0.94799799 -12.158203 7
0.0046080002 -0.98986799 -11.448242 7
0.002625 -1.021118 -11.458008 7
-0.016006 -1.060425 -11.564453 7
-0.021919001 -1.094116 -11.595703 7
-0.010208 -1.118896 -11.524414 7
-0.008293 -1.148438 -11.510742 7
-0.0093149999 -1.179565 -11.512695 7
-0.014252 -1.212646 -11.538086 7
-0.013313 -1.242798 -11.529297 7
-0.018242 -1.276123 -11.555664 7
-0.23007999 -4.3278809 -12.164062 7
-0.238968 -4.375977 -12.202148 7
-0.242943 -4.4152832 -12.213867 7
-0.237114 -4.436646 -12.170898 7
-0.23430599 -4.4954829 -12.133789 7
-0.232391 -4.5238042 -12.112305 7
-0.23245201 -4.5556641 -12.100586 7
-0.236435 -4.5953369 -12.112305 7
-0.334297 -6.1452641 -12.094727 7
-0.33436599 -6.177124 -12.080078 7
-0.33982101 -6.2198491 -12.092773 7
-0.34480301 -6.263916 -12.104492 7
-0.35371399 -6.3178711 -12.136719 7
-0.011467 -0.981812 -10.961914 7
-0.014565 -1.0124511 -10.977539 7
-0.021774 -1.044922 -11.014648 7
-0.014648 -1.070923 -10.97168 7
-0.0085300002 -1.097046 -10.935547 7
-0.0075449999 -1.1257319 -10.926758 7
-0.0065609999 -1.1544189 -10.918945 7
-0.021942001 -1.191772 -11.001953 7
-0.017898999 -1.218872 -10.975586 7
-0.018944001 -1.2487791 -10.978516 7
-0.35166201 -6.122437 -11.479492 7
-0.35584301 -6.1629639 -11.484375 7
-0.351807 -6.183228 -11.449219 7
-0.345718 -6.1986079 -11.40332 7
-0.34269699 -6.221313 -11.374023 7
-0.34482601 -6.2567139 -11.369141 7
-0.35309601 -6.307251 -11.395508 7
-0.35829899 -6.3503418 -11.40625 7
-0.051284999 4.8166499 -10.237305 7
-0.046227001 4.777832 -10.222656 7
-0.051323 4.7611079 -10.260742 7
-0.053374998 4.7375488 -10.28125 7
-0.055443 4.7139888 -10.303711 7
-0.054435998 4.6838379 -10.310547 7
-0.061577 4.6707759 -10.358398 7
-0.072800003 4.665894 -10.428711 7
-0.080971003 4.6544189 -10.481445 7
-0.068755999 4.6011958 -10.428711 7
-0.063698001 4.5626221 -10.413086 7
-0.061684001 4.530273 -10.412109 7
-0.058646999 4.4962158 -10.407227 7
-0.010307 -0.961182 -10.356445 7
-0.01252 -1.0177 -10.362305 7
-0.001823 -1.040527 -10.303711 7
-0.01152 -1.072876 -10.352539 7
-0.023360999 -1.106567 -10.412109 7
-0.021233 -1.133423 -10.398438 7
-0.012688 -1.156738 -10.350586 7
-0.0149 -1.213501 -10.355469 7
-0.015999001 -1.241943 -10.359375 7
-0.018188 -1.270996 -10.367188 7
-0.047630001 4.758667 -9.5732422 7
-0.049796999 4.736938 -9.59375 7
-0.050864998 4.7128911 -9.6113281 7
-0.049819998 4.6844478 -9.6171885 7
-0.049835 4.6582031 -9.6279297 7
-0.056251999 4.6451421 -9.6708984 7
-0.069099002 4.6451421 -9.7460938 7
-0.074455 4.6295171 -9.7832031 7
-0.066978 4.587646 -9.7568359 7
-0.062720999 4.5522461 -9.7460938 7
-0.065955997 4.532227 -9.7724609 7
-0.061707001 4.4970698 -9.7617188 7
-0.023894999 -1.2987061 -9.875 7
-0.029602 -1.382202 -9.8935547 7
-0.031876002 -1.410278 -9.9023438 7
-0.033020001 -1.437744 -9.9042969 7
-0.035294 -1.466064 -9.9130859 7
-0.025451999 -1.294189 -9.390625 7
-0.021973001 -1.317505 -9.3701172 7
-0.037200999 -1.352295 -9.4404297 7
-0.043067999 -1.381714 -9.4667969 7
-0.038437001 -1.404297 -9.4394531 7
-0.037323002 -1.429199 -9.4296885 7
-0.037354 -1.454834 -9.4267578 7
-0.038543999 -1.4812011 -9.4287109 7
-0.033904999 -1.503662 -9.4033203 7
-0.049141001 -1.539673 -9.4726562 7
-0.053840999 -1.568604 -9.4912109 7
-0.056235999 -1.596069 -9.4990234 7
-0.038734 -1.222656 -9.0029297 7
-0.026649 -1.289185 -8.9365234 7
-0.02668 -1.313843 -8.9345703 7
-0.023071 -1.33606 -8.9140615 7
-0.02919 -1.364014 -8.9384766 7
-0.015213 -1.294556 -8.4130859 7
-0.019051 -1.3199461 -8.4277344 7
-0.020354999 -1.343994 -8.4296885 7
-0.031853002 -1.37439 -8.4785156 7
-0.035698 -1.400146 -8.4921885 7
-0.039535999 -1.425903 -8.5058594 7
-0.025566 -1.440186 -8.4404297 7
-0.030685 -1.4669189 -8.4599609 7
-0.030754 -1.48999 -8.4541016 7
-0.029503001 -1.5124511 -8.4453115 7
-0.043526001 -1.545532 -8.5039062 7
-0.048645001 -1.57251 -8.5234385 7
-0.048691001 -1.595947 -8.5185547 7
-0.254677 -4.5084229 -8.5712891 7
-0.25090799 -4.5249019 -8.5449219 7
-0.25224301 -4.5507808 -8.5390615 7
-0.25014499 -4.568481 -8.5175781 7
-0.248917 -4.589478 -8.5019531 7
-0.25151801 -4.6179199 -8.5019531 7
-0.25797299 -4.6533198 -8.515625 7
-0.2631 -4.686523 -8.5253906 7
-0.26699099 -4.7174072 -8.5292969 7
-0.26703599 -4.7408452 -8.5185547 7
-0.26708999 -4.7642822 -8.5068359 7
-0.26715899 -4.7875981 -8.4951172 7
-0.02832 -1.293945 -8.0654297 7
-0.028343 -1.316162 -8.0615234 7
-0.028380999 -1.338501 -8.0585938 7
-0.033714 -1.364136 -8.078125 7
-0.049628999 -1.396484 -8.1425781 7
-0.049644001 -1.419067 -8.1396484 7
-0.045731001 -1.439087 -8.1191406 7
-0.039131001 -1.457275 -8.0878906 7
-0.039145999 -1.479614 -8.0839844 7
-0.043152001 -1.504639 -8.0976562 7
-0.045837 -1.529053 -8.1054688 7
-0.056458 -1.55896 -8.1464844 7
-0.063118003 -1.586182 -8.1699219 7
-0.268417 -4.483398 -8.1552734 7
-0.272461 -4.5133061 -8.1591797 7
-0.26852399 -4.528564 -8.1328115 7
-0.26458001 -4.5437012 -8.1074219 7
-0.26729599 -4.5710449 -8.1064453 7
-0.26467901 -4.5887451 -8.0859385 7
-0.26872301 -4.6184082 -8.0898438 7
-0.26744801 -4.6385498 -8.0742188 7
-0.26748699 -4.6608891 -8.0625 7
-0.274185 -4.6958008 -8.0771484 7
-0.28221101 -4.7336431 -8.0957031 7
-0.28623199 -4.7636719 -8.1005859 7
-0.28627801 -4.7861328 -8.0888672 7
-0.26594499 -4.4851069 -7.6533198 7
-0.26599899 -4.5065918 -7.641602 7
-0.26741001 -4.530396 -7.6367192 7
-0.25917101 -4.536377 -7.5957031 7
-0.25923201 -4.5576172 -7.5849609 7
-0.25650799 -4.573853 -7.5644531 7
-0.25931501 -4.6000981 -7.563477 7
-0.26628101 -4.634521 -7.577148 7
-0.26494601 -4.6531978 -7.561523 7
-0.26638001 -4.6767578 -7.5556641 7
-0.27195701 -4.7086182 -7.5644531 7
-0.278923 -4.743042 -7.578125 7
-0.277596 -4.7615972 -7.561523 7
-0.27900699 -4.785522 -7.5556641 7
-0.37100199 -6.2789311 -7.0332031 7
-0.362755 -6.278564 -6.9912109 7
-0.36280099 -6.2983398 -6.9755859 7
-0.36980399 -6.3353271 -6.9824219 7
-0.37261999 -6.361938 -6.9775391 7
-0.371292 -6.378418 -6.9580078 7
-0.067886002 4.7763672 -6.5488281 7
-0.048668001 4.7166748 -6.492188 7
-0.050026 4.7008061 -6.5087891 7
-0.052788001 4.6876221 -6.5292969 7
-0.058281001 4.6801758 -6.5605469 7
-0.058288999 4.6610112 -6.5712891 7
-0.055534001 4.6361079 -6.5732422 7
-0.056908 4.6202388 -6.5888672 7
-0.052795 4.5925288 -6.5839839 7
-0.055550002 4.578979 -6.6044922 7
-0.062415998 4.57373 -6.640625 7
-0.069283001 4.568481 -6.6767578 7
-0.070662998 4.5517578 -6.6923828 7
-0.067916997 4.5271001 -6.6933589 7
-0.061050002 4.493896 -6.6787109 7
-0.26905099 -4.5028081 -7.2226558 7
-0.27482599 -4.533813 -7.2314448 7
-0.26339701 -4.532959 -7.1806641 7
-0.264893 -4.5559082 -7.1757808 7
-0.26207 -4.5708008 -7.1542969 7
-0.262115 -4.591064 -7.1435552 7
-0.26503 -4.6166992 -7.1435552 7
-0.267952 -4.6420898 -7.141602 7
-0.27086601 -4.6678472 -7.140625 7
-0.275215 -4.6962891 -7.1445308 7
-0.28244799 -4.72998 -7.157227 7
-0.285355 -4.7558589 -7.15625 7
-0.28540799 -4.776123 -7.1455078 7
-0.28546101 -4.7962651 -7.1337891 7
-0.367439 -6.0878911 -6.65625 7
-0.36605799 -6.103271 -6.6367192 7
-0.37185699 -6.13623 -6.640625 7
-0.37624401 -6.1655269 -6.6386719 7
-0.38058501 -6.1949458 -6.6386719 7
-0.37919599 -6.2104492 -6.6191411 7
-0.38500199 -6.2432861 -6.6220698 7
-0.383636 -6.2587891 -6.6025391 7
-0.37794501 -6.2636719 -6.570312 7
-0.37082699 -6.2648931 -6.5332031 7
-0.37088799 -6.2836909 -6.5185552 7
-0.37093401 -6.3024902 -6.5039058 7
-0.37100199 -6.3210449 -6.4882808 7
-0.37680101 -6.3540039 -6.4912109 7
-0.37542701 -6.3691411 -6.4716802 7
-0.066986002 4.7545171 -6.139648 7
-0.055594999 4.712646 -6.1113281 7
-0.047042999 4.6766362 -6.09375 7
-0.047049999 4.6586909 -6.1044922 7
-0.052742001 4.65271 -6.1347661 7
-0.051314998 4.6315918 -6.141602 7
-0.052742001 4.6165771 -6.157227 7
-0.048470002 4.5716548 -6.164062 7
-0.054175999 4.565186 -6.1943359 7
-0.058449 4.5556641 -6.219727 7
-0.064156003 4.5489502 -6.25 7
-0.069862001 4.5421138 -6.280273 7
-0.069862001 4.5236821 -6.2910161 7
-0.062729001 4.4910889 -6.2773442 7
-0.27259099 -4.4875488 -6.8125 7
-0.28156999 -4.523315 -6.8310552 7
-0.27119401 -4.52356 -6.7861328 7
-0.26828 -4.537354 -6.765625 7
-0.27576399 -4.5705571 -6.7792969 7
-0.27432299 -4.5870361 -6.7636719 7
-0.27137801 -4.6008301 -6.7431641 7
-0.272919 -4.6228032 -6.7373052 7
-0.27594799 -4.6477051 -6.735352 7
-0.27598599 -4.6668701 -6.7246089 7
-0.280518 -4.694458 -6.7285161 7
-0.29102299 -4.7530522 -6.7392578 7
-0.29852301 -4.786377 -6.7529302 7
-0.29411301 -4.7971191 -6.726562 7
-0.38578001 -6.3027339 -6.0605469 7
-0.33225301 -5.116333 9.3115234 7
-0.33074999 -5.0944819 9.3183594 7
-0.32165501 -5.057373 9.3017578 7
-0.32469201 -5.0446782 9.3232422 7
-0.324707 -5.0257568 9.3359385 7
-0.32167101 -5.0012212 9.3369141 7
-0.324707 -4.9882808 9.359375 7
-0.324707 -4.9693599 9.3710938 7
-0.31413299 -4.929688 9.3486328 7
-0.32019001 -4.922729 9.3798828 7
-0.320198 -4.9038091 9.3916016 7
-0.33229801 -4.9084468 9.4414062 7
-0.312637 -4.8511958 9.390625 7
-0.317184 -4.841187 9.4160156 7
-0.31869501 -4.8250728 9.4335938 7
-0.327766 -4.8234859 9.4736328 7
-0.11808 -1.9119869 9.8173828 7
-0.108986 -1.884644 9.7890615 7
-0.115013 -1.869629 9.8154297 7
-0.116501 -1.850952 9.8251953 7
-0.110435 -1.826416 9.8066406 7
-0.111931 -1.8076169 9.8164062 7
-0.105865 -1.782837 9.7988281 7
-0.10434 -1.7618411 9.7978516 7
-0.095238 -1.7351069 9.7685547 7
-0.095221996 -1.71521 9.7724609 7
-0.105797 -1.703369 9.8164062 7
-0.114861 -1.690186 9.8535156 7
-0.107269 -1.664673 9.8291016 7
-0.095146 -1.635986 9.7890615 7
-0.087563001 -1.610718 9.7646484 7
-0.071716003 4.7840581 -5.7246089 7
-0.079117 4.7824712 -5.7597661 7
-0.065788001 4.7374272 -5.7275391 7
-0.059868 4.7078862 -5.719727 7
-0.050987002 4.6722412 -5.703125 7
-0.050995 4.655273 -5.7138672 7
-0.059218999 4.6538091 -5.7480469 7
-0.060683999 4.639771 -5.764648 7
-0.051810998 4.604126 -5.7470698 7
-0.057723999 4.5993652 -5.7763672 7
-0.050338998 4.5670171 -5.764648 7
-0.062164001 4.5739751 -5.8125 7
-0.068092003 4.568604 -5.842773 7
-0.072517 4.5603032 -5.8681641 7
-0.081405997 4.560791 -5.907227 7
-0.076964997 4.5344238 -5.9042969 7
-0.066611998 4.4963379 -5.8808589 7
-0.270271 -4.544312 -6.382812 7
-0.27185801 -4.5656738 -6.375977 7
-0.27344501 -4.586792 -6.3701172 7
-0.265793 -4.5906978 -6.3349609 7
-0.27354401 -4.6235352 -6.3486328 7
-0.27051499 -4.6358638 -6.327148 7
-0.27518499 -4.6629639 -6.3310552 7
-0.27522299 -4.6811519 -6.320312 7
-0.27220199 -4.693481 -6.2988281 7
-0.276871 -4.7207031 -6.3017578 7
-0.290802 -4.7655029 -6.3330078 7
-0.29238099 -4.7868652 -6.327148 7
-0.33008599 -5.1109619 8.9082031 7
-0.33478501 -5.1029048 8.9326172 7
-0.328545 -5.0722661 8.9277344 7
-0.322281 -5.0418701 8.9208984 7
-0.31760401 -5.014771 8.9179688 7
-0.32074001 -5.0030522 8.9404297 7
-0.32074001 -4.9851069 8.9521484 7
-0.32074001 -4.9672852 8.9638672 7
-0.322319 -4.9523931 8.9814453 7
-0.32232699 -4.9345698 8.9931641 7
-0.32235 -4.9165039 9.0048828 7
-0.32235 -4.898438 9.0166016 7
-0.32860601 -4.8927002 9.0458984 7
-0.32704201 -4.871582 9.0537109 7
-0.322357 -4.8442378 9.0507812 7
-0.32236499 -4.8261719 9.0625 7
-0.31923699 -4.8018799 9.0644531 7
-0.1119 -1.91626 9.4824219 7
-0.110313 -1.895752 9.4814453 7
-0.110313 -1.876709 9.4863281 7
-0.113411 -1.859985 9.5019531 7
-0.122787 -1.848389 9.5390615 7
-0.111824 -1.820557 9.5058594 7
-0.097732998 -1.790161 9.4599609 7
-0.093024999 -1.7674561 9.4482422 7
-0.103958 -1.756958 9.4902344 7
-0.100815 -1.735352 9.484375 7
-0.097672001 -1.7138669 9.4775391 7
-0.103905 -1.699463 9.5029297 7
-0.107018 -1.682495 9.5185547 7
-0.097617999 -1.656494 9.4892578 7
-0.091339 -1.632812 9.4707031 7
-0.091324002 -1.61377 9.4746094 7
-0.081984997 4.6975098 -5.4492192 7
-0.078902997 4.6417241 -5.4736328 7
-0.072783999 4.612793 -5.4658198 7
-0.074326001 4.5996089 -5.4814448 7
-0.072800003 4.5799561 -5.4873052 7
-0.072806999 4.563477 -5.4970698 7
-0.063606001 4.528564 -5.4804692 7
-0.069733001 4.5244141 -5.5097661 7
-0.066657998 4.5015869 -5.5117192 7
-0.066666 4.4851069 -5.5214839 7
-0.266426 -4.4803472 -5.9902339 7
-0.27287301 -4.509521 -5.9980469 7
-0.274506 -4.5299072 -5.9931641 7
-0.28255501 -4.5623779 -6.0058589 7
-0.27140799 -4.55896 -5.960938 7
-0.27465799 -4.5821528 -5.9599609 7
-0.26989701 -4.5906978 -5.9345698 7
-0.269936 -4.6080322 -5.9238281 7
-0.268372 -4.622314 -5.9091802 7
-0.27484101 -4.6516109 -5.9160161 7
-0.27648899 -4.671875 -5.9101558 7
-0.273323 -4.683105 -5.8886719 7
-0.273384 -4.7003169 -5.8769531 7
-0.273422 -4.7175288 -5.8662109 7
-0.28307301 -4.7531738 -5.882812 7
-0.28150901 -4.767334 -5.867188 7
-0.28796399 -4.796875 -5.875 7
-0.33969101 -5.1010742 8.5244141 7
-0.336449 -5.0776372 8.5263672 7
-0.326729 -5.0412598 8.5117188 7
-0.32349399 -5.0178218 8.5146484 7
-0.32349399 -5.000977 8.5263672 7
-0.33000901 -4.9969478 8.5576172 7
-0.32674399 -4.9737549 8.5595703 7
-0.32350901 -4.9503169 8.5615234 7
-0.321899 -4.9300542 8.5703115 7
-0.32190701 -4.9130859 8.5820312 7
-0.32678199 -4.9057622 8.6064453 7
-0.32679 -4.8887939 8.6181641 7
-0.32679701 -4.871582 8.6298828 7
-0.32031199 -4.8417969 8.6230469 7
-0.32681999 -4.8371582 8.6523438 7
-0.318703 -4.804565 8.6416016 7
-0.095702998 -1.919556 9.0917969 7
-0.102188 -1.90686 9.1181641 7
-0.098930001 -1.8857419 9.1123047 7
-0.102142 -1.870239 9.1269531 7
-0.108627 -1.8573 9.1533203 7
-0.110229 -1.84021 9.1630859 7
-0.105354 -1.817871 9.1513672 7
-0.102081 -1.797119 9.1445312 7
-0.097213998 -1.7750241 9.1328115 7
-0.092308 -1.753052 9.1191406 7
-0.085808001 -1.729614 9.1015615 7
-0.087425001 -1.712891 9.1113281 7
-0.087402001 -1.694458 9.1152344 7
-0.093887001 -1.680908 9.1416016 7
-0.097107001 -1.6650389 9.1572266 7
-0.095473997 -1.64563 9.1542969 7
-0.092201002 -1.624878 9.1474609 7
-0.092185996 -1.606567 9.1513672 7
-0.120171 4.1947021 8.2851562 7
-0.115273 4.2020259 8.2607422 7
-0.107147 4.2033691 8.2275391 7
-0.102242 4.2106929 8.203125 7
-0.103813 4.2296138 8.1972656 7
-0.103767 4.245605 8.1875 7
-0.105316 4.264648 8.1816406 7
-0.10527 4.2806401 8.171875 7
-0.103592 4.2937012 8.15625 7
-0.103561 4.3096919 8.1474609 7
-0.1035 4.3253169 8.1367188 7
-0.096977003 4.329102 8.1074219 7
-0.105034 4.3604741 8.1220703 7
-0.11628 4.3978271 8.1445312 7
-0.132355 4.4447021 8.1806641 7
-0.13231701 4.4606929 8.1708984 7
-0.280922 -4.5167241 -5.6318359 7
-0.27266699 -4.5180659 -5.5986328 7
-0.28433201 -4.5561519 -5.6201172 7
-0.28438601 -4.5726318 -5.608398 7
-0.27280399 -4.5675049 -5.5644531 7
-0.27616099 -4.59021 -5.563477 7
-0.277863 -4.6098628 -5.5576172 7
-0.27459699 -4.619873 -5.5371089 7
-0.27298701 -4.6331792 -5.5205078 7
-0.27468899 -4.65271 -5.514648 7
-0.27971601 -4.6787109 -5.5175781 7
-0.278099 -4.691772 -5.5019531 7
-0.273155 -4.6984859 -5.4775391 7
-0.333534 -5.1037598 8.0820312 7
-0.33523601 -5.0913091 8.0996094 7
-0.34197199 -5.0889888 8.1289062 7
-0.325165 -5.039185 8.0966797 7
-0.318436 -5.0100098 8.0898438 7
-0.32180801 -5.0007319 8.1103516 7
-0.32181501 -4.9848628 8.1230469 7
-0.32183099 -4.9688721 8.1347656 7
-0.31510901 -4.9396968 8.1289062 7
-0.32183799 -4.9368901 8.1582031 7
-0.32353199 -4.9243159 8.1738281 7
-0.32354 -4.9083252 8.1855469 7
-0.321861 -4.8887939 8.1923828 7
-0.33030701 -4.8891602 8.2275391 7
-0.32525599 -4.8631592 8.2255859 7
-0.32021299 -4.8375239 8.2236328 7
-0.313499 -4.808105 8.2177734 7
-0.097770996 -1.9180911 8.7880859 7
-0.097763002 -1.900635 8.7929688 7
-0.10614 -1.890015 8.8251953 7
-0.104454 -1.8712161 8.8242188 7
-0.097709998 -1.848267 8.8056641 7
-0.104424 -1.83606 8.8330078 7
-0.099349998 -1.814453 8.8193359 7
-0.10437 -1.801025 8.8408203 7
-0.095969997 -1.776855 8.8173828 7
-0.085860997 -1.751465 8.7890615 7
-0.094254002 -1.740356 8.8203115 7
-0.087517001 -1.717773 8.8027344 7
-0.080771998 -1.695068 8.7851562 7
-0.084114 -1.680176 8.7998047 7
-0.090843 -1.66748 8.8261719 7
-0.094185002 -1.652588 8.8408203 7
-0.087439999 -1.630005 8.8222656 7
-0.084060997 -1.610229 8.8154297 7
-0.097488001 -1.6019289 8.8642578 7
-0.077477001 0.97717297 8.921875 7
-0.069045998 0.991211 8.8916016 7
-0.058952 1.004395 8.8554688 7
-0.060585 1.022949 8.8583984 7
-0.063904002 1.0419919 8.8671885 7
-0.058837999 1.057251 8.8476562 7
-0.073936 1.082153 8.8964844 7
-0.072219998 1.099121 8.8876953 7
-0.077216998 1.119385 8.9023438 7
-0.075499997 1.136108 8.8935547 7
-0.067084998 1.149536 8.8632812 7
-0.072075002 1.1698 8.8769531 7
-0.073738001 1.188477 8.8798828 7
-0.077049002 1.207764 8.8886719 7
-0.075347997 1.224609 8.8798828 7
-0.075317003 1.24231 8.8779297 7
-0.083687 1.264771 8.9033203 7
-0.133614 4.168457 7.9941411 7
-0.138596 4.1931152 7.999023 7
-0.135185 4.2027588 7.9785161 7
-0.123428 4.1967769 7.936523 7
-0.11837 4.2032471 7.9121089 7
-0.108276 4.1999512 7.8730469 7
-0.104874 4.209229 7.8544922 7
-0.099799998 4.21521 7.8300781 7
-0.108124 4.2458501 7.844727 7
-0.103065 4.251709 7.820312 7
-0.096306004 4.254395 7.7910161 7
-0.096259996 4.2695308 7.78125 7
-0.101234 4.2938228 7.7851558 7
-0.099518001 4.3057861 7.7705078 7
-0.096106999 4.3144531 7.750977 7
-0.092720002 4.3231201 7.7324219 7
-0.101028 4.354126 7.7451172 7
-0.114372 4.3945308 7.7705078 7
-0.11097 4.4030762 7.7519531 7
-0.120956 4.4375 7.7685552 7
-0.134293 4.478271 7.795898 7
-0.124199 4.4737549 7.7568359 7
-0.334503 -5.1131592 7.6845698 7
-0.34322399 -5.1160889 7.717773 7
-0.33975199 -5.0941162 7.7216802 7
-0.33279401 -5.0649409 7.7167969 7
-0.33107799 -5.0466309 7.7246089 7
-0.32760599 -5.0245361 7.726562 7
-0.32761401 -5.0097661 7.7382808 7
-0.32589 -4.9912109 7.7460942 7
-0.32067099 -4.9658198 7.7451172 7
-0.32416499 -4.95752 7.766602 7
-0.32242599 -4.939209 7.773438 7
-0.32244101 -4.9240718 7.7851558 7
-0.32768199 -4.919189 7.8105469 7
-0.32767501 -4.9039311 7.8212891 7
-0.32595801 -4.8852539 7.829102 7
-0.31377399 -4.846436 7.8085942 7
-0.32074699 -4.844727 7.8378911 7
-0.32076299 -4.8294678 7.8505859 7
-0.31553599 -4.8040771 7.8476558 7
-0.097640999 -1.914307 8.4980469 7
-0.090668 -1.8918459 8.4804688 7
-0.095856003 -1.879395 8.5019531 7
-0.088890001 -1.856934 8.4833984 7
-0.095833004 -1.845703 8.5107422 7
-0.108017 -1.838745 8.5527344 7
-0.094077997 -1.810791 8.5136719 7
-0.102768 -1.800781 8.5449219 7
-0.094054997 -1.776978 8.5224609 7
-0.083595 -1.752319 8.4931641 7
-0.085341997 -1.736694 8.5039062 7
-0.085320003 -1.719849 8.5078115 7
-0.080069996 -1.699097 8.4951172 7
-0.083534002 -1.684937 8.5097656 7
-0.085266002 -1.669556 8.5195312 7
-0.086989999 -1.653931 8.5283203 7
-0.081757002 -1.633301 8.5166016 7
-0.078262001 -1.613892 8.5097656 7
-0.068099998 0.971313 8.6103516 7
-0.059363998 0.98461902 8.5800781 7
-0.064552002 1.003906 8.5947266 7
-0.057579 1.017944 8.5703115 7
-0.057549 1.034668 8.5683594 7
-0.060997002 1.053345 8.5771484 7
-0.062706001 1.071167 8.5800781 7
-0.053978 1.0838619 8.5498047 7
-0.066115998 1.106689 8.5859385 7
-0.064354002 1.122925 8.578125 7
-0.064315997 1.1398931 8.5751953 7
-0.071227998 1.1604 8.5947266 7
-0.060768001 1.171997 8.5585938 7
-0.067695998 1.192505 8.578125 7
-0.065917999 1.208496 8.5693359 7
-0.071098 1.228394 8.5830078 7
-0.071075 1.245361 8.5800781 7
-0.074509002 1.264038 8.5878906 7
-0.32411999 -5.1069341 7.2685552 7
-0.32412699 -5.0930181 7.280273 7
-0.343918 -5.118896 7.3388672 7
-0.33494601 -5.086792 7.3300781 7
-0.32953599 -5.0620122 7.329102 7
-0.32595801 -5.040771 7.3330078 7
-0.327759 -5.030273 7.3486328 7
-0.320595 -5.001709 7.34375 7
-0.33319899 -5.0128169 7.3857422 7
-0.327797 -4.987793 7.3847661 7
-0.324242 -4.9665532 7.3886719 7
-0.32063299 -4.945312 7.390625 7
-0.32423401 -4.9382319 7.4111328 7
-0.32784301 -4.9310298 7.4316411 7
-0.32964301 -4.920166 7.4472661 7
-0.32967401 -4.9057622 7.4589839 7
-0.33508301 -4.901978 7.484375 7
-0.31890899 -4.8560791 7.4560552 7
-0.32070899 -4.8453369 7.4726558 7
-0.309921 -4.8100591 7.4580078 7
-0.324348 -4.80896 7.515625 7
-0.101028 -1.9130861 8.2363281 7
-0.099212997 -1.895386 8.2353516 7
-0.1064 -1.885132 8.2617188 7
-0.099197 -1.863037 8.2441406 7
-0.102783 -1.849854 8.2597656 7
-0.106354 -1.836548 8.2744141 7
-0.102745 -1.8173831 8.2685547 7
-0.093735002 -1.793945 8.2451172 7
-0.097321004 -1.7805181 8.2607422 7
-0.091918997 -1.760254 8.2490234 7
-0.090088002 -1.742676 8.2470703 7
-0.086487003 -1.723755 8.2402344 7
-0.08828 -1.70874 8.25 7
-0.088257 -1.692505 8.2539062 7
-0.084670998 -1.673828 8.2480469 7
-0.093643002 -1.664185 8.2783203 7
-0.084647998 -1.6413569 8.2558594 7
-0.086410999 -1.626465 8.2646484 7
-0.082809001 -1.607666 8.2578115 7
-0.058052 0.96521002 8.3173828 7
-0.070579998 0.98706102 8.3535156 7
-0.057983 0.99792498 8.3134766 7
-0.061546002 1.015991 8.3222656 7
-0.061508 1.032227 8.3193359 7
-0.061501 1.048584 8.3173828 7
-0.066849001 1.0673831 8.3310547 7
-0.068604 1.084839 8.3339844 7
-0.068581 1.101074 8.3310547 7
-0.072144002 1.119141 8.3398438 7
-0.068526998 1.1337889 8.3261719 7
-0.068489 1.150269 8.3232422 7
-0.059471 1.161865 8.2929688 7
-0.064834997 1.180908 8.3066406 7
-0.055817001 1.1923831 8.2763672 7
-0.070152 1.216553 8.3173828 7
-0.075522996 1.235962 8.3320312 7
-0.061119001 1.244141 8.2851562 7
-0.071869001 1.266602 8.3154297 7
-0.064650998 1.278809 8.2900391 7
-0.083108 4.420135 8.1689949 7
-0.143369 -1.839497 9.6246872 7
-0.361325 -4.9677172 8.9754372 7
-0.123265 -1.881249 9.0411549 7
-0.099261001 -1.620306 8.9622917 7
-0.074055001 1.115873 8.9325895 7
-0.30993 -4.9529548 7.8603659 7
-0.32038099 -4.829318 8.0977058 7
-0.086268999 -1.677878 8.503274 7
-0.052487001 1.013358 8.4852314 7
-0.055760998 1.203939 8.4617519 7
-0.28518799 -4.95783 6.9570689 7
-0.29221001 -4.856276 7.177587 7
-0.085841 -1.748017 8.1609411 7
-0.030002 1.090626 8.0478439 7
-0.039542999 1.274326 8.0542421 7
-0.334041 -4.951242 6.1711941 7
-0.335024 -4.8528342 6.3740201 7
-0.121802 -1.7870049 7.808846 7
-0.053162001 1.001587 7.7220531 7
-0.054956 1.157639 7.688395 7
-0.103952 -1.801176 7.4642181 7
-0.085784003 -1.6177 7.4542241 7
-0.037811998 1.071488 7.4186401 7
-0.047984 1.229038 7.4197512 7
-0.092349 -1.8191611 7.17554 7
-0.073282003 -1.644479 7.1685529 7
-0.075810999 -1.816758 6.8924012 7
-0.058402002 -1.6564291 6.8973799 7
0.113213 -1.22294 -10.577635 7
0.013234 -1.529184 -5.8735218 7
0.017155999 -1.4794329 -5.0093489 7
-0.026364001 -1.42308 -4.04917 7
-0.089584 -1.86429 9.792016 7
-0.32458299 -5.0160332 9.2187347 7
-0.056019001 -1.785897 9.1912479 7
-0.382052 -4.9630342 8.638298 7
-0.087509997 -1.71921 8.6899281 7
-0.35100099 -4.872539 8.075861 7
-0.081045002 -1.8877259 8.3153629 7
-0.066069998 -1.667994 8.2975111 7
-0.315685 -4.9317632 7.3840442 7
-0.33346999 -4.814662 7.6142759 7
-0.061558999 -1.828112 7.9715042 7
-0.052529 -1.626457 7.979876 7
-0.010716 -1.461785 -1.355216 7
-0.306903 -5.0249372 6.8263431 7
-0.297649 -4.8507242 6.9719348 7
-0.055727001 -1.784106 7.7187071 7
-0.35241401 -5.102809 6.2541409 7
-0.32525301 -4.8978481 6.3630161 7
-0.090099998 -1.9109401 7.4097018 7
-0.078047998 -1.729942 7.411129 7
-0.040006999 -1.411476 -0.85796601 7
-0.059207998 -1.5909719 -0.89827502 7
-0.33891201 -5.1123481 5.7598419 7
-0.31109801 -4.9233799 5.8761411 7
-0.31414601 -4.82304 6.0482421 7
-0.058882002 -1.847591 7.116231 7
-0.046721 -1.678954 7.115253 7
-0.025929 -1.388733 -0.62695998 7
-0.049943998 -1.56083 -0.68504399 7
-0.29412401 -4.8172989 5.5786939 7
-0.040024001 -1.798672 6.89011 7
-0.026171001 -1.6386321 6.8817801 7
-0.011665 -1.36775 -0.413537 7
-0.027124999 -1.526316 -0.43890899 7
-0.039624002 -1.685643 -0.446208 7
-0.066013001 -1.8574899 -0.49599901 7
-0.048191 -1.917811 6.728148 7
-0.0041200002 -1.350613 -0.240172 7
-0.024642 -1.504185 -0.28304401 7
-0.27779001 -4.784174 1.528626 7
0.0036810001 -1.334654 -0.078543 7
-0.012373 -1.479167 -0.105321 7
-0.306986 -4.8775792 3.584265 7
-0.30540699 -4.8533039 3.7456081 7
-0.293414 -4.7190118 2.90591 7
-0.290654 -4.7191229 3.101589 7
-0.29698899 -4.7371669 3.257591 7
-0.2861 -4.6990271 3.412612 7
-0.26955801 -4.5297079 2.9229629 7
-0.26856199 -4.5347581 3.1084709 7
-0.27496901 -4.5525069 3.256727 7
-0.26958501 -4.5312681 3.4047611 7
0.014955 4.7447548 -9.9162302 7
-0.096790001 4.6275082 -6.375257 7
-0.104855 4.3629851 8.2674742 7
-0.151142 4.3001161 7.7565222 7
-0.083966002 1.018239 8.7709351 7
-0.104117 1.251907 8.8286695 7
-0.061269999 1.016868 8.363554 7
-0.072131 1.231619 8.3758001 7
-0.046115 1.01564 8.0317459 7
-0.051764999 1.215588 8.021471 7
-0.077440999 1.012948 7.7185879 7
-0.079829 1.199345 7.6972589 7
-0.058150999 1.012138 7.440114 7
-0.062816001 1.187335 7.4305458 7
-0.0041439999 4.78721 -14.230381 7
-0.087688997 -1.09255 -11.041256 7
-0.31000599 -4.459991 -14.627924 7
-0.087936997 4.718091 -10.287613 7
-0.040406 -1.4797 -8.6881876 7
-0.28279501 -4.5504422 -11.810643 7
-0.019370999 -1.485911 -7.3356252 7
-0.255963 -4.5418758 -9.7206125 7
-0.039018001 4.7077799 -6.3203669 7
-0.056425001 4.609684 -6.6594539 7
-0.016410001 -1.526232 -6.5042219 7
-0.242358 -4.5506039 -8.2308493 7
-0.055815 -1.327206 -5.8045912 7
-0.063216999 -1.546373 -5.821137 7
-0.401833 -6.229866 -6.9285278 7
-0.024195001 -1.3033381 -5.086905 7
-0.050229002 -1.549136 -5.2452159 7
-0.27470699 -4.6001849 -5.7902112 7
-0.028975001 -1.362237 -4.7509289 7
-0.042470001 -1.557165 -4.7963881 7
-0.24701799 -4.5964022 -4.7460351 7
0.031789001 1.457808 -4.2040391 7
0.030664001 1.295313 -4.2748828 7
-0.018812001 -1.370502 -4.3591452 7
-0.031013999 -1.5456541 -4.3863859 7
-0.2314 -4.5774908 -3.881753 7
-0.226723 -4.681674 -3.6841919 7
-0.045008 -1.376688 -4.031796 7
-0.058316998 -1.539041 -4.052031 7
-0.033059001 -1.344228 -3.7501121 7
-0.039492998 -1.4743069 -3.730356 7
-0.24876601 -4.6742311 -1.11704 7
-0.245012 -4.681952 -0.475171 7
-0.031525999 -1.536441 -1.548725 7
-0.036862001 -1.572585 -1.488423 7
-0.024806 -1.5512871 -1.4165111 7
-0.030121 -1.582243 -1.3539701 7
-0.002715 -1.375865 -1.5694619 7
-0.012014 -1.4234869 -1.5194581 7
-0.0050750002 -1.420314 -1.45582 7
-0.010706 -1.45274 -1.3995759 7
-0.028867999 -1.521732 -1.3460259 7
-0.025509 -1.522109 -1.2815911 7
-0.022880999 -1.526722 -0.94478297 7
-0.026687 -1.532607 -0.87822199 7
-0.0093710003 -1.47003 -0.82551098 7
-0.002782 -1.328639 -1.554929 7
-0.010611 -1.370268 -1.50552 7
-0.003515 -1.36658 -1.444132 7
-0.005692 -1.387514 -1.388286 7
-0.0078889998 -1.40628 -1.3312221 7
-0.011664 -1.4388829 -0.95656103 7
-0.013893 -1.439816 -0.89466101 7
-0.016057 -1.437903 -0.83239102 7
-0.0061619999 -1.311795 -1.490262 7
0.0030050001 -1.302127 -1.4302 7
-0.005111 -1.339008 -1.379829 7
-0.0074399998 -1.357398 -1.3247941 7
-0.025079001 -1.375149 -0.905738 7
-0.025582001 -1.368318 -0.84738702 7
-0.011709 -1.281974 -1.314781 7
-0.01805 -1.312755 -0.93090302 7
