# .PCD v0.7 - Point Cloud Data file format
VERSION 0.7
FIELDS x y z intensity
SIZE 4 4 4 4
TYPE F F F F
COUNT 1 1 1 1
WIDTH 982
HEIGHT 1
VIEWPOINT 0 0 0 1 0 0 0
POINTS 982
DATA ascii
0.213852 -1.863892 -73.223633 7
0.085289001 -1.93689 -69.421875 7
0.131531 -2.058228 -67.848633 7
0.113777 -2.2412109 -68.43457 7
0.172585 4.8121338 -67.063477 7
0.120102 4.7703862 -68.856445 7
0.070816003 -2.040894 -62.208984 7
0.1091 -2.1516111 -61.046875 7
0.161751 -2.240967 -59.450195 7
0.097382002 -2.460938 -61.374023 7
0.213699 4.627563 -58.338867 7
0.159309 4.6091309 -59.995117 7
0.074532002 4.6499019 -62.574219 7
0.27394101 1.178955 -56.537109 7
-0.0071029998 -2.1687009 -57.489258 7
0.077781998 -2.2186279 -55.197266 7
-0.80540502 -2.776001 72.552734 7
-0.86658502 -2.6611331 74.019531 7
-0.87839502 -2.4987791 74.3125 7
0.190369 4.6904302 -52.490234 7
0.151665 4.6506348 -53.544922 7
0.210541 4.3890381 -51.958008 7
0.16361199 4.3634028 -53.232422 7
0.124687 4.3148189 -54.293945 7
-0.78682703 -0.37707499 66.317383 7
0.171692 4.6408691 -47.845703 7
0.130188 4.6169429 -48.869141 7
0.191597 4.3626709 -47.371094 7
0.15177201 4.331665 -48.354492 7
0.121887 4.275146 -49.092773 7
0.17360701 0.869385 -47.712891 7
-0.70817602 0.075805999 59.298828 7
0.156258 4.5585942 -43.537109 7
0.123878 4.522583 -44.263672 7
0.098563999 4.4683838 -44.833008 7
0.14564499 4.259644 -43.795898 7
0.12794501 4.1882319 -44.195312 7
0.081917003 4.171021 -45.224609 7
-0.572914 0.31201199 52.710938 7
0.097709998 4.5279541 -41.208008 7
0.073119998 4.4787598 -41.71875 7
0.042854 4.4387212 -42.344727 7
0.01487 4.3913569 -42.926758 7
0.065094002 4.186523 -41.907227 7
0.041924 4.1281738 -42.387695 7
0.15308399 0.73522902 -40.111328 7
0.168121 0.63220203 -39.802734 7
0.162277 0.53601098 -39.920898 7
0.177017 0.43505901 -39.618164 7
-0.58547199 -2.739502 48.636719 7
-0.59251398 -2.6342771 48.765625 7
-0.53656799 0.171875 47.950195 7
-0.49915299 0.27832001 47.313477 7
-0.52086598 0.390259 47.686523 7
0.078452997 4.7258301 -37.746094 7
0.061218001 4.6705322 -38.076172 7
0.036171 4.6304932 -38.552734 7
0.016731 4.5765381 -38.922852 7
-0.010506 4.5366211 -39.44043 7
0.120293 0.51110798 -37.140625 7
0.15722699 0.322144 -36.448242 7
0.145851 0.23339801 -36.65918 7
0.166328 0.14160199 -36.272461 7
0.119873 -0.043823 -34.112305 7
0.14150999 -0.12646499 -33.736328 7
-0.55721301 -2.723999 44.813477 7
-0.563721 -2.6273191 44.924805 7
-0.49354601 0.15734901 43.952148 7
-0.45681801 0.354004 43.37207 7
-0.45630601 0.45336899 43.366211 7
0.062758997 4.7381592 -34.9375 7
0.041382 4.6986079 -35.313477 7
0.021698 4.653564 -35.660156 7
-0.0061110002 4.6239009 -36.146484 7
-0.033241 4.5906978 -36.621094 7
0.129539 1.226807 -33.993164 7
0.14533199 1.134033 -33.720703 7
0.121201 1.062744 -34.138672 7
0.098053001 0.98938 -34.538086 7
0.124535 0.124146 -34.036133 7
0.13767999 0.039917 -33.807617 7
0.092545003 -0.032471001 -31.607422 7
0.122368 -0.109375 -31.133789 7
0.129272 -0.185791 -31.021484 7
0.11142 -0.26538101 -31.301758 7
0.13384201 -0.339111 -30.944336 7
-0.47859201 -2.6251221 40.295898 7
-0.49764299 -2.551147 40.582031 7
-0.51746398 -2.476562 40.878906 7
-0.48341399 -2.3531489 40.389648 7
-0.50086999 -2.2755129 40.652344 7
-0.45265999 0.234863 40.064453 7
-0.42861199 0.323486 39.713867 7
-0.455185 0.418457 40.104492 7
-0.433525 0.50610399 39.787109 7
-0.43936199 0.59851098 39.874023 7
-0.53424102 3.4572749 41.189453 7
-0.50465399 3.513062 40.750977 7
-0.44982901 3.624512 39.9375 7
0.083899997 4.8470459 -31.489258 7
0.079764999 4.7779541 -31.564453 7
0.059044 4.7458501 -31.898438 7
0.039429002 4.7095952 -32.21582 7
0.013939 4.6846919 -32.626953 7
-0.015251 4.6655269 -33.095703 7
-0.033424001 4.6210942 -33.390625 7
0.152206 1.4169919 -30.665039 7
0.101204 1.1398931 -31.477539 7
0.109329 -0.32666001 -29.168945 7
0.095238 -0.47485399 -29.371094 7
0.109802 -0.54370099 -29.15332 7
-0.46360001 -2.364136 37.714844 7
-0.41385701 0.386841 37.161133 7
-0.38784 0.46667501 36.803711 7
-0.42530799 0.559937 37.323242 7
-0.50894898 3.4781489 38.379883 7
-0.48704499 3.624023 38.066406 7
-0.45426199 3.665405 37.610352 7
-0.432098 3.7199709 37.299805 7
0.063285999 4.867065 -29.573242 7
0.052138999 4.8183589 -29.746094 7
0.034736998 4.7828369 -30.011719 7
-0.0091859996 4.7280269 -30.675781 7
0.127373 1.556519 -28.904297 7
0.117012 1.4918211 -29.060547 7
0.102287 1.429565 -29.279297 7
0.127083 1.340454 -28.915039 7
0.101295 1.28418 -29.297852 7
0.087196 -0.36718801 -27.172852 7
0.077682003 -0.437134 -27.300781 7
0.104958 -0.498779 -26.925781 7
0.089034997 -0.57043499 -27.140625 7
-0.115234 -3.659668 -29.661133 7
-0.104187 -3.7150879 -29.501953 7
-0.090553001 -3.7655029 -29.307617 7
-0.076057002 -3.813477 -29.102539 7
-0.351547 0.50524902 33.856445 7
-0.35188299 0.58227497 33.860352 7
0.057457 4.9234619 -27.255859 7
0.056099001 4.8580322 -27.28418 7
0.038146999 4.8303218 -27.539062 7
0.0081630005 4.757812 -27.963867 7
-0.016205 4.740479 -28.303711 7
-0.021377999 4.6804199 -28.385742 7
0.113411 1.5838619 -26.811523 7
0.095389999 1.529663 -27.05957 7
0.1222 1.443359 -26.695312 7
0.104607 1.388306 -26.938477 7
0.085731998 1.332764 -27.197266 7
0.055709999 -0.73803699 -25.674805 7
-0.11454 -3.6894529 -27.554688 7
-0.134895 -3.7911379 -27.800781 7
-0.122589 -3.8396001 -27.635742 7
-0.107079 -3.8818359 -27.429688 7
-0.098434001 -3.9350591 -27.311523 7
-0.099007003 -4.0039058 -27.307617 7
0.020531001 4.8692632 -25.771484 7
-0.020729 4.7640381 -26.323242 7
-0.037230998 4.7332759 -26.541016 7
-0.027252 4.645752 -26.425781 7
0.079444997 1.566406 -25.356445 7
0.099936999 1.4881589 -25.09668 7
0.073302999 1.432373 -25.460938 7
0.085587002 1.360718 -25.306641 7
0.096519001 1.290527 -25.170898 7
0.066955999 -1.036499 -23.59082 7
-0.122307 -3.883301 -25.513672 7
-0.13033301 -3.9605711 -25.59668 7
-0.121033 -4.0080571 -25.477539 7
-0.110252 -4.0524902 -25.34082 7
-0.10244 -4.101562 -25.239258 7
0.0089039998 5.026001 -23.865234 7
0.017204 4.9468989 -23.779297 7
-0.003059 4.8720698 -24.037109 7
-0.017364999 4.842896 -24.21582 7
-0.039055001 4.8288569 -24.478516 7
-0.042541999 4.7746582 -24.530273 7
0.094016999 1.7961431 -23.241211 7
0.095764004 1.6187741 -23.230469 7
0.081428997 1.570923 -23.402344 7
0.071494997 1.518921 -23.522461 7
0.053551 -0.973755 -22.085938 7
0.025962999 -1.042603 -22.385742 7
0.035385001 -1.094116 -22.27832 7
0.040077001 -1.147583 -22.223633 7
0.030471999 -1.208984 -22.326172 7
0.023499001 -1.269043 -22.397461 7
-0.1278 -3.932251 -23.745117 7
-0.140083 -4.0128169 -23.868164 7
-0.135948 -4.0653081 -23.8125 7
-0.128639 -4.1116939 -23.722656 7
-0.122902 -4.160645 -23.649414 7
-0.123009 -4.2199712 -23.639648 7
0.0041430001 4.9832759 -22.175781 7
-0.003792 4.9449458 -22.273438 7
-0.022293 4.8729248 -22.496094 7
-0.042351 4.8596191 -22.725586 7
-0.050285 4.8192139 -22.822266 7
0.078299999 1.855103 -21.761719 7
0.063933998 1.756714 -21.925781 7
0.073882997 1.6932369 -21.820312 7
0.026802 -0.97473103 -20.841797 7
0.037475999 -1.022217 -20.729492 7
0.042488001 -1.072144 -20.673828 7
0.013588 -1.139526 -20.96875 7
0.026512001 -1.185303 -20.832031 7
0.033211 -1.234009 -20.758789 7
-0.138901 -4.1972661 -22.144531 7
-0.134453 -4.2446289 -22.088867 7
-0.13964801 -4.3096919 -22.129883 7
-0.151077 -4.3868408 -22.234375 7
-0.164207 -4.4675288 -22.355469 7
-0.029929999 5.10498 -20.90625 7
-0.0091629997 5.004395 -20.708008 7
-0.010887 4.955688 -20.737305 7
-0.015427 4.9130859 -20.794922 7
-0.023917999 4.8787842 -20.890625 7
-0.038582001 4.8575439 -21.050781 7
-0.051559001 4.8321528 -21.194336 7
0.064231999 1.9021 -20.387695 7
0.068680003 1.846191 -20.345703 7
0.056777999 1.80481 -20.470703 7
0.069603004 1.690186 -20.345703 7
0.061652999 1.644531 -20.431641 7
0.0046009999 -0.97534198 -19.719727 7
0.015953001 -1.02002 -19.606445 7
0.015869001 -1.069702 -19.604492 7
0.012192 -1.1212161 -19.636719 7
-0.008316 -1.182251 -19.832031 7
8e-06 -1.2275389 -19.74707 7
0.0071490002 -1.273438 -19.673828 7
-0.17784899 -4.170898 -21.074219 7
-0.17553701 -4.2199712 -21.041016 7
-0.16780899 -4.2589111 -20.956055 7
-0.161285 -4.299561 -20.882812 7
-0.165619 -4.360229 -20.912109 7
-0.17896301 -4.4378662 -21.026367 7
0.039360002 1.907227 -19.302734 7
0.038100999 1.859131 -19.318359 7
0.045235001 1.8037111 -19.253906 7
0.041565001 1.757568 -19.291992 7
0.037903 1.711182 -19.330078 7
0.046241999 1.6555181 -19.253906 7
0.047966 1.60498 -19.240234 7
0.0087740002 -0.96032703 -18.383789 7
-0.0041049998 -1.013062 -18.49707 7
0.0079880003 -1.054443 -18.384766 7
0.0092010004 -1.1005861 -18.370117 7
0.0040130001 -1.150146 -18.414062 7
-0.016541 -1.208252 -18.59668 7
-0.0031659999 -1.247925 -18.472656 7
0.00059499999 -1.292603 -18.43457 7
-0.011635 -1.347046 -18.541016 7
-0.176239 -4.1610112 -19.631836 7
-0.186607 -4.2288818 -19.712891 7
-0.17836 -4.2640381 -19.628906 7
-0.175888 -4.30896 -19.59668 7
-0.17211901 -4.351685 -19.551758 7
-0.175423 -4.407227 -19.569336 7
-0.18706501 -4.4786382 -19.661133 7
-0.026047001 5.005981 -18.104492 7
-0.018448001 4.9423828 -18.047852 7
-0.018486001 4.8961182 -18.060547 7
-0.025528001 4.8652339 -18.133789 7
0.054703001 1.59314 -17.896484 7
0.058479 1.544556 -17.866211 7
0.058304001 1.40686 -17.876953 7
0.060157999 1.359863 -17.862305 7
-0.197891 -4.3430181 -18.55957 7
-0.19660901 -4.3878169 -18.539062 7
-0.19058999 -4.4237061 -18.477539 7
-0.070823997 5.090332 -17.313477 7
-0.038527999 4.9732671 -17.055664 7
-0.044624001 4.9428711 -17.118164 7
-0.053413 4.9179692 -17.203125 7
-0.056136999 4.8796391 -17.237305 7
-0.071006998 4.86731 -17.37207 7
-0.087211996 4.8572998 -17.518555 7
-0.085228004 4.8078609 -17.512695 7
0.024269 1.570068 -17.071289 7
0.015442 1.532227 -17.150391 7
0.026854999 1.480347 -17.055664 7
0.033553999 1.4317631 -17.000977 7
0.046317998 1.379639 -16.894531 7
0.051674001 1.332764 -16.851562 7
0.035408001 1.299194 -16.993164 7
0.030647 1.258057 -17.037109 7
-0.011238 -1.240479 -16.350586 7
-0.20214801 -4.2357178 -17.424805 7
-0.215187 -4.3035889 -17.516602 7
-0.207352 -4.3339839 -17.444336 7
-0.201683 -4.368042 -17.388672 7
-0.20105 -4.4111328 -17.373047 7
-0.200417 -4.4543462 -17.356445 7
0.056313001 0.92627001 -15.779297 7
0.041244999 0.89147902 -15.90332 7
0.049049001 0.84728998 -15.84082 7
0.054008 0.80432099 -15.802734 7
0.059677001 0.76135302 -15.756836 7
0.068207003 0.717529 -15.689453 7
0.063141003 0.67858899 -15.731445 7
-0.205994 -4.177002 -16.376953 7
-0.212166 -4.2297359 -16.412109 7
-0.22138201 -4.2880859 -16.469727 7
-0.222984 -4.333252 -16.470703 7
-0.21620899 -4.362915 -16.410156 7
-0.214783 -4.4023442 -16.388672 7
-0.21183001 -4.4387212 -16.355469 7
0.041671999 0.60876501 -14.945312 7
0.052154999 0.52832001 -14.867188 7
0.056648001 0.48864701 -14.833984 7
0.050545 0.45105001 -14.880859 7
0.054230001 0.372803 -14.854492 7
0.057944998 0.333496 -14.826172 7
0.052756999 -0.013428 -13.960938 7
0.0495 -0.050170999 -13.983398 7
0.047049999 -0.086914003 -14.000977 7
0.047805998 -0.123535 -13.995117 7
0.051743001 -0.15978999 -13.96582 7
0.052498002 -0.19653299 -13.959961 7
0.054839998 -0.232666 -13.941406 7
0.049178999 -0.26989701 -13.981445 7
0.040314 -0.307861 -14.043945 7
-0.213875 -4.1976318 -15.393555 7
-0.21958899 -4.2471919 -15.421875 7
-0.22859199 -4.342896 -15.463867 7
-0.22385401 -4.3739009 -15.419922 7
-0.219109 -4.4047852 -15.375 7
-0.21678901 -4.440186 -15.347656 7
-0.216858 -4.4797359 -15.336914 7
-0.062935002 4.971313 -14.06543 7
-0.042190999 4.8887939 -13.933594 7
-0.042213 4.8521729 -13.945312 7
-0.047035001 4.8261719 -13.990234 7
-0.050246999 4.7962651 -14.023438 7
-0.05587 4.7714839 -14.073242 7
-0.026802 -1.3449709 -13.730469 7
-0.028618 -1.417725 -13.735352 7
-0.219238 -4.2210689 -14.523438 7
-0.22363301 -4.3040771 -14.530273 7
-0.23217 -4.3570561 -14.577148 7
-0.232254 -4.3947749 -14.56543 7
-0.22808801 -4.4248052 -14.52832 7
-0.225624 -4.4577641 -14.500977 7
0.015282 -0.68530297 -12.746094 7
0.0062560001 -0.78918499 -12.798828 7
0.014191 -0.81958002 -12.746094 7
0.01059 -0.85449201 -12.766602 7
0.0096439999 -0.88842797 -12.770508 7
-0.034485001 -1.31604 -13.020508 7
-0.033652999 -1.349731 -13.011719 7
-0.029259 -1.380981 -12.979492 7
-0.032005001 -1.416626 -12.992188 7
-0.031151 -1.450195 -12.983398 7
-0.045433 -1.493652 -13.073242 7
-0.050797001 -1.531738 -13.104492 7
-0.049095001 -1.564697 -13.088867 7
-0.243233 -4.3728032 -13.78418 7
-0.245087 -4.412231 -13.78418 7
-0.025711 -1.31311 -12.276367 7
-0.032288 -1.3494869 -12.313477 7
-0.036979999 -1.384644 -12.338867 7
-0.035172001 -1.41626 -12.324219 7
-0.029633 -1.4449461 -12.287109 7
-0.052032001 -1.49231 -12.420898 7
-0.037200999 -1.5148931 -12.325195 7
-0.046562001 -1.553833 -12.378906 7
-0.046608001 -1.586548 -12.375 7
-0.017151 -0.96728498 -11.576172 7
-0.025215 -1.124634 -11.610352 7
-0.021346999 -1.15332 -11.583984 7
-0.019440001 -1.182983 -11.569336 7
-0.015579 -1.211548 -11.543945 7
-0.018555 -1.244019 -11.558594 7
-0.018608 -1.274536 -11.554688 7
-0.034325 -1.314453 -11.643555 7
-0.040245 -1.348755 -11.674805 7
-0.034430999 -1.3762209 -11.637695 7
-0.034462001 -1.40686 -11.634766 7
-0.034515001 -1.437744 -11.630859 7
-0.037498001 -1.4705811 -11.644531 7
-0.046356 -1.5074461 -11.692383 7
-0.051307999 -1.541748 -11.71582 7
-0.052338 -1.573364 -11.71875 7
-0.235809 -4.4934082 -12.131836 7
-0.23587801 -4.5253911 -12.121094 7
-0.234962 -4.5554199 -12.105469 7
-0.240913 -4.5986328 -12.126953 7
-0.246887 -4.6419678 -12.149414 7
-0.049812 4.8023682 -10.863281 7
-0.048850998 4.7711182 -10.869141 7
-0.04789 4.7397461 -10.875 7
-0.045967001 4.706543 -10.875 7
-0.025543001 -1.309204 -11.005859 7
-0.024582 -1.337891 -10.99707 7
-0.032799002 -1.372314 -11.040039 7
-0.037971001 -1.404907 -11.064453 7
-0.035973001 -1.433228 -11.050781 7
-0.039085001 -1.464722 -11.064453 7
-0.040153999 -1.494751 -11.066406 7
-0.053505 -1.533325 -11.136719 7
-0.055603001 -1.564575 -11.144531 7
-0.058715999 -1.596313 -11.157227 7
-0.244164 -4.4909668 -11.509766 7
-0.24218801 -4.5174561 -11.487305 7
-0.245323 -4.553833 -11.493164 7
-0.243347 -4.5804439 -11.470703 7
-0.241364 -4.6069341 -11.449219 7
-0.248611 -4.6512451 -11.475586 7
-0.25482899 -4.693481 -11.499023 7
-0.053679999 4.7905269 -10.251953 7
-0.054710001 4.7648931 -10.268555 7
-0.062866002 4.7541499 -10.324219 7
-0.063896 4.728394 -10.34082 7
-0.063910998 4.7003169 -10.352539 7
-0.065955997 4.6765141 -10.373047 7
-0.074134998 4.6652832 -10.427734 7
-0.088394001 4.6662598 -10.513672 7
-0.083320998 4.627686 -10.498047 7
-0.075180002 4.5827641 -10.46582 7
-0.071114004 4.5461431 -10.455078 7
-0.071144 4.5180659 -10.463867 7
-0.067093 4.4815669 -10.453125 7
-0.029372999 -1.3037111 -10.419922 7
-0.035896 -1.363403 -10.448242 7
-0.030579001 -1.388306 -10.416016 7
-0.031707998 -1.416748 -10.418945 7
-0.039253 -1.449707 -10.456055 7
-0.038231 -1.4769289 -10.446289 7
-0.045791999 -1.510132 -10.482422 7
-0.050186001 -1.569214 -10.498047 7
-0.042702001 -1.5919189 -10.455078 7
-0.068191998 4.7990718 -9.6669922 7
-0.060715001 4.7568359 -9.640625 7
-0.061774999 4.732666 -9.6572266 7
-0.058586001 4.699585 -9.6523438 7
-0.058600999 4.6732178 -9.6630859 7
-0.063956998 4.6578369 -9.7011719 7
-0.070373997 4.6446528 -9.7441406 7
-0.081084996 4.6398931 -9.8085938 7
-0.077887997 4.606689 -9.8037109 7
-0.070418999 4.5648189 -9.7773438 7
-0.070427001 4.5380859 -9.7890615 7
-0.071494997 4.5135498 -9.8046885 7
-0.026520001 -1.298584 -9.8867188 7
-0.028809 -1.326538 -9.8955078 7
-0.035652 -1.410889 -9.9189453 7
-0.035698 -1.437744 -9.9160156 7
-0.240982 -4.494873 -10.180664 7
-0.2388 -4.5180659 -10.15918 7
-0.24223299 -4.5517578 -10.165039 7
-0.030556001 -1.295532 -9.4121094 7
-0.029418999 -1.320435 -9.4042969 7
-0.031799 -1.347412 -9.4121094 7
-0.045876 -1.381592 -9.4765615 7
-0.045921002 -1.407227 -9.4736328 7
-0.041283 -1.4300539 -9.4472656 7
-0.038993999 -1.454102 -9.4326172 7
-0.041374002 -1.481323 -9.4394531 7
-0.037903 -1.504761 -9.4199219 7
-0.050804 -1.539062 -9.4785156 7
-0.056701999 -1.568848 -9.5039062 7
-0.057914998 -1.595337 -9.5048828 7
-0.028343 -1.337402 -8.9355469 7
-0.03083 -1.363525 -8.9433594 7
-0.018181 -1.294678 -8.4248047 7
-0.020767 -1.319214 -8.4316406 7
-0.019524001 -1.341797 -8.4238281 7
-0.033553999 -1.373901 -8.4824219 7
-0.037422001 -1.3994139 -8.4970703 7
-0.040008999 -1.424561 -8.5048828 7
-0.029860999 -1.4412839 -8.4550781 7
-0.029891999 -1.464478 -8.4521484 7
-0.032494001 -1.489624 -8.4599609 7
-0.035080001 -1.514648 -8.4667969 7
-0.041489001 -1.542358 -8.4931641 7
-0.052979 -1.57373 -8.5400391 7
-0.054297999 -1.598267 -8.5419922 7
-0.031372 -1.294067 -8.0751953 7
-0.034065001 -1.317993 -8.0839844 7
-0.034095999 -1.340454 -8.0800781 7
-0.031479001 -1.3612061 -8.0654297 7
-0.044769 -1.391968 -8.1201172 7
-0.056740001 -1.422119 -8.1669922 7
-0.05545 -1.443848 -8.1582031 7
-0.043570999 -1.458496 -8.1035156 7
-0.047584999 -1.483765 -8.1162109 7
-0.050285 -1.508057 -8.1240234 7
-0.048996001 -1.529541 -8.1152344 7
-0.055656001 -1.5567631 -8.1396484 7
-0.067619003 -1.5875241 -8.1865234 7
-0.082626 4.7932129 -7.0761719 7
-0.068115003 4.7424321 -7.032227 7
-0.064162999 4.7138672 -7.0283198 7
-0.062835999 4.69104 -7.0351558 7
-0.065475002 4.6763921 -7.0556641 7
-0.066780001 4.658936 -7.0722661 7
-0.066794999 4.6385498 -7.0830078 7
-0.065482996 4.6156011 -7.0888672 7
-0.064148001 4.5926509 -7.0957031 7
-0.070762999 4.5856929 -7.1308589 7
-0.077353999 4.5787349 -7.1669922 7
-0.085289001 4.5740972 -7.2080078 7
-0.077370003 4.5377202 -7.188477 7
-0.074730001 4.5119629 -7.1894531 7
-0.074730001 4.4914551 -7.1992192 7
-0.078735001 4.7963872 -6.5830078 7
-0.067749001 4.7540278 -6.5556641 7
-0.052643001 4.7032471 -6.5126948 7
-0.056763001 4.6929932 -6.539062 7
-0.060867 4.6824951 -6.5644531 7
-0.065002002 4.6719971 -6.5898442 7
-0.065002002 4.6530762 -6.6005859 7
-0.060874999 4.6253662 -6.5976558 7
-0.060867 4.6060791 -6.608398 7
-0.059509002 4.584106 -6.6152339 7
-0.064986996 4.5761719 -6.6445308 7
-0.070496 4.5679932 -6.6757808 7
-0.078727998 4.5653081 -6.7167969 7
-0.081473999 4.5515141 -6.7373052 7
-0.071860999 4.5126948 -6.7128911 7
-0.079643004 4.7963872 -6.1660161 7
-0.078224003 4.775269 -6.171875 7
-0.065398999 4.730103 -6.139648 7
-0.054001 4.6882319 -6.1123052 7
-0.055435002 4.6733398 -6.1279302 7
-0.058265999 4.6612549 -6.148438 7
-0.056830999 4.6401372 -6.155273 7
-0.056830999 4.6220698 -6.1660161 7
-0.061119001 4.6126709 -6.1914058 7
-0.056830999 4.585815 -6.1875 7
-0.059684999 4.5733638 -6.2080078 7
-0.062531002 4.5611572 -6.2294922 7
-0.069649003 4.5571289 -6.2636719 7
-0.075363003 4.550293 -6.2939448 7
-0.081069998 4.543335 -6.3242192 7
-0.073936 4.5107422 -6.3105469 7
-0.071075 4.4865718 -6.3125 7
-0.31271401 -5.0750728 9.25 7
-0.095062003 4.792603 -5.8125 7
-0.084693998 4.7536621 -5.7910161 7
-0.084702 4.7363281 -5.8017578 7
-0.081734002 4.7128911 -5.8037109 7
-0.090607002 4.7142329 -5.84375 7
-0.084679 4.6846919 -5.8349609 7
-0.074309997 4.645874 -5.813477 7
-0.074294999 4.6286621 -5.8242192 7
-0.072219998 4.6090088 -5.8300781 7
-0.064819001 4.5765381 -5.8173828 7
-0.064804003 4.5592041 -5.828125 7
-0.067786999 4.5479741 -5.8476558 7
-0.085541002 4.5662842 -5.9160161 7
-0.076637 4.5311279 -5.898438 7
-0.075165004 4.510498 -5.9042969 7
-0.078125 4.499023 -5.9248052 7
-0.32704201 -5.1031489 8.9013672 7
-0.32392901 -5.0792241 8.9033203 7
-0.316109 -5.0456538 8.8925781 7
-0.31455201 -5.0246582 8.8994141 7
-0.30829599 -4.9945068 8.8925781 7
-0.31298101 -4.9862061 8.9179688 7
-0.31456801 -4.971436 8.9345703 7
-0.312996 -4.950439 8.9414062 7
-0.30830401 -4.9233398 8.9394531 7
-0.30986801 -4.9085689 8.9560547 7
-0.312996 -4.896729 8.9765615 7
-0.314583 -4.8818359 8.9931641 7
-0.32396701 -4.8822021 9.0341797 7
-0.31146199 -4.8398442 9.0068359 7
-0.307098 -4.8128662 9.0048828 7
-0.078475997 0.961914 9.5507812 7
-0.081573002 0.982544 9.5605469 7
-0.078423001 1.00061 9.546875 7
-0.089325003 1.024658 9.5839844 7
-0.075226001 1.0374759 9.5302734 7
-0.067374997 1.0531009 9.5 7
-0.073608004 1.075195 9.5205078 7
-0.068885997 1.092163 9.5009766 7
-0.078208998 1.115845 9.5322266 7
-0.079735003 1.135864 9.5351562 7
-0.087494001 1.159058 9.5595703 7
-0.078102 1.17334 9.5234385 7
-0.084305003 1.195923 9.5429688 7
-0.081153996 1.213501 9.5292969 7
-0.087371998 1.236328 9.5498047 7
-0.084213004 1.253662 9.5361328 7
-0.084197998 1.272827 9.5332031 7
-0.333298 -5.1036382 8.4951172 7
-0.33168 -5.0834961 8.5029297 7
-0.31707001 -5.0374761 8.4736328 7
-0.318703 -5.0238042 8.4912109 7
-0.31546 -5.0004878 8.4931641 7
-0.318703 -4.9901118 8.5146484 7
-0.31709301 -4.9700928 8.5224609 7
-0.317101 -4.9533691 8.5341797 7
-0.312233 -4.9267578 8.53125 7
-0.31549099 -4.9162598 8.5527344 7
-0.31387299 -4.8961182 8.5595703 7
-0.326866 -4.9044189 8.6074219 7
-0.32363099 -4.8812261 8.6113281 7
-0.312271 -4.842041 8.5898438 7
-0.31226301 -4.8249512 8.6015615 7
-0.30901301 -4.8016362 8.6025391 7
-0.317146 -4.800293 8.6376953 7
-0.095734 -1.918335 9.0917969 7
-0.102203 -1.9055181 9.1191406 7
-0.100555 -1.885986 9.1171885 7
-0.097313002 -1.864868 9.1113281 7
-0.102165 -1.850708 9.1328115 7
-0.108643 -1.8375241 9.1591797 7
-0.10862 -1.819092 9.1640615 7
-0.108612 -1.800903 9.1679688 7
-0.092361003 -1.769775 9.1171885 7
-0.090728998 -1.750244 9.1162109 7
-0.087462999 -1.729614 9.109375 7
-0.082588002 -1.707764 9.0966797 7
-0.082565002 -1.689453 9.1005859 7
-0.085793003 -1.673462 9.1152344 7
-0.095504999 -1.6624759 9.1533203 7
-0.092231996 -1.6418459 9.1455078 7
-0.092216 -1.623535 9.1494141 7
-0.095450997 -1.6073 9.1650391 7
-0.072532997 0.97766101 9.2080078 7
-0.069251999 0.99475098 9.1943359 7
-0.069228999 1.013062 9.1923828 7
-0.067566 1.03064 9.1845703 7
-0.067528002 1.049072 9.1816406 7
-0.067505002 1.067505 9.1796885 7
-0.075562 1.089722 9.2050781 7
-0.075530998 1.108276 9.2021484 7
-0.075493 1.126709 9.1992188 7
-0.075478002 1.145142 9.1972656 7
-0.075424001 1.163452 9.1933594 7
-0.067299001 1.1776119 9.1630859 7
-0.076972999 1.201172 9.1933594 7
-0.078575 1.220337 9.1962891 7
-0.085006997 1.24231 9.2158203 7
-0.083351001 1.2598881 9.2070312 7
-0.131477 4.216187 8.3193359 7
-0.12175 4.2148442 8.2802734 7
-0.112007 4.2133789 8.2421885 7
-0.103889 4.2146001 8.2089844 7
-0.102219 4.2276611 8.1943359 7
-0.103783 4.246582 8.1884766 7
-0.103737 4.2625728 8.1787109 7
-0.10363 4.2945561 8.1582031 7
-0.103584 4.3104248 8.1474609 7
-0.100311 4.320312 8.1289062 7
-0.097023003 4.3299561 8.1083984 7
-0.103439 4.3581538 8.1181641 7
-0.109856 4.386353 8.125 7
-0.137253 4.4547119 8.1943359 7
-0.33033001 -5.0959468 8.0742188 7
-0.325279 -5.0699458 8.0732422 7
-0.318573 -5.0405269 8.0683594 7
-0.311836 -5.011353 8.0615234 7
-0.31690201 -5.0054932 8.0878906 7
-0.31522399 -4.9862061 8.0947266 7
-0.32532501 -4.990479 8.1328115 7
-0.31693301 -4.9578862 8.1230469 7
-0.310211 -4.9285889 8.1181641 7
-0.31189701 -4.9161382 8.1337891 7
-0.311905 -4.900146 8.1455078 7
-0.31526899 -4.8907471 8.1660156 7
-0.32369199 -4.8911128 8.2001953 7
-0.32369199 -4.8748779 8.2109385 7
-0.32203701 -4.8554692 8.21875 7
-0.320351 -4.83606 8.2265615 7
-0.092758 -1.912598 8.7714844 7
-0.096115001 -1.897949 8.7880859 7
-0.094420999 -1.879028 8.7871094 7
-0.096092001 -1.862915 8.796875 7
-0.092712 -1.842773 8.7910156 7
-0.106155 -1.83606 8.8378906 7
-0.102783 -1.815796 8.8320312 7
-0.099380001 -1.795532 8.8251953 7
-0.090965003 -1.771484 8.8027344 7
-0.087577999 -1.751465 8.7949219 7
-0.084213004 -1.731323 8.7880859 7
-0.082534999 -1.712402 8.7880859 7
-0.084190004 -1.6962889 8.796875 7
-0.085845999 -1.6800539 8.8066406 7
-0.094246 -1.668823 8.8388672 7
-0.095894001 -1.652344 8.8476562 7
-0.082451001 -1.624878 8.8076172 7
-0.079062998 -1.605225 8.8007812 7
-0.077278003 0.978149 8.9228516 7
-0.065498002 0.99072301 8.8818359 7
-0.063773997 1.007568 8.8730469 7
-0.060394 1.023682 8.859375 7
-0.063727997 1.042969 8.8681641 7
-0.067038998 1.062256 8.8769531 7
-0.063652001 1.078247 8.8632812 7
-0.072013997 1.0999759 8.8886719 7
-0.073661998 1.11853 8.8916016 7
-0.070266999 1.134521 8.8779297 7
-0.075278997 1.154663 8.8925781 7
-0.073555 1.171631 8.8837891 7
-0.075203001 1.190063 8.8867188 7
-0.075180002 1.207764 8.8837891 7
-0.071800001 1.223755 8.8701172 7
-0.076789998 1.244141 8.8828115 7
-0.073394999 1.2598881 8.8691406 7
-0.128593 4.1602778 7.9804692 7
-0.130226 4.1789551 7.9755859 7
-0.130173 4.1945801 7.9658198 7
-0.126801 4.2037349 7.9462891 7
-0.120033 4.2069092 7.9169922 7
-0.118324 4.2193599 7.9023442 7
-0.103226 4.2069092 7.851562 7
-0.104843 4.2253418 7.8457031 7
-0.103127 4.2373052 7.8310552 7
-0.103088 4.2524409 7.8212891 7
-0.099678002 4.2614751 7.8017578 7
-0.101303 4.2796631 7.796875 7
-0.107964 4.307373 7.804688 7
-0.104568 4.3161621 7.7851558 7
-0.099509999 4.3216548 7.7617192 7
-0.099457003 4.3366699 7.750977 7
-0.099411003 4.351562 7.742188 7
-0.10939 4.3858638 7.757812 7
-0.114372 4.4102778 7.7607422 7
-0.124359 4.4445801 7.7783198 7
-0.336411 -5.1158452 7.6904302 7
-0.32946 -5.0869141 7.6845698 7
-0.31900001 -5.0509028 7.6699219 7
-0.32598901 -5.0500488 7.7001948 7
-0.319038 -5.0211182 7.6943359 7
-0.315552 -4.9992681 7.6982422 7
-0.32077801 -4.994751 7.7226558 7
-0.317307 -4.9728999 7.7255859 7
-0.31732199 -4.9578862 7.7373052 7
-0.31384301 -4.9360352 7.7412109 7
-0.313858 -4.921021 7.7529302 7
-0.31560501 -4.9093022 7.7675781 7
-0.32433301 -4.9112549 7.8027339 7
-0.32433301 -4.8959961 7.8144531 7
-0.313889 -4.8604741 7.8007808 7
-0.31390399 -4.8453369 7.8125 7
-0.32087699 -4.84375 7.8408198 7
-0.308685 -4.8049321 7.820312 7
-0.0942 -1.9104 8.4873047 7
-0.101166 -1.899292 8.5136719 7
-0.095923997 -1.878052 8.5019531 7
-0.092422001 -1.858398 8.4960938 7
-0.094139002 -1.843262 8.5048828 7
-0.104584 -1.834717 8.5429688 7
-0.101097 -1.814941 8.5371094 7
-0.102821 -1.799316 8.546875 7
-0.099319004 -1.779785 8.5400391 7
-0.085387997 -1.752197 8.5009766 7
-0.083626002 -1.734131 8.4990234 7
-0.083618 -1.717285 8.5029297 7
-0.083603002 -1.700562 8.5078115 7
-0.081840999 -1.682373 8.5058594 7
-0.085320003 -1.667969 8.5205078 7
-0.087035999 -1.652588 8.5302734 7
-0.078322999 -1.629395 8.5068359 7
-0.085266002 -1.617676 8.5322266 7
-0.067909002 0.97241199 8.6113281 7
-0.064400002 0.98779303 8.5986328 7
-0.062622003 1.004028 8.5898438 7
-0.062599003 1.021118 8.5878906 7
-0.062553003 1.0380861 8.5849609 7
-0.062531002 1.0550539 8.5830078 7
-0.067703001 1.074463 8.5966797 7
-0.065940998 1.0905761 8.5888672 7
-0.060699001 1.105103 8.5693359 7
-0.065894999 1.124512 8.5839844 7
-0.067603998 1.1424561 8.5878906 7
-0.065825999 1.158569 8.5791016 7
-0.074501 1.1800539 8.6044922 7
-0.069237001 1.1943361 8.5849609 7
-0.069220997 1.211182 8.5820312 7
-0.077849999 1.23291 8.6064453 7
-0.083038002 1.252808 8.6201172 7
-0.069122002 1.262207 8.5732422 7
-0.119385 4.168335 7.5996089 7
-0.124519 4.1921391 7.6025391 7
-0.131409 4.2194819 7.6123052 7
-0.124435 4.2216802 7.5839839 7
-0.11573 4.2202148 7.5507808 7
-0.108757 4.222168 7.5224609 7
-0.103508 4.2268071 7.4970698 7
-0.098251 4.2315669 7.4746089 7
-0.096481003 4.2426758 7.4599609 7
-0.10511 4.2729492 7.4726558 7
-0.10331 4.2841802 7.4570308 7
-0.103271 4.2984619 7.4472661 7
-0.099770002 4.3061519 7.4287109 7
-0.099716 4.320435 7.4179692 7
-0.103134 4.341064 7.4169922 7
-0.106567 4.361938 7.4150391 7
-0.115189 4.3927002 7.4287109 7
-0.12551901 4.4267578 7.445312 7
-0.127205 4.444458 7.4394531 7
-0.12542 4.4552002 7.4238281 7
-0.128838 4.4760742 7.422852 7
-0.32432601 -4.993896 7.3652339 7
-0.32432601 -4.9797359 7.3769531 7
-0.324341 -4.9656978 7.3886719 7
-0.32076299 -4.9442139 7.3925781 7
-0.32076299 -4.9301758 7.4042969 7
-0.32077 -4.915894 7.4150391 7
-0.324379 -4.9086909 7.4355469 7
-0.32801101 -4.9012451 7.4570308 7
-0.32620201 -4.8833008 7.4638672 7
-0.32081601 -4.8586431 7.4628911 7
-0.320824 -4.8443599 7.4746089 7
-0.32263201 -4.8334961 7.4902339 7
-0.32085401 -4.8009028 7.5087891 7
-0.104675 -1.914795 8.2480469 7
-0.097465999 -1.892578 8.2314453 7
-0.101074 -1.879395 8.2470703 7
-0.101044 -1.8631589 8.2509766 7
-0.097434998 -1.844238 8.2451172 7
-0.102821 -1.832275 8.2646484 7
-0.113609 -1.824585 8.3017578 7
-0.093796 -1.792603 8.2470703 7
-0.100983 -1.782227 8.2724609 7
-0.082961999 -1.752075 8.2226562 7
-0.084747002 -1.737305 8.2324219 7
-0.088333003 -1.723877 8.2470703 7
-0.091911003 -1.710449 8.2617188 7
-0.084702 -1.688843 8.2441406 7
-0.084693998 -1.6726069 8.2480469 7
-0.086487003 -1.657715 8.2578115 7
-0.091872998 -1.645386 8.2783203 7
-0.082863003 -1.622681 8.2548828 7
-0.079239003 -1.604004 8.2470703 7
-0.065056004 0.96899402 8.3408203 7
-0.072205 0.98852497 8.3603516 7
-0.066794999 1.002686 8.3417969 7
-0.066757001 1.019287 8.3388672 7
-0.063133001 1.033813 8.3261719 7
-0.064888 1.051147 8.3291016 7
-0.064865001 1.067505 8.3271484 7
-0.059441 1.0812989 8.3076172 7
-0.063004002 1.099243 8.3164062 7
-0.062973 1.1156009 8.3134766 7
-0.066528 1.133667 8.3212891 7
-0.048553001 1.140869 8.2636719 7
-0.061096001 1.163452 8.2998047 7
-0.071823001 1.185547 8.3300781 7
-0.071792997 1.2019041 8.3271484 7
-0.057395998 1.210327 8.2792969 7
-0.064560004 1.230713 8.2988281 7
-0.069900997 1.249878 8.3125 7
-0.071671002 1.267212 8.3154297 7
-0.050980002 1.083776 9.5845737 7
-0.3233 -4.9420261 8.6522284 7
-0.132503 -1.849387 9.1162128 7
-0.120859 -1.611573 9.1125183 7
-0.083469003 0.97365803 9.0228157 7
-0.090952002 1.192896 9.0290642 7
-0.13338199 4.2393122 7.6056051 7
-0.121023 4.3287821 7.382731 7
-0.29647401 -5.0098228 7.6598582 7
-0.301388 -4.8682561 7.8771281 7
-0.111371 -1.876634 8.5931721 7
-0.099875003 -1.659557 8.5977592 7
-0.068516001 1.130106 8.5597553 7
-0.28965399 -5.0781288 6.817071 7
-0.28102499 -4.9034262 6.9946389 7
-0.096481003 -1.903015 8.1622944 7
-0.078203999 -1.687816 8.137619 7
-0.043513998 1.025447 8.1433802 7
-0.044050999 1.197284 8.103075 7
-0.33051801 -5.0059772 6.0110679 7
-0.31948599 -4.8561382 6.1911669 7
-0.110967 -1.72393 7.7763281 7
-0.063327 1.093183 7.751368 7
-0.063952997 1.2487611 7.708334 7
-0.29244199 -4.8319368 5.0602241 7
-0.106757 -1.771283 7.4941778 7
-0.050133999 1.017554 7.4961972 7
-0.044953 1.153211 7.4294691 7
-0.086590998 -1.772867 7.1706591 7
-0.077448003 -1.6203099 7.2019458 7
-0.031057 1.0746109 7.2000518 7
-0.033096001 1.20945 7.163548 7
-0.067132004 -1.766304 6.8783398 7
-0.053635001 -1.615905 6.8957858 7
0.049003001 -1.3916301 -11.544538 7
-0.034331001 -1.3186001 -8.827116 7
0.001624 -1.5733891 -5.1202259 7
-0.053709999 -1.511431 -4.229877 7
-0.037416998 -1.467683 -3.582917 7
-0.317186 -4.934339 9.2316227 7
-0.05872 -1.726266 9.222373 7
-0.37288001 -4.8829918 8.6469498 7
-0.106755 -1.902657 8.7437658 7
-0.104184 -1.672805 8.7887344 7
-0.35357001 -5.0224962 7.9516382 7
-0.35504001 -4.8357468 8.1342459 7
-0.082353003 -1.83639 8.336031 7
-0.080275998 -1.623668 8.3785486 7
-0.314969 -4.888165 7.4250479 7
-0.072989002 -1.787567 8.0367336 7
-0.260838 -4.491406 -0.93945599 7
-0.267759 -4.6697698 -0.79678702 7
-0.30219001 -4.9744391 6.8566999 7
-0.30515 -4.8355598 7.036098 7
-0.045694001 -1.7309361 7.6874561 7
-0.345523 -5.0207248 6.3255811 7
-0.331631 -4.8530812 6.4621139 7
-0.087820001 -1.866146 7.4136539 7
-0.070092998 -1.681821 7.3907452 7
-0.289583 -4.649776 0.118918 7
-0.29139599 -4.771482 0.279055 7
-0.33081001 -5.0617871 5.7877278 7
-0.30567899 -4.8534002 5.9479861 7
-0.064030997 -1.811475 7.1473079 7
-0.053332999 -1.642807 7.1503868 7
-0.27566499 -4.5744061 0.433887 7
-0.27394599 -4.6736822 0.59696501 7
-0.28702801 -4.8647518 5.4437199 7
-0.30024001 -4.8116121 5.6305518 7
-0.054722 -1.771598 6.9538469 7
-0.042367999 -1.610204 6.9499168 7
-0.264532 -4.6844168 1.0321079 7
-0.268601 -4.7770772 1.186444 7
-0.274266 -4.9075551 4.8574929 7
-0.27182001 -4.8307748 5.0171971 7
-0.28092799 -4.782444 5.1914191 7
-0.27150899 -4.6726732 5.3340549 7
-0.045892 -1.879944 6.7322869 7
-0.038178999 -1.729704 6.7499208 7
-0.24995799 -4.5048089 1.139832 7
-0.29470801 -4.5763078 1.2949359 7
-0.30039299 -4.6632152 1.442174 7
-0.29712299 -4.7184629 1.604663 7
-0.29728401 -4.7770891 1.764457 7
-0.29018 -4.5684509 1.670588 7
-0.28102899 -4.5985379 1.834268 7
-0.28452599 -4.658092 1.984898 7
-0.29337701 -4.7272768 2.133275 7
-0.27873099 -4.7299771 2.34215 7
-0.28918299 -4.7902451 2.494014 7
-0.267674 -4.5283799 2.192471 7
-0.26898101 -4.5677271 2.3415461 7
-0.27626699 -4.6247969 2.526577 7
-0.036548 4.7263989 -13.87431 7
-0.016176 4.7397151 -10.444721 7
-0.098906003 4.5169091 -2.9332891 7
-0.099267997 1.081905 9.1728392 7
-0.167887 4.2180429 7.9482388 7
-0.149352 4.3368368 7.7077641 7
-0.071502998 1.075338 8.69559 7
-0.153567 4.1781578 7.4967618 7
-0.052556999 1.069937 8.311367 7
-0.028146001 1.064916 7.939621 7
-0.034910001 1.261206 7.9331212 7
-0.061507002 1.05915 7.6440878 7
-0.065141 1.242501 7.6265898 7
-0.046969999 1.055624 7.3885469 7
-0.052983999 1.2288539 7.382906 7
-0.033093002 1.0524451 7.156579 7
-0.037292 1.215692 7.1455541 7
-0.103083 4.9183331 -17.134733 7
-0.073812999 -1.16659 -10.785598 7
-0.37547499 -4.3602681 -15.861032 7
-0.32907 -4.457829 -12.575202 7
-0.026586 -1.3076119 -7.460361 7
-0.240725 -4.539382 -9.503273 7
-0.065798998 4.5587502 -6.836452 7
-0.018444 -1.360329 -6.5619369 7
-0.063643001 -1.397411 -5.8628559 7
-0.044443998 -1.401098 -5.237885 7
-0.061122 4.5439439 -2.9721241 7
-0.070152998 4.5098491 -3.1816211 7
-0.0735 4.4193411 -3.3680229 7
0.0061309999 1.297755 -4.81218 7
-0.034609001 -1.416738 -4.7795248 7
-0.042847 -1.597524 -4.7849269 7
-0.02169 -1.413282 -4.3655491 7
-0.026689 -1.566723 -4.3440199 7
-0.039167002 -1.391476 -3.985981 7
-0.056139 -1.563804 -4.0255051 7
-0.02954 -1.390149 -3.7061319 7
-0.048643999 -1.5577869 -3.748333 7
-0.21915001 -4.5114222 -0.64395398 7
