# .PCD v0.7 - Point Cloud Data file format
VERSION 0.7
FIELDS x y z intensity
SIZE 4 4 4 4
TYPE F F F F
COUNT 1 1 1 1
WIDTH 880
HEIGHT 1
VIEWPOINT 0 0 0 1 0 0 0
POINTS 880
DATA ascii
0.105125 -1.915527 -68.513672 7
0.136887 -2.0491941 -67.433594 7
0.094779998 4.9743652 -69.369141 7
0.115952 4.7574458 -68.657227 7
0.093910001 4.639648 -69.410156 7
0.005074 -2.10144 -63.987305 7
0.080283999 -2.1782229 -61.71875 7
0.070694 -2.338135 -61.995117 7
0.174759 4.8426509 -59.243164 7
0.13371301 4.7944341 -60.491211 7
0.18720201 4.5258789 -58.879883 7
0.13745899 4.4916992 -60.390625 7
-0.82184601 -2.4533689 73.084961 7
0.203293 4.7648931 -51.917969 7
0.158424 4.743042 -53.136719 7
0.12844799 4.6816411 -53.953125 7
0.182785 4.429565 -52.494141 7
0.14551499 4.3850098 -53.500977 7
0.086783998 4.3769531 -55.091797 7
0.181023 4.6022949 -47.431641 7
0.144417 4.5679932 -48.333008 7
0.110916 4.522583 -49.15918 7
0.168037 4.2811279 -47.771484 7
0.12664799 4.2495122 -48.790039 7
0.098853998 4.1860352 -49.475586 7
0.161842 0.87023902 -47.888672 7
0.171341 4.6124272 -43.043945 7
0.110901 4.5330811 -44.397461 7
0.069747999 4.5117192 -45.317383 7
0.109756 4.2081299 -44.447266 7
0.050719999 4.2155762 -45.761719 7
0.22467799 0.78076202 -41.991211 7
-0.58700597 0.069214001 53.075195 7
-0.61190802 0.193359 53.541016 7
-0.556198 0.31054699 52.505859 7
-0.21755999 0.80322301 46.203125 7
0.081779003 4.5479741 -41.393555 7
0.056586999 4.4993901 -41.916016 7
0.025124 4.4613042 -42.567383 7
0.057799999 4.2906489 -41.908203 7
0.046875 4.209229 -42.139648 7
0.014557 4.1677251 -42.807617 7
0.16674 0.92199701 -39.756836 7
0.156975 0.73046899 -39.953125 7
0.147659 0.63525403 -40.142578 7
0.13517 0.54016101 -40.394531 7
-0.578354 -2.733398 48.571289 7
-0.585724 -2.6287839 48.706055 7
-0.50750703 0.17248499 47.506836 7
-0.49592599 0.38928199 47.3125 7
0.063995004 4.6479492 -37.908203 7
0.044211999 4.5969238 -38.285156 7
0.024429001 4.5440669 -38.661133 7
-0.00098400004 4.5010991 -39.142578 7
-0.021400001 4.4456792 -39.53125 7
0.127975 1.053833 -36.897461 7
0.11499 0.419312 -37.136719 7
0.12637299 0.23498499 -36.921875 7
-0.528 -2.695801 44.398438 7
-0.541107 -2.6064451 44.615234 7
-0.56528503 -2.526489 45.006836 7
0.056830999 4.7357178 -34.936523 7
0.048271 4.6678472 -35.091797 7
0.022469001 4.636353 -35.544922 7
0.0037539999 4.5878911 -35.875 7
-0.030410999 4.5717769 -36.464844 7
-0.042015001 4.505127 -36.672852 7
0.127983 1.224609 -33.926758 7
0.116371 1.147095 -34.128906 7
0.123047 1.059204 -34.014648 7
0.095481999 0.98791498 -34.491211 7
0.124939 0.122437 -33.97168 7
0.099555999 -0.110229 -31.419922 7
0.124985 -0.18603501 -31.014648 7
0.088965997 -0.26757801 -31.581055 7
0.11219 -0.34204099 -31.212891 7
-0.47964501 -2.5349121 40.359375 7
-0.49109599 -2.4532471 40.535156 7
-0.53206599 -2.396729 41.142578 7
-0.43715701 0.32678199 39.876953 7
-0.413551 0.414307 39.53125 7
-0.438896 0.50952101 39.90332 7
-0.40213799 0.59240699 39.365234 7
-0.51979798 3.5384519 41.036133 7
-0.48111001 3.5805659 40.462891 7
-0.454346 3.6364751 40.064453 7
-0.44942501 3.7211909 39.986328 7
0.082038999 4.758667 -31.442383 7
0.066078 4.7158198 -31.702148 7
0.029083 4.717896 -32.292969 7
0.002045 4.6959229 -32.726562 7
-0.025726 4.6733398 -33.170898 7
0.139458 1.4226069 -30.787109 7
0.137817 1.2705081 -30.816406 7
0.088363998 1.065918 -31.601562 7
0.066101 -0.187134 -29.766602 7
0.097649001 -0.32983401 -29.297852 7
0.093451999 -0.47607401 -29.353516 7
-0.398193 0.385986 37.00293 7
-0.38365901 0.46789601 36.803711 7
-0.40262601 0.55590802 37.06543 7
-0.39952901 0.63964802 37.023438 7
-0.50047302 3.559937 38.3125 7
-0.46859699 3.604248 37.869141 7
-0.43968999 3.650635 37.464844 7
-0.425156 3.715698 37.258789 7
0.054329 4.7990718 -29.635742 7
0.040421002 4.7562261 -29.848633 7
0.020599 4.7250981 -30.149414 7
-0.002785 4.7003169 -30.500977 7
-0.023406999 4.6677251 -30.813477 7
0.023322999 4.4958501 -30.135742 7
0.125671 1.482178 -28.861328 7
0.124733 1.338745 -28.878906 7
0.109207 1.2763669 -29.110352 7
0.083397001 1.218628 -29.492188 7
0.068053998 -0.36987299 -27.376953 7
0.077376999 -0.43640101 -27.24707 7
0.101608 -0.56591803 -26.913086 7
0.083549 -0.638794 -27.15625 7
-0.10099 -3.5601809 -29.432617 7
-0.13596299 -3.6885991 -29.893555 7
-0.121902 -3.7397461 -29.693359 7
-0.104385 -3.7841799 -29.447266 7
-0.093323 -3.8382571 -29.287109 7
-0.34512299 0.58264202 33.801758 7
0.054198999 4.917603 -27.234375 7
0.043884002 4.8729248 -27.383789 7
0.027611 4.8406978 -27.614258 7
0.013023 4.8039551 -27.821289 7
-0.031929001 4.7614751 -28.449219 7
-0.021323999 4.6678472 -28.316406 7
0.114906 1.646118 -26.725586 7
0.098586999 1.591553 -26.951172 7
0.096367002 1.525757 -26.983398 7
0.109558 1.448975 -26.806641 7
0.089805998 1.39502 -27.078125 7
0.091018997 1.326538 -27.063477 7
0.071060002 -0.66955602 -25.449219 7
0.081542999 -0.72937 -25.313477 7
0.045577999 -0.806274 -25.765625 7
0.065696999 -0.862427 -25.507812 7
0.060081001 -0.92858899 -25.575195 7
-0.146065 -3.8057859 -27.900391 7
-0.1119 -3.9542241 -27.4375 7
-0.017609 5.0733638 -26.167969 7
0.01297 4.9381099 -25.794922 7
0.011078 4.877563 -25.828125 7
-0.00177 4.8413091 -26.000977 7
-0.014191 4.8031011 -26.167969 7
-0.032524001 4.776978 -26.40918 7
-0.049042001 4.745728 -26.62793 7
0.088340998 1.556519 -25.185547 7
0.091034003 1.491455 -25.155273 7
0.078818999 1.4293211 -25.374023 7
0.055785999 1.377319 -25.658203 7
0.085533001 1.294678 -25.282227 7
0.063354 -0.80139202 -23.617188 7
-0.14479101 -3.9172361 -25.738281 7
-0.132507 -3.960449 -25.584961 7
-0.123688 -4.0087891 -25.47168 7
-0.115372 -4.0574951 -25.365234 7
-0.117477 -4.1245122 -25.37793 7
-0.0085140001 5.053833 -24.013672 7
0.0076830001 4.956543 -23.837891 7
0.0071410001 4.8974609 -23.854492 7
-0.0022740001 4.858398 -23.974609 7
-0.011177 4.8173828 -24.088867 7
-0.031906001 4.8015141 -24.34082 7
0.085312001 1.741455 -23.296875 7
0.092087001 1.618408 -23.223633 7
0.036377002 -0.981812 -22.25 7
0.031433001 -1.096191 -22.297852 7
0.035583001 -1.1500241 -22.249023 7
-0.14668299 -3.960815 -23.918945 7
-0.148384 -4.0236821 -23.926758 7
-0.140549 -4.0695801 -23.831055 7
-0.13269 -4.1152339 -23.735352 7
-0.032379001 5.1118159 -22.512695 7
-0.00082399999 4.9827881 -22.181641 7
-0.0056079999 4.9375 -22.244141 7
-0.013542 4.8989258 -22.341797 7
-0.020431999 4.8575439 -22.427734 7
-0.032607999 4.827148 -22.569336 7
-0.053725999 4.8155522 -22.80957 7
0.063179001 1.864868 -21.882812 7
0.066811003 1.806519 -21.845703 7
0.04882 1.765869 -22.047852 7
0.070923001 1.6923831 -21.808594 7
0.065590002 1.641235 -21.870117 7
0.014404 -0.98034698 -20.947266 7
0.027892999 -1.026733 -20.805664 7
0.033463001 -1.076538 -20.745117 7
0.021507001 -1.13501 -20.863281 7
0.012924 -1.192505 -20.948242 7
0.023598 -1.2392581 -20.835938 7
-0.156967 -4.1700439 -22.30957 7
-0.149124 -4.2119141 -22.219727 7
-0.144127 -4.2584229 -22.157227 7
-0.141975 -4.3100591 -22.124023 7
-0.15455601 -4.3892822 -22.240234 7
-0.167725 -4.4699712 -22.361328 7
-0.040367 5.1177979 -20.96875 7
-0.017890999 5.0133061 -20.75293 7
-0.019623 4.964355 -20.783203 7
-0.02359 4.9202881 -20.833984 7
-0.033775002 4.8898931 -20.948242 7
-0.052398998 4.8771968 -21.147461 7
-0.058067001 4.8355708 -21.21582 7
0.060478002 1.9005131 -20.388672 7
0.059852999 1.849121 -20.398438 7
0.041053999 1.814697 -20.59375 7
0.064110003 1.743286 -20.360352 7
0.05954 1.69519 -20.410156 7
0.053847998 1.647583 -20.47168 7
0.010307 -0.97302198 -19.644531 7
-0.0042190002 -1.029663 -19.782227 7
0.006546 -1.074219 -19.674805 7
0.012459 -1.121094 -19.613281 7
-0.012901 -1.184448 -19.854492 7
-0.0069579999 -1.231445 -19.793945 7
-0.0034409999 -1.279541 -19.756836 7
-0.187225 -4.18396 -21.136719 7
-0.187332 -4.2373052 -21.126953 7
-0.17839099 -4.2744141 -21.03125 7
-0.17247 -4.3165278 -20.962891 7
-0.16835 -4.3615718 -20.914062 7
-0.18292999 -4.4416499 -21.040039 7
0.001602 -1.010498 -18.429688 7
-0.0042340001 -1.060181 -18.479492 7
0.001442 -1.10437 -18.423828 7
0.0077590002 -1.147705 -18.361328 7
-0.020508001 -1.210083 -18.615234 7
-0.010971 -1.251953 -18.525391 7
-0.0097660003 -1.29834 -18.510742 7
-0.0066450001 -1.343628 -18.478516 7
-0.18333399 -4.1699219 -19.672852 7
-0.19179501 -4.2347412 -19.736328 7
-0.189964 -4.2814941 -19.708984 7
-0.181732 -4.31604 -19.624023 7
-0.176689 -4.3565669 -19.569336 7
-0.17743701 -4.4073491 -19.564453 7
-0.021027001 4.9847412 -18.024414 7
-0.026138 4.9498291 -18.082031 7
-0.026184 4.903564 -18.092773 7
-0.033859 4.8739009 -18.172852 7
0.048744 1.593628 -17.919922 7
0.053817999 1.543945 -17.876953 7
0.028221 1.515991 -18.113281 7
0.040298 1.4613039 -18.004883 7
0.050468002 1.408325 -17.916016 7
0.056807999 1.358398 -17.861328 7
0.043990999 1.320435 -17.980469 7
-0.016814999 -1.0068361 -17.481445 7
-0.01358 -1.0944819 -17.447266 7
-0.0082170004 -1.13623 -17.397461 7
0.0025480001 -1.174927 -17.301758 7
-0.022697 -1.2780761 -17.510742 7
-0.017348999 -1.3193361 -17.460938 7
-0.022171 -1.367065 -17.498047 7
-0.205452 -4.1646729 -18.646484 7
-0.21301299 -4.2253418 -18.699219 7
-0.214478 -4.275269 -18.700195 7
-0.207771 -4.3106689 -18.632812 7
-0.200569 -4.344727 -18.572266 7
-0.20134 -4.393188 -18.567383 7
-0.202805 -4.4431152 -18.569336 7
-0.06662 5.0708008 -17.246094 7
-0.070685998 5.0352778 -17.291992 7
-0.045067001 4.9342041 -17.089844 7
-0.054558001 4.9107671 -17.179688 7
-0.061333001 4.8813481 -17.248047 7
-0.062035002 4.8383789 -17.264648 7
-0.082305998 4.8371582 -17.446289 7
-0.091805004 4.8122559 -17.535156 7
0.050957002 1.287598 -16.830078 7
0.037987001 1.164307 -16.949219 7
0.048744 1.11499 -16.858398 7
0.059509002 1.066162 -16.768555 7
0.050011002 1.0274661 -16.852539 7
-0.20373499 -4.1911621 -17.429688 7
-0.217499 -4.2597661 -17.526367 7
-0.219032 -4.307251 -17.52832 7
-0.21048699 -4.3363042 -17.450195 7
-0.208427 -4.3770752 -17.422852 7
-0.20490301 -4.414917 -17.383789 7
-0.213631 -4.4755859 -17.441406 7
0.048140999 0.92846698 -15.819336 7
0.049515001 0.886841 -15.810547 7
0.037308 0.85070801 -15.911133 7
0.037971001 0.80920398 -15.90625 7
0.045074001 0.76550299 -15.850586 7
0.050765999 0.72241199 -15.805664 7
0.060028002 0.67846698 -15.732422 7
-0.021126 -1.097656 -15.442383 7
-0.01754 -1.2149661 -15.404297 7
-0.034325 -1.2644041 -15.52832 7
-0.213608 -4.1873779 -16.416992 7
-0.233574 -4.3068848 -16.542969 7
-0.225281 -4.3343511 -16.47168 7
-0.22081 -4.3681641 -16.427734 7
-0.220901 -4.410522 -16.416016 7
-0.217934 -4.4468989 -16.382812 7
0.036377002 0.60925299 -14.962891 7
0.037865002 0.56994599 -14.952148 7
0.044647001 0.52917498 -14.902344 7
0.051422 0.48889199 -14.851562 7
0.052878998 0.44995099 -14.838867 7
0.050560001 0.411621 -14.858398 7
0.047485001 0.373413 -14.882812 7
0.045929 0.33483899 -14.895508 7
0.049201999 -0.01355 -13.96582 7
0.051566999 -0.050170999 -13.949219 7
0.049102999 -0.086792 -13.964844 7
0.042647999 -0.123779 -14.011719 7
0.039398 -0.160767 -14.03418 7
0.041763 -0.197266 -14.016602 7
0.045722999 -0.233643 -13.986328 7
0.047272 -0.27002001 -13.973633 7
0.048041999 -0.30664101 -13.967773 7
-0.21678901 -4.1601558 -15.408203 7
-0.21444701 -4.1958008 -15.381836 7
-0.225014 -4.2539058 -15.444336 7
-0.231529 -4.3052979 -15.480469 7
-0.231621 -4.3452148 -15.469727 7
-0.22687501 -4.3762212 -15.424805 7
-0.22534201 -4.413208 -15.40332 7
-0.220604 -4.4439702 -15.359375 7
-0.047958001 4.8929439 -13.952148 7
-0.043189999 4.8460689 -13.929688 7
-0.046402 4.8164058 -13.962891 7
-0.048804998 4.7849121 -13.991211 7
-0.052834 4.7568359 -14.030273 7
-0.030921999 -1.347412 -13.75 7
-0.028526001 -1.41748 -13.724609 7
-0.219528 -4.181396 -14.52832 7
-0.22637901 -4.230957 -14.563477 7
-0.22818001 -4.271606 -14.5625 7
-0.23587801 -4.322998 -14.603516 7
-0.23849501 -4.365356 -14.609375 7
-0.232658 -4.3924561 -14.560547 7
-0.233574 -4.4318848 -14.555664 7
-0.229424 -4.461792 -14.517578 7
0.0021510001 -0.65295398 -12.737305 7
0.014786 -0.685669 -12.741211 7
0.0056759999 -0.82287598 -12.791016 7
0.0074009998 -0.85571301 -12.777344 7
0.0055689998 -0.89013702 -12.787109 7
-0.242432 -4.2972412 -13.789062 7
-0.24520899 -4.3378911 -13.794922 7
-0.25417301 -4.3900151 -13.841797 7
-0.248909 -4.4163818 -13.795898 7
-0.011696 -0.98327601 -12.211914 7
-0.016395999 -1.017578 -12.238281 7
-0.018325999 -1.0506589 -12.248047 7
-0.0099790003 -1.078979 -12.194336 7
-0.012833 -1.112427 -12.208008 7
-0.016609 -1.146606 -12.228516 7
-0.031562999 -1.1867681 -12.318359 7
-0.026969999 -1.216675 -12.286133 7
-0.022376999 -1.24646 -12.253906 7
-0.019638 -1.2771 -12.234375 7
-0.044853002 -1.3243411 -12.385742 7
-0.044914 -1.357056 -12.382812 7
-0.032845002 -1.38208 -12.305664 7
-0.033844002 -1.415161 -12.307617 7
-0.034828 -1.44812 -12.30957 7
-0.045134999 -1.4875489 -12.370117 7
-0.050781 -1.523926 -12.400391 7
-0.061096001 -1.5637209 -12.459961 7
-0.021407999 -0.96923798 -11.59375 7
-0.020485001 -0.99951202 -11.585938 7
-0.011726 -1.026123 -11.53125 7
-0.010803 -1.056152 -11.522461 7
-0.0098799998 -1.0863039 -11.513672 7
-0.013824 -1.118896 -11.535156 7
-0.030525001 -1.158203 -11.630859 7
-0.031562999 -1.189453 -11.633789 7
-0.020850999 -1.214355 -11.567383 7
-0.023841999 -1.246704 -11.581055 7
-0.022910999 -1.276978 -11.573242 7
-0.049872998 4.7954102 -10.84668 7
-0.051833998 4.7702641 -10.869141 7
-0.051856998 4.7409668 -10.879883 7
-0.048935 4.705688 -10.875 7
-0.021172 -0.98425299 -11.007812 7
-0.02327 -1.014648 -11.018555 7
-0.028441999 -1.046387 -11.043945 7
-0.032584999 -1.077881 -11.064453 7
-0.029579001 -1.105835 -11.044922 7
-0.025520001 -1.133057 -11.019531 7
-0.021469001 -1.1604 -10.992188 7
-0.026649 -1.192261 -11.019531 7
-0.026695 -1.221802 -11.016602 7
-0.028809 -1.252197 -11.024414 7
-0.059654001 4.7962651 -10.269531 7
-0.056602001 4.7619629 -10.264648 7
-0.059700001 4.7406011 -10.290039 7
-0.064788997 4.7233891 -10.329102 7
-0.066832997 4.699707 -10.350586 7
-0.065834001 4.6696782 -10.356445 7
-0.071960002 4.6542969 -10.399414 7
-0.087265 4.6573491 -10.492188 7
-0.092377 4.6395259 -10.529297 7
-0.080146998 4.5861821 -10.475586 7
-0.077102996 4.5516362 -10.469727 7
-0.074051 4.5172119 -10.464844 7
-0.073036 4.4868159 -10.469727 7
-0.029549001 -1.303589 -10.415039 7
-0.041412 -1.338623 -10.475586 7
-0.04039 -1.365967 -10.46582 7
-0.037223998 -1.39209 -10.446289 7
-0.036194 -1.419312 -10.435547 7
-0.041618001 -1.450928 -10.461914 7
-0.045967001 -1.481812 -10.481445 7
-0.052467 -1.514282 -10.511719 7
-0.054664999 -1.543823 -10.519531 7
-0.055794001 -1.572876 -10.520508 7
-0.070998996 4.7720952 -9.6777344 7
-0.068878002 4.7409668 -9.6787109 7
-0.066765003 4.6837158 -9.6894531 7
-0.0625 4.648438 -9.6796885 7
-0.067855999 4.6330571 -9.7177734 7
-0.079627998 4.6306152 -9.7861328 7
-0.086052001 4.6169429 -9.8300781 7
-0.073227003 4.564209 -9.7763672 7
-0.075370997 4.541748 -9.7978516 7
-0.073242001 4.4840088 -9.8085938 7
-0.029960999 -1.300415 -9.8974609 7
-0.027756 -1.325806 -9.8828115 7
-0.031707998 -1.295898 -9.4111328 7
-0.031746 -1.321533 -9.4091797 7
-0.028282 -1.3449709 -9.3886719 7
-0.044716001 -1.3807369 -9.4648438 7
-0.055289999 -1.412964 -9.5136719 7
-0.047150001 -1.433594 -9.4697266 7
-0.046021 -1.458496 -9.4599609 7
-0.044907 -1.483398 -9.4511719 7
-0.047279 -1.5107419 -9.4589844 7
-0.043823 -1.533813 -9.4384766 7
-0.057898998 -1.569458 -9.5039062 7
-0.060309999 -1.596802 -9.5117188 7
-0.030571001 -1.289917 -8.9482422 7
-0.033119 -1.340332 -8.9521484 7
-0.034378 -1.3656009 -8.9550781 7
-0.021782 -1.296631 -8.4365234 7
-0.024367999 -1.321411 -8.4443359 7
-0.029541001 -1.3712161 -8.4609385 7
-0.043593999 -1.40332 -8.5185547 7
-0.033500999 -1.443481 -8.4677734 7
-0.036132999 -1.4918211 -8.4716797 7
-0.038718998 -1.516968 -8.4794922 7
-0.054092001 -1.574463 -8.5390615 7
-0.055427998 -1.598877 -8.5410156 7
-0.046928 -1.2805181 -8.140625 7
-0.035057001 -1.296021 -8.0878906 7
-0.037735 -1.320068 -8.0957031 7
-0.037781 -1.342651 -8.0927734 7
-0.037827 -1.3651119 -8.0898438 7
-0.0392 -1.388184 -8.0908203 7
-0.05381 -1.4200439 -8.1503906 7
-0.059151001 -1.445923 -8.1689453 7
-0.052559 -1.464111 -8.1376953 7
-0.047309998 -1.483276 -8.1113281 7
-0.047348 -1.505859 -8.1083984 7
-0.054008 -1.532715 -8.1328115 7
-0.051399 -1.553589 -8.1181641 7
-0.067351997 -1.58728 -8.1806641 7
-0.079848997 4.7814941 -7.0566411 7
-0.069274999 4.7391362 -7.0292969 7
-0.063988 4.7078862 -7.0205078 7
-0.065338001 4.6905522 -7.0351558 7
-0.066650003 4.6732178 -7.0507808 7
-0.069289997 4.6583252 -7.0722661 7
-0.067978002 4.635498 -7.078125 7
-0.070602 4.620605 -7.0996089 7
-0.06797 4.5948491 -7.1005859 7
-0.073256999 4.5852051 -7.1308589 7
-0.087775998 4.5942378 -7.1972661 7
-0.090424001 4.578979 -7.217773 7
-0.087775998 4.5531011 -7.21875 7
-0.077202 4.511353 -7.1894531 7
-0.071929999 4.4804692 -7.179688 7
-0.079773001 4.7929692 -6.579102 7
-0.077018999 4.7679439 -6.5810552 7
-0.057776999 4.7084961 -6.5224609 7
-0.056389 4.686646 -6.5292969 7
-0.057762001 4.6705322 -6.5449219 7
-0.061896998 4.6601558 -6.570312 7
-0.063262999 4.6439209 -6.5869141 7
-0.061889999 4.6220698 -6.5917969 7
-0.061896998 4.6027832 -6.6025391 7
-0.060524002 4.5809331 -6.608398 7
-0.064650998 4.5700679 -6.6337891 7
-0.068770997 4.5593262 -6.6611328 7
-0.078400001 4.5594478 -6.7060552 7
-0.078400001 4.539917 -6.7167969 7
-0.075645 4.5150151 -6.717773 7
-0.062057 4.7176509 -6.1201172 7
-0.054916002 4.6668701 -6.1181641 7
-0.057776999 4.6368408 -6.1503911 7
-0.060623001 4.6065669 -6.1816411 7
-0.063469 4.5759282 -6.2128911 7
-0.072021 4.5567632 -6.2636719 7
-0.082024001 4.539917 -6.320312 7
-0.074890003 4.4888921 -6.3164058 7
-0.31220999 -5.0557861 9.2617188 7
-0.30918899 -5.03125 9.2646484 7
-0.30920401 -5.0125728 9.2773438 7
-0.323448 -5.1143799 8.8789062 7
-0.325012 -5.099731 8.8955078 7
-0.320328 -5.0725098 8.8945312 7
-0.30310801 -5.0024409 8.8652344 7
-0.306236 -4.9908452 8.8876953 7
-0.30936399 -4.9794922 8.9082031 7
-0.31094399 -4.9468989 8.9365234 7
-0.30780801 -4.9229741 8.9384766 7
-0.31407201 -4.9173579 8.9697266 7
-0.31720001 -4.8875728 9.0019531 7
-0.31563601 -4.8664551 9.0087891 7
-0.309387 -4.8364258 9.0009766 7
-0.074844003 0.67175299 9.5683594 7
-0.073265001 0.690552 9.5615234 7
-0.074782997 0.71032703 9.5654297 7
-0.080994003 0.73156703 9.5859385 7
-0.077843003 0.75 9.5732422 7
-0.082503997 0.77099597 9.5888672 7
-0.076218002 0.788086 9.5644531 7
-0.080833003 0.82836902 9.5761719 7
-0.083930999 0.84899902 9.5859385 7
-0.080779999 0.866943 9.5732422 7
-0.083861999 0.887573 9.5820312 7
-0.080696002 0.90564001 9.5683594 7
-0.080673002 0.92468297 9.5664062 7
-0.083770998 0.94543499 9.5761719 7
-0.332863 -5.1199951 8.484375 7
-0.327995 -5.0933838 8.4814453 7
-0.32314301 -5.066772 8.4804688 7
-0.316643 -5.0369868 8.4736328 7
-0.311775 -5.010498 8.4716797 7
-0.31666601 -5.003418 8.4980469 7
-0.318275 -4.9897461 8.5136719 7
-0.31667301 -4.969604 8.5214844 7
-0.31666601 -4.9527588 8.5332031 7
-0.31504801 -4.9328609 8.5400391 7
-0.31504801 -4.915894 8.5517578 7
-0.31829801 -4.9051509 8.5732422 7
-0.323174 -4.8977051 8.5986328 7
-0.32156399 -4.8774409 8.6064453 7
-0.310188 -4.8383789 8.5849609 7
-0.310188 -4.8212891 8.5966797 7
-0.096619003 -1.918945 9.0966797 7
-0.099861003 -1.903442 9.1132812 7
-0.094985999 -1.8812259 9.1015615 7
-0.096596003 -1.8642581 9.1113281 7
-0.104691 -1.8525389 9.1435547 7
-0.107925 -1.8369139 9.1591797 7
-0.101418 -1.813477 9.140625 7
-0.094916999 -1.789917 9.1240234 7
-0.083526999 -1.762939 9.0898438 7
-0.083503999 -1.744751 9.09375 7
-0.083503999 -1.726562 9.0986328 7
-0.080238 -1.705688 9.0917969 7
-0.081840999 -1.688843 9.1005859 7
-0.091559999 -1.677979 9.1376953 7
-0.099662997 -1.665527 9.1689453 7
-0.086654998 -1.637695 9.1289062 7
-0.086631998 -1.619385 9.1328115 7
-0.091499001 -1.6044919 9.1523438 7
-0.076462001 0.96154797 9.2265615 7
-0.073196001 0.97851598 9.2128906 7
-0.065063 0.99340802 9.1826172 7
-0.060164999 1.009644 9.1630859 7
-0.061744999 1.028809 9.1660156 7
-0.060097001 1.046387 9.1582031 7
-0.073036 1.0706789 9.2011719 7
-0.076224998 1.09082 9.2099609 7
-0.074577004 1.108521 9.2011719 7
-0.074538998 1.126953 9.1992188 7
-0.077744 1.1468509 9.2070312 7
-0.079329997 1.1661381 9.2099609 7
-0.071213 1.180298 9.1796885 7
-0.074417002 1.200439 9.1884766 7
-0.079239003 1.221313 9.2011719 7
-0.087296002 1.2442631 9.2265615 7
-0.080794998 1.2593991 9.2021484 7
-0.12838 4.2098389 8.3105469 7
-0.12510701 4.2203369 8.2910156 7
-0.118591 4.224731 8.2617188 7
-0.105637 4.2169189 8.2128906 7
-0.097526997 4.2181401 8.1796885 7
-0.097465999 4.2340088 8.1689453 7
-0.09742 4.2498779 8.1591797 7
-0.100616 4.2719731 8.1591797 7
-0.103783 4.2940669 8.1591797 7
-0.095673002 4.2946782 8.125 7
-0.098869003 4.316772 8.125 7
-0.098807998 4.33252 8.1142578 7
-0.105225 4.3607178 8.1230469 7
-0.121323 4.4073491 8.1601562 7
-0.132576 4.4449458 8.1816406 7
-0.132523 4.460938 8.171875 7
-0.329956 -5.1113281 8.0625 7
-0.33332801 -5.102417 8.0839844 7
-0.316513 -5.0368652 8.0625 7
-0.318207 -5.0244141 8.0810547 7
-0.31653601 -5.005127 8.0878906 7
-0.30981401 -4.9758301 8.0820312 7
-0.31151599 -4.9475098 8.109375 7
-0.31151599 -4.931519 8.1210938 7
-0.30815899 -4.893188 8.1357422 7
-0.32160199 -4.9034419 8.1835938 7
-0.32329601 -4.8907471 8.2001953 7
-0.31489599 -4.8581538 8.1884766 7
-0.304802 -4.806519 8.1835938 7
-0.095427997 -1.9150389 8.7822266 7
-0.095383003 -1.880005 8.7910156 7
-0.098739997 -1.8651119 8.8076172 7
-0.100403 -1.848877 8.8173828 7
-0.095352001 -1.8273931 8.8046885 7
-0.100349 -1.796265 8.8300781 7
-0.085228004 -1.766968 8.7871094 7
-0.085197002 -1.732056 8.7949219 7
-0.088538997 -1.7169189 8.8085938 7
-0.083472997 -1.695801 8.7978516 7
-0.081795 -1.677002 8.796875 7
-0.086792 -1.64563 8.8203115 7
-0.081740998 -1.62439 8.8085938 7
-0.069649003 0.97534198 8.8994141 7
-0.076332003 0.99609399 8.9199219 7
-0.062881 1.007935 8.8730469 7
-0.057808001 1.023193 8.8535156 7
-0.056053001 1.0576169 8.8427734 7
-0.066092998 1.080078 8.8740234 7
-0.072754003 1.118652 8.8916016 7
-0.076064996 1.138062 8.8994141 7
-0.074363999 1.154907 8.8916016 7
-0.067612 1.169189 8.8662109 7
-0.074265003 1.207886 8.8828115 7
-0.072563 1.224854 8.875 7
-0.072502002 1.26001 8.8691406 7
-0.142075 4.199585 8.0087891 7
-0.140358 4.2121582 7.9931641 7
-0.116882 4.1850591 7.9189448 7
-0.108437 4.200439 7.875977 7
-0.105042 4.2095952 7.8564448 7
-0.099930003 4.2305908 7.8222661 7
-0.103233 4.2520752 7.8222661 7
-0.103172 4.2672119 7.811523 7
-0.098122001 4.2729492 7.7880859 7
-0.098030001 4.302856 7.7675781 7
-0.099647999 4.321167 7.7617192 7
-0.097893 4.3478999 7.7363281 7
-0.112885 4.391479 7.7675781 7
-0.117874 4.4163818 7.7714839 7
-0.122841 4.440918 7.773438 7
-0.33434299 -5.111938 7.6855469 7
-0.334351 -5.0970459 7.6982422 7
-0.33086401 -5.0749512 7.7011719 7
-0.32217401 -5.042603 7.6914058 7
-0.32392099 -5.03125 7.7070308 7
-0.318703 -5.0058589 7.7060552 7
-0.32392901 -5.0013428 7.7314448 7
-0.315247 -4.9689941 7.7226558 7
-0.31526199 -4.953979 7.734375 7
-0.31351501 -4.9354248 7.7412109 7
-0.31700099 -4.9273682 7.7626948 7
-0.31526899 -4.908936 7.7695308 7
-0.317009 -4.8973389 7.7851558 7
-0.317009 -4.8820801 7.796875 7
-0.32049599 -4.8736572 7.8173828 7
-0.315285 -4.8482671 7.8154302 7
-0.31005901 -4.8231201 7.813477 7
-0.306602 -4.801147 7.8164058 7
-0.096992001 -1.912598 8.4980469 7
-0.093512997 -1.892822 8.4921885 7
-0.093483001 -1.876099 8.4960938 7
-0.088242002 -1.855103 8.484375 7
-0.086510003 -1.836792 8.484375 7
-0.102158 -1.832642 8.5371094 7
-0.098663002 -1.812866 8.5302734 7
-0.096901 -1.794556 8.5292969 7
-0.102112 -1.7819819 8.5507812 7
-0.081215002 -1.748901 8.4902344 7
-0.081200004 -1.732178 8.4941406 7
-0.084679 -1.717896 8.5087891 7
-0.079429999 -1.697266 8.4970703 7
-0.079421997 -1.68042 8.5009766 7
-0.077675 -1.662354 8.5 7
-0.089827999 -1.6544189 8.5400391 7
-0.075889997 -1.627563 8.5019531 7
-0.079360999 -1.613281 8.5166016 7
-0.089782998 -1.603882 8.5517578 7
-0.072227001 0.97485399 8.6279297 7
-0.063515 0.98803699 8.5976562 7
-0.056526002 1.0018311 8.5722656 7
-0.058205001 1.036621 8.5732422 7
-0.063362002 1.072998 8.5859385 7
-0.068549998 1.0925291 8.6005859 7
-0.068512 1.109497 8.5976562 7
-0.068474002 1.126587 8.5947266 7
-0.068458997 1.143555 8.5917969 7
-0.071869001 1.179199 8.5976562 7
-0.068359002 1.194458 8.5839844 7
-0.066588998 1.2105711 8.5751953 7
-0.071762003 1.230469 8.5888672 7
-0.068268001 1.245361 8.5751953 7
-0.073448002 1.265259 8.5888672 7
-0.124771 4.1625981 7.624023 7
-0.122986 4.1740718 7.609375 7
-0.126358 4.2095952 7.5976558 7
-0.117615 4.223022 7.5556641 7
-0.112373 4.2280269 7.532227 7
-0.105408 4.2297359 7.5039058 7
-0.105354 4.243896 7.4931641 7
-0.094925001 4.2388921 7.4560552 7
-0.100037 4.2772222 7.4501948 7
-0.096481003 4.2991939 7.420898 7
-0.096427999 4.313354 7.4101558 7
-0.098122001 4.330811 7.405273 7
-0.098082997 4.3448491 7.3945308 7
-0.103233 4.369019 7.398438 7
-0.118713 4.427124 7.4160161 7
-0.123817 4.4654541 7.4091802 7
-0.32402 -4.9936519 7.3652339 7
-0.32402799 -4.9794922 7.3769531 7
-0.32405099 -4.96521 7.389648 7
-0.320465 -4.9438481 7.3935552 7
-0.32047299 -4.929688 7.4042969 7
-0.324081 -4.9224849 7.4257808 7
-0.322281 -4.9047852 7.4326172 7
-0.32769799 -4.9008789 7.4580078 7
-0.32589701 -4.8830571 7.4648442 7
-0.32408899 -4.8652339 7.4716802 7
-0.31510901 -4.8334961 7.4619141 7
-0.31330901 -4.8156738 7.46875 7
-0.31513199 -4.80481 7.484375 7
-0.095008999 -1.906616 8.2207031 7
-0.100395 -1.89502 8.2412109 7
-0.096771002 -1.875854 8.234375 7
-0.100372 -1.862671 8.2509766 7
-0.096763998 -1.843506 8.2441406 7
-0.100342 -1.8302 8.2597656 7
-0.103928 -1.816895 8.2744141 7
-0.102112 -1.799194 8.2734385 7
-0.093102001 -1.776001 8.2509766 7
-0.075103998 -1.74585 8.2011719 7
-0.087684996 -1.73938 8.2431641 7
-0.085868999 -1.722046 8.2412109 7
-0.084060997 -1.704468 8.2402344 7
-0.087646 -1.69104 8.2548828 7
-0.084037997 -1.671997 8.2480469 7
-0.084022999 -1.655762 8.2519531 7
-0.093001999 -1.64624 8.2822266 7
-0.089377999 -1.627197 8.2753906 7
-0.080383003 -1.6044919 8.2529297 7
-0.064177997 0.969482 8.3398438 7
-0.080315001 0.99291998 8.3876953 7
-0.076697998 1.00769 8.3740234 7
-0.060509 1.0168459 8.3222656 7
-0.067649998 1.036499 8.3417969 7
-0.064025998 1.051392 8.328125 7
-0.058623999 1.065186 8.3095703 7
-0.063979998 1.083984 8.3232422 7
-0.065742001 1.1011961 8.3261719 7
-0.058533002 1.114014 8.3017578 7
-0.060279999 1.1312259 8.3037109 7
-0.071044996 1.152954 8.3349609 7
-0.071014002 1.169312 8.3320312 7
-0.060203999 1.1800539 8.2958984 7
-0.065567002 1.199097 8.3095703 7
-0.058350001 1.211548 8.2851562 7
-0.065505996 1.231689 8.3046885 7
-0.063683003 1.24707 8.296875 7
-0.34042701 -4.973846 8.7796593 7
-0.127432 -1.784876 9.1029425 7
-0.095771998 1.042075 9.0919743 7
-0.134298 4.2440372 7.6095452 7
-0.118502 4.3153062 7.3724179 7
-0.32887399 -4.959363 8.0328579 7
-0.336557 -4.8147559 8.2598076 7
-0.100105 -1.85022 8.5295067 7
-0.082744002 1.151332 8.644083 7
-0.080470003 -1.864224 8.0788755 7
-0.066370003 -1.6193171 8.0911865 7
-0.054625001 1.041001 8.205164 7
-0.064190999 1.230178 8.2138805 7
-0.297409 -4.908412 5.797801 7
-0.30055201 -4.8361058 6.0037451 7
-0.107978 -1.872676 7.6906219 7
-0.099794 -1.699851 7.7245598 7
-0.089423999 -1.873577 7.3472028 7
-0.079590999 -1.710814 7.3772821 7
-0.060839999 1.032294 7.545825 7
-0.065146998 1.18494 7.5218992 7
-0.074649997 -1.874066 7.0500598 7
-0.06679 -1.727605 7.0914979 7
-0.053410999 -1.850396 6.7550302 7
-0.060741 -1.751374 6.8546009 7
-0.047196999 -1.601897 6.8712902 7
-0.046994999 -1.448971 -8.9400797 7
0.002078 -1.381277 -7.0644488 7
0.01124 -1.340317 -5.942071 7
-0.32655299 -4.9625878 9.2748823 7
-0.061347999 -1.666033 9.2525635 7
-0.249387 -4.709589 -2.4110789 7
-0.381017 -4.9062109 8.6794624 7
-0.108877 -1.8475029 8.7698917 7
-0.102943 -1.614668 8.795496 7
-0.30814999 -4.6738739 -1.878495 7
-0.365861 -5.0593681 7.99505 7
-0.36731601 -4.8708148 8.1792383 7
-0.094186001 -1.792251 8.4068527 7
-0.32916999 -4.930562 7.4709229 7
-0.073151998 -1.738127 8.0503111 7
-0.30895999 -4.9953079 6.8757849 7
-0.062826999 -1.881946 7.723403 7
-0.042103998 -1.68265 7.6835289 7
-0.330111 -4.8486419 6.458384 7
-0.084040001 -1.820248 7.4112582 7
-0.071998999 -1.639973 7.408843 7
-0.33049601 -5.0349669 5.8302202 7
-0.31181401 -4.871685 5.9608951 7
-0.070577003 -1.775809 7.1833549 7
-0.055413999 -1.603474 7.1680698 7
-0.020075001 -1.306572 -0.61865199 7
-0.032308001 -1.471595 -0.63543802 7
-0.072434999 -1.90061 6.982203 7
-0.056965001 -1.734758 6.9727068 7
-0.010308 -1.291294 -0.42177001 7
-0.024225 -1.448716 -0.44489399 7
-0.26203701 -4.697752 1.076468 7
-0.25787699 -4.763803 1.244608 7
-0.27749899 -4.9007902 4.902792 7
-0.046721 -1.844593 6.7467031 7
-0.030993 -1.688691 6.7351718 7
-0.28617099 -4.4957199 1.194019 7
-0.288899 -4.7097001 1.6547869 7
-0.29603499 -4.7869411 1.806165 7
-0.33549801 -5.0942788 2.6108351 7
-0.334824 -5.110126 2.7837279 7
-0.31895399 -4.9534159 4.1877198 7
-0.304371 -4.8664861 4.3400998 7
-0.27614 -4.5436769 1.725759 7
-0.28518501 -4.6233201 1.868112 7
-0.288656 -4.6814461 2.0197959 7
-0.28283399 -4.7064719 2.181679 7
-0.28789601 -4.7569728 2.3355711 7
-0.28914201 -4.790123 2.4940391 7
-0.29029 -4.8167281 2.6536789 7
-0.296801 -4.8531432 2.812376 7
-0.293549 -4.8561282 3.2986591 7
-0.294016 -4.8491421 3.460115 7
-0.26999199 -4.5443811 2.227977 7
-0.276939 -4.598352 2.3737459 7
-0.27810401 -4.630065 2.525526 7
-0.026574001 4.650528 -10.692049 7
-0.106845 4.265521 7.9087601 7
-0.096124999 1.0817389 9.1555653 7
-0.14293499 4.3592162 7.6406898 7
-0.065962002 1.075073 8.6668425 7
-0.144173 4.1914101 7.4222002 7
-0.044376999 1.069581 8.2711926 7
-0.061491001 1.05915 7.644022 7
-0.074642003 1.244481 7.66646 7
-0.039923999 1.055413 7.3600898 7
-0.055808999 1.229413 7.3942361 7
-0.0084920004 -1.2171561 -14.785583 7
-0.113304 4.8286791 -17.44869 7
-0.067722 -1.253768 -10.668923 7
-0.36336899 -4.454061 -15.619383 7
-0.043811001 -1.328732 -8.7592402 7
-0.020102 -1.356307 -7.3668752 7
-0.071286 4.6059632 -6.8952932 7
-0.015652999 -1.409631 -6.5195141 7
-0.057758 -1.431411 -5.7982769 7
-0.044192001 -1.444001 -5.2233672 7
-0.033174001 -1.412661 -4.7690959 7
-0.247122 -4.534678 -1.787004 7
-0.251362 -4.608305 -1.601492 7
