# .PCD v0.7 - Point Cloud Data file format
VERSION 0.7
FIELDS x y z intensity
SIZE 4 4 4 4
TYPE F F F F
COUNT 1 1 1 1
WIDTH 950
HEIGHT 1
VIEWPOINT 0 0 0 1 0 0 0
POINTS 950
DATA ascii
0.017696001 -1.994019 -71.682617 7
0.074844003 4.7038569 -70.291992 7
0.123814 4.5406489 -60.985352 7
0.066284001 4.514771 -62.735352 7
-0.85157001 -5.7250981 73.324219 7
0.178608 4.717041 -52.734375 7
0.116581 4.7303472 -54.417969 7
0.086673997 4.6638179 -55.233398 7
0.13091999 4.4334722 -54.042969 7
0.096748002 4.2388921 -54.979492 7
0.110474 4.5394292 -49.292969 7
0.062748 4.5203862 -50.469727 7
0.128021 4.2617192 -48.875977 7
0.084339 4.22998 -49.953125 7
0.046119999 4.182373 -50.896484 7
0.13022199 0.77233899 -48.763672 7
-0.61635202 -0.067505002 57.420898 7
-0.60210401 0.065063 57.139648 7
-0.59341401 0.19665501 56.969727 7
0.39620599 26.238159 27.639648 7
0.39983001 26.250366 27.52832 7
0.38709599 26.503296 27.655273 7
0.389027 26.540527 27.568359 7
0.38730201 26.631592 27.53418 7
0.135868 4.495605 -43.943359 7
0.099514 4.4654541 -44.756836 7
0.067622997 4.4222412 -45.47168 7
0.128399 4.1868901 -44.131836 7
0.097805001 4.1391602 -44.816406 7
0.060134999 4.1021729 -45.65918 7
0.022728 4.0603032 -46.49707 7
-0.54737502 0.18310501 52.225586 7
-0.577667 0.30700701 52.791992 7
-0.51776099 0.41943401 51.679688 7
0.049614001 4.5274658 -42.148438 7
-0.012077 4.4449458 -43.426758 7
0.039856002 4.2355962 -42.37207 7
0.020119 4.1695561 -42.78418 7
-0.011314 4.1234131 -43.43457 7
0.082344003 0.76342797 -41.551758 7
0.081619002 0.66198701 -41.564453 7
0.079487003 0.560669 -41.607422 7
0.134617 0.44677699 -40.479492 7
-0.530361 -2.79895 47.65332 7
-0.55882299 -2.6069341 48.157227 7
-0.44738001 0.26928699 46.423828 7
-0.46087599 0.37792999 46.65625 7
-0.46174201 3.4931641 46.629883 7
0.039459001 4.6221919 -38.447266 7
0.01503 4.578979 -38.912109 7
-0.0047419998 4.5239258 -39.288086 7
-0.037921999 4.4942632 -39.914062 7
0.075286999 0.80578601 -37.944336 7
0.093898997 0.242676 -37.588867 7
0.113781 0.14856 -37.214844 7
0.093956001 -0.127197 -34.552734 7
0.094848998 -0.21215799 -34.53418 7
-0.061439998 -3.4182129 -36.983398 7
-0.053417001 -3.4962161 -36.833984 7
-0.50676 -2.6777339 43.984375 7
-0.512146 -2.5821531 44.077148 7
-0.53188699 -2.4993899 44.398438 7
-0.43115601 0.445923 42.962891 7
-0.51880598 3.415771 44.303711 7
-0.48448899 3.4728999 43.753906 7
0.031684998 4.7186279 -35.439453 7
0.017750001 4.6608891 -35.688477 7
-0.0039860001 4.6184082 -36.070312 7
-0.019958001 4.5622559 -36.354492 7
-0.058600999 4.5507808 -37.026367 7
-0.079314999 4.5004878 -37.391602 7
0.100277 1.24646 -34.459961 7
0.093395002 1.165161 -34.579102 7
0.107498 1.072144 -34.336914 7
0.087067001 0.99682599 -34.69043 7
0.056480002 0.92431599 -35.21875 7
0.095412999 -0.185791 -31.524414 7
0.102108 -0.41894501 -31.411133 7
-0.130898 -3.4024661 -34.864258 7
-0.092159003 -3.5140381 -34.238281 7
-0.086712003 -3.5896001 -34.141602 7
-0.42767701 -2.5783689 39.525391 7
-0.45788601 -2.5168459 39.973633 7
-0.469753 -2.436523 40.155273 7
-0.463238 -2.338989 40.068359 7
-0.38258001 0.404053 39.033203 7
-0.407547 0.49804699 39.401367 7
-0.38069499 0.58215302 39.007812 7
-0.46845999 3.5535891 40.211914 7
-0.44044101 3.607178 39.796875 7
-0.418419 3.66748 39.46875 7
-0.40195099 3.7341311 39.22168 7
0.060577001 4.7443848 -31.858398 7
0.043949001 4.6983638 -32.112305 7
0.018429 4.6737061 -32.522461 7
-0.0045130001 4.6417241 -32.892578 7
-0.030052001 4.6131592 -33.302734 7
-0.058517002 4.5887451 -33.760742 7
0.118652 1.364746 -31.164062 7
0.113258 1.213135 -31.251953 7
0.093220003 1.1463619 -31.570312 7
0.063206002 1.083252 -32.045898 7
0.039291002 -0.26110801 -30.200195 7
0.065788001 -0.33166501 -29.808594 7
0.074799001 -0.40380901 -29.672852 7
0.052067 -0.48242199 -30.004883 7
0.069397002 -0.55236799 -29.745117 7
0.051440999 -0.631226 -30.007812 7
-0.153496 -3.5335691 -32.779297 7
-0.148067 -3.605835 -32.689453 7
-0.13349199 -3.6633301 -32.466797 7
-0.12289 -3.7261961 -32.301758 7
-0.123028 -3.80603 -32.291992 7
-0.43007299 -2.5058589 37.231445 7
-0.44471401 -2.349365 37.447266 7
-0.42035699 -2.243042 37.120117 7
-0.37345901 0.37817401 36.599609 7
-0.34658399 0.456543 36.230469 7
-0.37956601 0.546143 36.685547 7
-0.35098299 0.62280297 36.292969 7
-0.45752299 3.5797119 37.65918 7
-0.43026 3.6279299 37.279297 7
-0.39664501 3.665405 36.811523 7
0.030742999 4.8649902 -30.02832 7
0.03104 4.7895508 -30.033203 7
0.013603 4.7529302 -30.297852 7
-0.0018420001 4.7106929 -30.535156 7
-0.026001001 4.6859131 -30.899414 7
-0.046204001 4.651001 -31.205078 7
-0.001698 4.4820561 -30.561523 7
0.102314 1.5037839 -29.246094 7
0.092339002 1.437744 -29.396484 7
0.090972997 1.292114 -29.419922 7
0.066765003 1.23291 -29.780273 7
0.063095003 1.160889 -29.834961 7
0.045403 -0.44067401 -27.714844 7
0.051289 -0.50854498 -27.631836 7
0.073105 -0.77636701 -27.322266 7
-0.159439 -3.6525879 -30.264648 7
-0.153557 -3.717896 -30.173828 7
-0.135635 -3.7631841 -29.920898 7
-0.119846 -3.811157 -29.698242 7
-0.116978 -3.8798831 -29.648438 7
0.031138999 4.8474121 -27.619141 7
0.022545001 4.7972412 -27.746094 7
0.0058479998 4.7645259 -27.981445 7
-0.009567 4.7277832 -28.200195 7
-0.034770999 4.7106929 -28.552734 7
-0.053185001 4.677856 -28.810547 7
-0.0097890003 4.516602 -28.232422 7
0.087894 1.536865 -27.134766 7
0.066032 1.484009 -27.435547 7
0.094550997 1.396484 -27.048828 7
0.078227997 1.339233 -27.273438 7
0.050808001 1.287598 -27.650391 7
0.024367999 -0.616943 -26.076172 7
0.046303 -0.67504901 -25.795898 7
0.046204001 -0.73938 -25.793945 7
0.028193999 -0.81054699 -26.018555 7
0.043258999 -0.869385 -25.824219 7
0.046379 -0.932495 -25.782227 7
-0.16486 -3.837646 -28.173828 7
-0.155342 -3.891602 -28.042969 7
-0.141186 -3.9372561 -27.854492 7
-0.128883 -3.9851069 -27.689453 7
-0.13728701 -4.068481 -27.783203 7
-0.044369001 5.0802002 -26.551758 7
-0.0042650001 4.9232178 -26.058594 7
-0.0093609998 4.8692632 -26.132812 7
-0.022655001 4.8328862 -26.310547 7
-0.059330001 4.7788091 -26.793945 7
-0.071266003 4.7366939 -26.955078 7
-0.044388 4.613647 -26.625 7
0.057842001 1.583618 -25.605469 7
0.06123 1.442017 -25.614258 7
0.037762001 1.393311 -25.915039 7
0.027565001 -0.75280797 -24.070312 7
0.027977001 -0.81286597 -24.063477 7
0.032543 -1.051636 -23.996094 7
0.035427 -1.110352 -23.958984 7
-0.001091 4.9289551 -23.990234 7
-0.011951 4.8929439 -24.129883 7
-0.021346999 4.8525391 -24.249023 7
-0.054389998 4.80127 -24.65625 7
-0.066238001 4.7642822 -24.804688 7
0.065505996 1.761963 -23.55957 7
0.056564 1.709717 -23.668945 7
0.062401 1.64563 -23.602539 7
0.054862998 1.53186 -23.697266 7
0.048388999 1.476685 -23.776367 7
0.021503 -0.98681599 -22.4375 7
0.020893 -1.043457 -22.441406 7
-0.0040739998 -1.1125489 -22.712891 7
0.010128 -1.162109 -22.551758 7
0.013737 -1.216675 -22.508789 7
-0.157787 -4.161377 -24.036133 7
-0.049492002 5.1065669 -22.746094 7
-0.017441001 4.976685 -22.40918 7
-0.024334 4.9351811 -22.494141 7
-0.033328999 4.8980708 -22.605469 7
-0.039696001 4.8548579 -22.68457 7
-0.054995999 4.8304439 -22.862305 7
-0.071906999 4.8087158 -23.055664 7
0.038010001 1.891235 -22.185547 7
0.050583001 1.824463 -22.050781 7
0.041030999 1.7763669 -22.15918 7
0.042534001 1.719116 -22.145508 7
0.050372999 1.6569819 -22.0625 7
0.039749 1.609009 -22.182617 7
-0.0062480001 -0.98803699 -21.181641 7
0.010048 -1.033813 -21.010742 7
0.015068 -1.084473 -20.955078 7
-0.0099029997 -1.150269 -21.208984 7
-0.0048790001 -1.20105 -21.154297 7
0.000111 -1.251465 -21.098633 7
-0.052379999 5.0500488 -21.146484 7
-0.048549999 4.934082 -21.129883 7
-0.054783002 4.894043 -21.204102 7
-0.072258003 4.8778081 -21.391602 7
-0.076237001 4.8321528 -21.444336 7
0.042118002 1.8701169 -20.600586 7
0.036991 1.822144 -20.657227 7
0.023406999 1.78064 -20.800781 7
0.045878999 1.7099611 -20.573242 7
0.041294001 1.6611331 -20.623047 7
0.027153 1.6192631 -20.772461 7
-0.013721 -0.98205602 -19.896484 7
-0.02042 -1.0354 -19.958008 7
-0.012676 -1.082397 -19.879883 7
-0.0037459999 -1.128052 -19.789062 7
-0.034476999 -1.194702 -20.083984 7
-0.025536001 -1.2406009 -19.994141 7
0.015305 1.82959 -19.525391 7
0.011055 1.7830811 -19.571289 7
0.013275 1.631592 -19.55957 7
-0.011971 -0.96814001 -18.571289 7
-0.020367 -1.0194089 -18.645508 7
-0.020447001 -1.066772 -18.642578 7
-0.016037 -1.111938 -18.598633 7
-0.012901 -1.157593 -18.567383 7
-0.040497001 -1.2199709 -18.814453 7
-0.027760001 -1.260498 -18.696289 7
-0.064658999 5.0466309 -18.448242 7
-0.039866999 4.9442139 -18.239258 7
-0.051380001 4.9226069 -18.352539 7
-0.055271 4.836792 -18.410156 7
-0.075069003 4.8320308 -18.595703 7
0.028030001 1.52063 -18.129883 7
0.038821999 1.4669189 -18.035156 7
0.013874 1.437012 -18.265625 7
0.02269 1.337891 -18.189453 7
-0.02932 -1.370605 -17.575195 7
-0.102436 4.7991939 -17.660156 7
0.018826 1.265503 -17.124023 7
0.026187999 1.217285 -17.0625 7
0.030865001 1.171021 -17.024414 7
0.018650001 1.133301 -17.131836 7
0.017239001 1.089844 -17.146484 7
0.042479999 0.98339802 -17.013672 7
-0.017643001 -1.0324709 -16.416992 7
-0.014835 -1.072998 -16.391602 7
-0.032845002 -1.124512 -16.53418 7
-0.019276001 -1.15979 -16.421875 7
-0.018619999 -1.201416 -16.413086 7
-0.0266 -1.2481689 -16.473633 7
0.029354 0.731812 -15.991211 7
0.029293001 0.69030797 -15.993164 7
0.029255001 0.64904797 -15.995117 7
0.033482 0.60644501 -15.960938 7
0.044158999 0.56225598 -15.875977 7
0.049835 0.51977497 -15.830078 7
0.053344999 0.47778299 -15.801758 7
0.047577001 0.43810999 -15.848633 7
0.038929 0.398682 -15.920898 7
0.036015 0.357788 -15.945312 7
-0.045058999 -1.30957 -15.620117 7
-0.037533 -1.345337 -15.55957 7
-0.039859999 -1.386963 -15.574219 7
-0.037655 -1.425537 -15.552734 7
-0.051399 -1.474854 -15.65332 7
-0.054889999 4.893188 -15.018555 7
-0.053440001 4.811646 -15.030273 7
0.038872 0.29882801 -14.959961 7
0.03083 0.216919 -15.107422 7
0.035339002 0.177368 -15.073242 7
0.038307 0.138184 -15.050781 7
0.040527001 0.099243 -15.033203 7
0.043506999 0.060302999 -15.009766 7
0.041191 0.021361999 -15.027344 7
-0.041462 -1.311035 -14.649414 7
-0.038307 -1.347168 -14.623047 7
-0.037567001 -1.384521 -14.613281 7
-0.046519998 -1.466064 -14.670898 7
-0.053004999 -1.508545 -14.712891 7
-0.052025001 4.836792 -14.017578 7
-0.053642001 4.8034668 -14.039062 7
0.012474 -0.33337399 -13.529297 7
0.002289 -0.37060499 -13.598633 7
0.003021 -0.44140601 -13.589844 7
0.0063550002 -0.47607401 -13.56543 7
0.008835 -0.51086402 -13.546875 7
0.0096209999 -0.54602098 -13.540039 7
0.009567 -0.58142102 -13.539062 7
0.000237 -0.619385 -13.601562 7
-0.017788 -0.69494599 -12.962891 7
-0.023166999 -0.73071301 -12.996094 7
-0.014343 -0.76159698 -12.936523 7
-0.0090640001 -0.79357898 -12.899414 7
-0.004677 -0.82592797 -12.868164 7
-0.013603 -0.86303699 -12.924805 7
-0.025203999 -0.90161097 -12.998047 7
-0.022578999 -0.93457001 -12.978516 7
-0.048728999 -1.1862791 -13.12793 7
-0.034694999 -1.281128 -13.026367 7
-0.047180001 -1.322632 -13.104492 7
-0.048179999 -1.391724 -13.103516 7
-0.049132999 -1.426636 -13.105469 7
-0.047424 -1.459717 -13.089844 7
-0.017990001 -0.98522902 -12.259766 7
-0.01432 -1.015747 -12.234375 7
-0.018105 -1.049805 -12.254883 7
-0.044224001 -1.0949709 -12.415039 7
-0.043338999 -1.127075 -12.40625 7
-0.026627 -1.151123 -12.299805 7
-0.032269001 -1.186401 -12.331055 7
-0.037907001 -1.222046 -12.363281 7
-0.037967999 -1.254517 -12.359375 7
-0.026184 -0.97045898 -11.629883 7
-0.029182 -1.002441 -11.644531 7
-0.039012998 -1.037842 -11.700195 7
-0.03709 -1.067871 -11.686523 7
-0.025405999 -1.0930181 -11.614258 7
-0.023499001 -1.122925 -11.600586 7
-0.024521001 -1.154053 -11.602539 7
-0.039248999 -1.192871 -11.6875 7
-0.033447001 -1.220459 -11.648438 7
-0.034462001 -1.251953 -11.651367 7
-0.061546002 4.7979741 -10.933594 7
-0.060570002 4.766479 -10.939453 7
-0.067417003 4.7514648 -10.987305 7
-0.067417003 4.7219238 -10.999023 7
-0.067440003 4.6922612 -11.010742 7
-0.069401003 4.666748 -11.032227 7
-0.079150997 4.6569819 -11.097656 7
-0.093796 4.657104 -11.189453 7
-0.088936001 4.61731 -11.173828 7
-0.079219997 4.567627 -11.129883 7
-0.074352004 4.4981689 -11.125 7
-0.064888 4.7581792 -10.329102 7
-0.067955002 4.7366939 -10.355469 7
-0.073040001 4.7193599 -10.393555 7
-0.075092003 4.695312 -10.415039 7
-0.074084997 4.6651611 -10.420898 7
-0.082249001 4.653564 -10.475586 7
-0.092468001 4.6461182 -10.539062 7
-0.099593997 4.6320801 -10.588867 7
-0.087390997 4.5787349 -10.535156 7
-0.082309999 4.5400391 -10.518555 7
-0.081309997 4.509521 -10.523438 7
-0.037121002 -1.307373 -10.461914 7
-0.054343998 -1.345703 -10.550781 7
-0.051284999 -1.428467 -10.523438 7
-0.047028001 -1.4538569 -10.49707 7
-0.052452002 -1.485474 -10.521484 7
-0.070446 4.757935 -7.5029302 7
-0.060302999 4.7154541 -7.4726558 7
-0.055222001 4.662354 -7.4755859 7
-0.059044 4.6490479 -7.500977 7
-0.059036002 4.6065669 -7.523438 7
-0.057785001 4.5826421 -7.5283198 7
-0.060318001 4.5664058 -7.5498052 7
-0.071735002 4.5678711 -7.6074219 7
-0.078091003 4.5377202 -7.6542969 7
-0.070479997 4.500854 -7.6337891 7
-0.39039201 -6.299438 -7.672852 7
-0.39445901 -6.330688 -7.672852 7
-0.39320001 -6.348877 -7.6523442 7
-0.39060199 -6.36377 -7.6289058 7
-0.390663 -6.3850098 -7.6132808 7
-0.086245999 4.7799072 -7.0976558 7
-0.073067002 4.7320561 -7.0576172 7
-0.066467002 4.697876 -7.0439448 7
-0.065132 4.6749272 -7.0507808 7
-0.065146998 4.6547852 -7.061523 7
-0.069107004 4.6427002 -7.0869141 7
-0.067780003 4.619751 -7.09375 7
-0.070418999 4.6047359 -7.1142578 7
-0.067780003 4.578979 -7.1152339 7
-0.073059 4.5693359 -7.1464839 7
-0.080982 4.5648189 -7.188477 7
-0.090221003 4.5628662 -7.234375 7
-0.096825004 4.5554199 -7.2695308 7
-0.090236999 4.5214839 -7.2548828 7
-0.081013002 4.482666 -7.2294922 7
-0.37910101 -6.3120122 -7.0380859 7
-0.38898501 -6.395874 -7.0244141 7
-0.089336 4.7989502 -6.6279302 7
-0.079735003 4.7593989 -6.6044922 7
-0.064606003 4.7084961 -6.5625 7
-0.059108999 4.677979 -6.5537109 7
-0.061863001 4.6646729 -6.5742192 7
-0.067351997 4.6569819 -6.6054692 7
-0.064617001 4.6322021 -6.6064448 7
-0.068726003 4.62146 -6.6318359 7
-0.067351997 4.5993652 -6.6386719 7
-0.067351997 4.5802002 -6.6494141 7
-0.065986998 4.558228 -6.6542969 7
-0.067351997 4.541748 -6.6699219 7
-0.076958001 4.541626 -6.7167969 7
-0.083835997 4.5360112 -6.7519531 7
-0.078354001 4.5057368 -6.742188 7
-0.27803001 -4.4949951 -7.2597661 7
-0.283829 -4.5257568 -7.2685552 7
-0.28530899 -4.5489502 -7.2636719 7
-0.28679699 -4.572144 -7.2568359 7
-0.279686 -4.579102 -7.2216802 7
-0.27687499 -4.5942378 -7.2001948 7
-0.28266099 -4.6253662 -7.2089839 7
-0.28273001 -4.6456299 -7.1982422 7
-0.28421801 -4.6687012 -7.1923828 7
-0.28427899 -4.6890869 -7.1806641 7
-0.29006201 -4.7202148 -7.1904302 7
-0.29155001 -4.7432861 -7.1835942 7
-0.29592901 -4.7719731 -7.1875 7
-0.29885101 -4.797729 -7.1855469 7
-0.37690401 -6.0853271 -6.6943359 7
-0.37409601 -6.0975342 -6.6699219 7
-0.377033 -6.1234131 -6.6650391 7
-0.37996301 -6.149292 -6.6591802 7
-0.381466 -6.1717529 -6.6494141 7
-0.38583401 -6.2012939 -6.6474609 7
-0.39164701 -6.2342529 -6.6513672 7
-0.39601901 -6.2636719 -6.6503911 7
-0.39032701 -6.2686772 -6.617188 7
-0.38608599 -6.2772222 -6.5888672 7
-0.381832 -6.285522 -6.5605469 7
-0.386204 -6.3148189 -6.5595698 7
-0.381969 -6.322998 -6.530273 7
-0.38634101 -6.352417 -6.5292969 7
-0.387833 -6.3747559 -6.5185552 7
-0.385021 -6.38623 -6.4951172 7
-0.28190601 -4.4807129 -6.8486328 7
-0.29386899 -4.5220952 -6.8779302 7
-0.29541001 -4.5444341 -6.8720698 7
-0.288017 -4.5501709 -6.8369141 7
-0.28806299 -4.5697021 -6.8261719 7
-0.28813201 -4.5891109 -6.8154302 7
-0.285202 -4.6030269 -6.7939448 7
-0.282269 -4.6166992 -6.773438 7
-0.28531599 -4.641479 -6.7724609 7
-0.29132801 -4.6723628 -6.78125 7
-0.282444 -4.6748052 -6.7412109 7
-0.286964 -4.7023931 -6.7441411 7
-0.295959 -4.73877 -6.7617192 7
-0.30345899 -4.7722168 -6.7753911 7
-0.30202499 -4.7888179 -6.7587891 7
-0.38974401 -6.3057861 -6.0664058 7
-0.386814 -6.3162842 -6.0419922 7
-0.38987401 -6.341064 -6.0351558 7
-0.39291 -6.3659668 -6.0292969 7
-0.388493 -6.3725591 -6.0019531 7
-0.38855401 -6.3900151 -5.9863281 7
-0.27962101 -4.4837651 -6.4501948 7
-0.28891799 -4.5192871 -6.46875 7
-0.287422 -4.5350342 -6.453125 7
-0.28748301 -4.5534668 -6.4423828 7
-0.29061899 -4.5778809 -6.4414058 7
-0.28448901 -4.5849609 -6.4111328 7
-0.28455001 -4.603271 -6.4003911 7
-0.28304699 -4.618896 -6.3847661 7
-0.28619799 -4.6430659 -6.3837891 7
-0.28780001 -4.6645508 -6.3769531 7
-0.284756 -4.6768799 -6.3564448 7
-0.28789899 -4.7011719 -6.3544922 7
-0.28332099 -4.710815 -6.329102 7
-0.28800601 -4.737793 -6.3320308 7
-0.29730201 -4.7739258 -6.3496089 7
-0.298904 -4.7952881 -6.34375 7
-0.39458799 -6.407227 -5.5263672 7
-0.39155999 -6.415771 -5.5019531 7
-0.39624399 -6.4438481 -5.5 7
-0.390118 -6.4445801 -5.46875 7
-0.39173499 -6.464478 -5.4560552 7
-0.394878 -6.4885249 -5.4492192 7
-0.405754 -6.532104 -5.4628911 7
-0.40889701 -6.5560298 -5.4550781 7
-0.41049999 -6.5761719 -5.4443359 7
-0.41674 -6.6079102 -5.4443359 7
-0.28258899 -4.4885249 -6.0449219 7
-0.27783599 -4.497314 -6.0205078 7
-0.28589201 -4.5292969 -6.0332031 7
-0.28594601 -4.5469971 -6.0224609 7
-0.29079801 -4.5734859 -6.0253911 7
-0.29084399 -4.5909419 -6.014648 7
-0.286091 -4.5994868 -5.9902339 7
-0.28134501 -4.6080322 -5.9638672 7
-0.27980399 -4.622437 -5.9482422 7
-0.28304699 -4.645874 -5.9472661 7
-0.284702 -4.6663818 -5.9414058 7
-0.28315401 -4.680542 -5.9248052 7
-0.28480899 -4.7009282 -5.9189448 7
-0.28644899 -4.721313 -5.9130859 7
-0.28010899 -4.7263179 -5.8818359 7
-0.29135501 -4.7650151 -5.9042969 7
-0.29462099 -4.7884521 -5.9023442 7
-0.37414601 -6.2137451 -5.0986328 7
-0.38223299 -6.2484131 -5.1035161 7
-0.380676 -6.2598882 -5.085938 7
-0.38555101 -6.2871089 -5.0820308 7
-0.38561201 -6.3022461 -5.0673828 7
-0.38726801 -6.3214111 -5.0566411 7
-0.38572699 -6.3327641 -5.0371089 7
-0.384186 -6.3441162 -5.0185552 7
-0.38262901 -6.3552251 -4.999023 7
-0.37787601 -6.358398 -4.9726558 7
-0.381134 -6.3813481 -4.9648442 7
-0.323879 -5.114624 8.4375 7
-0.31577301 -5.0648189 8.4394531 7
-0.309288 -5.0349121 8.4335938 7
-0.30279499 -5.005249 8.4267578 7
-0.309288 -4.9848628 8.46875 7
-0.31092101 -4.971436 8.4853516 7
-0.30442801 -4.941772 8.4785156 7
-0.30930299 -4.9177251 8.515625 7
-0.31742099 -4.9168701 8.5507812 7
-0.31254601 -4.8905029 8.5478516 7
-0.30117801 -4.8344731 8.5380859 7
-0.27939999 -4.4935298 -5.6347661 7
-0.28111601 -4.5131841 -5.6289058 7
-0.287815 -4.5421138 -5.6367192 7
-0.29118001 -4.5646968 -5.6347661 7
-0.28293201 -4.565918 -5.6005859 7
-0.28795999 -4.5917969 -5.6044922 7
-0.28136101 -4.5959468 -5.5742192 7
-0.286396 -4.6217041 -5.578125 7
-0.28145999 -4.6287842 -5.5527339 7
-0.28152499 -4.6451421 -5.5410161 7
-0.28654099 -4.6711431 -5.5449219 7
-0.28826499 -4.6905522 -5.5371089 7
-0.278366 -4.6878662 -5.4980469 7
-0.28173101 -4.7105708 -5.4970698 7
-0.280121 -4.7236328 -5.4804692 7
-0.283485 -4.7463379 -5.4794922 7
-0.29018 -4.7753911 -5.4863281 7
-0.32893801 -5.1053472 8.0527344 7
-0.32725099 -5.0863042 8.0605469 7
-0.322216 -5.0601811 8.0585938 7
-0.313797 -5.0274658 8.0488281 7
-0.30876201 -5.0015869 8.046875 7
-0.30540499 -4.979126 8.0507812 7
-0.31214899 -4.9768071 8.0810547 7
-0.30878401 -4.9543462 8.0830078 7
-0.307091 -4.9351811 8.0898438 7
-0.31214899 -4.9291992 8.1152344 7
-0.310471 -4.9101558 8.1230469 7
-0.30880001 -4.8909912 8.1298828 7
-0.310478 -4.8782959 8.1455078 7
-0.31048599 -4.8623052 8.1572266 7
-0.31721899 -4.8592529 8.1875 7
-0.30712101 -4.82373 8.1708984 7
-0.113594 4.1638179 7.9189448 7
-0.116882 4.1853032 7.9189448 7
-0.116844 4.2006841 7.9091802 7
-0.116806 4.216064 7.8994141 7
-0.111732 4.222168 7.874023 7
-0.115036 4.2434082 7.874023 7
-0.116669 4.2619629 7.8691411 7
-0.093181998 4.2336431 7.7929692 7
-0.096500002 4.2548828 7.7919922 7
-0.086418003 4.2512212 7.7539058 7
-0.091372997 4.2757568 7.757812 7
-0.086310998 4.28125 7.734375 7
-0.091289997 4.305542 7.7373052 7
-0.094577998 4.3267822 7.7363281 7
-0.08952 4.3322749 7.7128911 7
-0.084449999 4.3375239 7.688477 7
-0.099468 4.3812261 7.719727 7
-0.101093 4.399292 7.7138672 7
-0.112747 4.4368901 7.7363281 7
-0.117706 4.4614258 7.7373052 7
-0.117683 4.47644 7.7275391 7
-0.27799201 -4.480835 -5.2617192 7
-0.278023 -4.496582 -5.2519531 7
-0.27979299 -4.5152588 -5.2451172 7
-0.283279 -4.537354 -5.2441411 7
-0.281609 -4.5499272 -5.2285161 7
-0.27993801 -4.5625 -5.2138672 7
-0.286861 -4.5908198 -5.2207031 7
-0.29379699 -4.6193848 -5.2275391 7
-0.28696099 -4.6220698 -5.1982422 7
-0.28013599 -4.6247559 -5.1699219 7
-0.28018999 -4.6402588 -5.1582031 7
-0.27507001 -4.6459961 -5.1337891 7
-0.28372201 -4.6776118 -5.1455078 7
-0.276894 -4.6800542 -5.1162109 7
-0.280388 -4.7020259 -5.1142578 7
-0.280426 -4.7175288 -5.1035161 7
-0.28047901 -4.7329102 -5.0908198 7
-0.29427701 -4.7745361 -5.1152339 7
-0.29433101 -4.789917 -5.1035161 7
-0.324444 -5.0880132 7.6533198 7
-0.32794601 -5.0803218 7.6748052 7
-0.32272699 -5.0549321 7.6738281 7
-0.32621399 -5.0471191 7.6943359 7
-0.31402999 -5.00769 7.6757808 7
-0.31402999 -4.9929199 7.6875 7
-0.31404501 -4.9780269 7.6992192 7
-0.31752399 -4.9698491 7.719727 7
-0.31929401 -4.958374 7.7373052 7
-0.31580701 -4.9364009 7.7402339 7
-0.31580701 -4.9213872 7.7519531 7
-0.31582999 -4.9064941 7.7636719 7
-0.32279599 -4.9050288 7.7929692 7
-0.314091 -4.8728032 7.782227 7
-0.31408301 -4.8577881 7.7929692 7
-0.31060401 -4.835938 7.795898 7
-0.310619 -4.805542 7.8183589 7
-0.092022002 -1.9080811 8.4746094 7
-0.092007004 -1.891235 8.4794922 7
-0.092007004 -1.87439 8.484375 7
-0.088490002 -1.854858 8.4775391 7
-0.095454998 -1.84375 8.5048828 7
-0.097179003 -1.828369 8.5146484 7
-0.097179003 -1.811646 8.5195312 7
-0.091937996 -1.790527 8.5078115 7
-0.084945999 -1.768311 8.4892578 7
-0.081444003 -1.748901 8.4824219 7
-0.083176002 -1.733398 8.4921885 7
-0.081421003 -1.71521 8.4912109 7
-0.079650998 -1.697266 8.4892578 7
-0.077910997 -1.679199 8.4882812 7
-0.091816001 -1.6726069 8.5361328 7
-0.088321999 -1.65332 8.5292969 7
-0.07959 -1.630127 8.5048828 7
-0.076095998 -1.61084 8.4980469 7
-0.063499004 0.969482 8.59375 7
-0.05827 0.98413098 8.5742188 7
-0.058224 1.001099 8.5722656 7
-0.052997999 1.015625 8.5537109 7
-0.05122 1.03186 8.5458984 7
-0.052921001 1.049438 8.5488281 7
-0.052905999 1.066528 8.546875 7
-0.059818 1.08667 8.5664062 7
-0.066726997 1.106934 8.5859385 7
-0.066696003 1.124023 8.5839844 7
-0.059707999 1.137573 8.5585938 7
-0.061416999 1.155273 8.5615234 7
-0.056178998 1.169434 8.5419922 7
-0.056125998 1.186401 8.5390615 7
-0.059563 1.2052 8.546875 7
-0.068230003 1.226685 8.5722656 7
-0.064727999 1.241699 8.5585938 7
-0.068145998 1.26062 8.5664062 7
-0.068115003 1.277588 8.5634766 7
-0.116066 4.1618652 7.5898442 7
-0.115997 4.1765141 7.5800781 7
-0.124626 4.2069092 7.592773 7
-0.12630799 4.2244868 7.5869141 7
-0.115875 4.2199712 7.5498052 7
-0.10717 4.2186279 7.5175781 7
-0.098484002 4.217041 7.485352 7
-0.093220003 4.2216802 7.460938 7
-0.094921 4.2393799 7.4560552 7
-0.093143001 4.2503662 7.4414058 7
-0.096569002 4.2712402 7.4404302 7
-0.091320001 4.2755132 7.4169922 7
-0.091266997 4.2895508 7.40625 7
-0.092952996 4.3070068 7.4003911 7
-0.092914999 4.3214111 7.390625 7
-0.092876002 4.3354492 7.3798828 7
-0.094563 4.3525391 7.374023 7
-0.091053002 4.3601069 7.3554692 7
-0.103134 4.397583 7.375977 7
-0.108276 4.4215088 7.3789058 7
-0.11515 4.4490972 7.3867192 7
-0.122028 4.476685 7.3935552 7
-0.27041599 -4.483398 -4.874023 7
-0.27934301 -4.5144038 -4.8857422 7
-0.279396 -4.5294189 -4.875 7
-0.27766401 -4.540894 -4.859375 7
-0.27770999 -4.5556641 -4.8496089 7
-0.27954099 -4.57373 -4.8417969 7
-0.286697 -4.601685 -4.8496089 7
-0.29742101 -4.6364751 -4.8652339 7
-0.290344 -4.637939 -4.8369141 7
-0.28148699 -4.6359859 -4.8037109 7
-0.28332499 -4.6538091 -4.796875 7
-0.286926 -4.6751709 -4.7949219 7
-0.28698 -4.6899409 -4.7841802 7
-0.292355 -4.7146001 -4.7851558 7
-0.28528601 -4.7156978 -4.7568359 7
-0.285339 -4.730103 -4.7451172 7
-0.29071799 -4.7548828 -4.7480469 7
-0.28365299 -4.7556152 -4.71875 7
-0.28372201 -4.7701421 -4.7060552 7
-0.28554499 -4.7878418 -4.6992192 7
-0.33885199 -5.118042 7.3105469 7
-0.32805601 -5.0821528 7.296875 7
-0.32805601 -5.0682368 7.3085942 7
-0.31907299 -5.0360112 7.2998052 7
-0.324471 -5.032959 7.3242192 7
-0.322689 -5.0153809 7.3320308 7
-0.320896 -4.9976811 7.3398442 7
-0.32269701 -4.9871831 7.3554692 7
-0.32270399 -4.973022 7.367188 7
-0.31911799 -4.9519038 7.3701172 7
-0.31912601 -4.9376221 7.382812 7
-0.32274199 -4.930542 7.4033198 7
-0.319134 -4.9091802 7.407227 7
-0.329941 -4.9162598 7.4443359 7
-0.32634699 -4.894897 7.4472661 7
-0.32454699 -4.8771968 7.454102 7
-0.31557101 -4.8453369 7.4443359 7
-0.31557101 -4.8310552 7.4550781 7
-0.30836901 -4.8027339 7.4501948 7
-0.098788999 -1.9094239 8.2255859 7
-0.102367 -1.8963619 8.2402344 7
-0.098742999 -1.877075 8.234375 7
-0.095141999 -1.8581541 8.2275391 7
-0.095127001 -1.842041 8.2324219 7
-0.104095 -1.832886 8.2636719 7
-0.091495998 -1.806641 8.2304688 7
-0.084278002 -1.784912 8.2128906 7
-0.095066004 -1.7771 8.2490234 7
-0.086039998 -1.754028 8.2265615 7
-0.087833002 -1.739136 8.2363281 7
-0.086025 -1.721802 8.234375 7
-0.086002 -1.705688 8.2382812 7
-0.082401 -1.68689 8.2324219 7
-0.084170997 -1.671997 8.2412109 7
-0.087748997 -1.658325 8.2568359 7
-0.084147997 -1.639771 8.2490234 7
-0.075126998 -1.617065 8.2255859 7
-0.089511998 -1.611084 8.2734385 7
-0.060478002 0.96630901 8.3232422 7
-0.060447998 0.98266602 8.3212891 7
-0.062187001 1.016113 8.3222656 7
-0.072571002 1.217773 8.3242188 7
-0.079639003 1.270874 8.3369141 7
-0.114937 4.164062 7.2597661 7
-0.105934 4.1616211 7.2285161 7
-0.123806 4.2081299 7.2626948 7
-0.12554599 4.2250981 7.2568359 7
-0.130863 4.2489009 7.2607422 7
-0.121861 4.2459722 7.2275391 7
-0.112877 4.2434082 7.195312 7
-0.105682 4.2437739 7.1689448 7
-0.100269 4.247437 7.1455078 7
-0.098430999 4.2575679 7.1308589 7
-0.100182 4.274292 7.125 7
-0.098338999 4.2845459 7.1113281 7
-0.094714999 4.2912598 7.0917969 7
-0.098255001 4.311523 7.0908198 7
-0.098201998 4.324707 7.0800781 7
-0.098171003 4.3381348 7.0693359 7
-0.09454 4.344604 7.0507808 7
-0.096279003 4.3614502 7.0449219 7
-0.094456002 4.3712158 7.030273 7
-0.10157 4.3981929 7.0380859 7
-0.097946003 4.404541 7.0185552 7
-0.101486 4.4248052 7.016602 7
-0.10321 4.4416499 7.0097661 7
-0.115696 4.4790039 7.0292969 7
-0.097404003 4.7852778 -3.9121089 7
-0.104477 4.787354 -3.9394529 7
-0.097404003 4.7598882 -3.9345701 7
-0.100929 4.754272 -3.954102 7
-0.100914 4.7414551 -3.9658201 7
-0.09206 4.7102051 -3.9560549 7
-0.079681002 4.671875 -3.9375 7
-0.084972002 4.6700439 -3.9619141 7
-0.077910997 4.6427002 -3.954102 7
-0.074371003 4.6226811 -3.957031 7
-0.067276001 4.5953369 -3.9501951 7
-0.069038004 4.58606 -3.9658201 7
-0.070800997 4.5767822 -3.980469 7
-0.069016002 4.5601811 -3.9873049 7
-0.072548002 4.5543208 -4.0068359 7
-0.070770003 4.5378418 -4.0136719 7
-0.068993002 4.5213618 -4.0195308 7
-0.070747003 4.5118408 -4.0351558 7
-0.077820003 4.512939 -4.063477 7
-0.070739999 4.4855962 -4.0566411 7
-0.083111003 4.4971919 -4.0976558 7
-0.142379 4.2453728 7.6867781 7
-0.12571301 4.3159342 7.44521 7
-0.31718099 -4.9458871 7.9378381 7
-0.092285998 -1.878556 8.4669371 7
-0.081753999 -1.668107 8.4774561 7
-0.048599999 1.054265 8.4521275 7
-0.057541002 1.253203 8.4603271 7
-0.11463 4.2380371 6.8450942 7
-0.28439799 -4.9538088 6.9547281 7
-0.30032101 -4.8964162 7.2032728 7
-0.080215 -1.906028 8.0587997 7
-0.062955998 -1.696388 8.0401134 7
-0.31587899 -5.0419068 5.7268801 7
-0.310341 -4.9293628 5.922173 7
-0.314578 -4.8570499 6.1312208 7
-0.093934998 -1.725587 7.680346 7
-0.062093999 1.052564 7.7558651 7
-0.067250997 1.215556 7.7364249 7
-0.075240001 -1.779328 7.1075401 7
-0.061122999 -1.618248 7.1191301 7
-0.059204001 -1.777307 6.8311119 7
-0.049594998 -1.63691 6.8640628 7
0.070285 -1.232754 -11.263013 7
-0.00235 -1.53732 -6.0206609 7
-0.220529 -4.664227 -6.7764978 7
-0.353008 -6.2944221 -7.026237 7
3.5000001e-05 -1.487522 -5.1562772 7
-0.207941 -4.661438 -5.6020441 7
-0.041781999 -1.429185 -4.1610308 7
-0.28106901 -4.6245322 -4.5747542 7
-0.024023 -1.3919261 -3.5080631 7
-0.271101 -4.6286731 -3.7958579 7
-0.25608501 -4.606781 -3.0877931 7
0.0041990001 -1.333747 -2.488291 7
-0.0079669999 -1.577019 -2.508816 7
-0.36099499 -4.9021068 8.5548553 7
-0.34817201 -4.912127 8.0216684 7
-0.091678001 -1.8963799 8.3662233 7
-0.064865001 -1.667253 8.2916851 7
-0.33460301 -5.0304689 7.4002032 7
-0.33423999 -4.860261 7.5740418 7
-0.071501002 -1.835785 8.0166655 7
-0.052526999 -1.6264549 7.9798641 7
-0.321053 -5.1048789 6.8213048 7
-0.30094299 -4.8976879 6.9390898 7
-0.057018999 -1.785053 7.7242942 7
-0.0054000001 -1.437184 -1.107592 7
-0.35533801 -5.111764 6.2607479 7
-0.335596 -4.9285598 6.387742 7
-0.30100399 -4.6519818 0.049968001 7
-0.29986301 -4.7677779 0.217476 7
-0.32810801 -4.9747801 5.9108329 7
-0.314098 -4.8228989 6.0481391 7
-0.076706998 -1.8617181 7.1827178 7
-0.057084002 -1.6855609 7.154355 7
-0.281443 -4.5635262 0.38148299 7
-0.29229 -4.701314 0.517461 7
-0.314693 -4.9712038 5.4497981 7
-0.29894099 -4.8316469 5.5875239 7
-0.057 -1.811561 6.9508362 7
-0.041574001 -1.648035 6.9375081 7
-0.021282 -1.3710769 -0.44905099 7
-0.030691 -1.528093 -0.451967 7
-0.275507 -4.6954031 0.97240502 7
-0.26815099 -4.756175 1.146548 7
-0.048519 -1.773392 6.775002 7
-0.023167999 -1.611667 6.7269459 7
-0.25797999 -4.5072179 1.088015 7
-0.299586 -4.5711679 1.248903 7
-0.29999399 -4.644917 1.403533 7
-0.30029699 -4.71207 1.560809 7
-0.29694799 -4.762167 1.724674 7
-0.33064499 -5.1041799 3.4315519 7
-0.30443799 -4.8888769 4.2588758 7
-0.30773199 -4.8527179 4.4240141 7
-0.28438601 -4.5373688 1.639901 7
-0.28436899 -4.5946412 1.792168 7
-0.293356 -4.6715679 1.937029 7
-0.293129 -4.7162099 2.094064 7
-0.28540599 -4.7325912 2.2582901 7
-0.28856501 -4.7744632 2.414619 7
-0.29174399 -4.8440409 2.894783 7
-0.29806101 -4.8704638 3.055383 7
-0.293212 -4.8569431 3.2178409 7
-0.29023099 -4.8404541 3.4192791 7
-0.27351499 -4.4916382 2.0009789 7
-0.27497301 -4.5389972 2.148777 7
-0.278229 -4.5855598 2.2969191 7
-0.28135499 -4.6259089 2.4470601 7
0.001492 4.6737642 -10.201675 7
0.037002001 4.491807 -7.7076621 7
-0.100357 4.6394529 -6.407156 7
-0.15814 4.3203959 7.7844591 7
-0.052983999 1.018436 8.6098719 7
-0.056231 1.2418751 8.581811 7
-0.138752 4.2532568 7.3229032 7
-0.13631 4.394917 7.1525378 7
-0.135787 4.2293382 6.9628329 7
-0.132346 4.354701 6.7948842 7
-0.020365 1.015875 7.911509 7
-0.024630001 1.2105711 7.8957281 7
0.022371 -0.334158 -13.906972 7
-0.084149003 4.6857119 -10.22494 7
-0.13328201 4.658021 -11.180695 7
-0.058175001 4.5592489 -6.7166352 7
-0.084955998 4.5140462 -7.1580639 7
-0.027968001 -1.328493 -6.679615 7
-0.065374002 -1.351614 -5.8900981 7
-0.080237001 -1.596294 -5.9717722 7
-0.32236001 -4.6034589 -7.1401949 7
-0.45066601 -6.2835431 -7.4882088 7
-0.047674 -1.366021 -5.2760062 7
-0.313743 -4.6113338 -6.2086868 7
-0.41205499 -6.2026138 -6.0025258 7
-0.080316 4.5059872 -3.3526559 7
-0.038842998 -1.389506 -4.8229098 7
-0.050081 -1.580565 -4.851109 7
-0.280922 -4.62953 -5.0953822 7
-0.026248001 -1.391611 -4.4084959 7
-0.043267999 -1.5839159 -4.4663792 7
-0.242237 -4.5047469 -4.1010652 7
-0.242153 -4.648273 -3.9239171 7
-0.054488 -1.402328 -4.0853739 7
-0.066861004 -1.564216 -4.0994201 7
-0.28148299 -4.5652528 -3.145139 7
-0.274986 -4.6275258 -2.9454319 7
-0.26931199 -4.6865511 -2.7458849 7
-0.043237001 -1.28552 -3.840656 7
-0.046785001 -1.41009 -3.808665 7
-0.066857003 -1.583842 -3.8555379 7
-0.030288 -1.283311 -3.5694981 7
-0.038274001 -1.4091491 -3.55709 7
-0.056504 -1.567377 -3.5867369 7
-0.027806001 -1.301838 -3.3736191 7
-0.027511001 -1.396277 -3.3207369 7
-0.042459998 -1.534994 -3.3296211 7
-0.041019 -1.578492 -2.522532 7
-0.017078999 -1.3216799 -2.509824 7
-0.027096 -1.409507 -2.483346 7
-0.045754001 -1.45927 -2.4184179 7
-0.063504003 -1.567598 -2.400969 7
-0.039469 -1.3280669 -2.405808 7
-0.039478999 -1.382702 -2.351732 7
-0.037887 -1.430688 -2.291755 7
-0.026325 -1.2936831 -2.2743151 7
-0.032575998 -1.5463949 -1.267316 7
-0.022043001 -1.521016 -1.201581 7
-0.027627001 -1.5433331 -1.137619 7
-0.033153001 -1.562851 -1.07189 7
-0.026322 -1.540809 -1.008204 7
-0.019543 -1.451133 -1.275369 7
-0.0069729998 -1.420841 -1.213099 7
-0.01804 -1.4601901 -1.138235 7
-0.014723 -1.452032 -1.0774651 7
-0.013274 -1.446977 -1.016826 7
-0.024434 -1.36931 -1.267972 7
-0.022965999 -1.372156 -1.2105 7
-0.02538 -1.383564 -1.152987 7
-0.02172 -1.375559 -1.08094 7
-0.018335 -1.365133 -1.024037 7
-0.028519999 -1.390632 -0.96259701 7
-0.018588001 -1.3093489 -1.262731 7
-0.011714 -1.301423 -1.1528161 7
-0.014324 -1.31054 -1.097895 7
-0.010686 -1.299812 -1.030012 7
-0.015287 -1.309183 -0.973571 7
