# .PCD v0.7 - Point Cloud Data file format
VERSION 0.7
FIELDS x y z intensity
SIZE 4 4 4 4
TYPE F F F F
COUNT 1 1 1 1
WIDTH 846
HEIGHT 1
VIEWPOINT 0 0 0 1 0 0 0
POINTS 846
DATA ascii
0.059422001 4.722168 -70.628906 7
0.160992 4.4455571 -59.723633 7
0.109066 4.4103999 -61.298828 7
0.045547001 4.391602 -63.223633 7
-0.79077899 -5.7678218 71.849609 7
-0.86369699 -5.738647 73.594727 7
-0.74799699 -2.5571289 71.126953 7
-0.80677402 -2.4399409 72.535156 7
0.154781 4.6313481 -53.287109 7
0.097755 4.627563 -54.831055 7
0.169098 4.3399658 -52.911133 7
0.109257 4.3356929 -54.53125 7
0.07925 4.2633061 -55.347656 7
-0.69769698 -2.8977051 64.164062 7
0.126678 4.61377 -48.80957 7
0.085270002 4.5845952 -49.829102 7
0.053226002 4.541626 -50.742188 7
0.115623 4.288208 -49.219727 7
0.075024001 4.2496338 -50.220703 7
0.012756 4.2486572 -51.75293 7
0.129471 0.76318401 -48.779297 7
-0.65342301 -0.46520999 58.139648 7
-0.626984 -0.19445799 57.620117 7
-0.60403103 0.071410999 57.170898 7
-0.59214401 0.202759 56.9375 7
0.122128 4.5170898 -44.186523 7
0.085972004 4.4858398 -44.995117 7
0.050841998 4.4486079 -45.779297 7
0.119053 4.1976318 -44.275391 7
0.080775999 4.1646729 -45.130859 7
0.042213 4.1281738 -45.991211 7
-0.0026509999 4.0994868 -46.991211 7
0.210308 0.78857398 -42.324219 7
-0.61319703 0.068480998 53.449219 7
-0.529697 0.186157 51.899414 7
-0.56346101 0.309692 52.529297 7
-0.49854299 0.42077601 51.325195 7
0.067207001 4.4915771 -41.823242 7
0.040626999 4.4438481 -42.374023 7
0.018573999 4.3841548 -42.832031 7
-0.016837999 4.3487549 -43.564453 7
0.034805 4.142334 -42.514648 7
0.0033720001 4.0966802 -43.165039 7
-0.023239 4.0394292 -43.71582 7
0.080192998 0.85827601 -41.594727 7
0.089634001 0.651245 -41.399414 7
0.075432003 0.55358899 -41.686523 7
0.13312501 0.439087 -40.506836 7
-0.53178 -2.685425 47.685547 7
-0.53982502 -2.5834961 47.831055 7
-0.55578601 -2.4880371 48.112305 7
-0.448387 0.484741 46.416992 7
-0.50514603 3.4447019 47.374023 7
-0.48245999 3.523926 46.982422 7
-0.0088839997 4.7194819 -39.306641 7
0.023472 4.5543208 -38.712891 7
0.00054199999 4.506104 -39.147461 7
-0.01894 4.4489751 -39.518555 7
-0.047199 4.4073491 -40.052734 7
0.100006 1.07251 -37.50293 7
0.121441 0.969971 -37.101562 7
0.116093 0.33044401 -37.194336 7
0.091872998 0.241455 -37.645508 7
0.115482 0.146851 -37.201172 7
0.094887003 -0.133789 -34.53125 7
-0.096584 -3.294312 -37.594727 7
-0.077666998 -3.358398 -37.260742 7
-0.069293998 -3.4368899 -37.107422 7
-0.062983997 -3.5179441 -36.988281 7
-0.50915903 -2.4733889 44.037109 7
-0.415966 0.34887701 42.725586 7
-0.41273901 0.544312 42.677734 7
-0.51186401 3.511719 44.185547 7
-0.469116 3.5561521 43.500977 7
-0.45058101 3.630615 43.202148 7
0.029579001 4.717041 -35.444336 7
0.005775 4.6804199 -35.862305 7
-0.011929 4.6290278 -36.174805 7
-0.041615002 4.5101318 -36.701172 7
0.099147998 1.2462161 -34.499023 7
0.088177003 1.167114 -34.689453 7
0.096859001 1.07666 -34.540039 7
0.076072998 1.0012209 -34.899414 7
0.095825002 0.036499001 -34.520508 7
0.068493001 -0.110474 -31.967773 7
0.094237998 -0.187378 -31.558594 7
0.085845999 -0.345337 -31.685547 7
0.079452999 -0.42517099 -31.78418 7
-0.126568 -3.487915 -34.77832 7
-0.108139 -3.5449221 -34.478516 7
-0.093043998 -3.6055911 -34.232422 7
-0.087242 -3.6804199 -34.129883 7
-0.43150699 -2.4873049 39.592773 7
-0.46694601 -2.429565 40.117188 7
-0.434044 -2.30896 39.643555 7
-0.39134201 0.406982 39.145508 7
-0.39918101 0.49804699 39.261719 7
-0.37272301 0.58178699 38.875977 7
-0.45901501 3.5440669 40.074219 7
-0.43259001 3.599731 39.681641 7
-0.40127599 3.736084 39.211914 7
0.047793999 4.764771 -32.019531 7
0.030724 4.7225342 -32.297852 7
0.0095790001 4.6877441 -32.637695 7
-0.015263 4.6593022 -33.036133 7
-0.038254 4.625 -33.407227 7
-0.063460998 4.5935059 -33.811523 7
0.109352 1.36792 -31.279297 7
0.077072002 1.310303 -31.791016 7
0.109871 1.212158 -31.274414 7
0.054141998 1.085083 -32.15625 7
0.040405001 -0.26660201 -30.180664 7
0.065688998 -0.337524 -29.805664 7
0.069153003 -0.41076699 -29.75293 7
0.054749001 -0.487793 -29.961914 7
0.074078001 -0.55676299 -29.673828 7
0.053321999 -0.63671899 -29.976562 7
-0.13582601 -3.672729 -32.492188 7
-0.12562899 -3.7362061 -32.332031 7
-0.409401 -2.4832759 36.935547 7
-0.359413 0.46203601 36.413086 7
-0.37189901 0.63098103 36.584961 7
-0.45387599 3.577637 37.609375 7
-0.43465 3.6369629 37.338867 7
-0.41926599 3.7003169 37.121094 7
0.021534 4.8061519 -30.15332 7
0.0064539998 4.7640381 -30.385742 7
-0.010624 4.7249761 -30.644531 7
-0.043613002 4.6409912 -31.146484 7
-0.0073589999 4.4891362 -30.625977 7
0.09753 1.4337161 -29.336914 7
0.056122001 1.238525 -29.953125 7
0.039138999 -0.443481 -27.813477 7
0.057835001 -0.50830102 -27.554688 7
0.073642999 -0.77771002 -27.327148 7
-0.165527 -3.742188 -30.327148 7
-0.15278199 -3.7962649 -30.143555 7
-0.13700099 -3.844727 -29.920898 7
-0.124233 -3.897217 -29.737305 7
-0.13425399 -3.987915 -29.862305 7
0.026706999 4.8509521 -27.652344 7
0.012535 4.8129878 -27.853516 7
-0.002048 4.775146 -28.060547 7
-0.017929001 4.7391362 -28.286133 7
-0.041919999 4.7192378 -28.620117 7
-0.062916003 4.6915278 -28.914062 7
-0.0087930001 4.5080571 -28.191406 7
0.078785002 1.5406491 -27.240234 7
0.073115997 1.47644 -27.319336 7
0.081127003 1.40271 -27.209961 7
0.062637001 1.346558 -27.464844 7
0.058258001 1.280396 -27.526367 7
0.046661001 -0.679932 -25.787109 7
0.048393 -0.743774 -25.761719 7
0.025333 -0.81664997 -26.051758 7
0.040382002 -0.87560999 -25.857422 7
0.043961 -0.93847698 -25.808594 7
-0.167542 -3.8469241 -28.199219 7
-0.153393 -3.893188 -28.010742 7
-0.139259 -3.9385991 -27.822266 7
-0.132935 -3.9967041 -27.731445 7
-0.152843 -4.1005859 -27.970703 7
-0.044357002 5.0100098 -26.551758 7
-0.006966 4.8604741 -26.091797 7
-0.018013 4.8192139 -26.241211 7
-0.043297 4.7410889 -26.581055 7
-0.065769002 4.7216802 -26.874023 7
-0.074532002 4.6724849 -26.994141 7
0.060467001 1.581421 -25.587891 7
0.073647 1.507812 -25.420898 7
0.049816001 1.445068 -25.757812 7
0.037819002 1.388428 -25.913086 7
0.062031001 1.308838 -25.606445 7
0.035960998 -0.694336 -23.970703 7
0.024010001 -0.75854498 -24.109375 7
0.023894999 -0.81884801 -24.106445 7
0.040119 -0.87268102 -23.913086 7
0.031612001 -0.936279 -24.008789 7
-0.020710001 4.9680181 -24.202148 7
-0.0089680003 4.8808589 -24.076172 7
-0.018375 4.8408198 -24.197266 7
-0.061905 4.7497559 -24.735352 7
-0.072792001 4.710083 -24.873047 7
0.058975 1.705811 -23.625977 7
0.065692998 1.581543 -23.552734 7
0.059691999 1.526489 -23.625977 7
0.041873999 1.479248 -23.838867 7
0.055091999 1.4104 -23.685547 7
0.056968998 1.349365 -23.665039 7
0.058369 1.28894 -23.651367 7
0.021381 -0.99108899 -22.435547 7
0.0070000002 -1.054565 -22.589844 7
-0.00049599999 -1.1151119 -22.668945 7
0.0089149997 -1.1669919 -22.560547 7
0.01202 -1.221802 -22.523438 7
-0.039218999 5.0209961 -22.630859 7
-0.020324999 4.9215088 -22.4375 7
-0.030903 4.888062 -22.563477 7
-0.038325999 4.84729 -22.655273 7
-0.044723999 4.8034668 -22.734375 7
-0.080665998 4.7640381 -23.147461 7
0.032387 1.894043 -22.236328 7
0.04129 1.8302 -22.142578 7
0.044372998 1.771606 -22.111328 7
0.025829 1.7305911 -22.318359 7
0.048434999 1.656494 -22.073242 7
0.044651002 1.603516 -22.118164 7
-0.004681 -0.99133301 -21.161133 7
0.0082400003 -1.038574 -21.025391 7
0.013809 -1.0888669 -20.964844 7
-0.010609 -1.154541 -21.211914 7
-0.0039019999 -1.204224 -21.139648 7
-0.001163 -1.256104 -21.107422 7
-0.064667001 5.0734859 -21.258789 7
-0.060782999 5.0108638 -21.230469 7
-0.060284 4.9555659 -21.237305 7
-0.060894001 4.9030762 -21.254883 7
-0.066024996 4.8601069 -21.316406 7
-0.080715001 4.8372798 -21.476562 7
-0.080211997 4.7817378 -21.482422 7
0.039744999 1.870361 -20.618164 7
0.041354999 1.816528 -20.604492 7
0.029446 1.773926 -20.730469 7
0.029942 1.720825 -20.728516 7
0.037197001 1.6624759 -20.658203 7
0.038249999 1.609131 -20.650391 7
0.015408 1.82959 -19.537109 7
0.012947 1.781616 -19.564453 7
0.010933 1.633301 -19.591797 7
-0.015297 -0.97302198 -18.597656 7
-0.021126 -1.022949 -18.648438 7
-0.019997001 -1.117188 -18.631836 7
-0.016243 -1.16272 -18.59375 7
-0.041285999 -1.223755 -18.817383 7
-0.026062001 -1.310425 -18.672852 7
-0.032551002 -1.361816 -18.727539 7
-0.045437001 -1.41748 -18.839844 7
-0.067893997 5.0506592 -18.469727 7
-0.042442001 4.9468989 -18.255859 7
-0.048222002 4.9124761 -18.318359 7
-0.059115998 4.8891602 -18.426758 7
-0.061050002 4.8460689 -18.455078 7
-0.070656002 4.8193359 -18.551758 7
0.0097390004 1.579102 -18.288086 7
0.023064001 1.522827 -18.169922 7
0.035137001 1.4680181 -18.0625 7
0.028057 1.42627 -18.130859 7
0.0081900004 1.3924561 -18.313477 7
0.018340999 1.339233 -18.223633 7
0.036800001 1.281494 -18.05957 7
-0.049252 -1.068848 -17.768555 7
-0.040516 -1.109985 -17.69043 7
-0.031784002 -1.150391 -17.612305 7
-0.047527 -1.249146 -17.738281 7
-0.101704 4.840332 -17.635742 7
-0.105137 4.802002 -17.674805 7
0.019299001 1.221191 -17.131836 7
0.029358 1.171631 -17.046875 7
0.038086001 1.1231689 -16.974609 7
0.016407 1.09021 -17.163086 7
0.017689001 1.045532 -17.15332 7
0.035094999 0.98376501 -17.075195 7
-0.042594999 -1.3026119 -16.595703 7
-0.036205001 -1.341431 -16.541016 7
-0.030537 -1.380371 -16.491211 7
-0.035647999 -1.425781 -16.52832 7
-0.04792 -1.47644 -16.623047 7
0.030491 0.73107898 -15.990234 7
0.034717999 0.68835402 -15.957031 7
0.030369001 0.64843798 -15.993164 7
0.028163999 0.607544 -16.011719 7
0.037411001 0.56359899 -15.938477 7
0.046654001 0.52014202 -15.863281 7
0.050170999 0.478149 -15.834961 7
0.050117001 0.437134 -15.836914 7
0.045761 0.396851 -15.873047 7
0.039246 0.35693401 -15.925781 7
-0.046719 -1.313477 -15.629883 7
-0.039944001 -1.349609 -15.575195 7
-0.040011998 -1.389771 -15.571289 7
-0.039317999 -1.429443 -15.5625 7
-0.055335999 -1.480225 -15.679688 7
0.024817999 0.300293 -15.075195 7
0.032341 0.26013201 -15.018555 7
0.036139999 0.21350101 -15.06543 7
0.033043001 0.174927 -15.088867 7
0.030716 0.135986 -15.106445 7
0.035957001 0.09668 -15.066406 7
0.037407 0.057861 -15.054688 7
0.037369002 0.018677 -15.055664 7
-0.046390999 -1.31665 -14.682617 7
-0.039237998 -1.350342 -14.625977 7
-0.037712 -1.387207 -14.610352 7
-0.036185998 -1.424072 -14.595703 7
-0.050694 -1.471436 -14.697266 7
-0.053966999 -1.511719 -14.716797 7
-0.056961 4.8459468 -14.049805 7
-0.006569 -0.65515101 -12.805664 7
-0.018757001 -0.69751 -12.96582 7
-0.025921 -0.73376501 -13.010742 7
-0.024196999 -0.76733398 -12.99707 7
-0.014488 -0.79772902 -12.931641 7
-0.010979 -0.83044398 -12.907227 7
-0.0083769998 -0.86328101 -12.887695 7
-0.019981001 -0.90161097 -12.959961 7
-0.030688999 -0.94018602 -13.027344 7
-0.038380001 -1.2854 -13.046875 7
-0.051116999 -1.464478 -13.110352 7
-0.027411999 -0.99133301 -12.31543 7
-0.020950001 -1.020874 -12.272461 7
-0.015419 -1.050537 -12.235352 7
-0.037815001 -1.093872 -12.371094 7
-0.042537998 -1.1287839 -12.397461 7
-0.028618 -1.154297 -12.308594 7
-0.035174999 -1.190063 -12.345703 7
-0.038959999 -1.224731 -12.366211 7
-0.039951 -1.257568 -12.368164 7
-0.030197 -0.97424299 -11.650391 7
-0.029282 -1.004517 -11.642578 7
-0.035202 -1.03833 -11.674805 7
-0.041126002 -1.0718991 -11.707031 7
-0.029441999 -1.09729 -11.634766 7
-0.027527001 -1.127075 -11.621094 7
-0.02562 -1.156738 -11.607422 7
-0.038399 -1.1943361 -11.678711 7
-0.035530001 -1.2236331 -11.658203 7
-0.035567999 -1.254517 -11.655273 7
-0.063271001 4.7714839 -10.954102 7
-0.062325001 4.7401118 -10.958984 7
-0.066226996 4.71875 -10.992188 7
-0.067234002 4.6912842 -11.008789 7
-0.069201998 4.665771 -11.030273 7
-0.071171001 4.6400151 -11.052734 7
-0.079960003 4.6281738 -11.113281 7
-0.093643002 4.625977 -11.200195 7
-0.086823002 4.5821528 -11.172852 7
-0.078068003 4.53479 -11.135742 7
-0.074192002 4.4969478 -11.124023 7
-0.069701999 4.7398682 -10.364258 7
-0.071754001 4.716187 -10.386719 7
-0.074818 4.694458 -10.414062 7
-0.076885 4.6702881 -10.435547 7
-0.094231002 4.6491699 -10.549805 7
-0.098328002 4.6290278 -10.582031 7
-0.081042998 4.5369868 -10.512695 7
-0.036182001 -1.308594 -10.454102 7
-0.041595001 -1.339844 -10.479492 7
-0.052391 -1.374512 -10.533203 7
-0.05249 -1.430908 -10.526367 7
-0.051460002 -1.458496 -10.518555 7
-0.052588999 -1.487427 -10.520508 7
-0.053718999 -1.516235 -10.521484 7
-0.035041999 -1.28186 -8.5 7
-0.03125 -1.3031009 -8.4794922 7
-0.033852 -1.327881 -8.4882812 7
-0.033890001 -1.351318 -8.4853516 7
-0.037749998 -1.377075 -8.4990234 7
-0.051800001 -1.409302 -8.5585938 7
-0.058201 -1.437012 -8.5839844 7
-0.045524999 -1.452026 -8.5224609 7
-0.045563001 -1.4755861 -8.5185547 7
-0.049423002 -1.501709 -8.5332031 7
-0.052005999 -1.526978 -8.5410156 7
-0.054607 -1.552124 -8.5488281 7
-0.063564003 -1.582031 -8.5839844 7
-0.081202999 4.78125 -7.546875 7
-0.068520002 4.733398 -7.5068359 7
-0.060920998 4.696167 -7.4882808 7
-0.055847 4.6643071 -7.4794922 7
-0.057121001 4.6456299 -7.4951172 7
-0.058403 4.6270752 -7.5117192 7
-0.059668999 4.608398 -7.5273442 7
-0.058417998 4.5844731 -7.5332031 7
-0.058410998 4.5631099 -7.5449219 7
-0.062224999 4.549438 -7.570312 7
-0.069854997 4.5432129 -7.6123052 7
-0.080012999 4.5421138 -7.664062 7
-0.082553998 4.5256348 -7.6845698 7
-0.076228999 4.4912109 -7.6699219 7
-0.055523001 -1.286255 -8.1806641 7
-0.044968002 -1.302734 -8.1318359 7
-0.045021001 -1.325439 -8.1289062 7
-0.045090001 -1.370361 -8.1220703 7
-0.049118001 -1.395386 -8.1347656 7
-0.066380002 -1.428833 -8.2070312 7
-0.071762003 -1.477661 -8.2216797 7
-0.058552001 -1.491699 -8.1621094 7
-0.061245002 -1.515991 -8.1699219 7
-0.063983999 -1.56311 -8.1728516 7
-0.075943001 -1.594116 -8.2197266 7
-0.39097601 -6.3226318 -7.65625 7
-0.3937 -6.3505859 -7.6513672 7
-0.39243299 -6.3686519 -7.6318359 7
-0.392517 -6.3900151 -7.6152339 7
-0.089504004 4.787354 -7.110352 7
-0.076309003 4.7393799 -7.0722661 7
-0.06707 4.6998291 -7.0488281 7
-0.065750003 4.677002 -7.054688 7
-0.067093 4.6594238 -7.070312 7
-0.072371997 4.6500239 -7.101562 7
-0.071044996 4.6271968 -7.108398 7
-0.071060002 4.606689 -7.1181641 7
-0.072394997 4.5891109 -7.1337891 7
-0.076347001 4.5765381 -7.1611328 7
-0.078991003 4.561646 -7.1816411 7
-0.092205003 4.5673828 -7.242188 7
-0.093533002 4.549561 -7.257812 7
-0.086948 4.515625 -7.2431641 7
-0.085612997 4.492188 -7.25 7
-0.27923599 -4.4846191 -7.704102 7
-0.283463 -4.5137939 -7.7080078 7
-0.28627801 -4.5402832 -7.7080078 7
-0.28633901 -4.5618901 -7.6972661 7
-0.28086099 -4.5731201 -7.6660161 7
-0.279533 -4.592041 -7.6503911 7
-0.272686 -4.6004639 -7.6132808 7
-0.27825901 -4.6322021 -7.6230469 7
-0.278328 -4.653564 -7.6123052 7
-0.279762 -4.6773682 -7.6064448 7
-0.283981 -4.706543 -7.609375 7
-0.29233599 -4.7436519 -7.6289058 7
-0.30069399 -4.7811279 -7.6474609 7
-0.087192997 4.795166 -6.6230469 7
-0.077575997 4.7557368 -6.5986328 7
-0.059711002 4.6800542 -6.5585942 7
-0.061092 4.66394 -6.5742192 7
-0.070731997 4.6647949 -6.6191411 7
-0.063862003 4.6123052 -6.617188 7
-0.067978002 4.60144 -6.6425781 7
-0.065234996 4.5767822 -6.6435552 7
-0.066630997 4.5410161 -6.6699219 7
-0.080367997 4.5493159 -6.7304692 7
-0.087246001 4.5435791 -6.765625 7
-0.28270701 -4.504395 -7.2724609 7
-0.28420299 -4.5273442 -7.266602 7
-0.28999299 -4.5584722 -7.2753911 7
-0.28862 -4.576416 -7.2597661 7
-0.284363 -4.5887451 -7.233398 7
-0.280132 -4.6010742 -7.2080078 7
-0.283043 -4.6269531 -7.2070308 7
-0.28460699 -4.6702881 -7.1904302 7
-0.28897101 -4.69873 -7.1933589 7
-0.29045901 -4.7216802 -7.1875 7
-0.293396 -4.7475591 -7.1855469 7
-0.29631799 -4.773438 -7.1845698 7
-0.283775 -4.4851069 -6.8525391 7
-0.28531599 -4.5070801 -6.8466802 7
-0.297295 -4.5484619 -6.875 7
-0.30181101 -4.5762939 -6.8798828 7
-0.29144299 -4.576416 -6.8330078 7
-0.28852099 -4.5904541 -6.8125 7
-0.282619 -4.598877 -6.78125 7
-0.29161099 -4.634644 -6.7998052 7
-0.29167899 -4.6542969 -6.789062 7
-0.28874201 -4.6679692 -6.7685552 7
-0.29177099 -4.6929932 -6.7675781 7
-0.293327 -4.7149658 -6.7607422 7
-0.288921 -4.725708 -6.735352 7
-0.29045901 -4.7479248 -6.7285161 7
-0.30094901 -4.787354 -6.750977 7
-0.39777401 -6.3431401 -6.0693359 7
-0.39635801 -6.3571782 -6.0498052 7
-0.387463 -6.3525391 -6.007812 7
-0.39348999 -6.3848882 -6.0107422 7
-0.27997199 -4.4851069 -6.4472661 7
-0.29390001 -4.5290532 -6.4814448 7
-0.29396099 -4.547852 -6.4707031 7
-0.292465 -4.563477 -6.4550781 7
-0.287907 -4.5734859 -6.4287109 7
-0.289509 -4.5948491 -6.422852 7
-0.291096 -4.6162109 -6.4160161 7
-0.28651801 -4.6260991 -6.391602 7
-0.28657901 -4.6445308 -6.3808589 7
-0.28663301 -4.6630859 -6.3701172 7
-0.28669399 -4.6812739 -6.358398 7
-0.28365701 -4.6937261 -6.3378911 7
-0.289875 -4.723877 -6.3457031 7
-0.29301801 -4.7479248 -6.34375 7
-0.302322 -4.7841802 -6.3613281 7
-0.29928601 -4.7966309 -6.3408198 7
-0.37295499 -6.1955571 -5.1064448 7
-0.37781501 -6.2225342 -5.1035161 7
-0.37949401 -6.2418208 -5.092773 7
-0.38436899 -6.269043 -5.0898442 7
-0.381203 -6.2762451 -5.0673828 7
-0.38767999 -6.307251 -5.0683589 7
-0.389359 -6.3265381 -5.0566411 7
-0.38942 -6.3417969 -5.0410161 7
-0.38788599 -6.3530269 -5.0214839 7
-0.378304 -6.3444819 -4.983398 7
-0.37516001 -6.351562 -4.9599609 7
-0.38484201 -6.390625 -4.96875 7
-0.31808501 -5.1036382 8.4267578 7
-0.327831 -5.106812 8.4648438 7
-0.316475 -5.0671391 8.4462891 7
-0.30836499 -5.033936 8.4355469 7
-0.30836499 -5.0172119 8.4472656 7
-0.305107 -4.9941411 8.4501953 7
-0.311607 -4.990479 8.4804688 7
-0.30838799 -4.9672852 8.4833984 7
-0.30674699 -4.947144 8.4902344 7
-0.31000501 -4.9370122 8.5126953 7
-0.30513 -4.910522 8.5097656 7
-0.31000501 -4.9031978 8.5351562 7
-0.31324801 -4.8927002 8.5556641 7
-0.319767 -4.8884282 8.5859385 7
-0.30351299 -4.8398442 8.5507812 7
-0.30190301 -4.8195801 8.5585938 7
-0.30191001 -4.8026118 8.5693359 7
-0.29135501 -4.499023 -5.6757808 7
-0.28643399 -4.5068359 -5.6503911 7
-0.28482401 -4.5203862 -5.6347661 7
-0.28487 -4.5371089 -5.624023 7
-0.28989801 -4.5628662 -5.6279302 7
-0.29658899 -4.5916748 -5.6357422 7
-0.29166001 -4.5991211 -5.610352 7
-0.28506899 -4.603271 -5.5800781 7
-0.29341501 -4.6352539 -5.59375 7
-0.29016501 -4.6455078 -5.5712891 7
-0.28522101 -4.6525879 -5.546875 7
-0.28528199 -4.6689448 -5.5361328 7
-0.285328 -4.6855469 -5.5253911 7
-0.28372201 -4.6984859 -5.5087891 7
-0.283768 -4.7149658 -5.4980469 7
-0.283829 -4.7312012 -5.4863281 7
-0.29383501 -4.7667241 -5.5039058 7
-0.29887 -4.792603 -5.5058589 7
-0.32631299 -5.1166992 8.0380859 7
-0.324635 -5.0976558 8.0458984 7
-0.30950201 -5.051147 8.0185547 7
-0.31117201 -5.03894 8.0351562 7
-0.30276501 -5.0063481 8.0244141 7
-0.30446601 -4.993896 8.0410156 7
-0.30614501 -4.9815669 8.0566406 7
-0.30952501 -4.9725342 8.078125 7
-0.30952501 -4.9567871 8.0898438 7
-0.30953199 -4.940918 8.1015615 7
-0.30279499 -4.9116211 8.0947266 7
-0.30280301 -4.895874 8.1074219 7
-0.307861 -4.8898931 8.1318359 7
-0.312904 -4.8837891 8.15625 7
-0.30954 -4.8612061 8.1601562 7
-0.30786899 -4.842041 8.1660156 7
-0.311234 -4.832397 8.1865234 7
-0.31292701 -4.8197021 8.2021484 7
-0.280067 -4.4848628 -5.2626948 7
-0.278442 -4.5134282 -5.2373052 7
-0.28537801 -4.541748 -5.2451172 7
-0.285431 -4.557373 -5.233398 7
-0.28890601 -4.5793462 -5.2324219 7
-0.29416999 -4.6204829 -5.2236328 7
-0.28389701 -4.6166992 -5.186523 7
-0.273682 -4.628418 -5.1367192 7
-0.27888501 -4.653564 -5.1386719 7
-0.28070101 -4.6877441 -5.1210942 7
-0.280754 -4.703125 -5.110352 7
-0.28252399 -4.7218022 -5.1035161 7
-0.28428599 -4.740356 -5.0966802 7
-0.29639101 -4.7790532 -5.117188 7
-0.38441801 -6.4024658 -3.9511721 7
-0.38274801 -6.410645 -3.9316411 7
-0.38804999 -6.4486079 -3.9111331 7
-0.38464701 -6.4525151 -3.889648 7
-0.38647801 -6.4819341 -3.8623049 7
-0.39515701 -6.5161128 -3.8642581 7
-0.40389299 -6.5627441 -3.8496089 7
-0.33222201 -5.119751 7.6660161 7
-0.33570901 -5.111938 7.686523 7
-0.325268 -5.0759282 7.671875 7
-0.320057 -5.0505371 7.671875 7
-0.31135201 -5.018188 7.6621089 7
-0.31483099 -5.0101318 7.6826172 7
-0.31135899 -4.9735112 7.6972661 7
-0.31136701 -4.9587402 7.7089839 7
-0.30963501 -4.9403081 7.7167969 7
-0.309643 -4.925293 7.7285161 7
-0.314861 -4.9205322 7.7529302 7
-0.311382 -4.8986821 7.7558589 7
-0.31488401 -4.8753662 7.7880859 7
-0.30966601 -4.8500981 7.7861328 7
-0.30792999 -4.831543 7.7929692 7
-0.30445099 -4.8095698 7.796875 7
-0.119499 4.1680908 7.5996089 7
-0.112511 4.1700439 7.5712891 7
-0.121147 4.200562 7.5849609 7
-0.122818 4.2180181 7.579102 7
-0.115852 4.2198491 7.5507808 7
-0.10368 4.2124019 7.5087891 7
-0.098453999 4.217041 7.485352 7
-0.093203999 4.2218022 7.4619141 7
-0.089694999 4.2294922 7.4423828 7
-0.093105003 4.2502441 7.4414058 7
-0.093066998 4.264648 7.4316411 7
-0.093029 4.278564 7.420898 7
-0.08952 4.286377 7.4023442 7
-0.092922002 4.3071289 7.4013672 7
-0.092883997 4.3212891 7.391602 7
-0.094570003 4.338623 7.3857422 7
-0.089336 4.342773 7.3623052 7
-0.096202999 4.3701172 7.3691411 7
-0.108284 4.4074712 7.390625 7
-0.11171 4.4282231 7.389648 7
-0.115128 4.4489751 7.3876948 7
-0.118526 4.4699712 7.3857422 7
-0.113304 4.473877 7.3623052 7
-0.27785501 -4.4824219 -4.898438 7
-0.284996 -4.510498 -4.90625 7
-0.277931 -4.512207 -4.8769531 7
-0.27442199 -4.5206299 -4.858398 7
-0.28158599 -4.548584 -4.8652339 7
-0.28163099 -4.563354 -4.8544922 7
-0.28879499 -4.591187 -4.8613281 7
-0.28707099 -4.6026611 -4.8457031 7
-0.29777899 -4.6375728 -4.8623052 7
-0.29072601 -4.638916 -4.8330078 7
-0.290764 -4.653687 -4.8222661 7
-0.28726199 -4.661499 -4.8017578 7
-0.28375199 -4.6694341 -4.782227 7
-0.283806 -4.684082 -4.7705078 7
-0.28740701 -4.7055659 -4.7685552 7
-0.28743699 -4.7200928 -4.757812 7
-0.29105401 -4.741333 -4.7548828 7
-0.285759 -4.745605 -4.7304692 7
-0.29293099 -4.7739258 -4.7373052 7
-0.29298401 -4.7883301 -4.7255859 7
-0.32177401 -4.97229 7.3701172 7
-0.32177401 -4.9580078 7.3808589 7
-0.31817201 -4.9368901 7.3847661 7
-0.31818801 -4.9226069 7.3964839 7
-0.321789 -4.9156489 7.4169922 7
-0.325394 -4.9083252 7.436523 7
-0.325409 -4.8939209 7.4482422 7
-0.31640199 -4.8621831 7.438477 7
-0.32001099 -4.85498 7.4580078 7
-0.307423 -4.81604 7.4394531 7
-0.31281701 -4.8122559 7.4638672 7
-0.094318002 -1.9055181 8.2167969 7
-0.097897001 -1.892334 8.2314453 7
-0.094287999 -1.873413 8.2255859 7
-0.096065998 -1.858521 8.2353516 7
-0.097857997 -1.843872 8.2451172 7
-0.096050002 -1.826172 8.2441406 7
-0.090626001 -1.805786 8.2324219 7
-0.083407998 -1.784058 8.2148438 7
-0.092403002 -1.774902 8.2460938 7
-0.079796001 -1.749023 8.2128906 7
-0.086971 -1.738281 8.2382812 7
-0.083347 -1.7194819 8.2314453 7
-0.085147999 -1.70459 8.2412109 7
-0.085124999 -1.688354 8.2451172 7
-0.079719998 -1.668335 8.2333984 7
-0.085110001 -1.656006 8.2539062 7
-0.074294999 -1.631958 8.2255859 7
-0.077881001 -1.618286 8.2402344 7
-0.076064996 -1.601074 8.2382812 7
-0.057808001 1.031494 8.3095703 7
-0.057769999 1.0476069 8.3066406 7
-0.057755001 1.064087 8.3046885 7
-0.063110001 1.082886 8.3173828 7
-0.057686001 1.096802 8.3007812 7
-0.057624999 1.129272 8.2949219 7
-0.062973 1.148315 8.3076172 7
-0.066559002 1.166626 8.3173828 7
-0.062942997 1.181152 8.3037109 7
-0.062904 1.197266 8.3007812 7
-0.066459998 1.215454 8.3085938 7
-0.066382997 1.264282 8.2998047 7
-0.120235 4.1876221 7.264648 7
-0.12199 4.2047119 7.2597661 7
-0.130886 4.2348628 7.2724609 7
-0.13084801 4.2487788 7.2626948 7
-0.11647 4.2362061 7.2167969 7
-0.111061 4.2398682 7.1923828 7
-0.102074 4.236938 7.1611328 7
-0.103813 4.2540278 7.155273 7
-0.096615002 4.254272 7.1269531 7
-0.096577004 4.2675781 7.1181641 7
-0.098311998 4.2843022 7.1123052 7
-0.094691999 4.2911382 7.092773 7
-0.098228 4.3114009 7.0917969 7
-0.098174997 4.324707 7.0810552 7
-0.099930003 4.3414311 7.0751948 7
-0.098105997 4.35144 7.061523 7
-0.096252002 4.3613281 7.045898 7
-0.092632003 4.3676758 7.0273442 7
-0.096152999 4.387939 7.0244141 7
-0.097907998 4.4044189 7.0185552 7
-0.103226 4.4281011 7.0214839 7
-0.117512 4.4692378 7.046875 7
-0.112091 4.4720459 7.023438 7
-0.13229699 4.2337222 7.6009421 7
-0.113915 4.2907939 7.3536601 7
-0.30495301 -4.8857808 7.8908329 7
-0.109456 4.2420969 6.7846618 7
-0.28950301 -5.0773411 6.8166451 7
-0.280864 -4.9026151 6.9941559 7
-0.086314999 -1.8783849 8.1093283 7
-0.067027003 -1.663226 8.0783577 7
-0.044372998 0.98362398 8.1579189 7
-0.04391 1.154439 8.1137562 7
-0.32487401 -4.9782658 6.0003228 7
-0.122385 -1.906528 7.756072 7
-0.100723 -1.7018549 7.728868 7
-0.068778999 1.061931 7.7886672 7
-0.070556 1.2208689 7.7524519 7
0.054660998 -1.283051 -14.486247 7
0.113179 -1.222948 -10.578192 7
0.0070079998 -1.532434 -5.9323058 7
0.015736001 -1.480105 -5.0215402 7
-0.37080401 -6.354815 -5.9321551 7
-0.035229001 -1.42659 -4.1134882 7
-0.326437 -4.515048 -5.0103688 7
-0.26559401 -4.7026849 -2.531996 7
-0.36447299 -4.9121718 8.5686398 7
-0.35556599 -5.0751429 7.913269 7
-0.34724 -4.8616581 8.0622005 7
-0.31821001 -4.9393821 7.3921161 7
-0.075420998 -1.78933 8.0478125 7
-0.0089849997 -1.3177381 -1.374542 7
-0.018199001 -1.4650871 -1.389994 7
-0.31363899 -5.0458899 6.8451018 7
-0.303031 -4.8668542 6.987648 7
-0.065150999 -1.7443399 7.7718081 7
0.0054609999 -1.298288 -1.0845309 7
-0.0064079999 -1.437606 -1.112049 7
-0.247584 -4.7240472 -0.223511 7
-0.33209199 -4.8864999 6.4214511 7
-0.041565999 -1.412068 -0.86424601 7
-0.065007001 -1.594134 -0.92141902 7
-0.28766301 -4.5213122 -0.036246002 7
-0.297097 -4.671247 0.100401 7
-0.2929 -4.775919 0.27554199 7
-0.341584 -5.0949922 5.8086438 7
-0.31529599 -4.9092689 5.9265852 7
-0.032873001 -1.4316061 -0.64586902 7
-0.053064 -1.5624551 -0.69695997 7
-0.277233 -4.5788422 0.430374 7
-0.28490999 -4.7056122 0.57379198 7
-0.306247 -4.9230418 5.477098 7
-0.30340999 -4.8209949 5.6364641 7
-0.304874 -5.066854 4.7271752 7
-0.29922399 -4.9848738 4.889605 7
-0.28508899 -4.87115 5.0359979 7
-0.32609001 -5.0596499 2.5726039 7
-0.33082101 -5.0938411 2.74208 7
-0.30959001 -4.904387 4.2629461 7
-0.30751899 -4.852087 4.42382 7
-0.31068301 -4.809011 4.587729 7
-0.29901099 -4.6997409 1.970453 7
-0.295082 -4.7322378 2.1317849 7
-0.29286301 -4.763227 2.2922039 7
-0.29232401 -4.7927752 2.452127 7
-0.28981 -4.8100901 2.6137741 7
-0.287164 -4.8206091 2.7754741 7
-0.28321499 -4.787158 3.736959 7
-0.279311 -4.5191102 2.0325241 7
-0.278853 -4.5597978 2.183032 7
-0.28209201 -4.604948 2.3320551 7
-0.28332499 -4.6384768 2.484148 7
-0.27120799 -4.6434059 3.563478 7
-0.26189801 -4.5982661 3.7121351 7
-0.007131 4.7059531 -10.320303 7
-0.107434 4.5719299 -6.5378861 7
-0.13189401 4.2855978 7.6387172 7
-0.12183 4.241724 7.221756 7
-0.115494 4.3674321 7.039299 7
-0.046112001 1.016986 8.2889719 7
-0.055686999 1.228387 8.295536 7
-0.113835 4.2001009 6.8515458 7
-0.0265 1.015819 7.9401531 7
-0.039432 1.213308 7.9643178 7
-0.017422 4.7728648 -14.626718 7
-0.021877 0.22033399 -15.179247 7
-0.116638 -1.259485 -11.552471 7
-0.144587 4.6321068 -11.404663 7
-0.047547001 -1.363482 -7.7297721 7
-0.096856996 4.611907 -7.2882051 7
-0.034155998 -1.404631 -6.7380271 7
-0.079995997 -1.440719 -6.0087619 7
-0.31103799 -4.6043711 -7.0132251 7
-0.44635001 -6.3285651 -7.401227 7
-0.40775901 -6.3424559 -6.91046 7
-0.056476999 -1.389521 -5.3469 7
-0.039482001 -1.391273 -4.8275762 7
-0.052931 -1.589327 -4.8715968 7
-0.26072001 -4.549736 -4.9459252 7
-0.25678599 -4.7036991 -4.7510891 7
-0.026911 -1.393491 -4.4128919 7
-0.039935999 -1.5735151 -4.444633 7
-0.235664 -4.775476 -3.6705639 7
-0.048811 -1.386974 -4.0532889 7
-0.063951999 -1.555642 -4.083281 7
-0.03977 -1.390723 -3.7722189 7
-0.055948 -1.551293 -3.80004 7
-0.032933 -1.394163 -3.531544 7
-0.049098998 -1.545079 -3.5521419 7
-0.041762002 -1.592505 -1.475243 7
-0.038371999 -1.598176 -1.407222 7
-0.022328001 -1.4390711 -1.5720921 7
-0.033363 -1.4922251 -1.520431 7
-0.024549 -1.483469 -1.452985 7
-0.031939 -1.5213341 -1.3947591 7
-0.035687 -1.545779 -1.332617 7
-0.032315999 -1.545588 -1.267258 7
-0.032520998 -1.5538059 -1.2025861 7
-0.029157 -1.548136 -1.137565 7
-0.032942001 -1.562189 -1.071925 7
-0.031415001 -1.556813 -1.00668 7
-0.026058 -1.535432 -0.92719501 7
-0.029851999 -1.540537 -0.86012203 7
-0.0305 -1.412794 -1.564152 7
-0.032664999 -1.438628 -1.506979 7
-0.014346 -1.4021699 -1.43634 7
-0.012828 -1.41192 -1.377201 7
-0.016843 -1.435711 -1.319652 7
-0.011629 -1.42949 -1.2585109 7
-0.015642 -1.4484921 -1.199043 7
-0.012306 -1.442819 -1.138435 7
-0.016338 -1.456933 -1.077203 7
-0.01487 -1.451815 -1.016364 7
-0.015268 -1.449787 -0.95505702 7
-0.022636 -1.464269 -0.87439603 7
-0.0031260001 -1.3967251 -0.82625699 7
-0.010824 -1.290822 -1.58798 7
-0.015073 -1.322788 -1.53778 7
-0.017411999 -1.347548 -1.484387 7
-0.013988 -1.3538949 -1.426347 7
-0.01438 -1.368661 -1.370086 7
-0.029305 -1.376115 -1.312202 7
-0.027817 -1.380777 -1.25437 7
-0.022412 -1.371963 -1.196108 7
-0.020949 -1.371803 -1.138643 7
-0.025366999 -1.385887 -1.080384 7
-0.021987 -1.375468 -1.0230449 7
-0.024471 -1.379199 -0.96417803 7
-0.028913001 -1.385927 -0.90378398 7
-0.013781 -1.332949 -0.84066498 7
-0.027066 -1.3151259 -1.361077 7
-0.018048 -1.309739 -1.248963 7
-0.012583 -1.300827 -1.1936851 7
-0.013186 -1.3061579 -1.139134 7
-0.019827001 -1.325756 -1.083325 7
-0.012433 -1.304597 -1.029552 7
-0.017077999 -1.314075 -0.972893 7
-0.019737 -1.315725 -0.91621202 7
-0.016192 -1.2958241 -0.84912401 7
