# .PCD v0.7 - Point Cloud Data file format
VERSION 0.7
FIELDS x y z intensity
SIZE 4 4 4 4
TYPE F F F F
COUNT 1 1 1 1
WIDTH 843
HEIGHT 1
VIEWPOINT 0 0 0 1 0 0 0
POINTS 843
DATA ascii
0.037193 4.9276118 -71.302734 7
0.061264001 4.7012939 -70.490234 7
0.024403 4.6090088 -71.746094 7
0.043701001 4.8415532 -63.199219 7
0.120552 4.5195308 -60.879883 7
0.049522001 4.5219731 -63.033203 7
-0.814762 -5.6643071 72.649414 7
-0.87419897 -5.6046138 74.079102 7
0.112919 4.712646 -54.354492 7
0.084216997 4.6434331 -55.135742 7
0.133167 4.403687 -53.822266 7
0.042675 4.3236079 -56.276367 7
-0.71204001 -2.9206541 64.648438 7
-0.68748897 -2.747437 64.124023 7
-0.74241298 -2.64856 65.333984 7
-0.230381 0.57275403 54.197266 7
0.107327 4.5231929 -49.235352 7
0.057101998 4.5092769 -50.469727 7
0.128052 4.2392578 -48.743164 7
0.081874996 4.2124019 -49.878906 7
0.051906999 4.1488042 -50.616211 7
0.1147 0.89587402 -49.146484 7
-0.63351399 -0.329956 57.882812 7
-0.61873198 -0.195068 57.591797 7
-0.605694 -0.061523002 57.333984 7
-0.57894099 0.070189998 56.801758 7
-0.57262403 0.20117199 56.678711 7
-0.41548899 0.68408197 53.541992 7
0.107346 4.4310298 -44.483398 7
0.063029997 4.4138179 -45.47168 7
0.028446 4.372437 -46.245117 7
0.092524998 4.1325679 -44.833984 7
0.061344001 4.08252 -45.530273 7
0.015457 4.056519 -46.555664 7
-0.59050399 0.193481 53.03418 7
-0.50669098 0.306519 51.477539 7
-0.53293997 0.42932099 51.967773 7
0.044829998 4.5178218 -42.149414 7
0.021614 4.4622798 -42.631836 7
0.01226 4.2709961 -42.838867 7
-0.019928001 4.120605 -43.509766 7
0.06786 0.76696801 -41.847656 7
0.088326 0.65795898 -41.428711 7
-0.53035402 -2.6903081 47.760742 7
-0.53364903 -2.5838621 47.825195 7
-0.45676401 0.37951699 46.652344 7
-0.42997399 0.48205599 46.194336 7
-0.49606699 3.4362791 47.22168 7
-0.467567 3.507324 46.730469 7
-0.42578101 3.558105 46.011719 7
0.02953 4.6280522 -38.557617 7
0.012245 4.5690918 -38.887695 7
-0.012226 4.5236821 -39.352539 7
-0.032756999 4.4656978 -39.735352 7
-0.062247999 4.4257808 -40.291992 7
0.099537 1.0632319 -37.416992 7
0.093960002 0.88134801 -37.519531 7
0.068478003 0.79834002 -37.996094 7
0.084320001 0.699341 -37.699219 7
0.066113003 0.42419401 -38.036133 7
0.078383997 0.235596 -37.803711 7
0.096123002 0.140991 -37.47168 7
0.091637 -0.12866201 -34.59082 7
-0.097939 -3.290894 -37.625 7
-0.078654997 -3.3544919 -37.285156 7
-0.062804997 -3.421875 -37.003906 7
-0.46978399 -2.6418459 43.483398 7
-0.49651301 -2.5678711 43.915039 7
-0.51000601 -2.4797361 44.136719 7
-0.406616 0.35009801 42.579102 7
-0.43516499 0.45263699 43.03418 7
-0.40264899 0.54455602 42.518555 7
-0.43568799 3.6131589 42.96875 7
0.012962 4.6541748 -35.701172 7
-0.012188 4.6186519 -36.141602 7
-0.027191 4.5603032 -36.407227 7
-0.060805999 4.538208 -36.992188 7
-0.085625 4.4960942 -37.427734 7
0.082686998 1.2468261 -34.699219 7
0.086304002 1.159058 -34.637695 7
0.094685003 1.06897 -34.494141 7
0.075232998 0.99279797 -34.829102 7
0.044585999 0.91992199 -35.357422 7
0.049660001 0.216553 -35.322266 7
0.048229001 -0.117065 -32.21875 7
0.066055 -0.35376 -31.930664 7
0.086308002 -0.42883301 -31.608398 7
0.063614003 -0.51269501 -31.963867 7
-0.129913 -3.4881589 -34.837891 7
-0.09454 -3.603394 -34.262695 7
-0.112167 -3.716064 -34.526367 7
-0.431034 -2.492188 39.655273 7
-0.444473 -2.41394 39.860352 7
-0.48781601 -2.3612061 40.500977 7
-0.380009 0.40576199 39.046875 7
-0.37070799 0.49304199 38.912109 7
-0.37813899 0.58361799 39.020508 7
-0.47753099 3.571533 40.34668 7
-0.44474399 3.619019 39.862305 7
-0.41834301 3.6730959 39.469727 7
-0.39073601 3.723511 39.05957 7
0.047297999 4.7573242 -31.99707 7
0.036873002 4.7006841 -32.169922 7
0.020924 4.6550288 -32.430664 7
-0.00058699999 4.6199951 -32.777344 7
-0.026512001 4.5924072 -33.194336 7
-0.06205 4.582397 -33.760742 7
-0.079487003 4.5335689 -34.043945 7
0.091628999 1.3731689 -31.537109 7
0.093383998 1.293823 -31.510742 7
0.088371001 1.1398931 -31.592773 7
0.056839 1.0773931 -32.092773 7
0.043205 -0.336548 -30.138672 7
0.035964999 -0.41259801 -30.243164 7
0.052005999 -0.55810499 -30.000977 7
0.070952997 -0.62695301 -29.719727 7
-0.16757999 -3.637085 -32.972656 7
-0.13469701 -3.6661379 -32.481445 7
-0.128197 -3.815552 -32.365234 7
-0.411194 -2.4898679 37.023438 7
-0.41619101 -2.410156 37.098633 7
-0.416908 -2.3262939 37.115234 7
-0.37723199 0.383789 36.65918 7
-0.355461 0.46350101 36.360352 7
-0.380375 0.55175799 36.704102 7
-0.34926599 0.62768602 36.275391 7
-0.45409 3.580688 37.613281 7
-0.43064901 3.634155 37.286133 7
-0.40633801 3.684814 36.946289 7
-0.38374299 3.7363279 36.629883 7
0.027035 4.785645 -30.045898 7
0.0068890001 4.7530522 -30.345703 7
-0.0086169997 4.7104492 -30.582031 7
-0.024894999 4.6687012 -30.830078 7
-0.055388998 4.655273 -31.287109 7
-0.023048 4.5114751 -30.823242 7
0.056995001 1.378662 -29.87207 7
0.088180996 1.285278 -29.414062 7
0.041691002 1.163818 -30.103516 7
0.032230001 -0.51879901 -27.853516 7
0.05624 -0.78784198 -27.514648 7
-0.167744 -3.7415769 -30.363281 7
-0.149845 -3.7874761 -30.110352 7
-0.123466 -3.8917241 -29.733398 7
0.016563 4.865356 -27.763672 7
0.016052 4.7969971 -27.780273 7
0.001911 4.7584229 -27.982422 7
-0.015663 4.7261958 -28.229492 7
-0.033245001 4.6928711 -28.476562 7
-0.057636 4.6724849 -28.816406 7
-0.061985001 4.6096191 -28.885742 7
0.078133002 1.535278 -27.229492 7
0.060093001 1.479858 -27.477539 7
0.085658997 1.394043 -27.130859 7
0.066765003 1.338135 -27.390625 7
0.040146001 1.285767 -27.754883 7
0.027061 -0.68212903 -26.038086 7
0.042576 -0.74169898 -25.838867 7
0.026412999 -0.81225598 -26.041016 7
0.026779 -0.87695301 -26.033203 7
0.041827999 -0.93530297 -25.837891 7
-0.016743001 4.9398189 -26.179688 7
-0.015888 4.872314 -26.179688 7
-0.028297 4.8337402 -26.34668 7
-0.057048999 4.7609859 -26.725586 7
-0.081355996 4.744873 -27.042969 7
-0.054889999 4.6225591 -26.71875 7
0.062431 1.63623 -25.508789 7
0.045414001 1.584717 -25.727539 7
0.059951998 1.441895 -25.631836 7
0.041515 1.3898931 -25.867188 7
0.03455 1.32959 -25.958008 7
0.01376 -0.75866699 -24.232422 7
0.025947999 -0.87487799 -24.083008 7
0.017345 -0.99963403 -24.177734 7
0.027527001 -1.115356 -24.048828 7
0.0046879998 -1.187988 -24.314453 7
-0.013458 4.9439702 -24.094727 7
-0.016960001 4.8908691 -24.146484 7
-0.026862999 4.851685 -24.272461 7
-0.074276 4.768311 -24.857422 7
-0.063506998 4.683228 -24.742188 7
0.046351999 1.530762 -23.766602 7
0.034462001 1.479126 -23.910156 7
0.053950999 1.286499 -23.6875 7
0.0088419998 -0.99340802 -22.576172 7
0.019324999 -1.045166 -22.456055 7
-0.009327 -1.1162111 -22.769531 7
-0.0020099999 -1.169434 -22.685547 7
0.0068890001 -1.221558 -22.582031 7
-0.037659001 5.009644 -22.591797 7
-0.028751001 4.9327388 -22.506836 7
-0.037758 4.8955078 -22.615234 7
-0.045722999 4.8557129 -22.711914 7
-0.058398999 4.825439 -22.862305 7
-0.079521 4.8126221 -23.101562 7
-0.08168 4.7589111 -23.135742 7
0.027629999 1.893066 -22.272461 7
0.034945998 1.830566 -22.195312 7
0.031727001 1.776733 -22.235352 7
0.022697 1.727783 -22.337891 7
0.041618001 1.656616 -22.132812 7
0.035206001 1.605469 -22.206055 7
0.002808 -0.98474097 -21.086914 7
-0.0068740002 -1.042603 -21.183594 7
0.0054660002 -1.089844 -21.052734 7
0.0059549999 -1.1427 -21.043945 7
-0.023539999 -1.212158 -21.344727 7
-0.0060959999 -1.255859 -21.160156 7
-0.070202 5.0783691 -21.294922 7
-0.067997001 5.019165 -21.283203 7
-0.072590001 4.9211431 -21.352539 7
-0.076015003 4.874146 -21.398438 7
-0.082249001 4.833374 -21.472656 7
0.033629999 1.870483 -20.665039 7
0.032448001 1.819092 -20.680664 7
0.014347 1.781372 -20.871094 7
0.033957999 1.660156 -20.675781 7
0.027702 1.612305 -20.744141 7
-0.016106 -0.98376501 -19.916992 7
-0.030605 -1.041016 -20.055664 7
-0.020470001 -1.0869139 -19.953125 7
-0.015144 -1.134644 -19.897461 7
-0.034465998 -1.195312 -20.082031 7
-0.038151 -1.248291 -20.114258 7
-0.030410999 -1.294556 -20.035156 7
-0.023879999 -1.341553 -19.967773 7
-0.043209001 -1.404053 -20.151367 7
-0.041469999 -1.453979 -20.130859 7
-0.01321 -0.96935999 -18.583008 7
-0.019711001 -1.019531 -18.637695 7
-0.037696999 -1.075928 -18.797852 7
-0.02177 -1.1156009 -18.650391 7
-0.016727 -1.160278 -18.601562 7
-0.032166 -1.216187 -18.738281 7
-0.042495999 -1.269531 -18.828125 7
-0.033606999 -1.312012 -18.742188 7
-0.029835001 -1.3573 -18.704102 7
-0.044647001 -1.414307 -18.834961 7
-0.045864001 4.9472661 -18.268555 7
-0.055496 4.8743901 -18.375977 7
-0.065746002 4.8492432 -18.477539 7
0.0040210001 1.5799561 -18.328125 7
0.021214001 1.52063 -18.175781 7
0.032012999 1.466797 -18.081055 7
0.024242001 1.3787839 -18.157227 7
0.005661 1.34375 -18.328125 7
-0.10788 4.891602 -17.658203 7
-0.111946 4.85498 -17.704102 7
-0.107254 4.7996831 -17.675781 7
-0.112022 4.7640381 -17.726562 7
-0.0019950001 1.272583 -17.286133 7
0.011452 1.2205811 -17.171875 7
0.016814999 1.17334 -17.128906 7
0.026218001 1.124512 -17.050781 7
0.013336 1.087036 -17.163086 7
0.030392 0.98840302 -17.118164 7
-0.042438999 -1.300171 -16.59668 7
-0.037491001 -1.339722 -16.553711 7
-0.029663 -1.377197 -16.486328 7
-0.048404999 -1.431519 -16.632812 7
-0.049206 -1.474731 -16.634766 7
0.026877999 0.68689001 -15.999023 7
0.031837001 0.64392102 -15.959961 7
0.025336999 0.60424799 -16.014648 7
0.023841999 0.56335402 -16.026367 7
0.029556001 0.52038598 -15.982422 7
0.036651999 0.47741699 -15.923828 7
0.045193002 0.434448 -15.854492 7
0.045855999 0.39331099 -15.849609 7
0.043652002 0.352539 -15.868164 7
-0.046585001 -1.311035 -15.629883 7
-0.048156999 -1.352295 -15.638672 7
-0.042908002 -1.389282 -15.594727 7
-0.042213 -1.429077 -15.585938 7
-0.052154999 -1.475708 -15.657227 7
0.016837999 0.29797399 -15.115234 7
0.033916 0.21606401 -15.083008 7
0.036892001 0.17675801 -15.060547 7
0.03455 0.138184 -15.078125 7
0.029193999 0.099120997 -15.120117 7
0.029888 0.060180999 -15.113281 7
0.032124002 0.021118 -15.09668 7
0.019649999 -0.34948701 -14.169922 7
0.015598 -0.38745099 -14.198242 7
0.017712001 -0.42517099 -14.279297 7
0.020863 -0.46167001 -14.254883 7
0.022414999 -0.498413 -14.242188 7
0.015934 -0.53698701 -14.287109 7
0.0062520001 -0.57641602 -14.355469 7
-0.051070999 -1.317261 -14.717773 7
-0.039898001 -1.3486331 -14.633789 7
-0.041584 -1.387573 -14.641602 7
-0.037632 -1.422852 -14.609375 7
-0.059932999 4.8088379 -14.068359 7
-0.101639 4.7102051 -14.413086 7
-0.0099790003 -0.69397002 -13.666016 7
-0.01004 -0.72949201 -13.664062 7
-0.0041999999 -0.76318401 -13.62207 7
-0.0068319999 -0.83520502 -13.635742 7
-0.014496 -0.873779 -13.68457 7
-0.018767999 -0.911255 -13.711914 7
-0.013325 -0.69384801 -12.932617 7
-0.030258 -0.73339802 -13.041016 7
-0.026749 -0.766357 -13.015625 7
-0.022361999 -0.79882801 -12.985352 7
-0.015324 -0.83007801 -12.936523 7
-0.010944 -0.862427 -12.905273 7
-0.017262001 -0.932495 -12.941406 7
-0.040329002 -0.99523902 -12.397461 7
-0.028271001 -1.0224611 -12.320312 7
-0.025532 -1.053589 -12.299805 7
-0.023731001 -1.0849611 -12.285156 7
-0.034035001 -1.122681 -12.345703 7
-0.042473 -1.159302 -12.395508 7
-0.039710999 -1.190552 -12.375 7
-0.045357 -1.2261961 -12.407227 7
-0.039818 -1.2557369 -12.369141 7
-0.027156999 -0.97106898 -11.634766 7
-0.027202999 -1.001953 -11.632812 7
-0.031177999 -1.034546 -11.652344 7
-0.036121 -1.067749 -11.677734 7
-0.044006001 -1.1025389 -11.72168 7
-0.034260001 -1.1287839 -11.661133 7
-0.030407 -1.157349 -11.635742 7
-0.027515 -1.1867681 -11.616211 7
-0.034412 -1.221313 -11.65332 7
-0.034481 -1.252075 -11.649414 7
-0.062488999 4.763916 -10.938477 7
-0.067368001 4.744751 -10.977539 7
-0.071289003 4.7232671 -11.009766 7
-0.072281003 4.6958008 -11.026367 7
-0.071312003 4.664062 -11.033203 7
-0.078171 4.648438 -11.081055 7
-0.092785001 4.64856 -11.173828 7
-0.103546 4.6403809 -11.243164 7
-0.091853999 4.5866699 -11.189453 7
-0.082099997 4.5371089 -11.146484 7
-0.080169998 4.5031738 -11.145508 7
-0.062674999 -1.360352 -11.210938 7
-0.082015999 4.7879639 -10.40918 7
-0.080002002 4.727417 -10.419922 7
-0.081032 4.701416 -10.4375 7
-0.080017 4.670898 -10.442383 7
-0.082076997 4.6468511 -10.464844 7
-0.090225004 4.6352539 -10.518555 7
-0.102489 4.6317139 -10.59375 7
-0.095356002 4.588623 -10.566406 7
-0.089249 4.547852 -10.545898 7
-0.086204998 4.5133061 -10.540039 7
-0.086220004 4.4847412 -10.550781 7
-0.040355999 -1.309448 -10.477539 7
-0.044697002 -1.34021 -10.49707 7
-0.051281001 -1.4287111 -10.521484 7
-0.052409999 -1.45752 -10.523438 7
-0.055691 -1.487915 -10.538086 7
-0.060031999 -1.518921 -10.556641 7
-0.051785 -1.281616 -9.5185547 7
-0.038986001 -1.299927 -9.4521484 7
-0.043708999 -1.328369 -9.4716797 7
-0.042580001 -1.353394 -9.4628906 7
-0.039108001 -1.3768311 -9.4423828 7
-0.057865001 -1.414307 -9.5292969 7
-0.066113003 -1.445435 -9.5664062 7
-0.056782 -1.46521 -9.5175781 7
-0.056828 -1.491089 -9.5146484 7
-0.060389999 -1.519165 -9.5273438 7
-0.055759002 -1.541748 -9.5009766 7
-0.066319004 -1.5749511 -9.5488281 7
-0.047653001 -1.287842 -8.5585938 7
-0.031132 -1.3017581 -8.4824219 7
-0.031184999 -1.325073 -8.4794922 7
-0.036320001 -1.351562 -8.4980469 7
-0.035107002 -1.374146 -8.4882812 7
-0.045322001 -1.403809 -8.5302734 7
-0.051734999 -1.431519 -8.5556641 7
-0.056876998 -1.458252 -8.5742188 7
-0.046726 -1.475098 -8.5253906 7
-0.046764001 -1.498535 -8.5224609 7
-0.049362 -1.5238039 -8.5292969 7
-0.051925998 -1.54895 -8.5380859 7
-0.059631001 -1.577759 -8.5673828 7
-0.078270003 4.7695308 -7.5273442 7
-0.069378003 4.7296138 -7.5039058 7
-0.061771002 4.6922612 -7.484375 7
-0.059216 4.665771 -7.485352 7
-0.063046001 4.6524658 -7.5107422 7
-0.063052997 4.6098628 -7.5332031 7
-0.061764002 4.585815 -7.539062 7
-0.069393001 4.5584722 -7.5917969 7
-0.079558998 4.5574951 -7.6425781 7
-0.083359003 4.543335 -7.6689448 7
-0.083359003 4.5218511 -7.679688 7
-0.074490003 4.4824219 -7.655273 7
-0.054085001 -1.28418 -8.1757812 7
-0.056793001 -1.308228 -8.1826172 7
-0.047564998 -1.325439 -8.140625 7
-0.050239999 -1.349609 -8.1494141 7
-0.050274 -1.372192 -8.1464844 7
-0.046351999 -1.39209 -8.125 7
-0.056984 -1.421509 -8.1679688 7
-0.067619003 -1.450928 -8.2089844 7
-0.071629003 -1.4761961 -8.2226562 7
-0.059760999 -1.491089 -8.1679688 7
-0.062447 -1.515503 -8.1757812 7
-0.065132 -1.539917 -8.1835938 7
-0.066513002 -1.563599 -8.1845703 7
-0.067870997 -1.58728 -8.1875 7
-0.087669 4.75769 -7.108398 7
-0.077122003 4.715332 -7.079102 7
-0.067867003 4.6759028 -7.0556641 7
-0.069195002 4.6584468 -7.0712891 7
-0.074482001 4.6489258 -7.101562 7
-0.075793996 4.6314702 -7.1181641 7
-0.075801998 4.6112061 -7.1289058 7
-0.071842 4.58252 -7.125977 7
-0.074490003 4.567627 -7.1464839 7
-0.081084996 4.5604248 -7.1816411 7
-0.089011997 4.5557861 -7.2226558 7
-0.095619 4.5483398 -7.2597661 7
-0.092972003 4.5223389 -7.2607422 7
-0.087684996 4.491333 -7.25 7
-0.28304699 -4.4907231 -7.7207031 7
-0.28863901 -4.5224609 -7.7294922 7
-0.29145399 -4.5489502 -7.7285161 7
-0.28325999 -4.5769038 -7.6777339 7
-0.28194001 -4.5958252 -7.6611328 7
-0.279232 -4.6118159 -7.639648 7
-0.280727 -4.6573491 -7.6230469 7
-0.286327 -4.6890869 -7.6318359 7
-0.29328501 -4.7236328 -7.6464839 7
-0.294788 -4.769165 -7.6289058 7
-0.298996 -4.7984619 -7.632812 7
-0.090697996 4.7971191 -6.6279302 7
-0.090691 4.7779541 -6.6386719 7
-0.090691 4.758667 -6.6503911 7
-0.092055999 4.74231 -6.6660161 7
-0.064560004 4.665894 -6.5800781 7
-0.068691 4.655396 -6.6054692 7
-0.071438 4.6418462 -6.625977 7
-0.068683997 4.6169429 -6.6279302 7
-0.071429998 4.603271 -6.648438 7
-0.068691 4.5786128 -6.6494141 7
-0.072802998 4.567627 -6.6748052 7
-0.076931 4.5567632 -6.7001948 7
-0.075565003 4.534668 -6.7060552 7
-0.082438998 4.5289311 -6.742188 7
-0.086562999 4.5175781 -6.7675781 7
-0.082438998 4.4899902 -6.7636719 7
-0.27949899 -4.4975591 -7.2636719 7
-0.28959301 -4.536377 -7.2880859 7
-0.28820401 -4.5544429 -7.2724609 7
-0.28971499 -4.5775151 -7.266602 7
-0.28258899 -4.5845952 -7.2304692 7
-0.285519 -4.610352 -7.2294922 7
-0.284145 -4.6281738 -7.2128911 7
-0.28275701 -4.645752 -7.1972661 7
-0.28426701 -4.6689448 -7.1904302 7
-0.288616 -4.6972661 -7.1943359 7
-0.29297999 -4.7258301 -7.1982422 7
-0.29015699 -4.7406011 -7.1767578 7
-0.298832 -4.7774658 -7.195312 7
-0.29887801 -4.797729 -7.1845698 7
-0.29683301 -4.507935 -6.8974609 7
-0.28347 -4.5030522 -6.842773 7
-0.28799799 -4.5307622 -6.8466802 7
-0.28953901 -4.552979 -6.8408198 7
-0.29555899 -4.5834961 -6.8496089 7
-0.28518701 -4.5837402 -6.804688 7
-0.28523999 -4.6031489 -6.7939448 7
-0.29124799 -4.6335449 -6.8017578 7
-0.295773 -4.661377 -6.8056641 7
-0.286888 -4.6638179 -6.764648 7
-0.286957 -4.6829829 -6.7529302 7
-0.28849801 -4.7052002 -6.7470698 7
-0.29748201 -4.7416992 -6.764648 7
-0.303509 -4.7722168 -6.773438 7
-0.30355501 -4.791626 -6.7626948 7
-0.39292899 -6.3486328 -6.0419922 7
-0.38851899 -6.355103 -6.014648 7
-0.39007601 -6.3760991 -6.0039058 7
-0.282722 -4.489624 -6.4599609 7
-0.27969399 -4.502563 -6.4394531 7
-0.28130299 -4.5239258 -6.4335942 7
-0.29059201 -4.5594478 -6.452148 7
-0.29064599 -4.5780029 -6.4414058 7
-0.29071 -4.596313 -6.4287109 7
-0.286156 -4.6062012 -6.4033198 7
-0.286201 -4.6246338 -6.3925781 7
-0.28471401 -4.6403809 -6.3769531 7
-0.28784201 -4.6643071 -6.375 7
-0.29098499 -4.6887212 -6.374023 7
-0.28640699 -4.6982422 -6.3476558 7
-0.29107699 -4.7253418 -6.351562 7
-0.28958899 -4.7407231 -6.335938 7
-0.295818 -4.7709961 -6.342773 7
-0.399223 -6.4024658 -5.5527339 7
-0.39774299 -6.4150391 -5.5341802 7
-0.39781201 -6.431396 -5.5185552 7
-0.397881 -6.4476318 -5.5029302 7
-0.39793399 -6.4641109 -5.4882808 7
-0.39798 -6.4802251 -5.4726558 7
-0.39804801 -6.49646 -5.4570308 7
-0.40119901 -6.5205078 -5.4492192 7
-0.40589899 -6.5483398 -5.4462891 7
-0.41370001 -6.584106 -5.4501948 7
-0.281082 -4.5031738 -6.0283198 7
-0.28753701 -4.5324712 -6.0371089 7
-0.28760499 -4.5500488 -6.0244141 7
-0.29411301 -4.5969238 -6.0224609 7
-0.28775001 -4.6025391 -5.992188 7
-0.289406 -4.6230469 -5.9863281 7
-0.28465301 -4.6315918 -5.9619141 7
-0.28472099 -4.6488042 -5.9501948 7
-0.28474399 -4.6662598 -5.9394531 7
-0.28640699 -4.686646 -5.9326172 7
-0.28649899 -4.7211909 -5.9101558 7
-0.28816199 -4.7415771 -5.9042969 7
-0.28500399 -4.752686 -5.882812 7
-0.28987101 -4.7790532 -5.8867192 7
-0.380642 -6.2293701 -5.1142578 7
-0.383968 -6.2677002 -5.092773 7
-0.38242701 -6.2791748 -5.0732422 7
-0.388897 -6.3103032 -5.0742192 7
-0.39062899 -6.3448491 -5.0488281 7
-0.38747001 -6.3520508 -5.0263672 7
-0.37950501 -6.3474121 -4.9912109 7
-0.381237 -6.3814702 -4.9638672 7
-0.27945301 -4.4935298 -5.632812 7
-0.28781101 -4.5253911 -5.6455078 7
-0.27956 -4.5267329 -5.6113281 7
-0.28458399 -4.5524902 -5.6152339 7
-0.29127499 -4.5814209 -5.6230469 7
-0.29631001 -4.6072998 -5.625 7
-0.29138201 -4.614502 -5.6005859 7
-0.276501 -4.6031489 -5.547852 7
-0.283176 -4.631958 -5.5556641 7
-0.28156701 -4.6453862 -5.5400391 7
-0.27994901 -4.6585689 -5.5244141 7
-0.28166601 -4.6781011 -5.5175781 7
-0.28006399 -4.6911621 -5.5019531 7
-0.28839901 -4.7235112 -5.514648 7
-0.288452 -4.7397461 -5.5029302 7
-0.28186399 -4.7432861 -5.4726558 7
-0.290207 -4.7755132 -5.484375 7
-0.293587 -4.7982178 -5.4824219 7
-0.281452 -4.4871831 -5.2705078 7
-0.27289999 -4.4873052 -5.2373052 7
-0.28157401 -4.5186772 -5.2480469 7
-0.28162 -4.5341802 -5.2373052 7
-0.285099 -4.5562739 -5.2363281 7
-0.28342101 -4.5688481 -5.2207031 7
-0.28348199 -4.5844731 -5.2089839 7
-0.29211399 -4.6160889 -5.2216802 7
-0.29216799 -4.6317139 -5.2099609 7
-0.28190199 -4.6279302 -5.172852 7
-0.283672 -4.6468511 -5.1650391 7
-0.280285 -4.6556401 -5.1455078 7
-0.283764 -4.6776118 -5.1445308 7
-0.28380999 -4.6931152 -5.132812 7
-0.28730401 -4.71521 -5.1298828 7
-0.280476 -4.7174072 -5.1005859 7
-0.28911999 -4.7492681 -5.1123052 7
-0.284008 -4.7546391 -5.0878911 7
-0.290943 -4.7833252 -5.09375 7
-0.32222 -5.1022949 7.6425781 7
-0.329182 -5.101562 7.671875 7
-0.32223499 -5.0725098 7.6689448 7
-0.320503 -5.0541992 7.6757808 7
-0.31354499 -5.0253911 7.6699219 7
-0.311813 -5.006958 7.6777339 7
-0.30835 -4.9851069 7.6816411 7
-0.306602 -4.9666748 7.688477 7
-0.306602 -4.9517822 7.7001948 7
-0.30660999 -4.9368901 7.7119141 7
-0.304878 -4.9185791 7.719727 7
-0.30314299 -4.9000239 7.726562 7
-0.310112 -4.8989258 7.7558589 7
-0.31707799 -4.8974609 7.7851558 7
-0.306633 -4.861938 7.7705078 7
-0.29620001 -4.8265381 7.7548828 7
-0.304901 -4.8282471 7.789062 7
-0.30316201 -4.809937 7.795898 7
-0.10899 4.1647949 7.561523 7
-0.115864 4.191772 7.570312 7
-0.115826 4.2064209 7.5605469 7
-0.120949 4.2304692 7.563477 7
-0.11227 4.229126 7.53125 7
-0.100086 4.2210689 7.4892578 7
-0.096596003 4.229126 7.4707031 7
-0.094810002 4.2401118 7.4560552 7
-0.093039997 4.2512212 7.4414058 7
-0.092995003 4.2653809 7.4316411 7
-0.094681002 4.282959 7.4257808 7
-0.094635002 4.2971191 7.4150391 7
-0.091118 4.304688 7.3964839 7
-0.091080002 4.3187261 7.3857422 7
-0.094489999 4.339478 7.3847661 7
-0.092720002 4.3504639 7.3701172 7
-0.092666999 4.3643799 7.359375 7
-0.104733 4.4016109 7.3808589 7
-0.106419 4.419312 7.375 7
-0.108105 4.436646 7.3691411 7
-0.111523 4.457397 7.3681641 7
-0.113213 4.474854 7.3613281 7
-0.27578399 -4.4931641 -4.8867192 7
-0.279392 -4.5145259 -4.8847661 7
-0.275875 -4.5228271 -4.8652339 7
-0.28304699 -4.5507808 -4.8730469 7
-0.286663 -4.572144 -4.8691411 7
-0.28314599 -4.5802002 -4.8496089 7
-0.295647 -4.6182861 -4.8701172 7
-0.295692 -4.6333008 -4.859375 7
-0.29396799 -4.6445308 -4.84375 7
-0.28867 -4.649292 -4.8193359 7
-0.286953 -4.660645 -4.8037109 7
-0.286991 -4.675293 -4.7929692 7
-0.283474 -4.683228 -4.773438 7
-0.287067 -4.7044678 -4.7705078 7
-0.29068401 -4.7259521 -4.7675781 7
-0.28539699 -4.7302251 -4.7441411 7
-0.28900501 -4.7515869 -4.7412109 7
-0.289051 -4.7661128 -4.7304692 7
-0.29622301 -4.794312 -4.7363281 7
-0.31871399 -4.9545898 7.3769531 7
-0.31512499 -4.9333501 7.3798828 7
-0.31153101 -4.9121089 7.382812 7
-0.31514701 -4.9050288 7.4042969 7
-0.32054499 -4.9014888 7.4277339 7
-0.32595399 -4.8977051 7.452148 7
-0.320553 -4.8729248 7.4511719 7
-0.31336999 -4.8444819 7.445312 7
-0.31338501 -4.8303218 7.4570308 7
-0.318775 -4.826416 7.4814448 7
-0.095013 -1.907227 8.2216797 7
-0.091393001 -1.888062 8.2148438 7
-0.093181998 -1.873413 8.2246094 7
-0.091376998 -1.855713 8.2236328 7
-0.087769002 -1.83667 8.2177734 7
-0.100353 -1.830811 8.2587891 7
-0.089546002 -1.80603 8.2314453 7
-0.087738 -1.78833 8.2304688 7
-0.091316 -1.775146 8.2451172 7
-0.073302999 -1.744995 8.1953115 7
-0.080504999 -1.734497 8.2216797 7
-0.078681998 -1.7169189 8.2197266 7
-0.082259998 -1.703491 8.234375 7
-0.082253002 -1.687256 8.2392578 7
-0.078629002 -1.668457 8.2324219 7
-0.080413997 -1.653564 8.2412109 7
-0.075005002 -1.633667 8.2294922 7
-0.073204003 -1.616089 8.2285156 7
-0.057789002 1.015747 8.3115234 7
-0.057735 1.048218 8.3066406 7
-0.059512999 1.06543 8.3095703 7
-0.055874001 1.0799561 8.2958984 7
-0.055851001 1.096069 8.2929688 7
-0.055798002 1.128906 8.2890615 7
-0.059344999 1.146973 8.2958984 7
-0.055729002 1.161377 8.2832031 7
-0.057507001 1.1787111 8.2871094 7
-0.052081998 1.192017 8.2675781 7
-0.057429999 1.21106 8.28125 7
-0.041244999 1.218384 8.2285156 7
-0.046597 1.2375489 8.2421885 7
-0.068122998 1.265869 8.3056641 7
-0.057323001 1.276001 8.2695312 7
-0.105831 4.1624761 7.2285161 7
-0.112942 4.1893311 7.2363281 7
-0.116478 4.2097168 7.235352 7
-0.13792001 4.262939 7.2792969 7
-0.121765 4.2469478 7.2285161 7
-0.109188 4.2376709 7.1875 7
-0.103771 4.241333 7.164062 7
-0.098347001 4.2449951 7.140625 7
-0.100079 4.2617192 7.1347661 7
-0.094677001 4.2652588 7.1123052 7
-0.094639003 4.278687 7.1025391 7
-0.094600998 4.2921138 7.0917969 7
-0.094563 4.3054199 7.0820308 7
-0.099887997 4.328979 7.0849609 7
-0.094462998 4.3321528 7.061523 7
-0.098003 4.3522949 7.0595698 7
-0.092579 4.3553472 7.0361328 7
-0.094325997 4.3720698 7.030273 7
-0.097874001 4.392334 7.0292969 7
-0.104992 4.419312 7.0361328 7
-0.099583 4.4221191 7.0126948 7
-0.1031 4.4423828 7.0107422 7
-0.115585 4.47998 7.030273 7
-0.104801 4.47229 6.9941411 7
-0.123528 4.188518 7.563242 7
-0.113787 4.2901111 7.353138 7
-0.31250399 -5.049931 7.7693248 7
-0.30631399 -4.8494482 7.9450278 7
-0.11863 4.1615572 6.985961 7
-0.105627 4.2217522 6.7716432 7
-0.075328 -1.809444 8.0702944 7
-0.068054996 -1.62293 8.1001577 7
-0.045108002 1.027678 8.1522427 7
-0.045626 1.199857 8.111742 7
-0.103313 -1.8233989 7.6878691 7
-0.092864998 -1.646452 7.7091212 7
-0.086677998 -1.866969 7.3356452 7
-0.077036001 -1.670053 7.3832169 7
-0.080472998 -1.888357 7.0727849 7
-0.065155998 -1.723871 7.0849662 7
-0.063400999 -1.875298 6.791162 7
-0.064231001 -1.759526 6.8675628 7
-0.049387999 -1.606665 6.8796291 7
-0.098948002 -1.899586 6.5921841 7
-0.082773998 -1.753437 6.6136508 7
-0.069358997 -1.614953 6.6370311 7
-0.072897002 -1.758357 6.4043388 7
-0.055938002 -1.62027 6.4201522 7
-0.0059910002 -1.310389 -8.489501 7
-0.0093179997 -1.276906 -7.213923 7
-0.265596 -4.4949012 -7.3347578 7
0.029352 -1.557831 -4.8829098 7
-0.353881 -6.2879939 -5.8170981 7
-0.049807001 -1.5095921 -4.2016249 7
-0.31012499 -4.7849422 -4.70297 7
-0.0082660001 -1.454987 -3.3870959 7
-0.28009999 -4.7231059 -3.797441 7
-0.26541999 -4.6953688 -3.0886011 7
-0.25521499 -4.6720161 -2.4838209 7
-0.36195499 -6.4346719 -1.406744 7
-0.317325 -4.6497211 -1.9592201 7
-0.32251701 -4.9293432 7.84196 7
-0.30438599 -4.8565698 7.390861 7
-0.095218003 -1.8036799 8.1379833 7
-0.267883 -4.6701298 -0.79718697 7
-0.29248399 -4.944519 6.8293381 7
-0.29545999 -4.8068051 7.0074892 7
-0.067700997 -1.746097 7.782866 7
-0.25595701 -4.7493 -0.247189 7
-0.33003899 -4.8484302 6.4582062 7
-0.099025004 -1.874981 7.457438 7
-0.087024003 -1.692421 7.4576502 7
-0.035595998 -1.452078 -0.83182001 7
-0.29076499 -4.5298748 -0.044280998 7
-0.30469099 -4.692945 0.081688002 7
-0.077169999 -1.821383 7.1964679 7
-0.066532001 -1.6507061 7.2003188 7
-0.045263998 -1.598731 -0.65755302 7
-0.283595 -4.596838 0.41612101 7
-0.28972101 -4.7196212 0.56362498 7
-0.29656199 -4.8936691 5.460279 7
-0.30621901 -4.804893 5.6823158 7
-0.066841997 -1.780351 6.997334 7
-0.060709 -1.620713 7.0164461 7
-0.27752101 -4.722641 1.008994 7
-0.29590401 -4.974587 4.8853331 7
-0.28509501 -4.8711681 5.036006 7
-0.072979003 -1.90254 6.8244548 7
-0.055580001 -1.7417589 6.8098798 7
-0.30461499 -4.5263309 1.125913 7
-0.315698 -4.63483 1.2628011 7
-0.307313 -4.6828952 1.432422 7
-0.302284 -4.7334008 1.598029 7
-0.29889801 -4.7818341 1.762585 7
-0.31669199 -4.9147668 4.309639 7
-0.31098601 -4.849864 4.4674439 7
-0.077491999 -1.839636 6.5744429 7
-0.069597997 -1.696072 6.5907249 7
-0.286331 -4.4957118 1.5244271 7
-0.29006299 -4.5681219 1.670734 7
-0.28816801 -4.6187849 1.826275 7
-0.28801501 -4.6681242 1.981419 7
-0.28637001 -4.7167878 2.178699 7
-0.27856699 -4.7294922 2.342268 7
-0.27983099 -4.7624798 2.499552 7
-0.27356699 -4.793839 2.9793899 7
-0.272441 -4.7946248 3.1387479 7
-0.27950901 -4.77036 3.775002 7
-0.28145099 -4.7492571 3.9333639 7
-0.296168 -4.759356 4.0995679 7
-0.063381001 -1.799111 6.4119792 7
-0.053692002 -1.6613131 6.4213071 7
-0.261839 -4.5119839 2.197397 7
-0.25787699 -4.544117 2.38697 7
-0.26471001 -4.5916519 2.5331919 7
-0.26175901 -4.6314092 2.9905269 7
-0.26620299 -4.6484489 3.142596 7
-0.27505499 -4.6505041 3.6026881 7
-0.26570299 -4.6037388 3.7513101 7
-0.26956001 -4.5891271 3.903693 7
-0.27138001 -4.5627079 4.054534 7
-0.021298001 4.6315069 -10.618929 7
-0.120597 4.2381201 7.2172999 7
-0.146476 4.4620471 7.1467052 7
-0.053684998 1.069986 8.3169098 7
-0.122916 4.2264848 6.881515 7
-0.041749001 -1.149212 -15.749062 7
-0.026888 4.8667111 -14.891602 7
-0.096028 4.6823392 -10.45617 7
-0.151234 4.6826949 -11.516602 7
-0.040890999 -1.34574 -7.6442151 7
-0.064098999 4.544127 -6.8182268 7
-0.031640999 -1.397541 -6.7098451 7
-0.064993002 -1.400985 -5.8748989 7
-0.30193499 -4.5502911 -6.944417 7
-0.401701 -6.367445 -6.8125591 7
-0.0038409999 1.4567159 -5.2609658 7
-0.010352 1.298197 -5.3671422 7
-0.048656002 -1.412704 -5.2717061 7
-0.287608 -4.512866 -5.9977908 7
-0.271853 -4.6365252 -5.7298698 7
-0.077090003 4.5684209 -3.207942 7
-0.085156001 4.4839468 -3.459466 7
-0.083352998 4.3412452 -3.621402 7
-0.036956001 -1.423407 -4.796587 7
-0.261399 -4.5539999 -4.9494781 7
-0.252276 -4.7177868 -4.6841059 7
-0.025023 -1.42298 -4.3875809 7
-0.036405001 -1.597744 -4.4071641 7
-0.234905 -4.6696162 -3.805609 7
-0.32322499 -6.4591341 -1.512589 7
-0.32665601 -6.581532 -0.96767902 7
-0.38410699 -6.4477229 -1.24026 7
-0.045256 -1.2839 -4.0702839 7
-0.048528001 -1.417364 -4.038651 7
-0.062711999 -1.583566 -4.06178 7
-0.266601 -4.525393 -3.0158801 7
-0.032986 -1.2878 -3.7744341 7
-0.040456999 -1.420897 -3.7625611 7
-0.057569999 -1.58491 -3.7934861 7
-0.25271699 -4.7260919 -0.81921297 7
-0.022582 -1.2889121 -3.519778 7
-0.030556999 -1.413105 -3.5068951 7
-0.049787998 -1.57328 -3.5405159 7
-0.018583 -1.3009551 -3.319705 7
-0.023762001 -1.408972 -3.2908421 7
-0.043055002 -1.5605789 -3.3173139 7
-0.033243999 -1.557945 -0.92385501 7
-0.030009 -1.541029 -0.86002803 7
-0.018774001 -1.459168 -0.93818802 7
-0.026416 -1.475642 -0.872217 7
-0.032115001 -1.399552 -0.94642198 7
-0.022999 -1.367481 -0.892331 7
-0.017785 -1.344118 -0.83803099 7
-0.020981999 -1.323555 -0.95744997 7
-0.017650001 -1.308285 -0.90340501 7
