# .PCD v0.7 - Point Cloud Data file format
VERSION 0.7
FIELDS x y z intensity
SIZE 4 4 4 4
TYPE F F F F
COUNT 1 1 1 1
WIDTH 897
HEIGHT 1
VIEWPOINT 0 0 0 1 0 0 0
POINTS 897
DATA ascii
0.0076179998 4.848022 -72.618164 7
0.039145999 4.604248 -71.548828 7
0.000332 4.5108638 -72.874023 7
0.112186 4.412354 -61.376953 7
0.025589 4.440918 -64.008789 7
-0.072375998 4.4797359 -66.986328 7
-0.81866097 -5.6578369 72.533203 7
-0.87730402 -5.5968022 73.939453 7
0.098846003 4.6298828 -54.939453 7
0.061427999 4.5765381 -55.958984 7
0.1087 4.341187 -54.686523 7
0.074271999 4.2773442 -55.624023 7
0.017426001 4.2532959 -57.168945 7
-0.70726401 -2.9103999 64.373047 7
-0.682091 -2.7373049 63.835938 7
-0.64575601 0.075438999 63.24707 7
0.087527998 4.4641109 -49.888672 7
0.039104 4.4421391 -51.082031 7
0.108437 4.177979 -49.389648 7
0.065228 4.1413569 -50.456055 7
0.023220001 4.0976558 -51.492188 7
0.10574 0.90417498 -49.368164 7
0.100262 0.78564501 -49.498047 7
-0.611507 -0.196289 57.310547 7
-0.60693699 -0.063598998 57.223633 7
-0.56753898 0.067626998 56.439453 7
-0.56412101 0.19787601 56.374023 7
-0.57532501 0.32946801 56.602539 7
-0.51262999 0.57775903 55.354492 7
0.085235998 4.490356 -45.098633 7
0.050487999 4.452271 -45.876953 7
0.011539 4.4189448 -46.749023 7
0.081459001 4.165771 -45.204102 7
0.043285001 4.1286621 -46.057617 7
0.001442 4.0942378 -46.994141 7
-0.53372198 0.182129 51.969727 7
-0.50287199 0.41699201 51.400391 7
-0.58898199 3.36853 52.977539 7
0.036509998 4.4481201 -42.447266 7
0.0071069999 4.4033198 -43.056641 7
-0.021183001 4.3531489 -43.643555 7
0.015686 4.1750488 -42.895508 7
0.0058940002 4.0880132 -43.104492 7
-0.033202998 4.0535889 -43.912109 7
0.052784 0.77636701 -42.157227 7
0.064919002 0.66906703 -41.907227 7
0.059898 0.56774902 -42.007812 7
-0.109417 -3.177124 -41.12207 7
-0.076237001 -3.2303469 -40.496094 7
-0.503582 -2.6600339 47.205078 7
-0.52571899 -2.5726321 47.591797 7
-0.418892 0.58264202 45.912109 7
-0.52384901 3.464355 47.688477 7
-0.47863799 3.5145259 46.911133 7
-0.45251799 3.5869141 46.458984 7
-0.42335501 3.653198 45.956055 7
0.425762 22.306152 22.986328 7
0.42695999 22.344604 22.921875 7
0.42782199 22.387085 22.860352 7
0.017677 4.568481 -38.878906 7
-0.003941 4.5172119 -39.290039 7
-0.025867 4.4647222 -39.707031 7
-0.046859998 4.4080811 -40.108398 7
-0.076278999 4.3662109 -40.665039 7
0.085403003 0.89111298 -37.780273 7
0.079659 0.80017102 -37.886719 7
0.044842001 0.71862799 -38.537109 7
0.092372999 0.238647 -37.642578 7
0.067867003 0.147705 -38.098633 7
0.092129 0.053222999 -37.643555 7
0.076439001 -0.040894002 -34.853516 7
0.084987998 -0.211914 -34.700195 7
-0.102711 -3.385864 -37.686523 7
-0.078677997 -3.4416499 -37.265625 7
-0.47286999 -2.641479 43.448242 7
-0.48747599 -2.55603 43.6875 7
-0.50799602 -2.474854 44.020508 7
-0.38693601 0.438232 42.261719 7
-0.44440499 3.519043 43.104492 7
0.011032 4.6705322 -35.818359 7
-0.03545 4.5892329 -36.635742 7
-0.075843997 4.4884028 -37.348633 7
-0.094867997 4.433228 -37.683594 7
0.079020999 1.169556 -34.850586 7
0.081965998 1.081787 -34.801758 7
0.035236001 0.133423 -35.566406 7
0.038162 -0.033691 -32.455078 7
0.042488001 -0.114136 -32.384766 7
0.072692998 -0.19152801 -31.90625 7
0.041901 -0.27465799 -32.389648 7
0.066924997 -0.35070801 -31.992188 7
-0.155228 -3.4359131 -35.236328 7
-0.136429 -3.494019 -34.930664 7
-0.104393 -3.61499 -34.408203 7
-0.40397999 -2.552979 39.182617 7
-0.43342999 -2.4915769 39.620117 7
-0.446087 -2.41272 39.8125 7
-0.47433099 -2.346802 40.231445 7
-0.36867499 0.40148899 38.8125 7
-0.371593 0.57946801 38.856445 7
-0.464039 3.5471189 40.143555 7
-0.437233 3.6021731 39.746094 7
-0.408436 3.65271 39.318359 7
-0.37764701 3.6982419 38.862305 7
-0.41012201 3.8353269 39.330078 7
0.034672 4.7947998 -32.258789 7
0.027233001 4.7310791 -32.386719 7
0.0057720002 4.6968989 -32.733398 7
-0.015312 4.6602778 -33.074219 7
-0.044509999 4.6390381 -33.543945 7
-0.065600999 4.5987549 -33.884766 7
-0.085235998 4.5541992 -34.202148 7
0.098366 1.375366 -31.504883 7
0.068718001 1.31543 -31.974609 7
0.091514997 1.222778 -31.615234 7
0.076283 1.15271 -31.857422 7
0.045527998 1.089111 -32.345703 7
0.032017 -0.33557099 -30.301758 7
0.055706002 -0.40625 -29.950195 7
0.028599 -0.48644999 -30.345703 7
0.041175999 -0.55847198 -30.158203 7
0.058506001 -0.62792999 -29.899414 7
-0.172344 -3.5593259 -33.044922 7
-0.173298 -3.6420901 -33.046875 7
-0.157951 -3.6993411 -32.811523 7
-0.39101401 -2.4680181 36.683594 7
-0.40794 -2.4000239 36.922852 7
-0.36511201 0.46008301 36.488281 7
-0.33228299 0.53601098 36.037109 7
-0.34491301 0.62133801 36.211914 7
-0.445923 3.6490481 37.489258 7
-0.397461 3.6660161 36.818359 7
-0.36541399 3.786499 36.365234 7
0.017731 4.7397461 -30.249023 7
-0.000481 4.7036128 -30.527344 7
-0.014374 4.6569819 -30.739258 7
-0.036529999 4.6264648 -31.074219 7
-0.067772001 4.6131592 -31.542969 7
0.076606996 1.2244869 -29.652344 7
0.045685001 1.16748 -30.109375 7
0.021454001 -0.44909701 -28.061523 7
0.032474998 -0.51660198 -27.90918 7
0.056053001 -0.78637701 -27.575195 7
0.00038899999 4.9100342 -28.030273 7
0.0062870001 4.8269038 -27.960938 7
-0.0078349998 4.7878418 -28.163086 7
-0.023685001 4.7515869 -28.387695 7
-0.041645002 4.7186279 -28.640625 7
-0.071121 4.7087402 -29.049805 7
-0.064361997 4.622314 -28.96875 7
0.065609001 1.5487061 -27.452148 7
0.048454002 1.491943 -27.688477 7
0.072692998 1.406494 -27.360352 7
0.053413 1.350342 -27.625977 7
0.031132 1.2948 -27.932617 7
0.017284 -0.68298298 -26.160156 7
0.036919001 -0.74133301 -25.90625 7
0.01202 -0.81542999 -26.220703 7
0.012829 -0.880615 -26.207031 7
0.026024001 -0.940063 -26.036133 7
-0.030369001 4.912354 -26.404297 7
-0.023125 4.8299561 -26.324219 7
-0.038235001 4.796875 -26.526367 7
-0.050636001 4.7564702 -26.692383 7
-0.068493001 4.7269292 -26.928711 7
-0.084533997 4.692749 -27.140625 7
-0.077754997 4.6108398 -27.06543 7
0.047961999 1.5888669 -25.74707 7
0.052012999 1.521484 -25.699219 7
0.048206002 1.452026 -25.782227 7
0.027938999 1.400635 -26.041016 7
0.034247998 1.331665 -25.962891 7
0.0045929998 -0.820557 -24.333984 7
0.0091249999 -1.062134 -24.266602 7
0.017918 -1.118042 -24.158203 7
-0.019802 4.9044189 -24.217773 7
-0.024792001 4.854248 -24.285156 7
-0.046516001 4.778564 -24.560547 7
-0.063297004 4.7520752 -24.767578 7
-0.081534997 4.7277832 -24.991211 7
-0.076180004 4.6539311 -24.939453 7
-0.048705999 4.5351558 -24.62793 7
0.029758001 1.487671 -24.010742 7
0.030688999 1.426514 -24.001953 7
-0.0024679999 -0.99682599 -22.697266 7
0.010124 -1.047729 -22.555664 7
-0.018539 -1.118896 -22.868164 7
-0.010162 -1.171875 -22.771484 7
-0.0044439998 -1.22583 -22.704102 7
-0.037990998 4.9602051 -22.640625 7
-0.035934001 4.898315 -22.628906 7
-0.082957998 4.7679439 -23.183594 7
-0.090903997 4.7259521 -23.28125 7
0.022179 1.903564 -22.373047 7
0.021584 1.847412 -22.383789 7
0.030471999 1.783447 -22.288086 7
0.019347999 1.735962 -22.415039 7
0.035625 1.666748 -22.238281 7
0.032402001 1.612793 -22.277344 7
0.021263 1.564575 -22.404297 7
0.014355 1.512573 -22.483398 7
-0.0070000002 -0.98767102 -21.18457 7
-0.011616 -1.043213 -21.228516 7
-0.0037839999 -1.092773 -21.145508 7
-0.0083959997 -1.14856 -21.189453 7
-0.027718 -1.212769 -21.383789 7
-0.016514 -1.260254 -21.264648 7
-0.080596998 4.9450679 -21.461914 7
-0.086245999 4.90271 -21.53125 7
-0.086856999 4.8494868 -21.547852 7
-0.090274997 4.802124 -21.59375 7
0.016228 1.889282 -20.875977 7
0.026310001 1.827881 -20.775391 7
0.023998 1.776978 -20.802734 7
0.0064770002 1.738037 -20.988281 7
0.033440001 1.663818 -20.711914 7
0.026066 1.616699 -20.791016 7
-0.024707999 -0.98608398 -19.998047 7
-0.040428001 -1.044189 -20.146484 7
-0.026089 -1.0880131 -20.004883 7
-0.023166999 -1.136963 -19.972656 7
-0.045508999 -1.199707 -20.185547 7
-0.043198001 -1.249512 -20.15918 7
-0.039669 -1.29834 -20.121094 7
-0.036754999 -1.3475339 -20.088867 7
0.021957001 1.474365 -19.49707 7
-0.026222 -0.97399902 -18.698242 7
-0.026954999 -1.021729 -18.701172 7
-0.046879001 -1.0788569 -18.878906 7
-0.029663 -1.1181639 -18.71875 7
-0.023994001 -1.162842 -18.665039 7
-0.046482 -1.222412 -18.864258 7
-0.051701002 -1.273438 -18.907227 7
-0.042187002 -1.315796 -18.817383 7
-0.033950999 -1.358398 -18.738281 7
-0.059466999 4.9831538 -18.411133 7
-0.051212002 4.9177251 -18.349609 7
-0.058262002 4.8858638 -18.423828 7
-0.070395999 4.8649902 -18.542969 7
0.001835 1.583496 -18.37207 7
-0.0065120002 1.542236 -18.450195 7
0.0093769999 1.484009 -18.30957 7
0.022717001 1.428345 -18.19043 7
0.023952 1.380981 -18.182617 7
0.0034789999 1.3469239 -18.37207 7
0.0098040001 1.295898 -18.317383 7
0.023769001 1.240967 -18.191406 7
0.032660998 1.1893311 -18.113281 7
0.025593 1.146606 -18.180664 7
0.024891 1.100464 -18.188477 7
0.019726001 1.0562741 -18.237305 7
0.003544 1.1398931 -17.273438 7
0.015636001 1.089233 -17.171875 7
0.010181 1.0476069 -17.219727 7
-0.047782999 -1.344727 -16.634766 7
-0.047146 -1.3868411 -16.625 7
-0.041492 -1.425781 -16.575195 7
0.023150999 0.60778803 -16.054688 7
0.023815 0.56616199 -16.050781 7
0.023052 0.52465802 -16.058594 7
0.025088999 0.44104001 -16.042969 7
0.030769 0.39831501 -15.998047 7
0.040741 0.35546899 -15.916992 7
-0.052974999 -1.354004 -15.672852 7
-0.050755002 -1.392822 -15.652344 7
-0.047786999 -1.4312741 -15.625977 7
-0.099368997 4.7060552 -15.423828 7
0.013515 0.300659 -15.164062 7
0.0081599997 0.26208499 -15.205078 7
0.01189 0.219116 -15.25 7
0.018669 0.179077 -15.199219 7
0.026176 0.139404 -15.140625 7
0.027649 0.10022 -15.129883 7
0.023788 0.061156999 -15.15918 7
0.019928001 0.022095 -15.188477 7
-0.049065001 -1.391113 -14.693359 7
-0.049132999 -1.429199 -14.689453 7
-0.050018001 -1.467651 -14.691406 7
-0.102993 4.7172852 -14.436523 7
-0.09742 4.6679692 -14.408203 7
-0.02462 -0.96899402 -12.984375 7
-0.038890999 -1.009521 -13.074219 7
-0.041622002 -1.044922 -13.088867 7
-0.039012998 -1.077881 -13.069336 7
-0.032864001 -1.109009 -13.026367 7
-0.034694999 -1.144165 -13.035156 7
-0.048893001 -0.99841303 -12.448242 7
-0.044300001 -1.029053 -12.416992 7
-0.041576002 -1.060425 -12.396484 7
-0.028587 -1.086548 -12.314453 7
-0.029587001 -1.119507 -12.317383 7
-0.045483001 -1.160156 -12.412109 7
-0.040932 -1.2229 -12.376953 7
-0.045658 -1.2581789 -12.402344 7
-0.071834996 4.7879639 -11.746094 7
-0.070010997 4.7528081 -11.746094 7
-0.068157002 4.7174072 -11.74707 7
-0.068180002 4.6861572 -11.757812 7
-0.071902998 4.6624761 -11.791016 7
-0.075626001 4.6386719 -11.823242 7
-0.034203 -0.97351098 -11.673828 7
-0.035248 -1.004761 -11.677734 7
-0.036293 -1.036255 -11.680664 7
-0.039260998 -1.068604 -11.695312 7
-0.048122 -1.104004 -11.745117 7
-0.048183002 -1.13501 -11.741211 7
-0.038467001 -1.160889 -11.680664 7
-0.042435002 -1.19397 -11.701172 7
-0.041519001 -1.2244869 -11.692383 7
-0.040596001 -1.2548831 -11.683594 7
-0.043586999 -1.2874759 -11.698242 7
-0.049515001 -1.322021 -11.729492 7
-0.050560001 -1.3536381 -11.731445 7
-0.053539 -1.386353 -11.745117 7
-0.054584999 -1.418213 -11.748047 7
-0.058552001 -1.4519041 -11.767578 7
-0.060566001 -1.484131 -11.776367 7
-0.063548997 -1.5174561 -11.790039 7
-0.073726997 4.7912598 -11.010742 7
-0.067886002 4.7492681 -10.990234 7
-0.069858998 4.723877 -11.011719 7
-0.071811996 4.6982422 -11.03418 7
-0.073771998 4.672729 -11.055664 7
-0.075726002 4.6468511 -11.078125 7
-0.077685997 4.6210942 -11.099609 7
-0.083607003 4.483398 -11.185547 7
-0.045425002 -1.2900389 -11.118164 7
-0.048553001 -1.321533 -11.131836 7
-0.049628999 -1.351807 -11.134766 7
-0.062031001 -1.418823 -11.196289 7
-0.057991002 -1.445923 -11.170898 7
-0.059067 -1.476318 -11.172852 7
-0.061161 -1.5074461 -11.180664 7
-0.063281998 -1.538574 -11.1875 7
-0.27700001 -4.4863281 -11.700195 7
-0.27297199 -4.5098882 -11.666992 7
-0.27100399 -4.5369868 -11.645508 7
-0.27310899 -4.5716548 -11.646484 7
-0.273193 -4.6025391 -11.634766 7
-0.272232 -4.632935 -11.618164 7
-0.27641299 -4.6715088 -11.628906 7
-0.28468299 -4.7181401 -11.661133 7
-0.289886 -4.758667 -11.676758 7
-0.29304099 -4.7957759 -11.682617 7
-0.097976997 4.7967529 -10.512695 7
-0.103088 4.7789311 -10.550781 7
-0.103081 4.7503662 -10.5625 7
-0.097999997 4.7114258 -10.546875 7
-0.095985003 4.6787109 -10.546875 7
-0.094954997 4.6480708 -10.552734 7
-0.095985003 4.6217041 -10.568359 7
-0.103127 4.6075439 -10.618164 7
-0.104172 4.580811 -10.633789 7
-0.090930998 4.5256348 -10.575195 7
-0.08585 4.487061 -10.557617 7
-0.055466 -1.233032 -10.566406 7
-0.04163 -1.281494 -10.485352 7
-0.041691002 -1.30957 -10.482422 7
-0.046092998 -1.368408 -10.498047 7
-0.055907998 -1.459106 -10.540039 7
-0.26833001 -4.4875488 -10.936523 7
-0.27377701 -4.5266109 -10.953125 7
-0.27062601 -4.5499272 -10.926758 7
-0.268543 -4.5749512 -10.905273 7
-0.26975599 -4.6351318 -10.888672 7
-0.271992 -4.668335 -10.888672 7
-0.286064 -4.7242432 -10.947266 7
-0.286118 -4.753418 -10.935547 7
-0.29264799 -4.7950439 -10.956055 7
-0.28010899 -4.4824219 -10.395508 7
-0.279057 -4.5081792 -10.378906 7
-0.27349499 -4.5256348 -10.341797 7
-0.270206 -4.5471191 -10.314453 7
-0.27250299 -4.579102 -10.314453 7
-0.271458 -4.6046138 -10.298828 7
-0.27264801 -4.6343989 -10.292969 7
-0.28281 -4.6812739 -10.330078 7
-0.289635 -4.7219238 -10.350586 7
-0.28969601 -4.7496338 -10.338867 7
-0.293129 -4.7840581 -10.34375 7
-0.14246 -1.906128 12.900391 7
-0.14011 -1.877319 12.892578 7
-0.138943 -1.848999 12.893555 7
-0.13661601 -1.820068 12.885742 7
-0.133156 -1.790161 12.873047 7
-0.13427 -1.7637939 12.883789 7
-0.131943 -1.734985 12.875977 7
-0.13191999 -1.707642 12.879883 7
-0.055553 -1.283203 -9.5351562 7
-0.049747001 -1.305542 -9.5029297 7
-0.052127998 -1.332886 -9.5117188 7
-0.052181002 -1.358521 -9.5078115 7
-0.048733 -1.382324 -9.4873047 7
-0.068664998 -1.4206541 -9.5810547 7
-0.072227001 -1.448608 -9.59375 7
-0.065261997 -1.470093 -9.5566406 7
-0.064133003 -1.495239 -9.546875 7
-0.066513002 -1.522705 -9.5556641 7
-0.059574001 -1.5437011 -9.5166016 7
-0.071312003 -1.577759 -9.5703115 7
-0.057941001 -1.280151 -9.0810547 7
-0.051906999 -1.301392 -9.0498047 7
-0.054386001 -1.3273931 -9.0576172 7
-0.058086 -1.35437 -9.0722656 7
-0.054485001 -1.376953 -9.0507812 7
-0.056965001 -1.4030761 -9.0595703 7
-0.060658 -1.430298 -9.0732422 7
-0.069251999 -1.460693 -9.109375 7
-0.066853002 -1.4836431 -9.09375 7
-0.068130001 -1.5093991 -9.0957031 7
-0.070618004 -1.535767 -9.1035156 7
-0.077979997 -1.565796 -9.1328115 7
-0.074386999 -1.588135 -9.1123047 7
-0.090324 4.797729 -8.1240234 7
-0.083049998 4.7598882 -8.1044922 7
-0.080615997 4.7319341 -8.1054688 7
-0.076977 4.7019038 -8.1005859 7
-0.076977 4.6790771 -8.1123047 7
-0.073338002 4.6488042 -8.1074219 7
-0.074565999 4.62854 -8.1240234 7
-0.076984003 4.6108398 -8.1455078 7
-0.075770997 4.5854492 -8.1503906 7
-0.086692996 4.5847168 -8.2080078 7
-0.084278002 4.5570068 -8.2089844 7
-0.089134 4.5435791 -8.2402344 7
-0.049187001 -1.28833 -8.5634766 7
-0.035209998 -1.303589 -8.4990234 7
-0.039078001 -1.329224 -8.5117188 7
-0.039124001 -1.352661 -8.5087891 7
-0.044266 -1.379272 -8.5283203 7
-0.048119001 -1.405151 -8.5419922 7
-0.057087 -1.4343261 -8.578125 7
-0.062236998 -1.461182 -8.5966797 7
-0.049545001 -1.476562 -8.5371094 7
-0.049591001 -1.499756 -8.5322266 7
-0.054726001 -1.5271 -8.5517578 7
-0.058605 -1.553223 -8.5644531 7
-0.062465999 -1.579468 -8.578125 7
-0.284096 -4.556519 -8.6796885 7
-0.28159299 -4.5756841 -8.6591797 7
-0.294727 -4.7425542 -8.6445312 7
-0.39677799 -6.2663569 -8.2939453 7
-0.38790101 -6.2675781 -8.2451172 7
-0.38412499 -6.2810059 -8.2167969 7
-0.385483 -6.3067632 -8.2060547 7
-0.38683301 -6.3326421 -8.1962891 7
-0.38689399 -6.3554692 -8.1806641 7
-0.38951901 -6.3843989 -8.1748047 7
-0.086139999 4.7888179 -7.563477 7
-0.081065997 4.7565918 -7.554688 7
-0.064575002 4.7006841 -7.500977 7
-0.058219999 4.6662598 -7.4873052 7
-0.058228001 4.64502 -7.4980469 7
-0.060752999 4.6289058 -7.5195308 7
-0.060775999 4.607666 -7.530273 7
-0.060759999 4.5863042 -7.5400391 7
-0.060768001 4.5648189 -7.5517578 7
-0.065848999 4.553833 -7.5830078 7
-0.070914999 4.54248 -7.6142578 7
-0.082332999 4.5439448 -7.670898 7
-0.084872998 4.5273442 -7.6914058 7
-0.083607003 4.5030522 -7.6972661 7
-0.060977999 -1.28772 -8.2021484 7
-0.062336002 -1.3112791 -8.2050781 7
-0.050461002 -1.326782 -8.1513672 7
-0.050499 -1.349365 -8.1484385 7
-0.055847 -1.375244 -8.1669922 7
-0.054558001 -1.397217 -8.1591797 7
-0.062556997 -1.424561 -8.1884766 7
-0.077164002 -1.456787 -8.2470703 7
-0.083832003 -1.483765 -8.2724609 7
-0.067982003 -1.496094 -8.2011719 7
-0.068020001 -1.5187989 -8.1982422 7
-0.070712999 -1.543335 -8.2050781 7
-0.068118997 -1.564209 -8.1904297 7
-0.072131999 -1.589722 -8.2041016 7
-0.29433799 -4.4812012 -8.2685547 7
-0.29706201 -4.5089111 -8.2675781 7
-0.30110499 -4.539062 -8.2724609 7
-0.30382201 -4.566772 -8.2724609 7
-0.29989201 -4.582397 -8.2460938 7
-0.29462799 -4.5953369 -8.2148438 7
-0.29469699 -4.618042 -8.203125 7
-0.29475799 -4.6407471 -8.1923828 7
-0.30013701 -4.6732178 -8.2011719 7
-0.30019 -4.6960449 -8.1904297 7
-0.29891601 -4.716187 -8.1748047 7
-0.302959 -4.74646 -8.1787109 7
-0.31364799 -4.7895508 -8.2080078 7
-0.095965996 4.7979741 -7.132812 7
-0.085414998 4.7553711 -7.1044922 7
-0.076164 4.7156978 -7.0810552 7
-0.070885003 4.6845698 -7.0712891 7
-0.068245001 4.658813 -7.0732422 7
-0.072212003 4.646729 -7.0986328 7
-0.076149002 4.634644 -7.125977 7
-0.073517002 4.6087651 -7.125977 7
-0.072189003 4.5855708 -7.132812 7
-0.076149002 4.5732422 -7.1582031 7
-0.078789003 4.558228 -7.1787109 7
-0.088023998 4.5561519 -7.2246089 7
-0.097278997 4.5541992 -7.2705078 7
-0.094623998 4.527832 -7.2724609 7
-0.090672001 4.4993901 -7.2675781 7
-0.286026 -4.4963379 -7.7304692 7
-0.28331 -4.5128169 -7.7099609 7
-0.29306 -4.552124 -7.734375 7
-0.29312101 -4.57373 -7.7226558 7
-0.28903201 -4.5875239 -7.6962891 7
-0.28771201 -4.6064448 -7.6806641 7
-0.28776601 -4.6280522 -7.6699219 7
-0.28505701 -4.644165 -7.648438 7
-0.28926101 -4.6734619 -7.6523442 7
-0.290703 -4.6975098 -7.6464839 7
-0.29351801 -4.7241211 -7.6455078 7
-0.29911 -4.756104 -7.6542969 7
-0.30608001 -4.790771 -7.6679692 7
-0.386902 -6.0904541 -7.2402339 7
-0.38974801 -6.1174321 -7.235352 7
-0.39118999 -6.1409912 -7.2246089 7
-0.39679 -6.1748052 -7.2285161 7
-0.39684299 -6.1950679 -7.2148442 7
-0.39691201 -6.2155762 -7.2001948 7
-0.40251899 -6.249023 -7.203125 7
-0.40258801 -6.2695308 -7.188477 7
-0.40404499 -6.2932129 -7.1777339 7
-0.40132901 -6.3068848 -7.1533198 7
-0.394463 -6.3100591 -7.1162109 7
-0.395973 -6.3537598 -7.0917969 7
-0.38913301 -6.3565669 -7.0517578 7
-0.39611101 -6.3936772 -7.0595698 7
-0.089794002 4.6236572 -6.7294922 7
-0.091167003 4.6069341 -6.7451172 7
-0.089786999 4.5848389 -6.7519531 7
-0.08704 4.559814 -6.7529302 7
-0.087031998 4.5402832 -6.7626948 7
-0.085662998 4.5179439 -6.7695308 7
-0.088405997 4.5039058 -6.7900391 7
-0.29252601 -4.500977 -7.3193359 7
-0.29258001 -4.521729 -7.3085942 7
-0.291206 -4.5396729 -7.2929692 7
-0.29844701 -4.5732422 -7.3066411 7
-0.294182 -4.585938 -7.28125 7
-0.29138201 -4.6013179 -7.2597661 7
-0.28999299 -4.618896 -7.2441411 7
-0.29148099 -4.6420898 -7.2373052 7
-0.295845 -4.6705322 -7.242188 7
-0.29447901 -4.6882319 -7.2255859 7
-0.30026999 -4.719604 -7.234375 7
-0.29745501 -4.7344971 -7.2128911 7
-0.30611399 -4.7713618 -7.2314448 7
-0.30760199 -4.7945561 -7.2246089 7
-0.29848501 -4.4916992 -6.9130859 7
-0.2911 -4.4978032 -6.8769531 7
-0.29413599 -4.5228271 -6.875977 7
-0.303123 -4.5585942 -6.8955078 7
-0.30169699 -4.575562 -6.8798828 7
-0.29428101 -4.5814209 -6.84375 7
-0.28988299 -4.5925288 -6.8183589 7
-0.29142401 -4.614624 -6.811523 7
-0.300423 -4.6508789 -6.8300781 7
-0.29897299 -4.6673579 -6.8144531 7
-0.29457101 -4.6784668 -6.789062 7
-0.299095 -4.7062988 -6.7929692 7
-0.303619 -4.7341309 -6.795898 7
-0.30217001 -4.7507319 -6.7792969 7
-0.30670199 -4.778687 -6.7832031 7
-0.293621 -4.4909668 -6.5029302 7
-0.295212 -4.5125728 -6.4980469 7
-0.29064599 -4.5228271 -6.4716802 7
-0.29378101 -4.5469971 -6.4716802 7
-0.30000299 -4.5770259 -6.4794922 7
-0.296967 -4.5899658 -6.4589839 7
-0.29856101 -4.6113281 -6.453125 7
-0.292431 -4.6184082 -6.422852 7
-0.297115 -4.6455078 -6.4267578 7
-0.29255301 -4.655396 -6.4003911 7
-0.29414001 -4.6767578 -6.3945308 7
-0.29265201 -4.6922612 -6.3789058 7
-0.28962299 -4.7045898 -6.3574219 7
-0.29121 -4.7260742 -6.351562 7
-0.29589501 -4.7532959 -6.3544922 7
-0.30983701 -4.7982178 -6.3867192 7
-0.282787 -4.4890141 -6.0429692 7
-0.289249 -4.5185552 -6.0517578 7
-0.28929499 -4.5361328 -6.0410161 7
-0.29255301 -4.5594478 -6.039062 7
-0.29259899 -4.5769038 -6.0283198 7
-0.295849 -4.6005859 -6.0273442 7
-0.28948599 -4.6063228 -5.9980469 7
-0.29433799 -4.6325679 -6.000977 7
-0.28958499 -4.6411128 -5.9755859 7
-0.28805199 -4.6555181 -5.9599609 7
-0.29290399 -4.6818848 -5.9628911 7
-0.286549 -4.6872559 -5.9335942 7
-0.29300299 -4.7167969 -5.9404302 7
-0.28825799 -4.724854 -5.9150391 7
-0.289906 -4.7452388 -5.9082031 7
-0.28995901 -4.7624512 -5.8964839 7
-0.298031 -4.795166 -5.9082031 7
-0.38240799 -6.249023 -5.1005859 7
-0.390488 -6.283813 -5.1064448 7
-0.39375299 -6.307251 -5.0996089 7
-0.39540899 -6.3265381 -5.0898442 7
-0.39546999 -6.3417969 -5.0751948 7
-0.39712101 -6.3612061 -5.0644531 7
-0.387566 -6.3526611 -5.023438 7
-0.39083901 -6.3757319 -5.016602 7
-0.38607001 -6.3790278 -4.9902339 7
-0.38613099 -6.3939209 -4.9746089 7
-0.39420301 -6.4290771 -4.9794922 7
-0.39587399 -6.4482422 -4.967773 7
-0.39592001 -6.4632568 -4.953125 7
-0.39117399 -6.466187 -4.9248052 7
-0.38801599 -6.4728999 -4.9023442 7
-0.39930701 -6.5163569 -4.914062 7
-0.40418601 -6.543335 -4.9111328 7
-0.41066399 -6.574585 -4.9111328 7
-0.42034501 -6.61377 -4.9189448 7
-0.42039901 -6.6286621 -4.9033198 7
-0.42367601 -6.651855 -4.8945308 7
-0.425331 -6.6707759 -4.882812 7
-0.42537701 -6.6856689 -4.867188 7
-0.42546099 -6.7003169 -4.8496089 7
-0.419094 -6.69873 -4.8193359 7
-0.287884 -4.4925542 -5.6679692 7
-0.28959301 -4.5123291 -5.6621089 7
-0.29960999 -4.5472412 -5.6787109 7
-0.284706 -4.536499 -5.625977 7
-0.29307199 -4.5683589 -5.6376948 7
-0.289799 -4.5788569 -5.6181641 7
-0.294819 -4.6046138 -5.6210942 7
-0.29320899 -4.618042 -5.6054692 7
-0.28498101 -4.6191411 -5.570312 7
-0.29332399 -4.6512451 -5.5820308 7
-0.293385 -4.667603 -5.5712891 7
-0.288445 -4.6748052 -5.546875 7
-0.28683501 -4.6881099 -5.53125 7
-0.29352999 -4.717041 -5.5380859 7
-0.290245 -4.7271729 -5.5185552 7
-0.28698 -4.736938 -5.4970698 7
-0.292023 -4.762939 -5.5 7
-0.29870999 -4.7919922 -5.5068359 7
-0.31631899 -5.0976558 8.0097656 7
-0.328098 -5.105957 8.0537109 7
-0.32138401 -5.0765381 8.0478516 7
-0.306229 -5.030273 8.0185547 7
-0.29783601 -4.9975591 8.0087891 7
-0.301193 -4.988647 8.0292969 7
-0.30288699 -4.9763179 8.0458984 7
-0.30289501 -4.9606929 8.0576172 7
-0.29953799 -4.9381099 8.0615234 7
-0.30459601 -4.932373 8.0859385 7
-0.30626699 -4.9197998 8.1025391 7
-0.29953799 -4.8907471 8.0957031 7
-0.30291 -4.8814702 8.1162109 7
-0.30629 -4.8720698 8.1376953 7
-0.29956099 -4.842896 8.1308594 7
-0.29619601 -4.8205571 8.1328115 7
-0.29451001 -4.8013921 8.1396484 7
-0.304611 -4.80481 8.1787109 7
-0.28678101 -4.4970698 -5.2841802 7
-0.28168499 -4.50354 -5.2587891 7
-0.28172299 -4.519165 -5.2480469 7
-0.28176099 -4.5349121 -5.2363281 7
-0.28698 -4.5601811 -5.2402339 7
-0.28874201 -4.5788569 -5.234375 7
-0.297382 -4.6105962 -5.2460942 7
-0.297436 -4.6263428 -5.235352 7
-0.28889501 -4.625854 -5.2011719 7
-0.28893301 -4.6413569 -5.1904302 7
-0.288986 -4.6569819 -5.179688 7
-0.28904 -4.6726069 -5.1679692 7
-0.28391999 -4.6782231 -5.1425781 7
-0.28915399 -4.7034912 -5.1445308 7
-0.28919199 -4.7189941 -5.1347661 7
-0.29438001 -4.7443848 -5.1367192 7
-0.29615799 -4.763062 -5.1298828 7
-0.29449499 -4.775146 -5.1132808 7
-0.327122 -5.1104741 7.6513672 7
-0.32713699 -5.0957031 7.6630859 7
-0.31668499 -5.0595698 7.6494141 7
-0.32191101 -5.0554199 7.6738281 7
-0.31496799 -5.0266109 7.6689448 7
-0.306252 -4.9942632 7.6582031 7
-0.309742 -4.9863281 7.679688 7
-0.30454299 -4.9611821 7.6777339 7
-0.30278799 -4.942749 7.6845698 7
-0.308018 -4.9382319 7.7099609 7
-0.29930899 -4.9061279 7.6992192 7
-0.30455801 -4.9014888 7.7255859 7
-0.31676099 -4.9103999 7.7685552 7
-0.31500599 -4.8918462 7.7763672 7
-0.30631301 -4.8597412 7.765625 7
-0.304573 -4.8413091 7.7724609 7
-0.308056 -4.8330078 7.7919922 7
-0.299362 -4.8009028 7.78125 7
-0.308079 -4.8026118 7.8154302 7
-0.087687999 4.353394 7.3457031 7
-0.094566002 4.3807368 7.3535161 7
-0.104866 4.428833 7.359375 7
-0.28655201 -4.498291 -4.9238281 7
-0.284821 -4.5100098 -4.907227 7
-0.284859 -4.5247798 -4.8974609 7
-0.28670499 -4.5430908 -4.890625 7
-0.27963299 -4.5447998 -4.8613281 7
-0.29212999 -4.58252 -4.882812 7
-0.286827 -4.5875239 -4.858398 7
-0.297562 -4.6221919 -4.875 7
-0.302937 -4.6469731 -4.8769531 7
-0.304768 -4.6651611 -4.8701172 7
-0.28880301 -4.6497798 -4.8183589 7
-0.294182 -4.6746831 -4.8222661 7
-0.290672 -4.6824951 -4.8017578 7
-0.28716999 -4.6903081 -4.78125 7
-0.29432699 -4.7185059 -4.7880859 7
-0.28904 -4.723022 -4.7636719 7
-0.29264101 -4.7443848 -4.7607422 7
-0.29625699 -4.765625 -4.757812 7
-0.29808 -4.7835689 -4.750977 7
-0.296341 -4.7946782 -4.735352 7
-0.338074 -5.1186519 7.3105469 7
-0.330872 -5.0899658 7.3056641 7
-0.32547799 -5.065186 7.304688 7
-0.309277 -5.0184331 7.2783198 7
-0.31470099 -5.0152588 7.3037109 7
-0.32190299 -5.0158691 7.3320308 7
-0.318317 -4.994751 7.335938 7
-0.32191101 -4.987793 7.3554692 7
-0.318333 -4.9664311 7.359375 7
-0.31834 -4.952271 7.3710942 7
-0.318333 -4.9381099 7.382812 7
-0.31834 -4.9239502 7.3945308 7
-0.31115299 -4.8956299 7.389648 7
-0.32015601 -4.8990479 7.422852 7
-0.329155 -4.9023442 7.4570308 7
-0.31657001 -4.8634028 7.4375 7
-0.31297699 -4.8421631 7.4404302 7
-0.307583 -4.8173828 7.4394531 7
-0.307583 -4.8032231 7.4501948 7
-0.107826 4.164917 7.2324219 7
-0.122112 4.2047119 7.2587891 7
-0.114902 4.2053218 7.2304692 7
-0.11845 4.225708 7.2304692 7
-0.118389 4.2392578 7.219727 7
-0.109406 4.2366939 7.1875 7
-0.100418 4.2337651 7.155273 7
-0.096786 4.2406011 7.1367192 7
-0.094962999 4.2506099 7.1220698 7
-0.094925001 4.2641602 7.1123052 7
-0.091289997 4.2709961 7.092773 7
-0.091251001 4.2844238 7.0830078 7
-0.094779998 4.3044429 7.0820308 7
-0.094733998 4.3178711 7.0712891 7
-0.096473999 4.3347168 7.0654302 7
-0.096427999 4.348022 7.054688 7
-0.092818998 4.3544922 7.0361328 7
-0.090988003 4.3642578 7.0214839 7
-0.094512999 4.3843989 7.0195308 7
-0.094475001 4.397583 7.0087891 7
-0.090851001 4.4038091 6.9902339 7
-0.097961001 4.4309082 6.9970698 7
-0.112232 4.4720459 7.0214839 7
-0.089869998 4.456543 -4.1591802 7
-0.217934 -1.840353 12.949507 7
-0.111663 4.3520598 7.2581582 7
-0.29908699 -4.9409709 7.7697148 7
-0.092465997 4.2119761 6.6425781 7
-0.075841002 4.2352648 6.4189868 7
-0.28356299 -4.9823699 6.9018469 7
-0.28468901 -4.8538251 7.1047788 7
-0.31917399 -4.9034562 6.0905342 7
-0.32343301 -4.824142 6.2987399 7
-0.064747997 -1.849442 6.8148479 7
-0.051235002 -1.699791 6.836587 7
-0.051759001 -1.4509391 -8.9966497 7
-0.26557499 -4.5168791 -8.6405411 7
0.005899 -1.342057 -5.9927688 7
-0.26288 -4.6917472 -7.1916361 7
-0.39502901 -6.3603592 -7.4285889 7
0.018383 -1.307404 -5.0403199 7
-0.237142 -4.6628442 -5.875968 7
-0.066495001 -1.59561 -4.3037171 7
-0.31608701 -4.6461439 -4.843719 7
-0.045715 -1.542454 -3.6224921 7
-0.29552299 -4.6291461 -3.982496 7
-0.278597 -4.6093369 -3.2502241 7
-0.263237 -4.8060112 -2.428154 7
-0.31162 -4.7331548 -1.84785 7
-0.32681301 -4.8961248 7.9011688 7
-0.29343101 -4.6757898 -1.35302 7
-0.332701 -5.0657802 7.3495598 7
-0.32072601 -4.8632922 7.4867592 7
-0.276021 -4.6147971 -0.90784401 7
-0.27117199 -4.7567329 -0.72252297 7
-0.29346001 -4.9115009 6.8749542 7
-0.34398499 -5.1067991 6.1912212 7
-0.32428101 -4.9260111 6.318573 7
-0.33413801 -4.8278661 6.5098348 7
-0.295376 -4.6053162 0.023657 7
-0.29574999 -4.7267251 0.18579 7
-0.31608 -5.066267 5.6731882 7
-0.30689099 -4.936882 5.8257079 7
-0.30222899 -4.8157821 5.9816942 7
-0.022038 -1.347281 -0.619317 7
-0.28323901 -4.7506952 0.65887702 7
-0.28165701 -4.8033252 5.5155678 7
-0.060740001 -1.698608 6.9967618 7
-0.013792 -1.33041 -0.42823601 7
-0.029301001 -1.4891911 -0.455419 7
-0.27201101 -4.5728159 0.78131598 7
-0.282794 -4.6948771 0.91898698 7
-0.26736301 -4.733871 1.1074311 7
-0.274665 -4.8333678 1.258637 7
-0.26898199 -4.8574538 4.9322581 7
-0.055578001 -1.815172 6.7882771 7
-0.039811 -1.658011 6.7753901 7
-0.001662 -1.313687 -0.23782399 7
-0.020629 -1.465887 -0.27694201 7
-0.029262999 -1.579427 -0.28200901 7
0.0094309999 -1.298501 -0.064889997 7
-0.0066459998 -1.442044 -0.093443997 7
-0.015388 -1.549827 -0.099344 7
-0.29881099 -4.5499029 1.211736 7
-0.301036 -4.6302872 1.362949 7
-0.30487701 -4.7092371 1.514997 7
-0.327815 -4.9802318 4.1941562 7
-0.31151 -4.8878541 4.3461919 7
-0.29678199 -4.781786 4.5336261 7
-0.30699199 -4.754848 4.7029238 7
-0.294422 -4.7092152 2.0535131 7
-0.29226899 -4.7435551 2.2132931 7
-0.293632 -4.7818589 2.371346 7
-0.28837001 -4.627007 4.4806099 7
-0.27677301 -4.5402708 4.6191721 7
-0.27072099 -4.5168438 2.1151741 7
-0.27397299 -4.5647392 2.2623949 7
-0.28473401 -4.6282368 2.406599 7
-0.29155901 -4.67487 2.556515 7
-0.28882501 -4.688025 2.712853 7
-0.293567 -4.71668 2.866822 7
-0.265957 -4.4825912 2.5923741 7
-0.26690599 -4.5053282 2.739022 7
-0.091704004 4.759892 -14.949622 7
-0.051529001 4.607739 -11.144535 7
-0.146268 4.506968 -7.0256691 7
0.034751002 1.293542 -4.9338861 7
-0.032496002 1.566669 -4.0607352 7
-0.104846 4.228436 7.1213121 7
-0.094639003 4.338058 6.927197 7
-0.098323002 4.188015 6.7625632 7
-0.084091999 4.3029709 6.5259099 7
-0.042908002 4.7103872 -15.391124 7
-0.12659401 -1.392584 -11.72229 7
-0.112368 4.7109599 -10.7624 7
-0.166308 4.5610652 -11.838657 7
-0.082526997 -1.4300359 -9.338994 7
-0.061767001 -1.473038 -7.9015012 7
-0.28253099 -4.6101508 -10.074041 7
-0.078175999 4.5964379 -7.0080609 7
-0.107195 4.550674 -7.4785109 7
-0.046797 -1.501159 -6.867835 7
-0.088228002 -1.515004 -6.069438 7
-0.332923 -4.595942 -7.2618771 7
-0.425174 -6.326056 -7.1421661 7
-0.0063069998 1.596488 -5.2420182 7
-0.0060470002 1.419412 -5.2930598 7
-0.074133001 -1.5290771 -5.4630618 7
-0.29417399 -4.6653509 -5.9555149 7
0.0076319999 1.563995 -4.7102361 7
0.0087280003 1.406566 -4.7550859 7
-0.040709998 -1.315593 -4.8607488 7
-0.045324001 -1.486864 -4.8442841 7
-0.255146 -4.6045551 -4.8307948 7
-0.24412601 -4.7067852 -4.599514 7
0.012581 1.556947 -4.3254709 7
0.012375 1.419587 -4.3812981 7
-0.026613001 -1.3224469 -4.4355731 7
-0.237 -4.5791602 -3.948195 7
-0.23986501 -4.7369471 -3.778563 7
-0.012883 1.532748 -3.9697649 7
-0.0042880001 1.384456 -3.973011 7
-0.011148 1.2806751 -4.064373 7
-0.065927997 -1.368533 -4.1760659 7
-0.076505996 -1.527482 -4.1819959 7
-0.296271 -4.6285052 -3.2307129 7
-0.297499 -4.7428579 -3.0474379 7
-0.052053001 -1.366452 -3.8622439 7
-0.053599 -1.48682 -3.8166411 7
-0.25696999 -4.6099229 -1.748341 7
-0.25757 -4.6588588 -1.557191 7
-0.250126 -4.6478262 -1.360703 7
-0.24559399 -4.681633 -0.77308202 7
-0.042821001 -1.369092 -3.605298 7
-0.044507001 -1.479176 -3.5593081 7
-0.033374 -1.3649729 -3.3731289 7
-0.038518999 -1.475539 -3.3414471 7
