# .PCD v0.7 - Point Cloud Data file format
VERSION 0.7
FIELDS x y z intensity
SIZE 4 4 4 4
TYPE F F F F
COUNT 1 1 1 1
WIDTH 821
HEIGHT 1
VIEWPOINT 0 0 0 1 0 0 0
POINTS 821
DATA ascii
0.046813998 4.7514648 -71.28125 7
-0.001274 4.681396 -72.921875 7
0.117058 4.3935552 -61.226562 7
0.028343 4.4268799 -63.921875 7
-0.023445001 4.3737788 -65.49707 7
-0.70585603 -5.6225591 69.983398 7
-0.80689198 -5.6513672 72.399414 7
-0.871544 -5.6020508 73.951172 7
-0.68322003 -2.5131841 69.72168 7
-0.739182 -2.3974609 71.067383 7
0.099628001 4.6239009 -54.910156 7
0.064732 4.5648189 -55.860352 7
0.127491 4.2973628 -54.166016 7
0.067387 4.2868652 -55.798828 7
0.034855001 4.2146001 -56.68457 7
0.057697002 0.88818401 -56.080078 7
-0.76985198 -5.7219238 65.589844 7
-0.81900799 -5.6628418 66.675781 7
-0.88156497 -5.6234131 68.052734 7
-0.68307102 -2.89502 63.958984 7
-0.66178101 -2.5795901 63.515625 7
-0.64023602 -0.068970002 63.108398 7
0.096184 4.5605469 -49.669922 7
0.044879999 4.5479741 -50.932617 7
0.00094599999 4.5141602 -52.016602 7
0.06786 4.2524409 -50.382812 7
0.037234999 4.1890869 -51.137695 7
-0.027411999 4.1864009 -52.727539 7
-0.58532298 -0.066650003 56.87793 7
-0.55303198 0.063965 56.235352 7
-0.55925798 0.19458 56.363281 7
-0.539509 0.32238799 55.970703 7
0.087200001 4.4841309 -44.979492 7
0.052363999 4.4462891 -45.758789 7
0.0091089997 4.421875 -46.724609 7
0.073363997 4.1799321 -45.307617 7
0.042992 4.1273189 -45.988281 7
0.00078200002 4.0938721 -46.929688 7
-0.010788 -3.1157229 -43.151367 7
-0.53130001 0.183594 51.911133 7
-0.50546998 0.419067 51.436523 7
0.032745 4.4499512 -42.522461 7
0.012123 4.387085 -42.952148 7
-0.016739 4.3383789 -43.549805 7
-0.061825 4.3182368 -44.480469 7
0.003174 4.0869141 -43.157227 7
-0.030823 4.0429692 -43.859375 7
-0.082168996 4.0266109 -44.916992 7
0.046227001 0.67517102 -42.209961 7
0.039482001 0.57360798 -42.345703 7
0.104584 0.35510299 -41.013672 7
-0.13938101 -3.11145 -41.629883 7
-0.127579 -3.1968989 -41.400391 7
-0.086773001 -3.2397461 -40.635742 7
-0.48872799 -2.6516111 47.013672 7
-0.51116902 -2.5649409 47.404297 7
-0.423969 0.47582999 46.054688 7
-0.47705799 3.405273 46.878906 7
0.43322399 22.383545 22.754883 7
0.431099 22.463623 22.729492 7
-0.026931999 4.5631099 -39.667969 7
-0.04549 4.5029302 -40.020508 7
-0.075268 4.4616699 -40.636719 7
0.065594003 0.98803699 -38.134766 7
0.072189003 0.79748499 -38.009766 7
0.042038001 0.71398902 -38.572266 7
0.053173002 0.42663601 -38.360352 7
0.053188 0.237793 -38.356445 7
0.084468998 0.048096001 -37.765625 7
0.058037002 -0.039917 -35.115234 7
0.071429998 -0.211548 -34.881836 7
-0.460426 -2.6347661 43.301758 7
-0.47208801 -2.5467529 43.496094 7
-0.49772599 -2.4707029 43.910156 7
-0.407608 0.244019 42.609375 7
-0.37989399 0.33801299 42.169922 7
-0.376919 0.53417999 42.091797 7
-0.39035401 3.641113 42.226562 7
0.36732501 20.693359 22.698242 7
0.0060879998 4.6790771 -35.90625 7
-0.021729 4.6486821 -36.392578 7
-0.041111 4.5987549 -36.733398 7
-0.063858002 4.5541992 -37.133789 7
-0.098095 4.5301509 -37.730469 7
0.057349999 1.26355 -35.208984 7
0.068378001 1.170288 -35.018555 7
0.073677003 1.081055 -34.928711 7
0.057643998 1.002197 -35.206055 7
0.023293 0.92980999 -35.797852 7
0.055103 0.046631001 -35.167969 7
0.030655 -0.119019 -32.553711 7
0.034836002 -0.27978501 -32.483398 7
0.053185001 -0.35730001 -32.19043 7
0.068210997 -0.434082 -31.949219 7
-0.16142701 -3.440186 -35.291992 7
-0.144806 -3.502075 -35.022461 7
-0.39478701 -2.5487061 39.089844 7
-0.42178699 -2.485352 39.491211 7
-0.42647201 -2.3994141 39.568359 7
-0.36086699 0.39855999 38.736328 7
-0.33683401 0.48242199 38.384766 7
-0.35742599 0.57482898 38.6875 7
-0.45357499 3.5335691 39.982422 7
-0.42636901 3.587769 39.578125 7
-0.40035599 3.6417241 39.19043 7
-0.373146 3.692261 38.787109 7
-0.40522799 3.828491 39.249023 7
0.023754001 4.7376709 -32.40918 7
0.0044479999 4.6986079 -32.719727 7
-0.012615 4.653564 -32.998047 7
-0.036334999 4.6209722 -33.379883 7
-0.065200999 4.597168 -33.842773 7
-0.095573001 4.5742192 -34.328125 7
0.086525001 1.378418 -31.679688 7
0.077170998 1.305542 -31.829102 7
0.075470001 1.148315 -31.858398 7
0.038433 1.087891 -32.444336 7
0.014309 -0.33703601 -30.522461 7
0.043602001 -0.40673801 -30.087891 7
0.013691 -0.48828101 -30.525391 7
0.027100001 -0.56030297 -30.326172 7
0.049252 -0.62890601 -29.99707 7
-0.16847999 -3.7119141 -32.933594 7
-0.153881 -3.769531 -32.709961 7
-0.37792999 -2.5427251 36.532227 7
-0.39981499 -2.3968511 36.847656 7
-0.39503899 -2.308594 36.789062 7
-0.33235499 0.454956 36.027344 7
-0.368752 0.54492199 36.52832 7
-0.336658 0.70251501 36.086914 7
-0.428909 3.540771 37.25293 7
-0.41548201 3.691895 37.056641 7
-0.385254 3.732666 36.635742 7
-0.355885 3.7728269 36.225586 7
0.0069499998 4.8382568 -30.370117 7
0.00054600002 4.7766109 -30.474609 7
-0.019646 4.6665039 -30.820312 7
-0.060749002 4.6755371 -31.433594 7
-0.071116999 4.6182861 -31.59375 7
0.070235997 1.445801 -29.730469 7
0.042064998 1.3898931 -30.148438 7
0.072375998 1.296265 -29.701172 7
0.023289001 -0.45251501 -28.019531 7
0.020160999 -0.523193 -28.058594 7
0.047931999 -0.79284698 -27.667969 7
0.0055809999 4.8276372 -27.949219 7
-0.0103 4.792603 -28.172852 7
-0.025303001 4.754395 -28.385742 7
-0.04245 4.719727 -28.62793 7
-0.066013001 4.6972661 -28.957031 7
-0.087840997 4.6699219 -29.262695 7
0.064358003 1.547363 -27.462891 7
0.042061001 1.4942631 -27.770508 7
0.070992 1.40564 -27.376953 7
0.050822999 1.3499759 -27.654297 7
0.027241001 1.294922 -27.978516 7
0.002262 -0.68615699 -26.322266 7
0.023758 -0.74450701 -26.046875 7
0.017235 -0.811768 -26.125977 7
0.0028880001 -0.88281202 -26.304688 7
0.019805999 -0.94103998 -26.086914 7
-0.751652 -7.4720459 35.712891 7
-0.027252 4.838623 -26.359375 7
-0.039669 4.799438 -26.525391 7
-0.052524999 4.7601318 -26.698242 7
-0.064948998 4.7186279 -26.888672 7
-0.086933002 4.6965332 -27.176758 7
-0.091132998 4.637207 -27.238281 7
-0.061546002 4.5092769 -26.874023 7
0.045914002 1.586182 -25.764648 7
0.038509 1.526855 -25.861328 7
0.044296 1.4543459 -25.796875 7
0.024932999 1.402344 -26.045898 7
0.013367 1.34436 -26.194336 7
-0.0028230001 -0.82165498 -24.397461 7
0.00054899999 -0.88134801 -24.354492 7
0.008587 -1.121094 -24.246094 7
-0.036678001 5.0031738 -24.387695 7
-0.027401 4.921021 -24.291016 7
-0.048675999 4.844727 -24.560547 7
-0.061535001 4.8103032 -24.72168 7
-0.092658997 4.750854 -25.105469 7
0.019230001 1.491089 -24.126953 7
-0.012753 -0.99963403 -22.790039 7
-0.001179 -1.051514 -22.658203 7
-0.020858999 -1.118286 -22.87207 7
-0.022011001 -1.176392 -22.879883 7
-0.013111 -1.22876 -22.77832 7
-0.076328002 5.1038818 -23.033203 7
-0.058483001 5.0058589 -22.851562 7
-0.037482999 4.9017329 -22.634766 7
-0.048083998 4.8674321 -22.760742 7
-0.064994998 4.846313 -22.955078 7
0.019393999 1.845703 -22.400391 7
0.024590001 1.784668 -22.347656 7
0.016602 1.734497 -22.438477 7
0.018112 1.676636 -22.424805 7
0.021729 1.617065 -22.388672 7
-0.015469 -0.98974597 -21.254883 7
-0.0229 -1.046875 -21.327148 7
-0.016201001 -1.09729 -21.254883 7
-0.013451 -1.1494139 -21.222656 7
-0.035613999 -1.2149661 -21.447266 7
-0.023808001 -1.262329 -21.322266 7
-0.022182001 -1.315063 -21.301758 7
-0.034740001 -1.376709 -21.425781 7
-0.081505001 4.947021 -21.461914 7
-0.091689996 4.9144292 -21.577148 7
-0.092322998 4.8609619 -21.592773 7
-0.096294001 4.8146968 -21.645508 7
0.012115 1.8913569 -20.916992 7
0.023884 1.828369 -20.799805 7
0.022098999 1.776978 -20.820312 7
0.0028840001 1.73938 -21.021484 7
0.022526 1.6706541 -20.823242 7
0.021885 1.618286 -20.832031 7
-0.054625999 -1.049194 -20.267578 7
-0.047054 -1.198975 -20.185547 7
-0.054954998 -1.254395 -20.256836 7
-0.040676001 -1.348145 -20.112305 7
0.020576 1.422241 -19.505859 7
-0.052189 -1.079712 -18.911133 7
-0.052418001 -1.223999 -18.904297 7
-0.056979999 -1.274536 -18.941406 7
-0.050639998 -1.318848 -18.879883 7
-0.046875 -1.364624 -18.842773 7
-0.051865 4.919312 -18.349609 7
-0.058281001 4.88623 -18.416992 7
-0.069156997 4.8624272 -18.524414 7
-0.106899 4.7988281 -18.891602 7
0.00044999999 1.585205 -18.37207 7
-0.0091899997 1.545166 -18.461914 7
-0.001602 1.492432 -18.396484 7
0.0091859996 1.4382319 -18.301758 7
0.022526 1.382568 -18.181641 7
0.010334 1.343628 -18.295898 7
-0.001213 1.303467 -18.404297 7
0.024104999 1.192749 -18.188477 7
0.029762 1.143066 -18.138672 7
0.022686001 1.100342 -18.205078 7
-0.031978998 -1.234863 -17.591797 7
0.003452 1.136963 -17.266602 7
0.016829999 1.041626 -17.15625 7
-0.046275999 -1.427246 -16.601562 7
0.017956 0.60668898 -16.089844 7
0.020756001 0.56408697 -16.068359 7
0.022854 0.52209502 -16.051758 7
0.018497 0.48144501 -16.087891 7
0.020572999 0.439331 -16.071289 7
0.024811 0.39697301 -16.038086 7
0.031913999 0.35424799 -15.980469 7
-0.056797002 -1.1524661 -15.709961 7
-0.055659998 -1.394653 -15.679688 7
-0.053454999 -1.433594 -15.658203 7
-0.101292 4.710815 -15.433594 7
-0.107365 4.6829829 -15.489258 7
-0.090026997 4.6075439 -15.371094 7
0.001137 -0.35327101 -14.317383 7
0.0026779999 -0.390259 -14.304688 7
0.000191 -0.53869599 -14.389648 7
0.00093799998 -0.57592797 -14.382812 7
0.0024949999 -0.61279303 -14.370117 7
-0.099297002 4.7103271 -14.408203 7
-0.104919 4.6838379 -14.458008 7
-0.017067 -0.65844703 -13.707031 7
-0.014641 -0.72900403 -13.686523 7
-0.029118 -0.80578601 -13.780273 7
-0.024994001 -0.87597698 -13.748047 7
-0.021675 -0.91039997 -13.722656 7
-0.028492 -0.94897503 -13.766602 7
-0.045855999 -0.87402302 -13.123047 7
-0.028252 -0.96935999 -13.000977 7
-0.035408001 -1.00647 -13.043945 7
-0.049679 -1.047363 -13.134766 7
-0.047077 -1.080566 -13.114258 7
-0.042683002 -1.1125489 -13.083008 7
-0.038295999 -1.144653 -13.051758 7
-0.043682002 -1.181641 -13.083984 7
-0.057068001 -1.223267 -13.166992 7
-0.054455001 -1.2562259 -13.147461 7
-0.048877999 -0.99719203 -12.441406 7
-0.048007999 -1.029541 -12.432617 7
-0.043396 -1.060181 -12.401367 7
-0.041579999 -1.092041 -12.387695 7
-0.035110001 -1.121338 -12.344727 7
-0.045403 -1.159058 -12.405273 7
-0.061306 -1.200317 -12.5 7
-0.05669 -1.2305911 -12.46875 7
-0.058619998 -1.264526 -12.476562 7
-0.076534003 4.7674561 -11.783203 7
-0.077473 4.737915 -11.799805 7
-0.076580003 4.7045898 -11.804688 7
-0.072894998 4.6654048 -11.794922 7
-0.077556998 4.6434331 -11.833008 7
-0.084991001 4.6270752 -11.887695 7
-0.080394998 4.58606 -11.871094 7
-0.082255997 4.558105 -11.892578 7
-0.086906001 4.535645 -11.932617 7
-0.082301997 4.494751 -11.914062 7
-0.038970999 -0.974365 -11.695312 7
-0.039023999 -1.005371 -11.693359 7
-0.045921002 -1.039551 -11.731445 7
-0.038139001 -1.066895 -11.682617 7
-0.042114001 -1.099731 -11.703125 7
-0.051941 -1.1357419 -11.757812 7
-0.047095999 -1.164307 -11.726562 7
-0.044211999 -1.193848 -11.706055 7
-0.044266 -1.224854 -11.703125 7
-0.044312 -1.2557369 -11.700195 7
-0.048278999 -1.289062 -11.719727 7
-0.049316 -1.3206789 -11.723633 7
-0.057186 -1.356567 -11.766602 7
-0.053321999 -1.385132 -11.740234 7
-0.059254002 -1.419922 -11.770508 7
-0.06126 -1.452515 -11.779297 7
-0.062290002 -1.484253 -11.78125 7
-0.06628 -1.517944 -11.798828 7
-0.069824003 4.7540278 -11 7
-0.072769001 4.7307129 -11.027344 7
-0.076678999 4.709106 -11.05957 7
-0.077679001 4.681396 -11.077148 7
-0.075747997 4.647583 -11.077148 7
-0.078693002 4.6239009 -11.103516 7
-0.091380998 4.619873 -11.185547 7
-0.061375 -1.208618 -11.210938 7
-0.063464999 -1.239746 -11.220703 7
-0.049240001 -1.2911381 -11.133789 7
-0.054398 -1.323853 -11.160156 7
-0.051376 -1.351685 -11.139648 7
-0.061774999 -1.447144 -11.185547 7
-0.063873 -1.478271 -11.193359 7
-0.064994998 -1.5386961 -11.192383 7
-0.28163901 -4.4952388 -11.727539 7
-0.279663 -4.5224609 -11.705078 7
-0.276665 -4.547852 -11.676758 7
-0.27570701 -4.5769038 -11.661133 7
-0.27373099 -4.6038818 -11.638672 7
-0.27379999 -4.634644 -11.62793 7
-0.280022 -4.6772461 -11.649414 7
-0.28726199 -4.7219238 -11.675781 7
-0.29657 -4.7705078 -11.713867 7
-0.055061001 -1.203369 -10.5625 7
-0.060486 -1.234619 -10.587891 7
-0.045536 -1.282593 -10.501953 7
-0.048801001 -1.312622 -10.516602 7
-0.053146001 -1.343506 -10.535156 7
-0.28070399 -4.4810791 -11.012695 7
-0.27323499 -4.4967041 -10.963867 7
-0.272221 -4.5239258 -10.948242 7
-0.27335 -4.5552979 -10.943359 7
-0.271267 -4.5803218 -10.920898 7
-0.27134299 -4.6094971 -10.90918 7
-0.28216901 -4.658936 -10.953125 7
-0.28868899 -4.700439 -10.973633 7
-0.295219 -4.742065 -10.995117 7
-0.29528001 -4.7713618 -10.983398 7
-0.38775599 -6.2209468 -10.857422 7
-0.38459399 -6.242065 -10.827148 7
-0.38575399 -6.2736821 -10.817383 7
-0.39013699 -6.3131099 -10.823242 7
-0.40100101 -6.3686519 -10.859375 7
-0.28300899 -4.4865718 -10.411133 7
-0.28306201 -4.5145259 -10.400391 7
-0.279751 -4.5362549 -10.374023 7
-0.27419701 -4.5535889 -10.336914 7
-0.276508 -4.5855708 -10.335938 7
-0.27769899 -4.615356 -10.330078 7
-0.27888101 -4.6452641 -10.324219 7
-0.28795201 -4.6899409 -10.355469 7
-0.29586801 -4.7329102 -10.381836 7
-0.29931599 -4.7672119 -10.385742 7
-0.29938501 -4.7950439 -10.375 7
-0.37864301 -6.0952148 -10.199219 7
-0.38547099 -6.138916 -10.214844 7
-0.39348999 -6.212646 -10.220703 7
-0.39131501 -6.2346191 -10.196289 7
-0.38914901 -6.2567139 -10.169922 7
-0.388096 -6.28125 -10.150391 7
-0.390423 -6.3140869 -10.145508 7
-0.39497799 -6.3525391 -10.151367 7
-0.40293899 -6.399292 -10.170898 7
-0.059657998 -1.284546 -9.5507812 7
-0.050349999 -1.304932 -9.5019531 7
-0.052731 -1.332031 -9.5097656 7
-0.056286 -1.359985 -9.5244141 7
-0.049297001 -1.38147 -9.4863281 7
-0.066895001 -1.418213 -9.5683594 7
-0.075142004 -1.449585 -9.6054688 7
-0.069328003 -1.471558 -9.5732422 7
-0.068191998 -1.4968261 -9.5644531 7
-0.068236999 -1.522827 -9.5605469 7
-0.063617997 -1.54541 -9.5341797 7
-0.077705003 -1.581177 -9.5986328 7
-0.38846201 -6.1140141 -9.5966797 7
-0.40291199 -6.2779541 -9.5820312 7
-0.39358899 -6.2808838 -9.5273438 7
-0.40304199 -6.3297119 -9.5527344 7
-0.406654 -6.3643799 -9.5517578 7
-0.40672299 -6.3900151 -9.5361328 7
-0.067036003 -1.2844239 -9.1191406 7
-0.056102999 -1.302856 -9.0654297 7
-0.056148998 -1.327637 -9.0625 7
-0.063502997 -1.356812 -9.0927734 7
-0.055027001 -1.376343 -9.0498047 7
-0.061145999 -1.404907 -9.0751953 7
-0.061191998 -1.429565 -9.0722656 7
-0.070987999 -1.460693 -9.1132812 7
-0.069820002 -1.484741 -9.1044922 7
-0.078391999 -1.515259 -9.140625 7
-0.073546998 -1.5369869 -9.1142578 7
-0.076026998 -1.563354 -9.1220703 7
-0.079727001 -1.590942 -9.1347656 7
-0.090026997 4.798584 -8.1230469 7
-0.083972998 4.763062 -8.1083984 7
-0.079127997 4.730103 -8.0996094 7
-0.071846001 4.6921391 -8.0800781 7
-0.074284002 4.674438 -8.1015615 7
-0.081584997 4.6668701 -8.1425781 7
-0.077946 4.6367192 -8.1376953 7
-0.074305996 4.6063228 -8.1347656 7
-0.079166003 4.5936279 -8.1660156 7
-0.079181999 4.5706792 -8.1767578 7
-0.087696001 4.5649409 -8.2226562 7
-0.082843997 4.532104 -8.2128906 7
-0.056042001 -1.29126 -8.5908203 7
-0.040817 -1.305908 -8.5185547 7
-0.042121999 -1.330078 -8.5214844 7
-0.044707999 -1.355103 -8.5292969 7
-0.044762 -1.3787839 -8.5263672 7
-0.049888998 -1.405273 -8.5449219 7
-0.058834001 -1.43457 -8.5830078 7
-0.066524997 -1.463135 -8.6123047 7
-0.055107001 -1.47937 -8.5576172 7
-0.055144999 -1.50293 -8.5546885 7
-0.060276002 -1.529785 -8.5742188 7
-0.060325999 -1.553345 -8.5693359 7
-0.065456003 -1.580688 -8.5888672 7
-0.29258001 -4.5714111 -8.7148438 7
-0.287514 -4.585815 -8.6835938 7
-0.28758201 -4.6096191 -8.6728516 7
-0.28763601 -4.6334229 -8.6611328 7
-0.286423 -4.6546631 -8.6455078 7
-0.28649101 -4.6785889 -8.6347656 7
-0.29418901 -4.7167969 -8.6542969 7
-0.300625 -4.7529302 -8.6689453 7
-0.30451599 -4.783936 -8.6738281 7
-0.40000501 -6.2739258 -8.3085938 7
-0.39366901 -6.2813721 -8.2705078 7
-0.38478899 -6.282227 -8.2216797 7
-0.38485 -6.3050542 -8.2060547 7
-0.38492599 -6.3277588 -8.1914062 7
-0.38881701 -6.3599849 -8.1904297 7
-0.39144099 -6.388916 -8.1845703 7
-0.087063 4.791626 -7.570312 7
-0.083263002 4.7623291 -7.5664058 7
-0.065521002 4.7036128 -7.5058589 7
-0.061707001 4.674438 -7.5029302 7
-0.060451999 4.6506348 -7.507812 7
-0.061721999 4.6318359 -7.5244141 7
-0.064277999 4.6158452 -7.5449219 7
-0.062996 4.5917969 -7.5517578 7
-0.065544002 4.575562 -7.5722661 7
-0.063019 4.5489502 -7.5722661 7
-0.070641004 4.5429692 -7.6142578 7
-0.079535998 4.5393071 -7.6601558 7
-0.065403 -1.289551 -8.2197266 7
-0.066768996 -1.312866 -8.2216797 7
-0.054885998 -1.328613 -8.1669922 7
-0.058899 -1.35376 -8.1806641 7
-0.057624999 -1.375366 -8.171875 7
-0.060302999 -1.399902 -8.1796885 7
-0.066974998 -1.426636 -8.2060547 7
-0.077624999 -1.456055 -8.2470703 7
-0.081634998 -1.481567 -8.2587891 7
-0.071071997 -1.497314 -8.2109385 7
-0.072444998 -1.520874 -8.2128906 7
-0.071148001 -1.542603 -8.2041016 7
-0.075168997 -1.5682369 -8.2167969 7
-0.077854 -1.592773 -8.2246094 7
-0.300587 -4.5144038 -8.2832031 7
-0.305958 -4.5469971 -8.2929688 7
-0.30600399 -4.5698242 -8.2832031 7
-0.30340999 -4.587769 -8.2607422 7
-0.29947999 -4.603271 -8.234375 7
-0.29953799 -4.6260991 -8.2236328 7
-0.299591 -4.6488042 -8.2128906 7
-0.30363101 -4.6791992 -8.2177734 7
-0.29705 -4.689209 -8.1796885 7
-0.30376801 -4.7244868 -8.1933594 7
-0.31045201 -4.7597661 -8.2080078 7
-0.40081 -6.3674321 -7.6787109 7
-0.095592 4.7779541 -7.1445308 7
-0.079758003 4.7243652 -7.0966802 7
-0.074486002 4.6931152 -7.0869141 7
-0.069214001 4.6618652 -7.078125 7
-0.070518002 4.6442871 -7.094727 7
-0.075805999 4.6348882 -7.125977 7
-0.077141002 4.617188 -7.141602 7
-0.078445002 4.5992432 -7.1582031 7
-0.071854003 4.5655522 -7.1435552 7
-0.081115998 4.5638428 -7.188477 7
-0.085078999 4.55127 -7.2138672 7
-0.096957996 4.5544429 -7.2705078 7
-0.099606 4.53894 -7.2910161 7
-0.090374 4.4998779 -7.266602 7
-0.091709003 4.481812 -7.282227 7
-0.29112199 -4.5047612 -7.749023 7
-0.295311 -4.533813 -7.7548828 7
-0.298134 -4.5606689 -7.7539058 7
-0.30094099 -4.5875239 -7.7539058 7
-0.29409799 -4.5961909 -7.7167969 7
-0.28862 -4.6072998 -7.6845698 7
-0.288681 -4.6290278 -7.6738281 7
-0.288719 -4.6503911 -7.6630859 7
-0.292923 -4.679565 -7.6679692 7
-0.29576099 -4.7062988 -7.6660161 7
-0.29856899 -4.7329102 -7.6660161 7
-0.30831099 -4.7730708 -7.6904302 7
-0.29493701 -4.5046391 -7.329102 7
-0.29356399 -4.522583 -7.313477 7
-0.295044 -4.545898 -7.3076172 7
-0.302284 -4.5797119 -7.3212891 7
-0.295158 -4.5870361 -7.2861328 7
-0.29377699 -4.6048579 -7.2705078 7
-0.293823 -4.6254878 -7.2587891 7
-0.293892 -4.645874 -7.2460942 7
-0.293953 -4.6663818 -7.235352 7
-0.29830199 -4.6948242 -7.2392578 7
-0.29692101 -4.7124019 -7.2236328 7
-0.301292 -4.7412109 -7.2275391 7
-0.30565599 -4.7696528 -7.2304692 7
-0.30856299 -4.7956538 -7.2294922 7
-0.30107099 -4.5151372 -6.9121089 7
-0.307091 -4.5456538 -6.920898 7
-0.299698 -4.5515141 -6.8847661 7
-0.30122399 -4.5739751 -6.8798828 7
-0.29977399 -4.5906978 -6.8642578 7
-0.302818 -4.6157231 -6.8623052 7
-0.29393399 -4.6185298 -6.8212891 7
-0.298462 -4.646606 -6.8251948 7
-0.30297899 -4.6743159 -6.8300781 7
-0.304535 -4.6965332 -6.8232422 7
-0.29862601 -4.7045898 -6.7910161 7
-0.300179 -4.7269292 -6.7841802 7
-0.30171999 -4.7489009 -6.7792969 7
-0.29317099 -4.4893799 -6.5019531 7
-0.29169101 -4.5053711 -6.4863281 7
-0.29481101 -4.529541 -6.4863281 7
-0.299503 -4.5567632 -6.4892578 7
-0.30107901 -4.5783691 -6.484375 7
-0.29805401 -4.591187 -6.4628911 7
-0.29501 -4.6040039 -6.4433589 7
-0.296619 -4.6253662 -6.4355469 7
-0.29357499 -4.6381841 -6.4150391 7
-0.295185 -4.6595459 -6.4082031 7
-0.29677999 -4.6809082 -6.4023442 7
-0.293751 -4.693481 -6.3818359 7
-0.29225501 -4.7089839 -6.3652339 7
-0.290768 -4.7243652 -6.3496089 7
-0.30006799 -4.760376 -6.367188 7
-0.30936399 -4.7965088 -6.3857422 7
-0.28714401 -4.4963379 -6.0566411 7
-0.29040101 -4.5197749 -6.0556641 7
-0.29204899 -4.5402832 -6.0498052 7
-0.295284 -4.5638428 -6.0488281 7
-0.29534501 -4.5812988 -6.0371089 7
-0.29380399 -4.5959468 -6.0205078 7
-0.29225501 -4.6105962 -6.0048828 7
-0.292301 -4.6280522 -5.9941411 7
-0.29394901 -4.64856 -5.9882808 7
-0.290813 -4.65979 -5.9667969 7
-0.289253 -4.6743159 -5.952148 7
-0.29410201 -4.7008061 -5.9550781 7
-0.289368 -4.7089839 -5.929688 7
-0.29259899 -4.7325439 -5.9277339 7
-0.29104599 -4.7468262 -5.9121089 7
-0.30230299 -4.785645 -5.9335942 7
-0.38019201 -6.228394 -5.1132808 7
-0.38665801 -6.2593989 -5.1142578 7
-0.38993099 -6.2825928 -5.1064448 7
-0.38998401 -6.2979741 -5.092773 7
-0.39164701 -6.3171391 -5.0810552 7
-0.39330301 -6.3365479 -5.070312 7
-0.396568 -6.3597412 -5.063477 7
-0.38861099 -6.355103 -5.0283198 7
-0.385445 -6.3624272 -5.0058589 7
-0.38870999 -6.385498 -4.9980469 7
-0.290737 -4.4802251 -5.6855469 7
-0.294094 -4.5031738 -5.6845698 7
-0.28417999 -4.501709 -5.6455078 7
-0.287552 -4.5245361 -5.6445308 7
-0.29258299 -4.550293 -5.6474609 7
-0.29429999 -4.5699458 -5.640625 7
-0.29600099 -4.5897222 -5.6347661 7
-0.296047 -4.6063228 -5.624023 7
-0.29941201 -4.6290278 -5.6230469 7
-0.29448301 -4.636353 -5.5976558 7
-0.28955099 -4.6435552 -5.5732422 7
-0.28627801 -4.653687 -5.5517578 7
-0.29130599 -4.679688 -5.5556641 7
-0.29135099 -4.6960449 -5.5449219 7
-0.288086 -4.7060552 -5.523438 7
-0.28978699 -4.725708 -5.5175781 7
-0.29648599 -4.7546391 -5.5244141 7
-0.29653201 -4.7709961 -5.5126948 7
-0.29581499 -5.0092769 7.9941411 7
-0.28979501 -4.5018311 -5.2919922 7
-0.296711 -4.5301509 -5.2998052 7
-0.29158801 -4.5366211 -5.2753911 7
-0.29508999 -4.5585942 -5.2724609 7
-0.30201301 -4.5870361 -5.280273 7
-0.29174 -4.5838618 -5.242188 7
-0.30382901 -4.6218262 -5.2636719 7
-0.30042601 -4.6312261 -5.2431641 7
-0.29532599 -4.6373291 -5.21875 7
-0.28849801 -4.6401372 -5.188477 7
-0.290268 -4.6586909 -5.1826172 7
-0.288605 -4.671021 -5.1669922 7
-0.288643 -4.686523 -5.15625 7
-0.29900399 -4.7215581 -5.171875 7
-0.293892 -4.7272949 -5.1464839 7
-0.29394501 -4.743042 -5.1357422 7
-0.29398301 -4.7583008 -5.124023 7
-0.29919401 -4.7836909 -5.1269531 7
-0.29924801 -4.7991939 -5.1152339 7
-0.32678601 -5.1099849 7.6513672 7
-0.31808901 -5.0773931 7.641602 7
-0.31635699 -5.0592041 7.6494141 7
-0.31462499 -5.040894 7.657227 7
-0.30767101 -5.0119629 7.6523442 7
-0.302452 -4.9868159 7.6513672 7
-0.31116101 -4.9893799 7.6845698 7
-0.30767801 -4.9675288 7.6875 7
-0.29898101 -4.9353032 7.6777339 7
-0.30246699 -4.9273682 7.6982422 7
-0.30248299 -4.9124761 7.710938 7
-0.29900399 -4.890625 7.7128911 7
-0.314686 -4.90625 7.764648 7
-0.30599999 -4.874146 7.7548828 7
-0.30076599 -4.8491211 7.7529302 7
-0.30425999 -4.8408198 7.7744141 7
-0.30425999 -4.8256841 7.7851558 7
-0.093220003 4.7946782 -4.2460942 7
-0.10006 4.7955322 -4.2744141 7
-0.100044 4.7818599 -4.2871089 7
-0.094906002 4.7574458 -4.2851558 7
-0.096615002 4.747437 -4.3007808 7
-0.100029 4.7409668 -4.320312 7
-0.098288998 4.7235112 -4.327148 7
-0.094875 4.7027588 -4.3300781 7
-0.091449998 4.6820068 -4.3320308 7
-0.079475001 4.6437988 -4.3125 7
-0.072623998 4.6159668 -4.3056641 7
-0.069199003 4.595459 -4.3076172 7
-0.069199003 4.581665 -4.3183589 7
-0.070908003 4.5714111 -4.3330078 7
-0.070891999 4.5576172 -4.344727 7
-0.067466997 4.5369868 -4.3466802 7
-0.067459002 4.5231929 -4.3574219 7
-0.065750003 4.506104 -4.3642578 7
-0.067451 4.4954829 -4.3789058 7
-0.067428999 4.481689 -4.389648 7
-0.075974002 4.4846191 -4.421875 7
-0.082805999 4.4842529 -4.4501948 7
-0.286125 -4.4969478 -4.922852 7
-0.29685199 -4.5314941 -4.938477 7
-0.284439 -4.52356 -4.8974609 7
-0.28626299 -4.541626 -4.890625 7
-0.29342699 -4.5695801 -4.8974609 7
-0.29346499 -4.5844731 -4.8867192 7
-0.295288 -4.6026611 -4.8808589 7
-0.29535699 -4.6175542 -4.8681641 7
-0.29717299 -4.6356201 -4.8623052 7
-0.29722601 -4.650269 -4.8505859 7
-0.29370901 -4.6583252 -4.8310552 7
-0.29197699 -4.6697998 -4.8154302 7
-0.292023 -4.6846919 -4.804688 7
-0.292061 -4.6992192 -4.7929692 7
-0.29211399 -4.7138672 -4.782227 7
-0.295715 -4.735229 -4.780273 7
-0.29042101 -4.739624 -4.7558589 7
-0.290474 -4.7541499 -4.7441411 7
-0.29763001 -4.7823491 -4.75 7
-0.32332999 -5.1027832 7.264648 7
-0.33053601 -5.103394 7.2939448 7
-0.33054399 -5.089478 7.3056641 7
-0.323349 -5.0609131 7.3017578 7
-0.32156801 -5.043335 7.3095698 7
-0.321583 -5.0292969 7.3212891 7
-0.32157499 -5.0152588 7.3330078 7
-0.31258801 -4.9832759 7.3232422 7
-0.31798899 -4.97998 7.3476558 7
-0.31799701 -4.9658198 7.359375 7
-0.30900201 -4.93396 7.3496089 7
-0.318012 -4.9376221 7.3837891 7
-0.31802699 -4.9234619 7.3955078 7
-0.31802699 -4.9091802 7.407227 7
-0.31625 -4.8913569 7.4150391 7
-0.31264099 -4.8702388 7.4179692 7
-0.31086299 -4.852417 7.4257808 7
-0.31448001 -4.8452148 7.445312 7
-0.31087101 -4.82373 7.4482422 7
-0.089129999 4.3344731 7.0380859 7
-0.089092001 4.3478999 7.0273442 7
-0.087254003 4.357666 7.0136719 7
-0.087200001 4.3709722 7.0029302 7
-0.092528999 4.3945308 7.0048828 7
-0.085322998 4.3936772 6.976562 7
-0.099593997 4.4346919 7.0019531 7
-0.101349 4.451416 6.9960942 7
-0.095940001 4.453979 6.9726558 7
-0.09911 4.4865718 -4.171875 7
-0.17864101 -2.1168621 12.490326 7
-0.32444599 -5.024929 7.9154449 7
-0.095995001 4.230999 6.6541982 7
-0.079345003 4.254673 6.4297509 7
-0.29778001 -4.8838429 7.1952281 7
-0.065375 -1.910688 7.9630461 7
-0.050131001 -1.708702 7.9556122 7
-0.083218999 -1.789106 7.3576918 7
-0.065062001 -1.609268 7.347744 7
-0.068117 -1.794682 7.0613332 7
-0.052749999 -1.6321191 7.0688419 7
-0.058242999 -1.8043391 6.8095121 7
-0.042126998 -1.649698 6.8193278 7
0.061809 -1.081643 -11.454453 7
-0.034407001 -1.505275 -7.4184432 7
-0.270208 -4.6458669 -8.6188583 7
-0.246435 -4.6431909 -7.0534339 7
0.025314 -1.390668 -4.9603672 7
-0.220451 -4.612916 -5.7507882 7
-0.046013001 -1.353605 -4.2084999 7
-0.30746001 -4.6220231 -4.7898378 7
-0.029716 -1.323422 -3.560874 7
-0.28437701 -4.5976238 -3.9192841 7
-0.058339 -1.481735 -2.1347139 7
-0.29968801 -4.698874 -1.8007669 7
-0.34774199 -5.0973191 7.8403358 7
-0.32468501 -4.8433342 7.9371319 7
-0.28207999 -4.6432228 -1.312003 7
-0.305944 -4.9430799 7.309546 7
-0.064988002 -1.879565 7.973403 7
-0.049772002 -1.67365 7.9556131 7
-0.31834099 -5.0963678 6.8138461 7
-0.29005501 -4.8647451 6.9076662 7
-0.24784701 -4.7902241 -0.139814 7
-0.28466299 -4.5752149 0.050739001 7
-0.286542 -4.699986 0.20788801 7
-0.32190901 -4.9560499 5.898191 7
-0.31099901 -4.813797 6.04142 7
-0.089318998 -1.912726 7.2171969 7
-0.057831999 -1.726436 7.1465502 7
-0.27673399 -4.731493 0.67220497 7
-0.29280701 -4.8367429 5.5356512 7
-0.060771 -1.852735 6.9527221 7
-0.036099002 -1.682644 6.9078479 7
-0.260373 -4.539813 0.80423403 7
-0.27603599 -4.67522 0.93144602 7
-0.267147 -4.7332268 1.107802 7
-0.27937499 -4.8476758 1.251174 7
-0.045949999 -1.8078181 6.755301 7
-0.29506299 -4.5395651 1.2177 7
-0.308431 -4.7813349 1.670578 7
-0.32167301 -4.855083 4.5587668 7
-0.294471 -4.6093178 1.7420011 7
-0.29987201 -4.6778789 1.89117 7
-0.29784399 -4.7191162 2.0503111 7
-0.29892901 -4.865634 2.892803 7
-0.305291 -4.8922338 3.0543089 7
-0.276501 -4.488131 1.960894 7
-0.278043 -4.537303 2.1085539 7
-0.13777401 4.5212388 -3.255872 7
-0.108762 4.2515569 6.7582259 7
-0.106304 4.371459 6.59446 7
-0.112034 4.2335482 6.4582901 7
-0.14606901 4.914639 -18.399921 7
-0.15828 -1.114905 -12.313534 7
-0.29799801 -4.5231748 -12.061927 7
-0.084057003 -1.311308 -8.2202053 7
-0.27421799 -4.5588121 -9.97472 7
-0.057337999 -1.34556 -7.0204968 7
-0.246675 -4.4976039 -8.3122768 7
-0.21736901 -4.6209068 -7.8664551 7
-0.31775901 -6.3409772 -8.2581558 7
-0.037737001 1.417081 -6.1216731 7
-0.090430997 -1.362752 -6.1261158 7
-0.097179003 -1.592814 -6.1356411 7
-0.29434201 -4.6358619 -6.8052678 7
-0.092281997 4.4906292 -4.3720369 7
-0.016953001 1.407061 -5.401701 7
-0.06893 -1.376882 -5.4594688 7
-0.073019996 -1.571901 -5.440536 7
-0.27624199 -4.5550079 -5.8419752 7
-0.26967299 -4.7297421 -5.6300378 7
-0.076278001 4.502593 -3.2928829 7
-0.047029 -1.372139 -4.895071 7
-0.059021998 -1.567502 -4.929637 7
-0.26421899 -4.6626458 -4.8771691 7
-0.036662001 -1.385396 -4.4903531 7
-0.043283999 -1.54812 -4.4807601 7
-0.24975599 -4.6624808 -3.9990201 7
-0.058111999 -1.380291 -4.1188369 7
-0.060380001 -1.513568 -4.0777278 7
-0.045731999 -1.3785011 -3.8162789 7
-0.043322999 -1.48552 -3.749943 7
-0.27780199 -4.7032838 -1.91125 7
-0.27295399 -4.7243638 -1.712837 7
-0.27704 -4.794919 -1.5183949 7
-0.031957 -1.365639 -3.539952 7
-0.050090998 -1.553933 -2.21332 7
-0.046873 -1.591205 -2.1435521 7
-0.045641001 -1.432428 -2.2209029 7
-0.028035 -1.428485 -2.1275091 7
-0.037645001 -1.5005651 -2.0868599 7
-0.048764002 -1.576599 -2.0446241 7
-0.027636999 -1.329115 -2.1436651 7
-0.02613 -1.3685549 -2.086349 7
-0.034540001 -1.434137 -2.0452421 7
-0.026312999 -1.449667 -1.97264 7
-0.039556 -1.3445899 -1.988963 7
-0.038001001 -1.3774559 -1.9312201 7
