# .PCD v0.7 - Point Cloud Data file format
VERSION 0.7
FIELDS x y z intensity
SIZE 4 4 4 4
TYPE F F F F
COUNT 1 1 1 1
WIDTH 826
HEIGHT 1
VIEWPOINT 0 0 0 1 0 0 0
POINTS 826
DATA ascii
-0.003235 4.7167969 -73.326172 7
0.067642003 1.297119 -70.863281 7
-0.047718 4.772583 -66.504883 7
0.035815999 4.438477 -63.963867 7
-0.12889101 4.611084 -68.985352 7
-0.79579902 -5.6043701 72.037109 7
-0.853935 -5.5432129 73.432617 7
0.121281 4.6000981 -54.533203 7
0.063304998 4.5925288 -56.113281 7
0.038176998 4.5084229 -56.799805 7
0.070435002 4.3039551 -55.929688 7
0.040801998 4.2260742 -56.738281 7
0.059036002 0.89880401 -56.250977 7
-0.74286997 -5.645752 64.926758 7
-0.81575 -5.6324458 66.524414 7
-0.901752 -5.635376 68.408203 7
-0.666664 -2.874512 63.537109 7
-0.64554602 -2.7072749 63.088867 7
-0.58717299 -2.5084231 61.827148 7
-0.59373498 0.214844 62.101562 7
0.087958999 4.6013179 -50.048828 7
0.051994 4.5556641 -50.94043 7
0.010548 4.5170898 -51.964844 7
0.078194 4.253418 -50.307617 7
0.028217001 4.228394 -51.542969 7
-0.021290001 4.1965332 -52.766602 7
-0.584934 -0.051757999 56.806641 7
-0.54878598 0.078491002 56.087891 7
-0.53631997 0.20715301 55.841797 7
-0.50894898 0.33288601 55.297852 7
0.060371 4.4549561 -45.883789 7
0.020512 4.4237061 -46.779297 7
0.091666996 4.1671138 -45.199219 7
0.044682 4.1413569 -46.170898 7
0.015209 4.0834961 -46.833008 7
-0.046459001 4.081543 -48.212891 7
-0.06123 -3.0882571 -44.285156 7
-0.022647999 -3.1413569 -43.491211 7
-0.486462 0.411865 51.083984 7
0.011181 4.4082031 -43.106445 7
-0.015362 4.3547359 -43.65625 7
-0.054363001 4.322876 -44.46582 7
0.005901 4.1000981 -43.234375 7
-0.019489 4.0404048 -43.761719 7
-0.056529999 3.999023 -44.529297 7
0.035824001 0.78222698 -42.500977 7
0.041992001 0.67639202 -42.375 7
0.039009001 0.57336402 -42.43457 7
0.040321 0.469116 -42.407227 7
0.103485 0.35449201 -41.115234 7
-0.126698 -3.203613 -41.47168 7
-0.091624998 -3.2548831 -40.810547 7
-0.49385101 -2.641968 47.060547 7
-0.50398999 -2.543823 47.242188 7
-0.42100099 0.369995 45.967773 7
-0.396568 0.47143599 45.551758 7
-0.47804299 3.40271 46.895508 7
-0.44544601 3.4676509 46.333984 7
-0.41202199 3.6342771 45.750977 7
0.0021210001 4.6164551 -39.282227 7
-0.021648001 4.5688481 -39.734375 7
-0.043864999 4.5159912 -40.157227 7
-0.063606001 4.4560552 -40.533203 7
0.072235003 0.89904797 -38.114258 7
0.040924001 0.43603501 -38.695312 7
0.047793999 0.244629 -38.5625 7
0.073849 0.147949 -38.072266 7
0.039928 -0.041382 -35.484375 7
0.059532002 -0.127441 -35.144531 7
-0.122066 -3.3243411 -38.054688 7
-0.103817 -3.390625 -37.732422 7
-0.093708001 -3.4676509 -37.549805 7
-0.44851699 -2.609741 43.081055 7
-0.48550001 -2.4462891 43.681641 7
-0.38699299 3.6330571 42.173828 7
0.36752701 20.860718 22.564453 7
-0.040607002 4.7966309 -36.806641 7
-0.017116999 4.6560059 -36.411133 7
-0.039496999 4.6123052 -36.805664 7
-0.058155 4.5592041 -37.135742 7
-0.090313002 4.5313721 -37.697266 7
-0.121464 4.499146 -38.242188 7
0.064152002 1.1806639 -35.185547 7
0.016788 0.22314499 -35.887695 7
0.065186001 0.045531999 -35.051758 7
0.029556001 -0.114502 -32.649414 7
0.056720998 -0.193115 -32.216797 7
0.024863999 -0.27697799 -32.71875 7
0.061485 -0.431519 -32.132812 7
-0.15741301 -3.528564 -35.285156 7
-0.138226 -3.5856929 -34.973633 7
-0.121628 -3.6452639 -34.704102 7
-0.387005 -2.529541 38.950195 7
-0.41834301 -2.3803711 39.422852 7
-0.35285199 0.39770499 38.59668 7
-0.331608 0.48168901 38.285156 7
-0.34981501 0.57324201 38.552734 7
-0.42860401 3.5878911 39.612305 7
-0.40019599 3.63855 39.19043 7
-0.36941901 3.68396 38.733398 7
-0.36450601 3.765137 38.65625 7
0.022082999 4.761353 -32.595703 7
0.015736001 4.6942139 -32.707031 7
-0.003113 4.6530762 -33.012695 7
-0.031143 4.6297612 -33.462891 7
-0.058807001 4.603394 -33.90918 7
-0.089394003 4.5809331 -34.401367 7
-0.110096 4.536499 -34.735352 7
0.078674003 1.312134 -31.882812 7
0.046486001 1.2518311 -32.393555 7
0.070689999 1.1580811 -32.011719 7
0.038128 1.095215 -32.52832 7
0.028416 1.019287 -32.682617 7
0.033516001 -0.33544901 -30.28418 7
0.027096 -0.41174299 -30.375977 7
0.022632999 -0.48803699 -30.439453 7
0.041198999 -0.55835003 -30.163086 7
0.019664999 -0.63964802 -30.477539 7
-0.37273401 -2.5267329 36.439453 7
-0.38963699 -2.4599609 36.678711 7
-0.38613099 -2.3731689 36.637695 7
-0.39282599 -2.2956541 36.735352 7
-0.32473001 0.45080599 35.926758 7
-0.33427 0.61682099 36.05957 7
-0.423969 3.615845 37.180664 7
-0.39331099 3.657227 36.753906 7
-0.36774099 3.704102 36.396484 7
-0.34641999 3.755615 36.097656 7
-0.001087 4.7947998 -30.603516 7
-0.014961 4.7484131 -30.818359 7
-0.032772001 4.709229 -31.088867 7
-0.053718999 4.6757808 -31.40625 7
-0.081772 4.655273 -31.829102 7
-0.053528 4.519043 -31.421875 7
0.040855002 1.398315 -30.238281 7
0.049694002 1.2425539 -30.109375 7
0.017223001 1.185425 -30.591797 7
0.015457 -0.52099597 -28.18457 7
0.040504001 -0.58459502 -27.838867 7
0.023327 -0.65917999 -28.071289 7
0.018074 -0.73095697 -28.139648 7
0.037177999 -0.79406703 -27.875 7
0.021671001 -0.86975098 -28.083008 7
-0.0038069999 4.8668208 -28.198242 7
-0.0060200002 4.801147 -28.239258 7
-0.020126 4.7611079 -28.44043 7
-0.035099 4.7218022 -28.654297 7
-0.057705 4.6975098 -28.97168 7
-0.087135002 4.6859131 -29.379883 7
-0.077445999 4.592896 -29.258789 7
0.059711002 1.557983 -27.588867 7
0.042969 1.50061 -27.819336 7
0.059925001 1.4198 -27.589844 7
0.047462001 1.3586431 -27.761719 7
0.024319001 1.303223 -28.079102 7
-0.0075380001 -0.69103998 -26.479492 7
0.014416 -0.74951202 -26.199219 7
0.021233 -0.81225598 -26.108398 7
-0.0022509999 -0.88696301 -26.405273 7
0.015099 -0.945068 -26.180664 7
-0.036490999 4.8720698 -26.556641 7
-0.037025001 4.806519 -26.573242 7
-0.051235002 4.7701421 -26.762695 7
-0.064963996 4.7320561 -26.948242 7
-0.086917996 4.7099609 -27.235352 7
-0.104324 4.6772461 -27.46582 7
-0.077064998 4.5535889 -27.130859 7
0.039623 1.597778 -25.901367 7
0.029937999 1.539917 -26.027344 7
0.042690001 1.455933 -25.845703 7
0.032078002 1.398315 -25.983398 7
0.0076870001 1.348389 -26.293945 7
-0.0062750001 -0.82458502 -24.467773 7
-0.012447 -1.011108 -24.53125 7
0.0066760001 -1.124023 -24.297852 7
-0.0117 -1.194824 -24.511719 7
-0.065884002 5.08606 -24.825195 7
-0.029185999 4.9416499 -24.408203 7
-0.035137001 4.893188 -24.488281 7
-0.047943 4.8594971 -24.648438 7
-0.057326999 4.8173828 -24.769531 7
-0.095238 4.7718511 -25.234375 7
-0.081573002 4.6802979 -25.084961 7
0.035324 1.727905 -23.975586 7
0.043014999 1.6011961 -23.888672 7
-0.019370999 -1.004761 -22.888672 7
-0.029583 -1.124756 -22.995117 7
-0.015366 -1.1750489 -22.834961 7
-0.012794 -1.230713 -22.802734 7
-0.052372001 5.0080571 -22.871094 7
-0.047718 4.9398189 -22.831055 7
-0.057827 4.8460689 -22.962891 7
-0.066803001 4.807373 -23.071289 7
-0.095279999 4.7498779 -23.404297 7
0.0074729999 1.919556 -22.573242 7
0.013706 1.857178 -22.507812 7
0.015209 1.798828 -22.495117 7
0.000401 1.753906 -22.661133 7
0.025055001 1.67749 -22.391602 7
0.019699 1.624756 -22.453125 7
-0.016078999 -0.99157703 -21.282227 7
-0.028030001 -1.050903 -21.402344 7
-0.015079 -1.098389 -21.266602 7
-0.014591 -1.151733 -21.257812 7
-0.035011001 -1.216431 -21.463867 7
-0.027163999 -1.266235 -21.379883 7
-0.022724001 -1.3173831 -21.330078 7
-0.033539001 -1.37793 -21.4375 7
-1.040035 -26.82251 18.296875 7
-1.034809 -26.738037 18.332031 7
-1.0266041 -26.629028 18.350586 7
0.00502 1.903809 -21.029297 7
0.015076 1.8419189 -20.927734 7
0.017239001 1.7869869 -20.90918 7
0.0042340001 1.744141 -21.046875 7
0.011467 1.685059 -20.975586 7
0.017573999 1.627197 -20.915039 7
-0.042690001 -1.35144 -20.152344 7
-0.099453002 5.0855708 -18.819336 7
-0.066455998 4.964478 -18.538086 7
-0.061427999 4.9061279 -18.504883 7
-0.068461999 4.874023 -18.577148 7
-0.078048997 4.8469238 -18.673828 7
-0.085074998 4.8139648 -18.748047 7
-0.115036 4.7801509 -19.036133 7
-0.000195 1.588623 -18.419922 7
-0.0091819996 1.547485 -18.504883 7
-0.014347 1.5037839 -18.555664 7
0.0034409999 1.444458 -18.396484 7
0.014847 1.390015 -18.295898 7
0.014771 1.34314 -18.298828 7
-0.0044209999 1.307739 -18.475586 7
0.024700001 1.150269 -18.216797 7
-0.029076001 -1.010376 -17.601562 7
-0.032515999 -1.057007 -17.62793 7
-0.062374 -1.116943 -17.879883 7
-0.044822998 -1.15332 -17.727539 7
-0.038803 -1.195312 -17.671875 7
-0.070679002 -1.258423 -17.941406 7
-0.011452 1.238892 -17.419922 7
-0.018261001 1.197754 -17.481445 7
-0.0055160001 1.145996 -17.374023 7
-0.00086199999 1.098999 -17.335938 7
0.0078849997 1.044678 -17.305664 7
0.000397 1.003662 -17.371094 7
0.015804 0.86425799 -17.244141 7
0.029251 0.77111799 -17.130859 7
0.017014001 0.73144501 -17.237305 7
0.016914001 0.643188 -17.241211 7
-0.029453 -0.99487299 -16.516602 7
-0.032375 -1.038818 -16.538086 7
-0.040332999 -1.085083 -16.598633 7
-0.047568999 -1.131348 -16.65332 7
-0.039730001 -1.1698 -16.586914 7
-0.033328999 -1.2088619 -16.533203 7
-0.047736999 -1.259521 -16.645508 7
0.013771 0.61108398 -16.150391 7
0.012993 0.56958002 -16.157227 7
0.017925 0.52661097 -16.117188 7
0.019306 0.48449701 -16.107422 7
0.016376 0.443481 -16.130859 7
0.017033 0.40148899 -16.126953 7
0.021961 0.35888699 -16.086914 7
-0.076576002 4.8692632 -15.239258 7
-0.080421001 4.7980962 -15.290039 7
-0.087996997 4.7741699 -15.357422 7
-0.0073970002 -0.352539 -14.400391 7
-0.00346 -0.38952601 -14.370117 7
0.0034099999 -0.42663601 -14.381836 7
-0.00065200002 -0.46484399 -14.410156 7
-0.0047260001 -0.50317401 -14.4375 7
-0.0079770004 -0.54138201 -14.459961 7
-0.004803 -0.57824701 -14.43457 7
-0.004063 -0.61547899 -14.427734 7
-0.051304001 -1.1636961 -14.733398 7
-0.26773801 -4.3712158 -15.748047 7
-0.26620501 -4.408936 -15.726562 7
-0.26383999 -4.4449458 -15.700195 7
-0.25830501 -4.4750981 -15.649414 7
-0.25433701 -4.5080571 -15.611328 7
-0.26004401 -4.5588379 -15.639648 7
-0.097075999 4.7913818 -14.410156 7
-0.097107001 4.7537842 -14.420898 7
-0.099518001 4.7210689 -14.449219 7
-0.109936 4.7044678 -14.533203 7
-0.103584 4.653687 -14.499023 7
-0.091637 4.5915532 -14.427734 7
-0.023258001 -0.66113299 -13.757812 7
-0.019917 -0.69592297 -13.733398 7
-0.017429 -0.73095697 -13.713867 7
-0.02 -0.76757801 -13.730469 7
-0.0285 -0.80651897 -13.786133 7
-0.031920999 -0.84362799 -13.807617 7
-0.030285001 -0.87902802 -13.793945 7
-0.026112 -0.91320801 -13.762695 7
-0.022785001 -0.94775403 -13.737305 7
-0.029491 -0.97070301 -13.017578 7
-0.042831 -1.010864 -13.102539 7
-0.052650001 -1.049927 -13.164062 7
-0.049148999 -1.08252 -13.138672 7
-0.042987999 -1.113892 -13.094727 7
-0.056396 -1.189575 -13.175781 7
-0.052002002 -1.221558 -13.144531 7
-0.054726001 -1.257568 -13.158203 7
-0.045635 -0.996948 -12.430664 7
-0.040096 -1.0271 -12.393555 7
-0.048519 -1.0637209 -12.443359 7
-0.042973001 -1.09375 -12.405273 7
-0.037441 -1.123657 -12.368164 7
-0.038417999 -1.156616 -12.371094 7
-0.04871 -1.19458 -12.430664 7
-0.057128999 -1.232056 -12.479492 7
-0.049725 -1.26062 -12.430664 7
-0.26960799 -4.5539551 -13.115234 7
-0.264061 -4.5780029 -13.072266 7
-0.27159899 -4.6262212 -13.104492 7
-0.079185002 4.7827148 -11.830078 7
-0.076420002 4.7451172 -11.826172 7
-0.080162004 4.721436 -11.857422 7
-0.081107996 4.691772 -11.873047 7
-0.082993001 4.6638179 -11.895508 7
-0.086723 4.6398931 -11.927734 7
-0.095985003 4.6268311 -11.994141 7
-0.093231 4.5892329 -11.989258 7
-0.096038997 4.5629878 -12.015625 7
-0.084022999 4.5070801 -11.956055 7
-0.038639002 -0.97522002 -11.702148 7
-0.043568 -1.008423 -11.728516 7
-0.047527 -1.041382 -11.749023 7
-0.032889999 -1.065308 -11.660156 7
-0.031959999 -1.095825 -11.651367 7
-0.04961 -1.1357419 -11.751953 7
-0.056522001 -1.17041 -11.789062 7
-0.045788001 -1.195801 -11.723633 7
-0.046810001 -1.227295 -11.726562 7
-0.046847999 -1.258545 -11.723633 7
-0.050816 -1.291748 -11.743164 7
-0.050854001 -1.322876 -11.740234 7
-0.062648997 -1.361084 -11.805664 7
-0.055836 -1.388062 -11.761719 7
-0.059811 -1.421631 -11.78125 7
-0.059841 -1.452881 -11.779297 7
-0.063808002 -1.486572 -11.797852 7
-0.065811001 -1.519165 -11.805664 7
-0.27461201 -4.4996338 -12.37207 7
-0.273682 -4.5305181 -12.356445 7
-0.27474999 -4.5648189 -12.350586 7
-0.274811 -4.5974121 -12.338867 7
-0.27487901 -4.6298828 -12.328125 7
-0.27886999 -4.6697998 -12.338867 7
-0.289722 -4.723022 -12.388672 7
-0.292721 -4.761353 -12.394531 7
-0.29376599 -4.7957759 -12.388672 7
-0.083835997 4.7928472 -11.105469 7
-0.076076999 4.746582 -11.073242 7
-0.073169999 4.710815 -11.068359 7
-0.080006003 4.695312 -11.117188 7
-0.080012999 4.6654048 -11.128906 7
-0.081974 4.6394038 -11.150391 7
-0.086864002 4.6196289 -11.188477 7
-0.062068999 -1.18042 -11.226562 7
-0.065159 -1.212036 -11.241211 7
-0.054035001 -1.295288 -11.168945 7
-0.052044 -1.32373 -11.154297 7
-0.062449999 -1.449097 -11.198242 7
-0.278595 -4.4919429 -11.714844 7
-0.276604 -4.5192871 -11.694336 7
-0.278732 -4.5541992 -11.694336 7
-0.27673301 -4.5812988 -11.671875 7
-0.27372 -4.6064448 -11.645508 7
-0.280945 -4.6508789 -11.671875 7
-0.28819999 -4.695435 -11.698242 7
-0.29748899 -4.744019 -11.737305 7
-0.29446799 -4.7692871 -11.708984 7
-0.047493 -1.28479 -10.518555 7
-0.046448 -1.3125 -10.510742 7
-0.046500999 -1.3405761 -10.506836 7
-0.275417 -4.5031738 -10.980469 7
-0.27333501 -4.5284419 -10.958008 7
-0.27553901 -4.561523 -10.958008 7
-0.274517 -4.5889888 -10.941406 7
-0.27135101 -4.611938 -10.915039 7
-0.27788201 -4.6533198 -10.936523 7
-0.28546101 -4.6967769 -10.962891 7
-0.29198501 -4.738647 -10.984375 7
-0.29635599 -4.776123 -10.993164 7
-0.052161999 -1.285522 -10.019531 7
-0.048843 -1.310425 -9.9990234 7
-0.051125001 -1.3388669 -10.006836 7
-0.050034001 -1.3651119 -9.9990234 7
-0.061294999 -1.399292 -10.051758 7
-0.068043001 -1.4306639 -10.083008 7
-0.068080999 -1.457642 -10.080078 7
-0.060279999 -1.479614 -10.036133 7
-0.063698001 -1.5087889 -10.048828 7
-0.067088999 -1.538452 -10.063477 7
-0.066001996 -1.564697 -10.053711 7
-0.288757 -4.4995122 -10.443359 7
-0.282085 -4.5150151 -10.400391 7
-0.279888 -4.539062 -10.378906 7
-0.281086 -4.5689702 -10.374023 7
-0.278889 -4.5925288 -10.351562 7
-0.28007099 -4.622437 -10.345703 7
-0.27788901 -4.645752 -10.324219 7
-0.288048 -4.6928711 -10.361328 7
-0.29373199 -4.7314448 -10.376953 7
-0.30164301 -4.7744141 -10.40332 7
-0.29946101 -4.7979741 -10.380859 7
-0.063156001 -1.2874759 -9.5742188 7
-0.049175002 -1.305298 -9.5029297 7
-0.050381001 -1.331787 -9.5048828 7
-0.053916998 -1.359619 -9.5185547 7
-0.046955001 -1.381104 -9.4804688 7
-0.062194999 -1.416382 -9.5507812 7
-0.071621001 -1.474365 -9.5898438 7
-0.068145998 -1.498047 -9.5693359 7
-0.070525996 -1.5255131 -9.5771484 7
-0.068222001 -1.549927 -9.5615234 7
-0.069435 -1.57666 -9.5644531 7
-0.136719 -1.8968509 12.374023 7
-0.136696 -1.870728 12.378906 7
-0.13668101 -1.844727 12.383789 7
-0.133049 -1.815918 12.370117 7
-0.13303401 -1.789917 12.375 7
-0.128212 -1.760376 12.356445 7
-0.12578601 -1.7325439 12.348633 7
-0.123367 -1.7049561 12.342773 7
-0.123337 -1.678955 12.345703 7
-0.123322 -1.652954 12.349609 7
-0.122093 -1.6262209 12.348633 7
-0.063460998 -1.283325 -9.1083984 7
-0.061066002 -1.307007 -9.0947266 7
-0.055011999 -1.328003 -9.0634766 7
-0.059937 -1.355713 -9.0820312 7
-0.059959002 -1.380371 -9.0791016 7
-0.064018004 -1.407227 -9.0927734 7
-0.064056002 -1.432007 -9.0888672 7
-0.077487998 -1.465454 -9.1474609 7
-0.071433999 -1.48645 -9.1152344 7
-0.073921002 -1.512817 -9.1230469 7
-0.072731003 -1.5369869 -9.1132812 7
-0.072777003 -1.56189 -9.1103516 7
-0.070381001 -1.584839 -9.0947266 7
-0.092361003 4.788208 -8.1611328 7
-0.087502003 4.755127 -8.1523438 7
-0.079029001 4.7147222 -8.1279297 7
-0.076610997 4.6868901 -8.1289062 7
-0.077823997 4.666626 -8.1455078 7
-0.080273002 4.6489258 -8.1660156 7
-0.077839002 4.6209722 -8.1669922 7
-0.080256999 4.6030269 -8.1884766 7
-0.085120998 4.5899658 -8.2197266 7
-0.091193996 4.5792241 -8.2568359 7
-0.102123 4.5780029 -8.3144531 7
-0.054958001 -1.291626 -8.5917969 7
-0.044810999 -1.309204 -8.5429688 7
-0.041039001 -1.330566 -8.5234385 7
-0.044879999 -1.356323 -8.5371094 7
-0.047465999 -1.381348 -8.5449219 7
-0.044955999 -1.40332 -8.5302734 7
-0.064079002 -1.438843 -8.6113281 7
-0.066673003 -1.464233 -8.6191406 7
-0.060352001 -1.483765 -8.5869141 7
-0.05785 -1.505493 -8.5712891 7
-0.057872999 -1.529297 -8.5683594 7
-0.061726 -1.555298 -8.5810547 7
-0.061764002 -1.578979 -8.578125 7
-0.290333 -4.5936279 -8.6992188 7
-0.28910401 -4.6151118 -8.6835938 7
-0.29043999 -4.6412349 -8.6777344 7
-0.28921899 -4.6627202 -8.6611328 7
-0.28672001 -4.6817632 -8.6396484 7
-0.29697001 -4.724854 -8.6708984 7
-0.29958701 -4.75354 -8.6689453 7
-0.30857101 -4.7945561 -8.6943359 7
-0.39612201 -6.2686772 -8.2988281 7
-0.392349 -6.282227 -8.2695312 7
-0.387306 -6.2923579 -8.2353516 7
-0.38992301 -6.3216548 -8.2304688 7
-0.389992 -6.3443599 -8.2158203 7
-0.39006001 -6.367065 -8.1992188 7
-0.39267701 -6.3962402 -8.1933594 7
-0.091132998 4.7861328 -7.6132808 7
-0.086079001 4.7540278 -7.6044922 7
-0.072140001 4.7033691 -7.5595698 7
-0.062004 4.6611328 -7.53125 7
-0.064552002 4.644897 -7.5517578 7
-0.065811001 4.6260991 -7.5683589 7
-0.065825999 4.6047359 -7.578125 7
-0.067084998 4.585815 -7.594727 7
-0.065834001 4.5617681 -7.5996089 7
-0.069641002 4.5480962 -7.625977 7
-0.075985 4.5393071 -7.6621089 7
-0.086139999 4.5378418 -7.7138672 7
-0.089954004 4.5236821 -7.7392578 7
-0.087421 4.4967041 -7.7392578 7
-0.065681003 -1.290283 -8.2246094 7
-0.072350003 -1.317017 -8.25 7
-0.060458999 -1.332642 -8.1962891 7
-0.05917 -1.354736 -8.1875 7
-0.061855 -1.379028 -8.1953115 7
-0.064540997 -1.40332 -8.203125 7
-0.061939001 -1.424316 -8.1875 7
-0.076530002 -1.456421 -8.2470703 7
-0.083199002 -1.4836431 -8.2714844 7
-0.075263999 -1.5012209 -8.234375 7
-0.071335003 -1.52124 -8.2138672 7
-0.076668002 -1.547729 -8.2324219 7
-0.076714002 -1.570435 -8.2285156 7
-0.079391003 -1.5949709 -8.2353516 7
-0.29557401 -4.4849849 -8.2783203 7
-0.29697001 -4.510376 -8.2724609 7
-0.30497399 -4.5476069 -8.2929688 7
-0.306355 -4.5731201 -8.2871094 7
-0.29977801 -4.5837402 -8.25 7
-0.29981601 -4.6064448 -8.2392578 7
-0.29721501 -4.6243901 -8.21875 7
-0.29727599 -4.6472168 -8.2080078 7
-0.29998401 -4.6749272 -8.2070312 7
-0.30002201 -4.6976318 -8.1962891 7
-0.301411 -4.7228999 -8.1894531 7
-0.30279899 -4.7478032 -8.1835938 7
-0.31215301 -4.7884521 -8.2070312 7
-0.094788 4.762939 -7.1679692 7
-0.080296002 4.7122798 -7.124023 7
-0.073700003 4.6781011 -7.110352 7
-0.073692001 4.6577148 -7.1220698 7
-0.076335996 4.6429439 -7.1425781 7
-0.078975998 4.6279302 -7.1630859 7
-0.078983001 4.6075439 -7.1738281 7
-0.078991003 4.5869141 -7.1845698 7
-0.077670999 4.5637212 -7.1904302 7
-0.08427 4.556396 -7.226562 7
-0.093510002 4.5543208 -7.2724609 7
-0.10141 4.549438 -7.313477 7
-0.100105 4.5258789 -7.3183589 7
-0.092189997 4.489502 -7.2998052 7
-0.29004699 -4.4836431 -7.7607422 7
-0.298397 -4.5202641 -7.780273 7
-0.29844299 -4.5421138 -7.7705078 7
-0.298489 -4.5637212 -7.7597661 7
-0.29165599 -4.5725098 -7.7216802 7
-0.287552 -4.5864258 -7.6962891 7
-0.28760499 -4.6080322 -7.6855469 7
-0.28771201 -4.651001 -7.6630859 7
-0.294678 -4.6855469 -7.6767578 7
-0.301624 -4.7200928 -7.6914058 7
-0.303074 -4.7442632 -7.6855469 7
-0.30726999 -4.7736821 -7.688477 7
-0.291145 -4.5001221 -7.3183589 7
-0.29549399 -4.528564 -7.3222661 7
-0.29411301 -4.5463872 -7.3066411 7
-0.29701999 -4.5723882 -7.3056641 7
-0.299934 -4.5983891 -7.3056641 7
-0.29281601 -4.6054692 -7.2685552 7
-0.29287699 -4.6260991 -7.257812 7
-0.29293099 -4.6464839 -7.2470698 7
-0.29583699 -4.6723628 -7.2460942 7
-0.298767 -4.6981201 -7.2451172 7
-0.29881299 -4.7186279 -7.234375 7
-0.300293 -4.7418208 -7.2275391 7
-0.304665 -4.7705078 -7.2314448 7
-0.30301699 -4.5013428 -6.9316411 7
-0.29113799 -4.4995122 -6.8818359 7
-0.30013999 -4.5352778 -6.9003911 7
-0.30167401 -4.5577388 -6.8955078 7
-0.30617899 -4.5855708 -6.898438 7
-0.30474901 -4.602417 -6.882812 7
-0.29883599 -4.6109619 -6.851562 7
-0.30334499 -4.6387939 -6.8564448 7
-0.30637401 -4.6638179 -6.8544922 7
-0.29599801 -4.6636958 -6.8095698 7
-0.29605901 -4.683105 -6.797852 7
-0.296112 -4.7026372 -6.7871089 7
-0.30807501 -4.7446289 -6.8154302 7
-0.30067399 -4.7497559 -6.7792969 7
-0.30816701 -4.7833252 -6.7919922 7
-0.293816 -4.493042 -6.507812 7
-0.29846999 -4.5201421 -6.5117192 7
-0.29235801 -4.5275879 -6.4814448 7
-0.29702801 -4.554688 -6.485352 7
-0.300163 -4.578979 -6.484375 7
-0.298668 -4.594727 -6.46875 7
-0.29871401 -4.6134028 -6.4580078 7
-0.29567701 -4.6262212 -6.4375 7
-0.29725599 -4.647583 -6.4316411 7
-0.29269001 -4.6573491 -6.405273 7
-0.29582199 -4.6817632 -6.4042969 7
-0.29586801 -4.7001948 -6.3925781 7
-0.292835 -4.712646 -6.3720698 7
-0.29442999 -4.7340088 -6.3652339 7
-0.29755399 -4.7583008 -6.3642578 7
-0.308395 -4.7974849 -6.3867192 7
-0.289379 -4.4851069 -6.078125 7
-0.28143701 -4.4881592 -6.0419922 7
-0.289478 -4.5205078 -6.0556641 7
-0.29110301 -4.5410161 -6.0498052 7
-0.302414 -4.5968022 -6.061523 7
-0.299263 -4.608521 -6.0410161 7
-0.29449099 -4.61731 -6.016602 7
-0.29614601 -4.6376948 -6.0107422 7
-0.29299501 -4.649292 -5.9892578 7
-0.29304901 -4.666626 -5.9785161 7
-0.29149199 -4.6810298 -5.9628911 7
-0.29479599 -4.7220459 -5.9492192 7
-0.29642901 -4.7425542 -5.9433589 7
-0.29007301 -4.747437 -5.9130859 7
-0.29493299 -4.7741699 -5.9160161 7
-0.38549799 -6.2755132 -5.0986328 7
-0.390358 -6.3027339 -5.0957031 7
-0.39522901 -6.3297119 -5.0917969 7
-0.39689299 -6.3491211 -5.0810552 7
-0.38897699 -6.3599849 -5.03125 7
-0.389038 -6.3751221 -5.016602 7
-0.38748199 -6.386353 -4.9970698 7
-0.28980601 -4.4976811 -5.6757808 7
-0.29317901 -4.5203862 -5.6748052 7
-0.289906 -4.5311279 -5.6542969 7
-0.288288 -4.5447998 -5.6386719 7
-0.29497099 -4.5736079 -5.6474609 7
-0.301651 -4.6025391 -5.655273 7
-0.303352 -4.6225591 -5.6494141 7
-0.29343799 -4.6204829 -5.610352 7
-0.286854 -4.6246338 -5.5810552 7
-0.29188201 -4.6503911 -5.5830078 7
-0.29359099 -4.6699219 -5.5761719 7
-0.288654 -4.677124 -5.5507808 7
-0.29369 -4.703125 -5.5537109 7
-0.29871699 -4.7288818 -5.5556641 7
-0.30041099 -4.7485352 -5.5498052 7
-0.288845 -4.7426758 -5.5068359 7
-0.29553601 -4.7718511 -5.5136719 7
-0.39489701 -6.413208 -4.5 7
-0.28537399 -4.4805908 -5.2939448 7
-0.28541899 -4.4962158 -5.2832031 7
-0.28889099 -4.518311 -5.28125 7
-0.28550699 -4.527832 -5.2617192 7
-0.282112 -4.537231 -5.2412109 7
-0.28215799 -4.552856 -5.2304692 7
-0.294231 -4.5908198 -5.2519531 7
-0.297703 -4.612915 -5.250977 7
-0.29774901 -4.6286621 -5.2402339 7
-0.29778701 -4.6442871 -5.2285161 7
-0.29097399 -4.6470952 -5.1992192 7
-0.28757501 -4.65625 -5.1787109 7
-0.29276699 -4.6816411 -5.1826172 7
-0.28938299 -4.6904302 -5.1611328 7
-0.29459 -4.7158198 -5.164062 7
-0.29462099 -4.7313228 -5.1533198 7
-0.29467401 -4.7468262 -5.141602 7
-0.29300299 -4.7587891 -5.125 7
-0.298199 -4.7843022 -5.1269531 7
-0.38916799 -6.4058838 -3.9814451 7
-0.38751599 -6.4143071 -3.9619141 7
-0.39271501 -6.440063 -3.957031 7
-0.39793399 -6.4654541 -3.952148 7
-0.39798701 -6.478271 -3.9375 7
-0.39115101 -6.4735112 -3.9082029 7
-0.39638501 -6.499023 -3.902344 7
-0.40158099 -6.5245361 -3.898438 7
-0.40163401 -6.5371089 -3.882812 7
-0.40685999 -6.5627441 -3.8779299 7
-0.40862301 -6.5795898 -3.8662109 7
-0.413845 -6.60498 -3.860352 7
-0.41906399 -6.6307368 -3.8564451 7
-0.420849 -6.6473389 -3.84375 7
-0.103561 4.7938228 -4.3007808 7
-0.105278 4.7835689 -4.3164058 7
-0.103554 4.766479 -4.3232422 7
-0.096709996 4.7385249 -4.3173828 7
-0.103539 4.7390141 -4.3457031 7
-0.101814 4.7215581 -4.3525391 7
-0.098403998 4.7008061 -4.3554692 7
-0.093262002 4.6765141 -4.3525391 7
-0.083003998 4.6417241 -4.3378911 7
-0.076176003 4.6138921 -4.3320308 7
-0.069335997 4.5863042 -4.3251948 7
-0.072742 4.5794678 -4.344727 7
-0.076137997 4.5726318 -4.3642578 7
-0.076122001 4.5587158 -4.375 7
-0.077846996 4.5483398 -4.389648 7
-0.071021996 4.520874 -4.3818359 7
-0.071014002 4.5070801 -4.3925781 7
-0.070998996 4.493042 -4.4042969 7
-0.072994001 4.485352 -4.4238281 7
-0.084927 4.4952388 -4.4658198 7
-0.29293099 -4.7180181 -4.7880859 7
-0.292992 -4.732666 -4.7763672 7
-0.29124501 -4.7436519 -4.7607422 7
-0.289505 -4.7547612 -4.7451172 7
-0.29312101 -4.7762451 -4.742188 7
-0.28964201 -4.7983398 -4.7099609 7
-0.31365201 -5.083374 7.2441411 7
-0.32085401 -5.084229 7.2724609 7
-0.313667 -5.0556641 7.2685552 7
-0.320885 -5.0562739 7.297852 7
-0.31729901 -5.0351558 7.3007808 7
-0.31189701 -5.010376 7.2998052 7
-0.31189701 -4.9963379 7.311523 7
-0.311928 -4.9824219 7.3242192 7
-0.31193501 -4.9683838 7.3369141 7
-0.31195101 -4.9542241 7.3486328 7
-0.30835 -4.9329829 7.351562 7
-0.089272 4.3466802 7.0283198 7
-0.085648 4.353271 7.0087891 7
-0.087379001 4.369873 7.0029302 7
-0.094485998 4.396729 7.0097661 7
-0.090855002 4.4030762 6.9902339 7
-0.097613998 4.431396 6.9970698 7
-0.10294 4.4549561 6.999023 7
-0.108261 4.4786382 7.000977 7
-0.101048 4.4776611 6.9736328 7
-0.082043 4.4726558 -4.1269531 7
-0.090861998 4.4768071 -4.1591802 7
-0.099693 4.4807129 -4.1914058 7
-0.102853 4.4782028 7.0029941 7
-0.089918002 4.2276082 6.5916781 7
-0.294487 -5.0051508 6.9846249 7
-0.28829101 -4.801497 7.2139568 7
-0.30217099 -4.8377228 5.2209339 7
-0.31106099 -4.8173161 5.4316878 7
0.13403399 -1.260892 -12.96367 7
-0.095926002 -4.5630412 -12.309108 7
-0.25655901 -4.6446581 -10.089966 7
0.01253 -1.5880179 -6.8939362 7
-0.248988 -4.6974511 -8.3515692 7
0.019582 -1.52587 -5.8135819 7
-0.235201 -4.7087412 -6.899076 7
-0.136526 -1.839698 12.641527 7
0.057289001 -1.460472 -4.6649408 7
-0.22482599 -4.7131672 -5.7278972 7
-0.00697 -1.4154 -3.908458 7
-0.29840401 -4.6740508 -4.682333 7
-0.28430301 -4.666728 -3.8702121 7
-0.269261 -4.6449919 -3.1553531 7
-0.30590901 -4.942975 7.3094368 7
-0.30737701 -5.0619612 6.7836852 7
-0.29409301 -4.876965 6.919322 7
-0.0098339999 -1.618953 -1.086864 7
-0.030649999 -1.812506 -1.129408 7
-0.30786601 -4.6714258 0.032839999 7
-0.300753 -4.77038 0.215371 7
-0.335691 -5.1023588 5.753696 7
-0.312538 -4.9277329 5.8790789 7
-0.314024 -4.8226819 6.0479779 7
-0.039786998 -1.715176 -0.60553402 7
-0.322097 -5.080339 5.2915459 7
-0.30007499 -4.9266171 5.4248862 7
-0.29402101 -4.8169918 5.578505 7
-0.028456001 -1.6784 -0.40574101 7
-0.044055998 -1.839999 -0.41739801 7
-0.308328 -5.0928588 4.6882529 7
-0.28437299 -4.8123722 5.156569 7
-0.31591699 -4.8177252 1.702072 7
-0.31423 -4.8668289 1.867638 7
-0.33399501 -5.099432 2.6977291 7
-0.32614601 -5.0895309 2.8726411 7
-0.327088 -5.1002069 3.0443799 7
-0.32785499 -5.1036272 3.2163739 7
-0.32512 -5.0869741 3.4307661 7
-0.334508 -5.1021218 3.6042221 7
-0.333033 -5.0768008 3.7749729 7
-0.33469701 -4.9799709 4.2827792 7
-0.31468701 -4.8734102 4.430387 7
-0.31068701 -4.8090239 4.5877342 7
-0.28685799 -4.7368469 2.2571571 7
-0.28819901 -4.7733822 2.4148591 7
-0.29419601 -4.8376532 2.7325001 7
-0.28962401 -4.8376698 2.8953669 7
-0.29228899 -4.8530841 3.0562401 7
-0.29853201 -4.8729649 3.2177269 7
-0.28822801 -4.8344331 3.419004 7
-0.29600501 -4.8446832 3.581367 7
-0.29258299 -4.8150811 3.7406099 7
-0.275969 -4.5791578 2.298624 7
-0.27530599 -4.6086259 2.4508891 7
0.024381001 4.6400571 -7.7733998 7
0.022995999 1.515166 -5.8033381 7
-0.099679001 4.2568278 6.6905389 7
-0.094480999 4.3654442 6.5188441 7
-0.112574 -1.141832 -11.487202 7
-0.12930299 4.6269941 -11.113913 7
-0.28533199 -4.5659022 -11.846845 7
-0.063242003 -1.333424 -7.9419718 7
-0.27018499 -4.631598 -9.8898211 7
-0.083778001 4.5043569 -7.1451788 7
-0.041834 -1.3659379 -6.8353319 7
-0.046009 -1.620267 -6.8337998 7
-0.25695801 -4.6446629 -8.3771048 7
0.019065 1.567333 -6.0589972 7
0.029711001 1.324527 -5.9898028 7
-0.078180999 -1.384313 -6.0046549 7
-0.079919003 -1.5953619 -5.9689608 7
-0.31604201 -4.5664749 -7.0921102 7
-0.098784998 4.5431309 -4.4096479 7
-0.0069519999 1.510581 -5.2751112 7
-0.0085070003 1.337788 -5.3391399 7
-0.056226999 -1.388855 -5.344893 7
-0.061673 -1.583613 -5.3362451 7
-0.287781 -4.6816039 -5.8722501 7
-0.096422002 4.5111151 -3.59428 7
-0.093347996 4.3533192 -3.7504499 7
0.0047200001 1.340902 -4.8115768 7
-0.039962001 -1.392599 -4.8310742 7
-0.051931001 -1.586252 -4.864408 7
0.010459 1.495133 -4.3683219 7
0.019989001 1.327222 -4.351738 7
-0.032269999 -1.408704 -4.4484611 7
-0.04287 -1.582675 -4.4637828 7
-0.25484601 -4.7318282 -3.97369 7
-0.058655001 -1.4135979 -4.1089239 7
-0.077466004 -1.595463 -4.1582379 7
-0.29250199 -4.63273 -3.1745551 7
-0.28941 -4.717855 -2.980381 7
-0.051217001 -1.422323 -3.831686 7
-0.066404998 -1.5824929 -3.8532381 7
-0.044330001 -1.399709 -3.599452 7
-0.05325 -1.531153 -3.586221 7
-0.069674999 -1.799197 -1.2108819 7
-0.066275999 -1.793709 -1.135576 7
-0.067867003 -1.801941 -1.059957 7
-0.069467001 -1.807047 -0.98362398 7
-0.055737 -1.6871949 -1.207038 7
-0.048930001 -1.6704921 -1.1365499 7
-0.054179002 -1.6900949 -1.065491 7
-0.052554999 -1.684332 -0.99489802 7
