# .PCD v0.7 - Point Cloud Data file format
VERSION 0.7
FIELDS x y z intensity
SIZE 4 4 4 4
TYPE F F F F
COUNT 1 1 1 1
WIDTH 754
HEIGHT 1
VIEWPOINT 0 0 0 1 0 0 0
POINTS 754
DATA ascii
0.022219 1.148682 -72.142578 7
-0.135481 4.7789311 -68.944336 7
-0.060295001 4.4621582 -66.666016 7
-0.12786099 4.4294429 -68.72168 7
0.020199001 1.025391 -64.210938 7
-0.645145 -5.6594238 68.512695 7
-0.703686 -5.6147461 69.919922 7
-0.866705 -5.589355 73.823242 7
0.048861001 4.6109619 -56.351562 7
0.0090500005 4.5568848 -57.43457 7
-0.054678001 4.5463872 -59.167969 7
-0.0059759999 4.306396 -57.852539 7
-0.061315998 4.2706299 -59.357422 7
0.016996 0.91638201 -57.229492 7
-0.68767703 -5.5600591 63.800781 7
-0.733913 -5.4995122 64.823242 7
-0.81390601 -5.4963379 66.578125 7
-0.57974398 -2.502686 61.728516 7
-0.53321099 -2.32019 60.722656 7
-0.024017001 4.4498291 -52.674805 7
-0.055353001 4.3825679 -53.448242 7
0.0027389999 4.141602 -52.030273 7
-0.043582998 4.099731 -53.171875 7
-0.099411003 4.0692139 -54.546875 7
-0.48680699 0.191406 54.913086 7
-0.45304501 0.314331 54.240234 7
-0.50062901 3.3869629 55.176758 7
-0.45930699 3.4605711 54.344727 7
-0.38856101 3.490356 52.925781 7
-0.013134 4.4754639 -47.338867 7
-0.038214002 4.4093022 -47.90332 7
0.042394999 4.136353 -46.119141 7
-0.018337 4.137085 -47.473633 7
-0.041311 4.0628662 -47.992188 7
-0.12566 4.0948491 -49.873047 7
-0.127424 -2.745728 -45.810547 7
-0.097569004 -2.820435 -45.191406 7
-0.162117 -3.01355 -46.498047 7
-0.122818 -3.0744629 -45.685547 7
-0.397259 0.28942901 49.466797 7
-0.424095 0.407471 49.967773 7
-0.49883801 3.382935 51.335938 7
-0.44878799 3.4362791 50.400391 7
-0.41065401 3.5012209 49.686523 7
-0.035321999 4.3861079 -43.964844 7
-0.064185999 4.3336182 -44.563477 7
-0.110411 4.3110352 -45.516602 7
-0.039159998 4.0690918 -44.064453 7
-0.064043 4.005127 -44.582031 7
-0.11939 3.9915769 -45.720703 7
0.011358 0.68518102 -43.149414 7
-0.174992 -3.0753169 -42.503906 7
-0.16356701 -3.1636961 -42.28125 7
-0.425026 -2.5866699 45.928711 7
-0.34011701 0.36022899 44.624023 7
-0.33911699 0.56481898 44.610352 7
-0.431885 3.457397 46.140625 7
-0.399654 3.519897 45.585938 7
-0.37426001 3.5892329 45.146484 7
-0.35328901 3.66272 44.782227 7
-0.065948002 4.4517822 -40.498047 7
-0.092874996 4.4039311 -41.009766 7
-0.114202 4.3433838 -41.415039 7
-0.151739 4.3106689 -42.123047 7
0.017439 0.73010302 -39.066406 7
-0.011145 0.64221197 -39.599609 7
0.033585001 0.247803 -38.754883 7
0.013119 0.153809 -39.136719 7
0.036102001 0.056885 -38.704102 7
-0.37482601 -2.5480959 41.950195 7
-0.39863399 -2.474854 42.334961 7
-0.411015 -2.3894041 42.540039 7
-0.320856 0.429443 41.234375 7
-0.34755501 0.529419 41.65918 7
-0.31983399 0.61779797 41.220703 7
-0.41029 3.5758059 42.584961 7
-0.377092 3.6265869 42.052734 7
-0.35454199 3.6904299 41.689453 7
-0.34336701 3.769531 41.505859 7
-0.057691999 4.549438 -37.05957 7
-0.081110001 4.5045171 -37.470703 7
-0.103849 4.4561772 -37.871094 7
-0.130325 4.4130859 -38.334961 7
-0.17388 4.401123 -39.088867 7
-0.098984003 4.1682129 -37.808594 7
0.024626 0.93689001 -35.806641 7
-0.00056100002 0.85839802 -36.241211 7
-0.025085 0.77783197 -36.663086 7
0.003908 0.678101 -36.163086 7
0.018995 0.043823 -35.949219 7
-0.027039001 -0.032837 -33.498047 7
-0.0064739999 -0.114746 -33.169922 7
0.022222999 -0.19409201 -32.714844 7
-0.010059 -0.27929699 -33.22168 7
0.007553 -0.35876501 -32.941406 7
0.022222999 -0.43737799 -32.707031 7
-0.347458 -2.4130859 38.408203 7
-0.358107 -2.3353269 38.570312 7
-0.384325 -2.2706299 38.960938 7
-0.298637 0.47656199 37.831055 7
-0.28416601 0.55981398 37.619141 7
-0.27235001 0.72802699 37.447266 7
-0.39704901 3.6407471 39.172852 7
-0.37024301 3.6916499 38.775391 7
-0.35060099 3.751343 38.480469 7
-0.32500601 3.8006589 38.100586 7
-0.023327 4.7651372 -33.22168 7
-0.03042 4.6976318 -33.342773 7
-0.048567001 4.65271 -33.637695 7
-0.075553998 4.6245122 -34.072266 7
-0.1022 4.5935059 -34.499023 7
-0.138393 4.5794678 -35.079102 7
-0.15987401 4.5340581 -35.425781 7
0.047442999 1.330811 -32.327148 7
0.013004 1.270752 -32.874023 7
0.037252001 1.175903 -32.491211 7
0.014233 1.107056 -32.856445 7
-0.019506 1.04187 -33.388672 7
-0.028186999 -0.27087399 -31.268555 7
-0.0097049996 -0.34521499 -30.994141 7
0.011166 -0.41796899 -30.683594 7
-0.021406 -0.50134301 -31.161133 7
0.00063099997 -0.57275403 -30.833008 7
-0.27505499 0.52587903 35.266602 7
-0.36334401 3.621582 36.370117 7
-0.36278 3.703979 36.356445 7
-0.33467701 3.7453611 35.963867 7
-0.30869499 3.787842 35.600586 7
0.24859001 17.432373 22.301758 7
0.24877401 17.481689 22.259766 7
0.246447 17.553589 22.246094 7
0.247454 17.595337 22.195312 7
0.24553899 17.663452 22.175781 7
0.24864399 17.686035 22.102539 7
-0.046785001 4.730957 -31.244141 7
-0.051607002 4.6633301 -31.324219 7
-0.073393002 4.630127 -31.654297 7
-0.091227002 4.5872798 -31.925781 7
-0.121685 4.5681152 -32.381836 7
0.031498 1.403564 -30.332031 7
-0.0058709998 1.2744139 -30.885742 7
-0.011616 1.123657 -30.974609 7
-0.016476 -0.45544401 -28.589844 7
-0.014889 -0.52636701 -28.56543 7
0.0073299999 -0.80249 -28.248047 7
-0.044296 4.8725591 -28.683594 7
-0.040557999 4.7928472 -28.643555 7
-0.060649998 4.7640381 -28.924805 7
-0.075646996 4.723145 -29.138672 7
-0.094472997 4.6889648 -29.404297 7
-0.123123 4.6738281 -29.800781 7
-0.13429099 4.6217041 -29.961914 7
0.019709 1.514526 -28.098633 7
0.024317 1.372437 -28.041992 7
-0.024777999 -0.69982898 -26.751953 7
-0.007578 -0.82678199 -26.527344 7
-0.042048998 -0.90685999 -26.962891 7
-0.021515001 -0.96521002 -26.698242 7
-0.012468 -1.0274661 -26.579102 7
-0.071530998 4.8062739 -26.981445 7
-0.086185001 4.7692871 -27.177734 7
-0.099945001 4.7296138 -27.361328 7
-0.121021 4.704102 -27.637695 7
-0.13661399 4.6665039 -27.844727 7
-0.129389 4.5822749 -27.762695 7
0.006395 1.555786 -26.295898 7
0.013596 1.477295 -26.273438 7
-0.0024989999 1.422241 -26.482422 7
-0.026381999 1.370728 -26.788086 7
-0.017589999 -1.140869 -24.62793 7
-0.062716998 4.880127 -24.763672 7
-0.067698002 4.8284912 -24.832031 7
-0.110643 4.7294922 -25.365234 7
-0.131826 4.7088618 -25.623047 7
-0.12699901 4.634644 -25.577148 7
0.0054609999 1.689697 -24.304688 7
0.010702 1.563477 -24.248047 7
0.003729 1.507324 -24.333008 7
-0.013586 1.45752 -24.541016 7
-0.006294 1.391235 -24.457031 7
0.00050199998 1.325562 -24.37793 7
-0.052650001 -0.964966 -23.295898 7
-0.035312999 -1.015381 -23.102539 7
-0.029591 -1.070801 -23.035156 7
-0.058738999 -1.143433 -23.353516 7
-0.047205001 -1.195801 -23.22168 7
-0.038860001 -1.24939 -23.125977 7
-0.088708997 4.960815 -23.237305 7
-0.080890998 4.885376 -23.163086 7
-0.089373 4.844727 -23.265625 7
-0.128466 4.7486572 -23.723633 7
-0.13485 4.7017822 -23.803711 7
-0.13621899 4.7913818 -22.103516 7
-0.025870999 1.8742681 -21.329102 7
-0.010197 1.807251 -21.170898 7
-0.012524 1.755371 -21.198242 7
-0.026672 1.712402 -21.34668 7
-0.0098529998 1.64563 -21.176758 7
-0.072313003 -1.11438 -20.484375 7
-0.088157997 -1.278687 -20.62793 7
-0.24476799 -4.4046631 -21.714844 7
-0.23825499 -4.447144 -21.641602 7
-0.033746999 1.564941 -20.046875 7
-0.022442 1.506104 -19.94043 7
-0.017117999 1.4519041 -19.891602 7
-0.008812 1.395874 -19.813477 7
-0.020857001 1.352905 -19.932617 7
-0.025119999 1.304565 -19.977539 7
-0.248127 -4.190918 -20.317383 7
-0.248234 -4.2424321 -20.307617 7
-0.26240501 -4.3187261 -20.422852 7
-0.260584 -4.3669429 -20.395508 7
-0.253649 -4.4060059 -20.322266 7
-0.249264 -4.4492192 -20.270508 7
-0.085588001 4.9017329 -18.696289 7
-0.093263999 4.8703609 -18.775391 7
-0.102867 4.8425288 -18.87207 7
-0.14374501 4.7816162 -19.269531 7
-0.13489 4.7142329 -19.201172 7
-0.025633 1.557495 -18.639648 7
-0.032086998 1.51416 -18.700195 7
-0.041714001 1.472778 -18.791016 7
-0.02648 1.4150389 -18.654297 7
-0.013155 1.359009 -18.536133 7
-0.0068379999 1.3076169 -18.481445 7
-0.016473999 1.265747 -18.571289 7
-0.022910999 1.221802 -18.631836 7
-0.012781 1.1687011 -18.541992 7
0.00055300002 1.11438 -18.423828 7
0.0049530002 1.065063 -18.384766 7
-0.0046879998 1.0224611 -18.474609 7
-0.010767 0.97912598 -18.535156 7
-0.063614003 -0.983154 -17.920898 7
-0.051530998 -1.02356 -17.813477 7
-0.065125003 -1.075317 -17.926758 7
-0.086154997 -1.13147 -18.104492 7
-0.074743003 -1.171997 -18.003906 7
-0.061965998 -1.210815 -17.889648 7
-0.086391002 -1.270264 -18.095703 7
-0.26609999 -4.2296138 -19.205078 7
-0.277031 -4.2974849 -19.286133 7
-0.282547 -4.3560791 -19.322266 7
-0.27722201 -4.3953862 -19.266602 7
-0.271898 -4.4344478 -19.209961 7
-0.018932 0.923096 -17.56543 7
-0.021015 0.87902802 -17.584961 7
-0.015667001 0.831909 -17.540039 7
-0.0028899999 0.78259301 -17.430664 7
-0.000252 0.73706102 -17.40918 7
0.0050889999 0.69067401 -17.364258 7
-0.0051020002 0.64929199 -17.453125 7
-0.083434999 -1.32605 -16.947266 7
-0.072763003 -1.363037 -16.856445 7
-0.072824001 -1.406128 -16.853516 7
-0.068582997 -1.446655 -16.81543 7
-0.26683599 -4.4927979 -17.916992 7
-0.29138401 -4.3737788 -17.013672 7
-0.10253 4.7967529 -15.441406 7
-0.106344 4.7645259 -15.480469 7
-0.109394 4.7305908 -15.513672 7
-0.117723 4.7072749 -15.586914 7
-0.13664199 4.7052002 -15.737305 7
-0.141211 4.6734619 -15.782227 7
-0.116329 4.5828862 -15.608398 7
-0.107298 4.5244141 -15.551758 7
-0.105825 4.4812012 -15.550781 7
-0.019291 -0.35363799 -14.482422 7
-0.022555999 -0.39208999 -14.504883 7
-0.025806 -0.43042001 -14.526367 7
-0.024937 -0.47167999 -14.598633 7
-0.023403 -0.50927699 -14.585938 7
-0.019444 -0.546143 -14.556641 7
-0.023518 -0.584961 -14.583008 7
-0.028385 -0.62439001 -14.617188 7
-0.039034002 -0.66784698 -13.878906 7
-0.048372 -0.70703101 -13.94043 7
-0.047579002 -0.74291998 -13.933594 7
-0.045954 -0.778687 -13.918945 7
-0.039257001 -0.8125 -13.871094 7
-0.038470998 -0.84838903 -13.863281 7
-0.040217999 -0.88501 -13.873047 7
-0.054611001 -0.92736799 -13.969727 7
-0.067863002 -1.298218 -14.02832 7
-0.070455998 -1.336182 -14.041992 7
-0.283005 -4.4912109 -14.90918 7
-0.281387 -4.5266109 -14.887695 7
-0.28147101 -4.5653081 -14.876953 7
-0.28410301 -4.608398 -14.881836 7
-0.29434001 -4.6660161 -14.9375 7
-0.29527101 -4.706543 -14.932617 7
-0.30127501 -4.7563481 -14.959961 7
-0.061446998 -0.98718297 -13.236328 7
-0.052629001 -1.017822 -13.175781 7
-0.046482 -1.049438 -13.132812 7
-0.056283999 -1.088501 -13.194336 7
-0.074972004 -1.1324461 -13.311523 7
-0.066177003 -1.1624759 -13.25 7
-0.064452998 -1.196411 -13.236328 7
-0.070731997 -1.234253 -13.273438 7
-0.069008 -1.268188 -13.259766 7
-0.29054299 -4.499023 -14.076172 7
-0.28706399 -4.5291748 -14.043945 7
-0.28624901 -4.5640869 -14.02832 7
-0.28720999 -4.6022949 -14.021484 7
-0.292786 -4.648315 -14.042969 7
-0.070649996 -1.307983 -12.563477 7
-0.067925997 -1.339233 -12.542969 7
-0.062389001 -1.369019 -12.506836 7
-0.083855003 -1.415161 -12.634766 7
-0.072793998 -1.474365 -12.558594 7
-0.087797001 -1.5506589 -12.643555 7
-0.099956997 -1.592285 -12.71582 7
-0.285189 -4.518311 -13.234375 7
-0.28806499 -4.558105 -13.241211 7
-0.284412 -4.585815 -13.208008 7
-0.28363401 -4.6533198 -13.180664 7
-0.279057 -4.6787109 -13.141602 7
-0.307129 -4.7668462 -13.294922 7
-0.098415002 4.752686 -11.950195 7
-0.103062 4.7303472 -11.989258 7
-0.105862 4.704102 -12.017578 7
-0.107731 4.6760249 -12.039062 7
-0.110544 4.6496582 -12.066406 7
-0.118898 4.6342769 -12.126953 7
-0.130997 4.6262212 -12.207031 7
-0.126366 4.5845952 -12.191406 7
-0.109715 4.5194092 -12.103516 7
-0.113443 4.4943848 -12.135742 7
-0.062199 -1.3006589 -11.816406 7
-0.080871999 -1.37439 -11.918945 7
-0.072176002 -1.431885 -11.861328 7
-0.072237 -1.463379 -11.857422 7
-0.076196998 -1.497192 -11.875977 7
-0.089951001 -1.537964 -11.953125 7
-0.092941001 -1.571411 -11.96582 7
-0.28352699 -4.5202641 -12.424805 7
-0.28458801 -4.55481 -12.418945 7
-0.28269601 -4.5838618 -12.398438 7
-0.28178999 -4.6147461 -12.381836 7
-0.28971499 -4.6619868 -12.414062 7
-0.30163801 -4.7498779 -12.457031 7
-0.38497001 -6.1036382 -12.433594 7
-0.39692301 -6.1975098 -12.467773 7
-0.383347 -6.2297359 -12.365234 7
-0.39137799 -6.314209 -12.376953 7
-0.39637601 -6.3587651 -12.387695 7
-0.105625 4.7720952 -11.235352 7
-0.098821998 4.7277832 -11.208984 7
-0.097860001 4.6955571 -11.214844 7
-0.100798 4.6716309 -11.242188 7
-0.100821 4.6413569 -11.25293 7
-0.103765 4.617188 -11.279297 7
-0.115475 4.610352 -11.356445 7
-0.128159 4.6052251 -11.438477 7
-0.122339 4.5631099 -11.416016 7
-0.114567 4.5172119 -11.383789 7
-0.064106002 -1.302979 -11.229492 7
-0.065196998 -1.333496 -11.232422 7
-0.066265002 -1.364014 -11.234375 7
-0.084702998 -1.405396 -11.333984 7
-0.086801998 -1.43689 -11.342773 7
-0.076641001 -1.460327 -11.28125 7
-0.076687001 -1.4906009 -11.27832 7
-0.079813004 -1.522583 -11.291016 7
-0.085984997 -1.556885 -11.322266 7
-0.098311998 -1.595459 -11.386719 7
-0.29214901 -4.4893799 -11.800781 7
-0.28915 -4.5152588 -11.774414 7
-0.286154 -4.5405269 -11.746094 7
-0.28725201 -4.57373 -11.741211 7
-0.285276 -4.6008301 -11.71875 7
-0.28330001 -4.6282959 -11.698242 7
-0.289518 -4.6707759 -11.71875 7
-0.29779401 -4.7175288 -11.750977 7
-0.30504 -4.762207 -11.77832 7
-0.308191 -4.7993159 -11.783203 7
-0.057158999 -1.29248 -10.575195 7
-0.059356999 -1.322144 -10.583008 7
-0.059409998 -1.350464 -10.579102 7
-0.063749 -1.38147 -10.599609 7
-0.076664001 -1.417847 -10.665039 7
-0.082073003 -1.449829 -10.69043 7
-0.070332997 -1.470947 -10.623047 7
-0.075741 -1.502808 -10.648438 7
-0.079006001 -1.533569 -10.662109 7
-0.077976003 -1.5612791 -10.652344 7
-0.085557997 -1.595093 -10.6875 7
-0.287718 -4.5 -11.053711 7
-0.28779399 -4.5294189 -11.042969 7
-0.28248599 -4.5488281 -11.004883 7
-0.28363001 -4.5802002 -10.999023 7
-0.28477499 -4.6115718 -10.994141 7
-0.28162399 -4.6348882 -10.966797 7
-0.28813699 -4.67627 -10.988281 7
-0.29573601 -4.7199712 -11.014648 7
-0.30011401 -4.757812 -11.025391 7
-0.302349 -4.7911382 -11.024414 7
-0.070303001 -1.297974 -10.115234 7
-0.062508002 -1.320557 -10.071289 7
-0.062560998 -1.347778 -10.068359 7
-0.063721001 -1.375488 -10.071289 7
-0.060417 -1.400757 -10.050781 7
-0.076131999 -1.437866 -10.126953 7
-0.084018998 -1.470093 -10.164062 7
-0.072874002 -1.4901119 -10.102539 7
-0.076277003 -1.519531 -10.117188 7
-0.077459 -1.547729 -10.118164 7
-0.074124999 -1.572632 -10.097656 7
-0.29279101 -4.4819341 -10.473633 7
-0.29736099 -4.518188 -10.484375 7
-0.29855201 -4.5483398 -10.478516 7
-0.29076201 -4.5620122 -10.430664 7
-0.290838 -4.5899658 -10.419922 7
-0.29090101 -4.618042 -10.40918 7
-0.290977 -4.645874 -10.397461 7
-0.29103899 -4.6738281 -10.386719 7
-0.30346501 -4.7253418 -10.43457 7
-0.308018 -4.7619629 -10.444336 7
-0.309223 -4.7921138 -10.438477 7
-0.072851002 -1.294922 -9.6230469 7
-0.064735003 -1.3162839 -9.5800781 7
-0.064773999 -1.342285 -9.5761719 7
-0.065986998 -1.368896 -9.5791016 7
-0.066024996 -1.394897 -9.5761719 7
-0.085941002 -1.433472 -9.6689453 7
-0.088321999 -1.461182 -9.6767578 7
-0.081358001 -1.482788 -9.6396484 7
-0.083743997 -1.510498 -9.6474609 7
-0.083798997 -1.536499 -9.6435547 7
-0.076825999 -1.557861 -9.6054688 7
-0.09206 -1.594604 -9.6757812 7
-0.065261997 -1.2861331 -9.1181641 7
-0.077490002 -1.317993 -9.1708984 7
-0.062905997 -1.3343509 -9.1005859 7
-0.06662 -1.36145 -9.1132812 7
-0.069099002 -1.387939 -9.1220703 7
-0.065482996 -1.410522 -9.1015615 7
-0.074051 -1.440796 -9.1386719 7
-0.081387997 -1.470459 -9.1689453 7
-0.082663 -1.4962161 -9.1699219 7
-0.082708001 -1.52124 -9.1669922 7
-0.077881001 -1.542969 -9.140625 7
-0.084013 -1.572266 -9.1650391 7
-0.077972002 -1.592896 -9.1328115 7
-0.40540501 -6.3225098 -8.9560547 7
-0.40916601 -6.3560791 -8.9550781 7
-0.102459 4.757812 -8.2207031 7
-0.096394002 4.722168 -8.2060547 7
-0.092753999 4.691895 -8.2021484 7
-0.092763998 4.6689448 -8.2128906 7
-0.092763998 4.645874 -8.2246094 7
-0.096409 4.630249 -8.2509766 7
-0.098866001 4.6123052 -8.2714844 7
-0.107355 4.6062012 -8.3193359 7
-0.111002 4.59021 -8.3457031 7
-0.064608 -1.298828 -8.6337891 7
-0.054469999 -1.316772 -8.5859385 7
-0.053288002 -1.363037 -8.5732422 7
-0.055874001 -1.38855 -8.5820312 7
-0.066225 -1.489502 -8.6132812 7
-0.070078 -1.515869 -8.6259766 7
-0.070169002 -1.5632319 -8.6191406 7
-0.29171199 -4.5987549 -8.703125 7
-0.293062 -4.6248779 -8.6972656 7
-0.29317701 -4.672729 -8.6757812 7
-0.30351299 -4.7398682 -8.6943359 7
-0.311232 -4.7781978 -8.7138672 7
-0.40056199 -6.2810059 -8.3105469 7
-0.39302599 -6.308228 -8.2519531 7
-0.39694601 -6.3404541 -8.2509766 7
-0.39702201 -6.3634028 -8.2363281 7
-0.397091 -6.3861079 -8.2207031 7
-0.106503 4.7913818 -7.679688 7
-0.103962 4.7644038 -7.6806641 7
-0.091283999 4.7164311 -7.641602 7
-0.082419999 4.6766362 -7.617188 7
-0.078621 4.6470952 -7.6132808 7
-0.081146002 4.6307368 -7.6337891 7
-0.079879999 4.606689 -7.640625 7
-0.079894997 4.585083 -7.6503911 7
-0.079894997 4.563354 -7.6621089 7
-0.079910003 4.541748 -7.672852 7
-0.084976003 4.530273 -7.704102 7
-0.098927997 4.536377 -7.7714839 7
-0.104023 4.5244141 -7.8017578 7
-0.105282 4.5048828 -7.8183589 7
-0.077187002 -1.298828 -8.2744141 7
-0.078544997 -1.3223881 -8.2763672 7
-0.079910003 -1.346069 -8.2792969 7
-0.069375999 -1.3625489 -8.2304688 7
-0.073389001 -1.387939 -8.2441406 7
-0.076064996 -1.412231 -8.2519531 7
-0.073464997 -1.433472 -8.2382812 7
-0.084091 -1.463135 -8.2792969 7
-0.093411997 -1.492065 -8.3144531 7
-0.092115 -1.51416 -8.3056641 7
-0.085533001 -1.532593 -8.2744141 7
-0.086914003 -1.556396 -8.2744141 7
-0.088270001 -1.580322 -8.2773438 7
-0.085662998 -1.6011961 -8.2617188 7
-0.094976 -1.6307369 -8.2978516 7
-0.30506101 -4.504395 -8.3125 7
-0.30513799 -4.5273442 -8.3017578 7
-0.31050101 -4.559937 -8.3115234 7
-0.31188199 -4.5853271 -8.3056641 7
-0.30929601 -4.6035161 -8.2841797 7
-0.308029 -4.624023 -8.2685547 7
-0.30410001 -4.6394038 -8.2421885 7
-0.30416101 -4.662231 -8.2314453 7
-0.30555701 -4.6873779 -8.2246094 7
-0.30960801 -4.717773 -8.2285156 7
-0.30700701 -4.7355962 -8.2080078 7
-0.31105801 -4.7658691 -8.2109385 7
-0.31510201 -4.7961431 -8.2158203 7
-0.121172 4.6253662 -7.3623052 7
-0.119844 4.6018071 -7.3691411 7
-0.11854 4.5782471 -7.374023 7
-0.118532 4.557373 -7.3857422 7
-0.114582 4.528564 -7.3808589 7
-0.10799 4.4946289 -7.3662109 7
-0.29870799 -4.5013428 -7.7900391 7
-0.30290401 -4.5307622 -7.7939448 7
-0.30435401 -4.5550542 -7.7880859 7
-0.30441499 -4.5767822 -7.7773442 7
-0.30169901 -4.5933838 -7.7568359 7
-0.29622099 -4.6048579 -7.7255859 7
-0.294918 -4.6236572 -7.7089839 7
-0.29497901 -4.6452641 -7.6982422 7
-0.296413 -4.6694341 -7.6923828 7
-0.30337 -4.703979 -7.7060552 7
-0.3062 -4.730835 -7.7050781 7
-0.30765 -4.7550049 -7.6982422 7
-0.30632201 -4.7738042 -7.6816411 7
-0.29156899 -4.4821782 -7.328125 7
-0.29305601 -4.5054932 -7.3222661 7
-0.30028 -4.539185 -7.3369141 7
-0.29317901 -4.5467529 -7.3007808 7
-0.300394 -4.5805659 -7.3154302 7
-0.303339 -4.6063228 -7.313477 7
-0.30051801 -4.6217041 -7.2929692 7
-0.29482701 -4.6314702 -7.2617192 7
-0.29488799 -4.6521001 -7.250977 7
-0.29781699 -4.677856 -7.249023 7
-0.30074701 -4.7037349 -7.2480469 7
-0.30224201 -4.7268071 -7.2412109 7
-0.300854 -4.7445068 -7.2255859 7
-0.29948801 -4.7623291 -7.2089839 7
-0.308153 -4.7991939 -7.2275391 7
-0.30207399 -4.4819341 -6.936523 7
-0.30659699 -4.5097661 -6.9414058 7
-0.297703 -4.5133061 -6.9003911 7
-0.296276 -4.5300288 -6.8837891 7
-0.29931301 -4.5551758 -6.882812 7
-0.30830601 -4.5913091 -6.9023442 7
-0.30538401 -4.6053472 -6.8808589 7
-0.305437 -4.6248779 -6.8701172 7
-0.30848899 -4.6500239 -6.8681641 7
-0.30704701 -4.666748 -6.8525391 7
-0.296673 -4.666626 -6.8066411 7
-0.30268499 -4.6972661 -6.8154302 7
-0.304234 -4.719604 -6.8095698 7
-0.311739 -4.7532959 -6.8232422 7
-0.308817 -4.7668462 -6.8017578 7
-0.305897 -4.7806401 -6.780273 7
-0.401344 -6.374023 -6.0654302 7
-0.39843801 -6.3842769 -6.0419922 7
-0.39701301 -6.3980708 -6.0224609 7
-0.296736 -4.721436 -6.3779302 7
-0.306095 -4.776001 -6.3857422 7
-0.29182199 -4.4910889 -6.0800781 7
-0.30308899 -4.5290532 -6.1035161 7
-0.29674301 -4.5350342 -6.0732422 7
-0.291998 -4.5440669 -6.047852 7
-0.29685 -4.570435 -6.0517578 7
-0.30010799 -4.5939941 -6.0498052 7
-0.300161 -4.6115718 -6.0380859 7
-0.301817 -4.6323242 -6.032227 7
-0.29065701 -4.6287842 -5.9882808 7
-0.29712501 -4.6582031 -5.9951172 7
-0.29556799 -4.672852 -5.9794922 7
-0.29241899 -4.6842041 -5.9599609 7
-0.29567501 -4.7077641 -5.9580078 7
-0.298933 -4.7310791 -5.9560552 7
-0.295782 -4.7424321 -5.9355469 7
-0.29423499 -4.7567139 -5.9189448 7
-0.300695 -4.786377 -5.9267578 7
-0.386852 -6.2637939 -5.1123052 7
-0.383717 -6.2713618 -5.0888672 7
-0.38378501 -6.2866211 -5.0732422 7
-0.39024699 -6.3178711 -5.0742192 7
-0.388706 -6.328979 -5.0556641 7
-0.390369 -6.3482671 -5.0439448 7
-0.390423 -6.363647 -5.0292969 7
-0.385685 -6.3668208 -5.0019531 7
-0.38894299 -6.3898931 -4.9960942 7
-0.111526 4.787354 -5.110352 7
-0.108345 4.7652588 -5.1123052 7
-0.298994 -4.4822998 -5.717773 7
-0.29074901 -4.4840088 -5.6835942 7
-0.290802 -4.5006099 -5.672852 7
-0.28919199 -4.5142822 -5.657227 7
-0.29422599 -4.5402832 -5.6611328 7
-0.297598 -4.5629878 -5.6591802 7
-0.30096999 -4.585815 -5.6582031 7
-0.29775 -4.6131592 -5.6269531 7
-0.29615599 -4.6265869 -5.610352 7
-0.294548 -4.6401372 -5.5957031 7
-0.292923 -4.653564 -5.5800781 7
-0.29304501 -4.686523 -5.5576172 7
-0.294754 -4.7061772 -5.5517578 7
-0.30143499 -4.735229 -5.5585942 7
-0.289864 -4.7294922 -5.514648 7
-0.29495999 -4.771729 -5.5068359 7
-0.121054 4.7996831 -4.7480469 7
-0.114449 4.7713618 -4.7412109 7
-0.111145 4.7497559 -4.7441411 7
-0.109474 4.7315669 -4.750977 7
-0.111115 4.7202148 -4.765625 7
-0.104509 4.6920171 -4.7597661 7
-0.099565998 4.6669922 -4.7568359 7
-0.094600998 4.6424561 -4.7548828 7
-0.083044 4.6040039 -4.734375 7
-0.073151 4.5693359 -4.7167969 7
-0.083035998 4.574707 -4.7568359 7
-0.083021 4.559937 -4.7675781 7
-0.081381001 4.5418701 -4.7724609 7
-0.079709999 4.5236821 -4.7792969 7
-0.081366003 4.5123291 -4.7939448 7
-0.083006002 4.5007319 -4.8095698 7
-0.086291999 4.49231 -4.8300781 7
-0.112686 4.4841309 -4.945312 7
-0.29258701 -4.7896729 -5.0957031 7
-0.097430997 4.4876709 -4.5185552 7
-0.102549 4.483521 -4.5429692 7
-0.28817201 -4.4888921 -4.936523 7
-0.29177901 -4.510498 -4.9335942 7
-0.275837 -4.4962158 -4.882812 7
-0.28476101 -4.5273442 -4.8945308 7
-0.27592799 -4.5258789 -4.8613281 7
-0.29018599 -4.566895 -4.8867192 7
-0.29558599 -4.5916748 -4.8886719 7
-0.299171 -4.6131592 -4.8876948 7
-0.29211599 -4.6147461 -4.858398 7
-0.297501 -4.6395259 -4.860352 7
-0.299339 -4.6575928 -4.8535161 7
-0.30292499 -4.6791992 -4.8525391 7
-0.29409799 -4.677002 -4.8183589 7
-0.29059801 -4.6850591 -4.797852 7
-0.295975 -4.7098389 -4.7998052 7
-0.29068899 -4.714355 -4.7753911 7
-0.29429099 -4.7355962 -4.7724609 7
-0.29967499 -4.7606201 -4.7753911 7
-0.29616499 -4.7684331 -4.7548828 7
-0.29443601 -4.7792969 -4.7392578 7
-0.112724 4.7790532 -3.992188 7
-0.112709 4.7661128 -4.0029302 7
-0.107401 4.742188 -4.000977 7
-0.098553002 4.71106 -3.992188 7
-0.112686 4.7272949 -4.0371089 7
-0.112686 4.7142329 -4.047852 7
-0.112665 4.7010498 -4.0595698 7
-0.109125 4.6810298 -4.061523 7
-0.096729003 4.642334 -4.0439448 7
-0.098499 4.632935 -4.0585942 7
-0.091406003 4.6055908 -4.0517578 7
-0.091398001 4.5924072 -4.063477 7
-0.089621 4.5759282 -4.070312 7
-0.087834999 4.5592041 -4.0761719 7
-0.093135998 4.5566411 -4.1005859 7
-0.094906002 4.5471191 -4.1152339 7
-0.087828003 4.5196528 -4.1074219 7
-0.087805003 4.5065918 -4.1191411 7
-0.089566998 4.4967041 -4.1347661 7
-0.087797001 4.480103 -4.139648 7
-0.077262998 -1.726227 7.58638 7
-0.069925003 -1.792562 7.2832761 7
-0.056678999 -1.798852 6.9981928 7
-0.042555999 -1.641028 7.0112801 7
-0.042388 -1.794578 6.7334218 7
-0.027561 -1.64543 6.7481079 7
-0.066108003 -1.794468 6.505383 7
-0.052708 -1.6589611 6.5314889 7
-0.081456997 -1.4632111 -9.3493605 7
-0.31938201 -4.5535498 -10.92111 7
-0.017907999 -1.388566 -7.2753611 7
-0.292283 -4.591814 -8.8955994 7
-0.38474801 -6.3013749 -8.8482475 7
-0.26457599 -4.59482 -7.266427 7
-0.23817199 -4.5770569 -5.9392471 7
-0.054889999 -1.589276 -4.2199202 7
-0.307832 -4.5445051 -4.8427901 7
-0.050469 -1.544855 -3.654351 7
-0.251122 -4.7147942 -2.4190691 7
-0.028968001 -1.854095 7.5778551 7
-0.01486 -1.665103 7.5651059 7
-0.059888002 -1.802181 7.3166041 7
-0.055011 -1.6300319 7.341538 7
-0.048367001 -1.759921 7.1000161 7
-0.030751999 -1.8658971 6.8340449 7
-0.026187999 -1.713672 6.8619628 7
-0.268897 -4.7180538 1.064481 7
-0.25499499 -4.7550921 1.249269 7
-0.29381001 -5.0756612 4.58671 7
-0.274959 -4.9575372 4.7342958 7
-0.019509001 -1.822849 6.653801 7
-0.010219 -1.67504 6.6633859 7
-0.291803 -4.5111718 1.184888 7
-0.28603101 -4.7013679 1.658383 7
-0.27028501 -4.7109652 1.835224 7
-0.31533799 -4.9424701 4.1850929 7
-0.30442601 -4.8666501 4.340147 7
-0.31127101 -4.8377762 4.50805 7
-0.044312 -1.7807 6.4804149 7
-0.033034999 -1.6391979 6.4831748 7
-0.26045001 -4.499691 1.744751 7
-0.26406699 -4.56321 1.891112 7
-0.089478001 4.7521272 -14.911798 7
-0.072773002 4.6815958 -11.441168 7
-0.19234701 4.6495538 -7.44625 7
0.036552001 1.323303 -5.7433448 7
0.051874999 1.288672 -4.7855539 7
-0.0042869998 -0.63798398 -14.675283 7
-0.14364199 -1.432783 -12.027328 7
-0.176901 4.7579012 -11.984002 7
-0.094700001 -1.461889 -9.521286 7
-0.318555 -4.5219932 -12.39046 7
-0.079411998 -1.522475 -8.1279211 7
-0.105033 4.533453 -7.4545798 7
-0.059268001 -1.537811 -7.0073171 7
-0.27516201 -4.5936399 -8.6381178 7
-0.253564 -4.7853861 -8.2637634 7
-0.098709002 -1.543756 -6.1627069 7
-0.333251 -4.5281749 -7.305017 7
-0.31177399 -4.6757212 -6.977294 7
-0.032478999 1.499228 -5.5257521 7
-0.023366001 1.287694 -5.4942808 7
-0.054740001 -1.295482 -5.356401 7
-0.066459 -1.507272 -5.401628 7
-0.29454899 -4.6112542 -6.0004902 7
-0.020179 1.495875 -4.9836688 7
-0.016309001 1.3203371 -5.0034609 7
-0.26904699 -4.6479602 -4.94591 7
-0.011559 1.49482 -4.552278 7
-0.002051 1.320911 -4.5351639 7
-0.033989999 -1.484465 -4.4335122 7
-0.23870499 -4.7291398 -3.7742391 7
-0.052870002 -1.334812 -4.1016269 7
-0.058910999 -1.477756 -4.0834551 7
-0.042135999 -1.3401949 -3.8102219 7
-0.048617002 -1.472507 -3.7910199 7
-0.033365998 -1.34355 -3.5595829 7
-0.041347999 -1.469986 -3.5443721 7
-0.027842 -1.349791 -3.3484581 7
-0.035188999 -1.46576 -3.326957 7
