# .PCD v0.7 - Point Cloud Data file format
VERSION 0.7
FIELDS x y z intensity
SIZE 4 4 4 4
TYPE F F F F
COUNT 1 1 1 1
WIDTH 815
HEIGHT 1
VIEWPOINT 0 0 0 1 0 0 0
POINTS 815
DATA ascii
-0.57302499 -2.319458 73.962891 7
-0.5812 -0.94677699 74.257812 7
-0.094495997 4.5371089 -67.835938 7
-0.16459499 4.506958 -69.972656 7
-0.58956701 -5.5449219 67.189453 7
-0.65255499 -5.5117192 68.701172 7
-0.71455199 -5.469727 70.189453 7
-0.77480102 -5.41748 71.636719 7
-0.56707197 -2.4051509 66.935547 7
-0.520105 0.079712003 65.9375 7
0.032823998 4.513916 -56.864258 7
-0.027373999 4.4976811 -58.50293 7
-0.086741999 4.4720459 -60.118164 7
-0.030990999 4.2194819 -58.610352 7
-0.094006002 4.192749 -60.326172 7
0.002991 0.922607 -57.704102 7
0.003853 0.78185999 -57.675781 7
-0.69069701 -5.5621338 63.854492 7
-0.72431397 -5.4779048 64.601562 7
-0.49608999 0.070923001 60.0625 7
-0.46680999 0.34521499 59.428711 7
-0.494396 3.2706299 60.041992 7
-0.43041599 3.3283689 58.638672 7
-0.047453001 4.5023189 -53.329102 7
-0.077301003 4.430542 -54.068359 7
-0.024769001 4.1984859 -52.783203 7
-0.062702 4.1395259 -53.720703 7
-0.12056 4.1116939 -55.149414 7
-0.15840501 -2.87854 -50.077148 7
-0.44301 0.190308 54.019531 7
-0.392021 0.309082 53.000977 7
-0.42164201 0.436279 53.59668 7
-0.48956701 3.371948 54.991211 7
-0.442186 3.437134 54.037109 7
-0.388695 3.489624 52.960938 7
-0.028963 4.3961182 -47.746094 7
-0.053732 4.3270259 -48.304688 7
0.0063689998 4.0955811 -46.974609 7
-0.038842998 4.0632319 -47.986328 7
-0.066761002 3.995239 -48.613281 7
-0.158897 4.0349121 -50.669922 7
-0.167587 -2.6665039 -46.298828 7
-0.164598 -3.0012209 -46.208984 7
-0.13366701 -3.0726321 -45.572266 7
-0.437206 0.29101601 50.231445 7
-0.370794 0.39636201 48.998047 7
-0.40547201 0.51623499 49.645508 7
-0.35006699 0.616943 48.616211 7
-0.44249299 3.5419919 50.298828 7
-0.40377799 3.604248 49.573242 7
-0.044447001 4.4078369 -44.205078 7
-0.078658998 4.365479 -44.913086 7
-0.120543 4.3339839 -45.780273 7
-0.057232 3.99646 -44.494141 7
-0.087178998 3.939209 -45.116211 7
-0.14528801 3.9265139 -46.314453 7
-0.0073469998 0.68041998 -43.200195 7
-0.38821799 -2.6516111 45.28125 7
-0.40998101 -2.5693359 45.661133 7
-0.419783 -2.4737549 45.835938 7
-0.32616201 0.35949701 44.368164 7
-0.32143199 0.56213403 44.290039 7
-0.39176601 3.507935 45.470703 7
-0.33588001 3.6364751 44.50293 7
-0.078244999 4.580811 -40.755859 7
-0.081166998 4.4862061 -40.819336 7
-0.102777 4.4277339 -41.231445 7
-0.123144 4.3647461 -41.619141 7
-0.161268 4.3328862 -42.339844 7
0.022526 0.82397503 -39.012695 7
-8.1999999e-05 0.735596 -39.43457 7
-0.026743 0.450073 -39.930664 7
0.0088630002 0.249634 -39.258789 7
0.007154 0.15307599 -39.289062 7
0.034187 0.055785999 -38.78125 7
0.002571 -0.049561001 -35.995117 7
0.012922 -0.22570799 -35.813477 7
-0.36930999 -2.5401609 41.851562 7
-0.38908201 -2.463501 42.172852 7
-0.404423 -2.381104 42.422852 7
-0.31894901 0.332275 41.21875 7
-0.30298999 0.42382801 40.96582 7
-0.32711801 0.52270502 41.350586 7
-0.298298 0.61022902 40.893555 7
-0.39179 3.5487061 42.305664 7
-0.36301601 3.605103 41.84375 7
-0.336447 3.6624761 41.416016 7
-0.32675901 3.743042 41.254883 7
-0.074161999 4.5871582 -37.375 7
-0.098915003 4.5440669 -37.808594 7
-0.120272 4.4924321 -38.18457 7
-0.144361 4.4442139 -38.607422 7
-0.182272 4.4199219 -39.269531 7
-0.014505 0.86364698 -36.516602 7
-0.034933001 0.78064001 -36.868164 7
-0.045979999 0.130493 -36.830078 7
-0.037640002 -0.117432 -33.691406 7
0.013422 -0.277466 -32.87793 7
0.0091110002 -0.441284 -32.94043 7
-0.31505999 -2.466553 37.918945 7
-0.34606701 -2.409668 38.378906 7
-0.34835601 -2.324219 38.419922 7
-0.37059999 -2.256104 38.751953 7
-0.28807101 0.475952 37.661133 7
-0.266581 0.72717297 37.348633 7
-0.37511799 3.6086431 38.865234 7
-0.35988399 3.6755371 38.636719 7
-0.333893 3.725708 38.25 7
-0.30793399 3.7736821 37.864258 7
-0.034090001 4.709106 -33.423828 7
-0.044487 4.6478271 -33.597656 7
-0.060772002 4.5978999 -33.863281 7
-0.084053002 4.5609131 -34.239258 7
-0.108088 4.523438 -34.626953 7
-0.143169 4.5056152 -35.188477 7
-0.178617 4.4857178 -35.755859 7
0.031594999 1.2598881 -32.605469 7
-0.0043029999 1.198608 -33.174805 7
0.022136999 1.102905 -32.757812 7
0.002104 1.03125 -33.076172 7
-0.034159001 0.96508801 -33.650391 7
-0.038543999 -0.35229501 -31.243164 7
-0.011992 -0.42431599 -30.849609 7
-0.010504 -0.50036597 -30.826172 7
-0.028507 -0.58129901 -31.087891 7
-0.0031280001 -0.65087903 -30.711914 7
-0.321035 -2.4832759 35.74707 7
-0.328596 -2.4091799 35.857422 7
-0.32297301 -2.3226321 35.787109 7
-0.33349201 -2.250488 35.938477 7
-0.26129201 0.52111799 35.085938 7
-0.29510701 0.60913098 35.552734 7
-0.35856101 3.6131589 36.3125 7
-0.354197 3.689697 36.246094 7
-0.329496 3.7355959 35.900391 7
-0.30100399 3.774292 35.503906 7
0.248491 17.636841 22.145508 7
0.249506 17.678223 22.094727 7
-0.070913002 4.7858891 -31.621094 7
-0.062737003 4.690063 -31.510742 7
-0.086847 4.6611328 -31.875 7
-0.107031 4.6228032 -32.180664 7
-0.13314199 4.594604 -32.574219 7
-0.14466099 4.5361328 -32.75293 7
0.018805999 1.4119869 -30.541992 7
-0.039595 -0.53356898 -28.921875 7
0.001177 -0.665039 -28.357422 7
-0.034391001 -0.74768102 -28.839844 7
-0.053015001 4.7507319 -28.838867 7
-0.069696002 4.713623 -29.076172 7
-0.087233 4.6772461 -29.323242 7
-0.106503 4.6430659 -29.59375 7
-0.131704 4.6196289 -29.945312 7
-0.146694 4.5744629 -30.158203 7
0.0048600002 1.526245 -28.320312 7
0.0064770002 1.454468 -28.301758 7
-0.0085580004 1.393555 -28.508789 7
0.0088250004 1.31189 -28.272461 7
-0.047812998 -0.70739698 -26.913086 7
-0.021221001 -0.76525903 -26.573242 7
-0.037873998 -0.83789098 -26.78125 7
-0.049004 -0.90917999 -26.919922 7
-0.085352004 4.7705078 -27.18457 7
-0.108679 4.750854 -27.490234 7
-0.124264 4.7138672 -27.696289 7
-0.14941201 4.6950679 -28.024414 7
-0.149122 4.5544429 -28.041016 7
-0.0069900001 1.565308 -26.483398 7
-2.7e-05 1.475708 -26.3125 7
-0.0069900001 1.414551 -26.40332 7
-0.027760999 1.36145 -26.668945 7
-0.022324 1.291626 -26.601562 7
-0.036504999 -0.83960003 -24.754883 7
-0.049975999 -0.90685999 -24.90918 7
-0.025359999 -1.020264 -24.613281 7
-0.089598 4.9412842 -25.091797 7
-0.077385001 4.8519292 -24.958984 7
-0.093662001 4.8236079 -25.160156 7
-0.101086 4.7758789 -25.257812 7
-0.117844 4.7470698 -25.464844 7
-0.14197899 4.7321782 -25.756836 7
-0.142544 4.6685791 -25.774414 7
-0.11265 4.5447998 -25.43457 7
-0.025103001 1.651123 -24.682617 7
-0.000105 1.571167 -24.388672 7
-0.0090370001 1.515991 -24.49707 7
-0.029778 1.46814 -24.746094 7
-0.011677 1.3944089 -24.533203 7
-0.011745 1.332886 -24.536133 7
-0.048367999 -0.96227998 -23.148438 7
-0.060626999 -1.026123 -23.28125 7
-0.042151999 -1.075562 -23.074219 7
-0.040107999 -1.132568 -23.048828 7
-0.066699997 -1.20459 -23.336914 7
-0.052999001 -1.255493 -23.182617 7
-0.086158998 4.8991699 -23.231445 7
-0.13897701 4.7727051 -23.850586 7
-0.14797001 4.730957 -23.958984 7
-0.040314 1.727295 -23.103516 7
-0.034777001 1.54834 -23.050781 7
-0.049325999 -1.009277 -21.571289 7
-0.064145997 -1.070557 -21.717773 7
-0.049479 -1.11792 -21.564453 7
-0.046723999 -1.1711431 -21.533203 7
-0.230995 -4.3581538 -23.022461 7
-0.22939301 -4.4130859 -22.995117 7
-0.143639 4.8649902 -22.178711 7
-0.14313699 4.8078609 -22.18457 7
-0.145439 4.7563481 -22.21875 7
-0.13931499 4.6877441 -22.166992 7
-0.037997998 1.722168 -21.475586 7
-0.247971 -4.1807861 -21.712891 7
-0.26254699 -4.2607422 -21.84082 7
-0.26445401 -4.3188481 -21.84668 7
-0.254278 -4.3555908 -21.739258 7
-0.25258401 -4.4069819 -21.710938 7
-0.246628 -4.4508061 -21.643555 7
-0.049061 1.678223 -20.197266 7
-0.024064999 1.557739 -19.960938 7
-0.047476001 1.522949 -20.19043 7
-0.030769 1.460449 -20.032227 7
-0.023065999 1.404663 -19.959961 7
-0.024332 1.3544919 -19.974609 7
-0.033371001 1.30896 -20.06543 7
-0.059078 -0.990601 -18.954102 7
-0.067475997 -1.042603 -19.027344 7
-0.077164002 -1.095703 -19.111328 7
-0.073380999 -1.142334 -19.074219 7
-0.064487003 -1.186035 -18.990234 7
-0.070955001 -1.237793 -19.045898 7
-0.083267003 -1.3419189 -19.150391 7
-0.078226 -1.387329 -19.099609 7
-0.25231901 -4.1881099 -20.286133 7
-0.26912501 -4.2684331 -20.423828 7
-0.274351 -4.3292241 -20.458984 7
-0.26608801 -4.3660889 -20.375 7
-0.25782001 -4.4024658 -20.291016 7
-0.25341201 -4.4458008 -20.240234 7
-0.095053002 4.875854 -18.799805 7
-0.152569 4.751709 -19.365234 7
-0.150061 4.6972661 -19.354492 7
-0.017477 1.266968 -18.589844 7
-0.03091 1.226807 -18.714844 7
-0.028431 1.177734 -18.694336 7
-0.017027 1.124023 -18.591797 7
-0.0068970001 1.071655 -18.500977 7
-0.005684 1.023438 -18.492188 7
-0.014036 0.97985798 -18.570312 7
-0.074839003 -1.079102 -17.948242 7
-0.076258004 -1.12561 -17.957031 7
-0.093285002 -1.1800539 -18.099609 7
-0.075718001 -1.2169189 -17.946289 7
-0.27577001 -4.2858891 -19.214844 7
-0.292835 -4.3647461 -19.347656 7
-0.286818 -4.402832 -19.285156 7
-0.282812 -4.4447021 -19.240234 7
-0.27483401 -4.5273442 -19.151367 7
-0.026136 0.96545398 -17.561523 7
-0.020767 0.91821301 -17.515625 7
-0.024871999 0.875 -17.553711 7
-0.031027 0.83227497 -17.608398 7
-0.025673 0.78539997 -17.5625 7
-0.017593 0.73779303 -17.494141 7
-0.0095079998 0.690552 -17.426758 7
-0.010256 0.64611799 -17.433594 7
-0.010952 0.27990699 -16.351562 7
-0.0081460001 0.237305 -16.329102 7
-0.021139 -0.020508001 -15.467773 7
-0.018919 -0.060424998 -15.449219 7
-0.015936 -0.099976003 -15.425781 7
-0.013702 -0.139893 -15.408203 7
-0.015287 -0.17968801 -15.418945 7
-0.018362001 -0.219971 -15.442383 7
-0.020697 -0.26013201 -15.458008 7
-0.018469 -0.29956099 -15.44043 7
-0.298325 -4.4213872 -17.005859 7
-0.132765 4.9428711 -15.648438 7
-0.105623 4.844604 -15.458008 7
-0.109438 4.8126221 -15.49707 7
-0.14126199 4.7158198 -15.777344 7
-0.150362 4.6929932 -15.856445 7
-0.132277 4.6159668 -15.732422 7
-0.023781 -0.35510299 -14.517578 7
-0.031042 -0.39428699 -14.569336 7
-0.035803001 -0.47509801 -14.631836 7
-0.031835999 -0.51208502 -14.601562 7
-0.03269 -0.55029303 -14.605469 7
-0.027122 -0.58666998 -14.563477 7
-0.027168 -0.62451202 -14.5625 7
-0.032033999 -0.66357398 -14.595703 7
-0.037718002 -0.70324701 -14.634766 7
-0.037771001 -0.74133301 -14.632812 7
-0.032203998 -0.77722198 -14.589844 7
-0.031456001 -0.81494099 -14.582031 7
-0.036322001 -0.85449201 -14.614258 7
-0.046023998 -0.89648402 -14.682617 7
-0.067452997 -1.28894 -14.806641 7
-0.063493997 -1.324829 -14.774414 7
-0.090078004 -1.379272 -14.962891 7
-0.085312001 -1.4150389 -14.923828 7
-0.081344999 -1.45105 -14.891602 7
-0.077393003 -1.487061 -14.858398 7
-0.092710003 -1.535889 -14.966797 7
-0.097600996 -1.578003 -14.99707 7
-0.28478599 -4.5214839 -15.801758 7
-0.27841601 -4.550293 -15.746094 7
-0.28170401 -4.5968022 -15.757812 7
-0.293062 -4.6586909 -15.824219 7
-0.30038601 -4.7133789 -15.864258 7
-0.30369601 -4.760376 -15.874023 7
-0.30216399 -4.7979741 -15.851562 7
-0.1443 4.7302251 -14.767578 7
-0.141928 4.6867681 -14.762695 7
-0.138754 4.6419678 -14.750977 7
-0.041333999 -0.66870099 -13.853516 7
-0.043928001 -0.705688 -13.869141 7
-0.049902 -0.743774 -13.908203 7
-0.055851001 -0.78210402 -13.946289 7
-0.054211002 -0.81787097 -13.932617 7
-0.045828 -0.85107398 -13.873047 7
-0.044172 -0.88647503 -13.859375 7
-0.047612999 -0.92395002 -13.879883 7
-0.054439999 -0.96301299 -13.922852 7
-0.062091999 -1.002686 -13.972656 7
-0.057918999 -1.037231 -13.942383 7
-0.055438999 -1.072144 -13.921875 7
-0.052092001 -1.106812 -13.896484 7
-0.064831004 -1.149536 -13.980469 7
-0.070803002 -1.189087 -14.017578 7
-0.078455001 -1.229736 -14.066406 7
-0.070063002 -1.261597 -14.005859 7
-0.072649002 -1.299683 -14.020508 7
-0.073549002 -1.336548 -14.023438 7
-0.28999701 -4.4963379 -14.918945 7
-0.28923401 -4.5333252 -14.901367 7
-0.28760901 -4.5689702 -14.879883 7
-0.28768501 -4.6074219 -14.869141 7
-0.29962301 -4.6682129 -14.935547 7
-0.30655101 -4.7585449 -14.957031 7
-0.073152997 -0.99182099 -13.272461 7
-0.066997997 -1.023682 -13.229492 7
-0.057248998 -1.053833 -13.165039 7
-0.053746998 -1.086548 -13.139648 7
-0.060026001 -1.124023 -13.175781 7
-0.077836998 -1.167603 -13.289062 7
-0.074329004 -1.200684 -13.263672 7
-0.070843004 -1.233398 -13.237305 7
-0.074444003 -1.270142 -13.257812 7
-0.30546799 -4.481812 -14.145508 7
-0.29752001 -4.5040278 -14.085938 7
-0.291372 -4.5292969 -14.035156 7
-0.29144901 -4.5657959 -14.024414 7
-0.28973201 -4.5991211 -14.001953 7
-0.29069301 -4.637207 -13.99707 7
-0.29967901 -4.6903081 -14.040039 7
-0.307758 -4.742188 -14.079102 7
-0.31050301 -4.7840581 -14.084961 7
-0.29730001 -4.4992681 -13.287109 7
-0.28895599 -4.5185552 -13.226562 7
-0.29090101 -4.5566411 -13.226562 7
-0.289085 -4.5880132 -13.205078 7
-0.29102299 -4.625977 -13.205078 7
-0.28736901 -4.653564 -13.171875 7
-0.29491201 -4.702148 -13.204102 7
-0.313656 -4.7724609 -13.303711 7
-0.30625501 -4.7928472 -13.248047 7
-0.109032 4.7756348 -12.015625 7
-0.10441 4.7340088 -12.000977 7
-0.112778 4.7193599 -12.060547 7
-0.113724 4.689209 -12.077148 7
-0.114677 4.658813 -12.092773 7
-0.122099 4.641602 -12.147461 7
-0.13975701 4.611938 -12.274414 7
-0.13328899 4.5666499 -12.24707 7
-0.114769 4.4979248 -12.147461 7
-0.066092998 -1.3017581 -11.808594 7
-0.064194001 -1.331787 -11.792969 7
-0.078932002 -1.371948 -11.875977 7
-0.084866002 -1.40686 -11.90625 7
-0.075116999 -1.432373 -11.845703 7
-0.078100003 -1.4655761 -11.859375 7
-0.079122998 -1.497559 -11.862305 7
-0.079176001 -1.528809 -11.858398 7
-0.097825997 -1.5732419 -11.963867 7
-0.29380801 -4.5002441 -12.466797 7
-0.28994 -4.5256348 -12.43457 7
-0.287058 -4.5531011 -12.407227 7
-0.28713399 -4.5856929 -12.396484 7
-0.286219 -4.6164551 -12.378906 7
-0.28922299 -4.6546631 -12.384766 7
-0.29911801 -4.7059331 -12.427734 7
-0.300163 -4.740356 -12.421875 7
-0.307096 -4.786499 -12.449219 7
-0.39505199 -6.1195068 -12.461914 7
-0.394144 -6.150146 -12.443359 7
-0.39920199 -6.2272949 -12.44043 7
-0.39534199 -6.2506099 -12.40332 7
-0.39444399 -6.2810059 -12.384766 7
-0.400415 -6.3280029 -12.400391 7
-0.399508 -6.3581538 -12.379883 7
-0.11982 4.7720952 -11.328125 7
-0.111078 4.7235112 -11.291016 7
-0.109125 4.6894531 -11.291992 7
-0.107203 4.6551509 -11.291992 7
-0.119896 4.619873 -11.383789 7
-0.136509 4.592041 -11.498047 7
-0.131651 4.5515141 -11.482422 7
-0.118042 4.4942632 -11.415039 7
-0.080008 -1.28125 -11.293945 7
-0.070823997 -1.305786 -11.239258 7
-0.070877001 -1.335815 -11.235352 7
-0.070914999 -1.365723 -11.232422 7
-0.076071002 -1.3988039 -11.257812 7
-0.094570003 -1.440308 -11.357422 7
-0.086424001 -1.465332 -11.307617 7
-0.081343003 -1.491943 -11.276367 7
-0.086515002 -1.525391 -11.300781 7
-0.082464002 -1.552734 -11.274414 7
-0.100939 -1.595459 -11.374023 7
-0.29535699 -4.4893799 -11.792969 7
-0.302589 -4.533813 -11.820312 7
-0.295479 -4.5518799 -11.771484 7
-0.291437 -4.575562 -11.738281 7
-0.29253599 -4.608398 -11.732422 7
-0.290537 -4.6358638 -11.711914 7
-0.288546 -4.6630859 -11.689453 7
-0.29579401 -4.7076421 -11.71582 7
-0.30304 -4.7523189 -11.743164 7
-0.31028599 -4.7972412 -11.769531 7
-0.064859003 -1.295898 -10.588867 7
-0.066018999 -1.353271 -10.588867 7
-0.074699 -1.415405 -10.62793 7
-0.084409997 -1.450073 -10.675781 7
-0.083387002 -1.477905 -10.666016 7
-0.081276 -1.505249 -10.651367 7
-0.083479002 -1.534912 -10.658203 7
-0.085676 -1.565063 -10.666016 7
-0.094313003 -1.599609 -10.708008 7
-0.29600701 -4.5093989 -11.072266 7
-0.29068899 -4.5291748 -11.035156 7
-0.28750199 -4.5526118 -11.008789 7
-0.289722 -4.585938 -11.007812 7
-0.288715 -4.6132808 -10.992188 7
-0.283382 -4.6324458 -10.954102 7
-0.29098901 -4.676147 -10.980469 7
-0.29973 -4.7512212 -11.000977 7
-0.30625901 -4.7930908 -11.021484 7
-0.395399 -6.2684331 -10.863281 7
-0.39332399 -6.2923579 -10.837891 7
-0.39668801 -6.3581538 -10.823242 7
-0.067835003 -1.29541 -10.079102 7
-0.062272999 -1.3193361 -10.046875 7
-0.064562 -1.347778 -10.054688 7
-0.067956999 -1.376953 -10.069336 7
-0.076964997 -1.409668 -10.111328 7
-0.080383003 -1.439087 -10.125 7
-0.082663998 -1.467773 -10.132812 7
-0.078224003 -1.492188 -10.106445 7
-0.078277998 -1.519531 -10.101562 7
-0.08168 -1.54895 -10.115234 7
-0.085097998 -1.578491 -10.128906 7
-0.29879999 -4.4876709 -10.482422 7
-0.30560499 -4.5281978 -10.50293 7
-0.301157 -4.5479741 -10.47168 7
-0.29560301 -4.5657959 -10.433594 7
-0.293423 -4.5897222 -10.412109 7
-0.29573399 -4.6217041 -10.411133 7
-0.30028701 -4.6582031 -10.421875 7
-0.298105 -4.6818848 -10.400391 7
-0.30940399 -4.7312012 -10.442383 7
-0.315079 -4.769897 -10.457031 7
-0.314026 -4.7957759 -10.441406 7
-0.402998 -6.2915039 -10.220703 7
-0.40306699 -6.3189702 -10.205078 7
-0.402006 -6.3438721 -10.185547 7
-0.40769601 -6.3850098 -10.196289 7
-0.082847998 -1.299805 -9.6494141 7
-0.070017003 -1.318481 -9.5830078 7
-0.067713 -1.3430181 -9.5693359 7
-0.071276002 -1.3712161 -9.5820312 7
-0.067799002 -1.394897 -9.5625 7
-0.079538003 -1.428345 -9.6162109 7
-0.093626 -1.463257 -9.6806641 7
-0.088988997 -1.486572 -9.6542969 7
-0.085518003 -1.510254 -9.6337891 7
-0.086731002 -1.537109 -9.6357422 7
-0.084449999 -1.5617681 -9.6201172 7
-0.089157 -1.590942 -9.6386719 7
-0.409742 -6.3205571 -9.5810547 7
-0.41685101 -6.3640141 -9.5976562 7
-0.41223001 -6.378418 -9.5615234 7
-0.069172002 -1.287598 -9.1152344 7
-0.074091002 -1.315186 -9.1357422 7
-0.071680002 -1.338623 -9.1201172 7
-0.077822 -1.36731 -9.1464844 7
-0.077859998 -1.392212 -9.1425781 7
-0.070583001 -1.412598 -9.1054688 7
-0.080385 -1.443604 -9.1474609 7
-0.080422997 -1.468506 -9.1435547 7
-0.080468997 -1.493652 -9.1396484 7
-0.080507003 -1.518433 -9.1367188 7
-0.085427999 -1.546753 -9.1552734 7
-0.087898001 -1.573486 -9.1630859 7
-0.086709999 -1.597656 -9.1542969 7
-0.40650901 -6.320435 -8.9472656 7
-0.406578 -6.3450928 -8.9326172 7
-0.413984 -6.3874512 -8.9462891 7
-0.40792799 -6.3968511 -8.9082031 7
-0.105782 4.7419429 -8.2490234 7
-0.097290002 4.7015381 -8.2236328 7
-0.094889 4.6737061 -8.2246094 7
-0.094889 4.6506348 -8.2353516 7
-0.103371 4.644897 -8.2822266 7
-0.103386 4.6217041 -8.2939453 7
-0.108244 4.608398 -8.3251953 7
-0.121601 4.6118159 -8.3925781 7
-0.06583 -1.298828 -8.6210938 7
-0.063330002 -1.321045 -8.6064453 7
-0.055730999 -1.3399661 -8.5683594 7
-0.058302 -1.365234 -8.5771484 7
-0.060896002 -1.390503 -8.5849609 7
-0.063467003 -1.415527 -8.59375 7
-0.076243997 -1.44751 -8.6464844 7
-0.080110997 -1.4736331 -8.6591797 7
-0.075047001 -1.494141 -8.6337891 7
-0.073803 -1.51709 -8.625 7
-0.072575003 -1.539795 -8.6152344 7
-0.073886998 -1.564453 -8.6171885 7
-0.079029001 -1.591797 -8.6357422 7
-0.29867399 -4.6071782 -8.7158203 7
-0.30000901 -4.6334229 -8.7109385 7
-0.29878801 -4.6549072 -8.6933594 7
-0.30013099 -4.6812739 -8.6884766 7
-0.30018401 -4.7052002 -8.6767578 7
-0.304066 -4.7363281 -8.6806641 7
-0.31305301 -4.7772222 -8.7060547 7
-0.40278599 -6.3050542 -8.2929688 7
-0.39902699 -6.3183589 -8.2636719 7
-0.39524999 -6.3319092 -8.234375 7
-0.39403 -6.351562 -8.2148438 7
-0.397928 -6.3837891 -8.2138672 7
-0.087231003 4.6867681 -7.6376948 7
-0.083416 4.657227 -7.6347661 7
-0.083407998 4.6357422 -7.6455078 7
-0.088490002 4.6243901 -7.6767578 7
-0.084794998 -1.302246 -8.2880859 7
-0.087481 -1.326538 -8.296875 7
-0.074261002 -1.341675 -8.2373047 7
-0.071644001 -1.362915 -8.2226562 7
-0.074329004 -1.387207 -8.2304688 7
-0.078341998 -1.41272 -8.2441406 7
-0.085009001 -1.439819 -8.2695312 7
-0.091692001 -1.466797 -8.2929688 7
-0.098351002 -1.494019 -8.3173828 7
-0.094406001 -1.5144041 -8.296875 7
-0.091790996 -1.535522 -8.2822266 7
-0.090508997 -1.5576169 -8.2734385 7
-0.094515003 -1.583252 -8.2861328 7
-0.094553001 -1.6062011 -8.2822266 7
-0.30541599 -4.500854 -8.3007812 7
-0.308117 -4.528687 -8.2998047 7
-0.31082499 -4.556519 -8.2998047 7
-0.31619599 -4.5892329 -8.3095703 7
-0.310947 -4.602417 -8.2783203 7
-0.30701101 -4.6177979 -8.2509766 7
-0.30574599 -4.6383061 -8.2353516 7
-0.30711699 -4.6635742 -8.2285156 7
-0.307165 -4.6862788 -8.2177734 7
-0.309879 -4.7139888 -8.2167969 7
-0.30993301 -4.7368159 -8.2060547 7
-0.31396899 -4.7672119 -8.2099609 7
-0.120916 4.583374 -7.3857422 7
-0.123541 4.5675049 -7.407227 7
-0.120916 4.5412598 -7.407227 7
-0.120924 4.5202641 -7.4179692 7
-0.119612 4.496582 -7.422852 7
-0.30148101 -4.4810791 -7.796875 7
-0.30292299 -4.505127 -7.7910161 7
-0.294678 -4.5118408 -7.75 7
-0.30026099 -4.5437012 -7.7587891 7
-0.30997801 -4.5831299 -7.7851558 7
-0.30451 -4.594604 -7.7529302 7
-0.303175 -4.61377 -7.7373052 7
-0.29631001 -4.622437 -7.7011719 7
-0.299133 -4.6490479 -7.7001948 7
-0.29917899 -4.6707759 -7.6894531 7
-0.29923999 -4.6922612 -7.6777339 7
-0.30066699 -4.7163091 -7.671875 7
-0.304876 -4.7458501 -7.6757808 7
-0.30769199 -4.7724609 -7.6738281 7
-0.29661599 -4.4881592 -7.3349609 7
-0.29811099 -4.5114751 -7.329102 7
-0.301025 -4.5374761 -7.328125 7
-0.29964399 -4.5554199 -7.3125 7
-0.30686799 -4.589478 -7.327148 7
-0.30547899 -4.6071782 -7.311523 7
-0.29837 -4.614502 -7.2744141 7
-0.301285 -4.6403809 -7.2744141 7
-0.29990399 -4.6583252 -7.257812 7
-0.29996499 -4.6787109 -7.2451172 7
-0.30288699 -4.7045898 -7.2451172 7
-0.30437499 -4.7277832 -7.2382808 7
-0.30441999 -4.7481689 -7.2275391 7
-0.30590099 -4.7714839 -7.2216802 7
-0.308828 -4.7974849 -7.219727 7
-0.297203 -4.4892578 -6.8974609 7
-0.31215501 -4.5360112 -6.936523 7
-0.30923301 -4.550415 -6.9160161 7
-0.30033901 -4.5535889 -6.875 7
-0.31529799 -4.6005859 -6.9150391 7
-0.312361 -4.6147461 -6.8935552 7
-0.301994 -4.6149902 -6.8466802 7
-0.29906499 -4.6290278 -6.8261719 7
-0.29910299 -4.648315 -6.8144531 7
-0.30809799 -4.6846919 -6.8330078 7
-0.302185 -4.6928711 -6.8027339 7
-0.300735 -4.7093511 -6.7871089 7
-0.311216 -4.7486572 -6.8095698 7
-0.309784 -4.7652588 -6.7929692 7
-0.30789199 -4.7814941 -6.7773442 7
-0.40287399 -6.3570561 -6.078125 7
-0.40741301 -6.3857422 -6.0761719 7
-0.40447599 -6.3959961 -6.0527339 7
-0.29699099 -4.6824951 -6.3945308 7
-0.29857799 -4.7038569 -6.3876948 7
-0.29709801 -4.7193599 -6.3710942 7
-0.29868501 -4.7407231 -6.3652339 7
-0.29719701 -4.755981 -6.3486328 7
-0.30185899 -4.7833252 -6.3525391 7
-0.40182301 -6.4102778 -5.5517578 7
-0.40806201 -6.4422612 -5.5527339 7
-0.403494 -6.447144 -5.5253911 7
-0.402006 -6.4597168 -5.5058589 7
-0.40360099 -6.4797359 -5.4951172 7
-0.40212101 -6.49231 -5.4755859 7
-0.40989301 -6.5279541 -5.4804692 7
-0.41303599 -6.5518799 -5.4726558 7
-0.41772801 -6.5799561 -5.46875 7
-0.42241901 -6.6077881 -5.4658198 7
-0.42557001 -6.631958 -5.4570308 7
-0.42717901 -6.6522222 -5.445312 7
-0.29534301 -4.512207 -6.0712891 7
-0.295389 -4.5299072 -6.0605469 7
-0.293825 -4.5445561 -6.0449219 7
-0.295488 -4.565186 -6.039062 7
-0.29872301 -4.5887451 -6.039062 7
-0.29717401 -4.603271 -6.0224609 7
-0.29242301 -4.611938 -5.9970698 7
-0.29727399 -4.6384282 -6.000977 7
-0.29250699 -4.6469731 -5.9755859 7
-0.28936401 -4.6584468 -5.954102 7
-0.29582399 -4.6879878 -5.9619141 7
-0.29907399 -4.7114258 -5.9599609 7
-0.29751 -4.7258301 -5.9443359 7
-0.299173 -4.7460942 -5.9375 7
-0.29600701 -4.7574458 -5.9169922 7
-0.29607001 -4.7747798 -5.905273 7
-0.295847 -4.4907231 -5.6904302 7
-0.29091999 -4.4984131 -5.6660161 7
-0.29427701 -4.5211182 -5.664062 7
-0.30262199 -4.5531011 -5.6767578 7
-0.29935601 -4.5637212 -5.657227 7
-0.29938701 -4.5803218 -5.6464839 7
-0.29612201 -4.5909419 -5.625977 7
-0.29616201 -4.607666 -5.6152339 7
-0.29620001 -4.6242681 -5.6044922 7
-0.287945 -4.6252441 -5.570312 7
-0.29131699 -4.6480708 -5.5683589 7
-0.296352 -4.6738281 -5.5712891 7
-0.29639101 -4.6903081 -5.5605469 7
-0.289799 -4.6943359 -5.530273 7
-0.29482701 -4.7199712 -5.5332031 7
-0.29486501 -4.7364502 -5.5224609 7
-0.29160699 -4.74646 -5.500977 7
-0.29829001 -4.7755132 -5.5087891 7
-0.296673 -4.7885742 -5.4931641 7
-0.115765 4.789062 -4.735352 7
-0.119051 4.78125 -4.7558589 7
-0.115757 4.759644 -4.7587891 7
-0.115742 4.744873 -4.7695308 7
-0.115726 4.730103 -4.78125 7
-0.122324 4.7288818 -4.8095698 7
-0.115719 4.700562 -4.8027339 7
-0.109104 4.6722412 -4.796875 7
-0.094306998 4.626709 -4.766602 7
-0.087692 4.5985112 -4.7597661 7
-0.081087001 4.570435 -4.7519531 7
-0.082742997 4.5592041 -4.7675781 7
-0.089332998 4.5577388 -4.795898 7
-0.089332998 4.5428472 -4.8066411 7
-0.087684996 4.5246582 -4.8125 7
-0.081072003 4.4967041 -4.804688 7
-0.081064001 4.481689 -4.8154302 7
-0.29238501 -4.771729 -5.0996089 7
-0.29244 -4.7871089 -5.0878911 7
-0.119495 4.7980962 -4.367188 7
-0.117764 4.7807622 -4.374023 7
-0.116055 4.7634282 -4.3808589 7
-0.116039 4.7495122 -4.3925781 7
-0.117748 4.7392578 -4.4082031 7
-0.116024 4.7218022 -4.4150391 7
-0.117718 4.7113042 -4.4306641 7
-0.114292 4.6903081 -4.4335942 7
-0.109167 4.665894 -4.4316411 7
-0.104025 4.641602 -4.4287109 7
-0.093764998 4.6069341 -4.4130859 7
-0.088623002 4.58252 -4.4101558 7
-0.088646002 4.5683589 -4.421875 7
-0.090355001 4.5577388 -4.436523 7
-0.092064001 4.5472412 -4.4511719 7
-0.088638 4.5263672 -4.454102 7
-0.088646002 4.5123291 -4.4628911 7
-0.086916 4.4949951 -4.469727 7
-0.088615 4.484375 -4.485352 7
-0.284437 -4.494873 -4.9091802 7
-0.284491 -4.5097661 -4.8994141 7
-0.29164499 -4.5377202 -4.90625 7
-0.28457499 -4.5394292 -4.8769531 7
-0.28461999 -4.5544429 -4.8662109 7
-0.28467399 -4.5692139 -4.8554692 7
-0.295376 -4.6038818 -4.8720698 7
-0.29185301 -4.611938 -4.851562 7
-0.29723701 -4.6368408 -4.8544922 7
-0.29728299 -4.6516109 -4.842773 7
-0.29732901 -4.6662598 -4.8320308 7
-0.302715 -4.6911621 -4.8339839 7
-0.290297 -4.682373 -4.7919922 7
-0.295681 -4.7071528 -4.7939448 7
-0.29394299 -4.7183838 -4.7792969 7
-0.295773 -4.7363281 -4.7724609 7
-0.30115101 -4.76123 -4.773438 7
-0.29586399 -4.7655029 -4.749023 7
-0.29414201 -4.7767329 -4.7324219 7
-0.096359 4.483398 -4.171875 7
-0.059657 4.24966 6.1992102 7
-0.05277 -1.578017 -8.9693289 7
-0.295192 -4.623385 -10.582616 7
-0.013586 -1.495407 -7.1993599 7
-0.27932999 -4.672307 -8.7054892 7
-0.375054 -6.376945 -8.6791639 7
0.015262 -1.433802 -5.8796 7
-0.248128 -4.648191 -7.067667 7
0.017633 -1.393613 -5.0264549 7
-0.233143 -4.6508808 -5.8459749 7
-0.042335998 -1.3524261 -4.1817622 7
-0.303792 -4.6117649 -4.7669249 7
-0.27957201 -4.5840392 -3.892041 7
-0.26745501 -4.57758 -3.1926761 7
-0.24439099 -4.529326 -2.5231359 7
-0.241946 -4.7412081 -2.33092 7
-0.29252499 -4.6782942 -1.772503 7
-0.00636 -1.3422329 -0.55879402 7
-0.021538001 -1.506503 -0.58553499 7
0.0040270002 -1.324928 -0.362304 7
-0.016005 -1.48307 -0.40662101 7
-0.260326 -4.629529 0.96040499 7
-0.262896 -4.7205791 1.115092 7
-0.26209101 -4.7951698 1.27856 7
-0.287025 -4.5173912 1.23049 7
-0.29354 -4.737885 1.688789 7
-0.28310001 -4.7617621 1.860725 7
-0.321145 -5.0790768 3.3448019 7
-0.27908 -4.566 1.760165 7
-0.27360299 -4.6028481 1.918978 7
-0.280761 -4.669692 2.0662949 7
-0.28051299 -4.709167 2.2228341 7
-0.291545 -4.8485899 3.3388939 7
-0.061678998 4.500618 -4.9772229 7
0.037714001 1.229611 -5.7653141 7
-0.085036002 4.2677011 6.2300758 7
-0.089671001 4.3896489 6.090302 7
0.001829 -0.76973701 -14.496968 7
-0.132539 -1.519244 -11.819324 7
-0.18037499 4.662859 -12.077095 7
-0.088125996 -1.532195 -9.4121885 7
-0.392876 -4.5463228 -13.563754 7
-0.070088997 -1.569109 -7.9965091 7
-0.343301 -4.5543079 -10.952373 7
-0.113239 4.5246739 -7.583447 7
-0.036920998 -1.292866 -6.7907972 7
-0.053780001 -1.583346 -6.9333882 7
-0.27314201 -4.6651058 -8.5788307 7
-0.36155999 -6.334949 -8.8802338 7
-0.085208997 -1.3499171 -6.079299 7
-0.092611 -1.579849 -6.0950999 7
-0.33406201 -4.6025119 -7.270607 7
-0.308925 -4.7250099 -6.9139228 7
-0.097093999 4.5705419 -4.3573279 7
-0.035647999 1.272788 -5.6150889 7
-0.041436002 1.095222 -5.708878 7
-0.066661 -1.37102 -5.4411411 7
-0.077624999 -1.58538 -5.4772849 7
-0.290227 -4.641067 -5.9305272 7
-0.090283997 4.3629699 -3.6945989 7
-0.058754001 -1.403621 -4.980885 7
-0.065545999 -1.587054 -4.9767179 7
-0.26377001 -4.6597691 -4.8748722 7
-0.007497 1.4457639 -4.5366139 7
-0.0076549998 1.300131 -4.5878139 7
-0.046131 -1.4116009 -4.5534401 7
-0.250893 -4.669909 -4.003551 7
-0.246179 -4.779439 -3.802098 7
-0.035905 1.445453 -4.176908 7
-0.033319999 1.307725 -4.212471 7
-0.072733998 -1.418945 -4.201838 7
-0.086994 -1.590386 -4.2260661 7
-0.28367701 -4.5518351 -3.1963279 7
-0.28759399 -4.681169 -3.0228231 7
-0.27933699 -4.727313 -2.8151679 7
-0.063281998 -1.425961 -3.9079039 7
-0.073615998 -1.574223 -3.904892 7
-0.25770101 -4.6145968 -1.748942 7
-0.040475 -1.283107 -3.6315229 7
-0.053720001 -1.425563 -3.644604 7
-0.048140999 -1.51603 -3.5622079 7
