# .PCD v0.7 - Point Cloud Data file format
VERSION 0.7
FIELDS x y z intensity
SIZE 4 4 4 4
TYPE F F F F
COUNT 1 1 1 1
WIDTH 819
HEIGHT 1
VIEWPOINT 0 0 0 1 0 0 0
POINTS 819
DATA ascii
-0.55842799 -2.3078611 73.603516 7
-0.54414397 -0.76415998 73.216797 7
-0.469437 -0.57751501 71.258789 7
-0.14421099 4.4545898 -69.181641 7
-0.024453999 1.010986 -64.99707 7
-0.60348701 -5.5748291 67.543945 7
-0.65663302 -5.521729 68.821289 7
-0.73237598 -5.505127 70.636719 7
-0.51248699 -2.5102539 65.647461 7
-0.53034002 -0.226807 66.194336 7
-0.48011401 -0.071898997 65.000977 7
-0.475986 0.078735001 64.907227 7
-0.070118003 4.5733638 -59.539062 7
0.012676 4.265625 -57.303711 7
-0.060185999 4.2644038 -59.280273 7
-0.120783 4.2312012 -60.924805 7
-0.0083849998 0.92334002 -57.876953 7
-0.671112 -5.526123 63.452148 7
-0.68594903 -5.407227 63.791016 7
-0.75925797 -5.394043 65.400391 7
-0.46597901 0.20813 59.305664 7
-0.48024899 0.347168 59.620117 7
-0.51274103 3.2879641 60.333008 7
-0.473225 3.377563 59.46582 7
-0.434259 3.4638669 58.611328 7
-0.065825 4.5288091 -53.676758 7
-0.102888 4.4702148 -54.59082 7
-0.046656001 4.1002202 -53.22168 7
-0.090402998 4.0480962 -54.299805 7
-0.18031301 4.070312 -56.509766 7
-0.122128 -2.7150879 -49.412109 7
-0.193624 -2.923218 -50.975586 7
-0.14951301 -2.990479 -49.994141 7
-0.39834401 0.31018099 53.146484 7
-0.373667 0.42858899 52.654297 7
-0.414516 3.395874 53.393555 7
-0.36307701 3.5705571 52.356445 7
-0.045136999 4.4197998 -48.029297 7
-0.079943001 4.3692632 -48.808594 7
-0.0090119997 4.1165771 -47.238281 7
-0.057983 4.0900879 -48.333008 7
-0.092285 4.0325928 -49.100586 7
-0.178551 4.0606689 -51.022461 7
-0.166811 -2.666626 -46.392578 7
-0.129051 -2.7349851 -45.615234 7
-0.20218299 -2.9360349 -47.091797 7
-0.40415201 0.287476 49.546875 7
-0.41771501 3.503906 49.761719 7
-0.37140301 3.5543211 48.896484 7
-0.066380002 4.3331299 -44.59082 7
-0.099531002 4.2860112 -45.277344 7
-0.14719801 4.2619629 -46.260742 7
-0.071125001 4.0131841 -44.708008 7
-0.110828 3.972168 -45.527344 7
-0.16249301 3.9473879 -46.591797 7
-0.0082170004 0.68701202 -43.322266 7
-0.376095 -2.536499 45.100586 7
-0.39102399 -2.4472661 45.362305 7
-0.412117 -2.3623049 45.729492 7
-0.324085 0.35827601 44.308594 7
-0.299683 0.455688 43.892578 7
-0.31901899 0.560669 44.224609 7
-0.37679899 3.5870359 45.146484 7
-0.34865001 3.650146 44.65918 7
-0.32051501 3.7113039 44.173828 7
-0.091868997 4.3991699 -40.973633 7
-0.117599 4.3469238 -41.460938 7
-0.13707399 4.2810059 -41.831055 7
-0.17464299 4.2454829 -42.540039 7
0.0091549996 0.92297399 -39.201172 7
-0.0094489995 0.83349597 -39.547852 7
0.0041430001 0.73156703 -39.291992 7
-0.021961 0.64257801 -39.779297 7
0.001457 0.24890099 -39.333008 7
-0.024342 0.153809 -39.8125 7
0.010206 0.055054002 -39.164062 7
-0.285137 0.51391602 40.636719 7
-0.28193301 0.69909698 40.586914 7
-0.37992099 3.6247561 42.056641 7
-0.34707299 3.6738279 41.530273 7
-0.32856601 3.7415769 41.231445 7
-0.31554401 3.8162839 41.018555 7
-0.084390998 4.6011958 -37.504883 7
-0.108511 4.556396 -37.927734 7
-0.132631 4.5097661 -38.351562 7
-0.16115201 4.4693599 -38.849609 7
-0.194746 4.4361572 -39.43457 7
-0.039875001 0.87097198 -36.898438 7
-0.045072999 0.13488799 -36.888672 7
-0.01115 0.043457001 -36.303711 7
-0.046349999 -0.118896 -33.782227 7
-0.0072960001 -0.198975 -33.162109 7
-0.039988998 -0.28527799 -33.676758 7
-0.0043890001 -0.44445801 -33.107422 7
-0.32550201 -2.390991 38.092773 7
-0.33856201 -2.3161621 38.290039 7
-0.30717301 0.39208999 37.923828 7
-0.27277601 0.47192401 37.421875 7
-0.273211 0.72827101 37.428711 7
-0.36409599 3.6777339 38.652344 7
-0.31804299 3.7850339 37.966797 7
-0.051640999 4.6569819 -33.675781 7
-0.069452003 4.6098628 -33.963867 7
-0.101994 4.5908198 -34.485352 7
-0.12754101 4.5557861 -34.896484 7
-0.167091 4.545898 -35.527344 7
-0.19079199 4.5030522 -35.90918 7
0.021725001 1.262817 -32.71875 7
-0.016819 1.203003 -33.329102 7
0.0085349996 1.1073 -32.928711 7
-0.022251001 1.040405 -33.416992 7
-0.055998001 0.97228998 -33.950195 7
-0.040038999 -0.349365 -31.319336 7
-0.014736 -0.42175299 -30.943359 7
-0.046606001 -0.50573701 -31.410156 7
-0.026453 -0.578125 -31.109375 7
-0.300356 -2.382935 35.483398 7
-0.30823499 -2.22876 35.604492 7
-0.243578 0.596313 34.808594 7
-0.247164 0.75585902 34.858398 7
-0.31942001 3.798584 35.71582 7
0.25473201 17.579956 22.076172 7
-0.076472998 4.7128911 -31.682617 7
-0.097185001 4.597168 -32.004883 7
-0.115042 4.552979 -32.276367 7
-0.157759 4.5556641 -32.912109 7
0.0052450001 1.341553 -30.706055 7
-0.013443 1.276123 -30.983398 7
-0.0017190001 1.192627 -30.810547 7
-0.011721 1.1212161 -30.958984 7
-0.038784001 -0.67724597 -28.868164 7
-0.036345001 -0.74841303 -28.832031 7
-0.062344 4.7684331 -28.951172 7
-0.080750003 4.7344971 -29.210938 7
-0.095326997 4.6916499 -29.417969 7
-0.116282 4.6607671 -29.712891 7
-0.14535899 4.6447749 -30.116211 7
-0.158228 4.5948491 -30.299805 7
0.0033440001 1.52478 -28.313477 7
-0.013424 1.465332 -28.543945 7
-0.013538 1.394287 -28.547852 7
-0.0029740001 1.31665 -28.405273 7
-0.032547001 1.262695 -28.810547 7
-0.048330002 -0.70532203 -26.959961 7
-0.027292 -0.76525903 -26.689453 7
-0.061848 -0.84484899 -27.125 7
-0.047681998 -0.90661597 -26.942383 7
-0.033082999 -0.96740699 -26.753906 7
-0.092299998 4.7801509 -27.250977 7
-0.105169 4.738647 -27.424805 7
-0.120319 4.7009282 -27.625 7
-0.13912199 4.6695561 -27.87207 7
-0.164768 4.6506348 -28.206055 7
-0.15846799 4.5678711 -28.135742 7
-0.013525 1.567505 -26.538086 7
-0.022955 1.493042 -26.632812 7
-0.0056380001 1.419067 -26.425781 7
-0.039659999 1.374023 -26.860352 7
-0.040667001 1.3076169 -26.875 7
-0.100069 4.8988042 -25.213867 7
-0.087848999 4.8094478 -25.083008 7
-0.102167 4.7762451 -25.260742 7
-0.113052 4.735229 -25.398438 7
-0.1313 4.7084961 -25.623047 7
-0.149553 4.6809082 -25.845703 7
-0.15748601 4.6317139 -25.950195 7
-0.114326 4.4821782 -25.453125 7
-0.016886 1.6427 -24.5625 7
-0.036665 1.595215 -24.798828 7
-0.010187 1.514526 -24.488281 7
-0.019129001 1.4588619 -24.597656 7
-0.041388001 1.411011 -24.862305 7
-0.022781 1.337402 -24.643555 7
-0.07164 -0.970581 -23.433594 7
-0.058488999 -1.023315 -23.286133 7
-0.049557 -1.077515 -23.18457 7
-0.078231998 -1.150146 -23.496094 7
-0.067194 -1.203247 -23.37207 7
-0.059330001 -1.2574461 -23.28125 7
-0.1187 4.9676509 -23.578125 7
-0.097731002 4.8632808 -23.361328 7
-0.108837 4.8278809 -23.492188 7
-0.126854 4.7462158 -23.709961 7
-0.14743599 4.7280269 -23.945312 7
-0.15749 4.6878662 -24.06543 7
-0.13388801 4.5804439 -23.818359 7
-0.049787998 1.673828 -23.19043 7
-0.021424999 1.594727 -22.880859 7
-0.02836 1.54187 -22.959961 7
-0.047421999 1.49646 -23.172852 7
-0.037505999 1.4317631 -23.06543 7
-0.031252 1.369629 -22.999023 7
-0.031877998 1.312012 -23.008789 7
-0.081147999 -1.242676 -21.908203 7
-0.25432 -4.2269292 -23.316406 7
-0.244205 -4.2675781 -23.203125 7
-0.23988201 -4.375854 -23.136719 7
-0.236578 -4.427856 -23.091797 7
-0.142784 4.9179692 -22.151367 7
-0.152395 4.8818359 -22.260742 7
-0.153585 4.8278809 -22.28418 7
-0.028439 1.766968 -21.360352 7
-0.034715999 1.717773 -21.427734 7
-0.027554 1.603882 -21.360352 7
-0.040667001 1.504395 -21.500977 7
-0.075305998 -1.009521 -20.463867 7
-0.075374998 -1.061401 -20.461914 7
-0.094705999 -1.122681 -20.645508 7
-0.076130003 -1.165161 -20.462891 7
-0.073201999 -1.215454 -20.430664 7
-0.27289799 -4.2794189 -21.947266 7
-0.27601799 -4.340332 -21.966797 7
-0.26706901 -4.3795171 -21.870117 7
-0.26234099 -4.4259028 -21.813477 7
-0.026411001 1.557495 -19.969727 7
-0.053438 1.525146 -20.235352 7
-0.040348001 1.465088 -20.111328 7
-0.02844 1.40625 -19.998047 7
-0.031514999 1.357056 -20.030273 7
-0.036389999 1.30896 -20.081055 7
-0.094944 -1.151611 -19.289062 7
-0.25791001 -4.19873 -20.353516 7
-0.263136 -4.2591548 -20.389648 7
-0.28119099 -4.3424072 -20.539062 7
-0.27549401 -4.3841548 -20.477539 7
-0.268538 -4.4230962 -20.404297 7
-0.26283801 -4.464355 -20.342773 7
-0.133261 5.005127 -19.123047 7
-0.103382 4.892334 -18.870117 7
-0.112352 4.8630371 -18.959961 7
-0.119387 4.8293462 -19.03418 7
-0.129631 4.8017578 -19.136719 7
-0.056453999 1.433105 -18.925781 7
-0.022226 1.268311 -18.62207 7
-0.040801998 1.230957 -18.793945 7
-0.035140999 1.17981 -18.744141 7
-0.023088001 1.1257319 -18.635742 7
-0.012951 1.07312 -18.545898 7
-0.0072840001 1.022949 -18.495117 7
-0.025858 0.98388702 -18.666016 7
-0.28696099 -4.2574458 -19.327148 7
-0.29723501 -4.3242192 -19.402344 7
-0.29528999 -4.3701172 -19.375 7
-0.291302 -4.4118652 -19.331055 7
-0.285954 -4.4512939 -19.274414 7
-0.02541 0.92346197 -17.573242 7
-0.030192999 0.88037097 -17.616211 7
-0.033640001 0.83666998 -17.647461 7
-0.028965 0.78979498 -17.608398 7
-0.019545 0.74157703 -17.529297 7
-0.0074160001 0.69287097 -17.425781 7
-0.01017 0.64916998 -17.451172 7
-0.087546997 -1.369019 -16.935547 7
-0.085465997 -1.411011 -16.914062 7
-0.080491997 -1.451172 -16.870117 7
-0.017555 0.280029 -16.395508 7
-0.007669 0.194336 -16.31543 7
5.7000001e-05 0.109619 -16.251953 7
-0.0043830001 0.025635 -16.287109 7
-0.029960999 -0.018433001 -15.548828 7
-0.027735 -0.058594 -15.53125 7
-0.022477999 -0.098389 -15.490234 7
-0.019486999 -0.138184 -15.466797 7
-0.02183 -0.17834499 -15.483398 7
-0.024164001 -0.218384 -15.5 7
-0.025721001 -0.25866699 -15.510742 7
-0.025018999 -0.298706 -15.503906 7
-0.078792997 -1.28833 -15.858398 7
-0.095550999 -1.339111 -15.982422 7
-0.091821998 -1.37793 -15.950195 7
-0.092646003 -1.419434 -15.953125 7
-0.088907003 -1.45813 -15.920898 7
-0.29205099 -4.3240972 -16.987305 7
-0.30355501 -4.3876948 -17.061523 7
-0.29907 -4.4233398 -17.017578 7
-0.29306599 -4.4559331 -16.961914 7
-0.289352 -4.4925542 -16.921875 7
-0.28943601 -4.5357671 -16.911133 7
-0.29637 -4.592041 -16.951172 7
-0.114517 4.8222661 -15.535156 7
-0.116058 4.7851558 -15.557617 7
-0.121374 4.7554932 -15.608398 7
-0.12519599 4.7228999 -15.647461 7
-0.033388 -0.394775 -14.577148 7
-0.040925998 -0.43798801 -14.678711 7
-0.042955 -0.474976 -14.695312 7
-0.039804 -0.51220697 -14.669922 7
-0.039857998 -0.55017102 -14.668945 7
-0.031872001 -0.58630401 -14.610352 7
-0.033550002 -0.62451202 -14.620117 7
-0.039216999 -0.66418499 -14.65918 7
-0.044085 -0.70373499 -14.692383 7
-0.042521 -0.74145502 -14.679688 7
-0.040178001 -0.77856398 -14.65918 7
-0.037021998 -0.81530797 -14.634766 7
-0.045922998 -0.856812 -14.696289 7
-0.071424 -1.289917 -14.845703 7
-0.088352002 -1.338379 -14.964844 7
-0.085254997 -1.413818 -14.93457 7
-0.086917996 -1.453735 -14.943359 7
-0.085360996 -1.4912111 -14.927734 7
-0.099894002 -1.539673 -15.02832 7
-0.290474 -4.4915771 -15.857422 7
-0.28733999 -4.5266109 -15.823242 7
-0.28420401 -4.5614009 -15.790039 7
-0.292328 -4.617065 -15.835938 7
-0.30287901 -4.6774902 -15.896484 7
-0.30940101 -4.730835 -15.930664 7
-0.31188801 -4.7764888 -15.935547 7
-0.045641001 -0.66845697 -13.893555 7
-0.049089 -0.705688 -13.914062 7
-0.056731999 -0.74462903 -13.964844 7
-0.064392 -0.78356898 -14.015625 7
-0.058517002 -0.81799299 -13.973633 7
-0.052668002 -0.85205102 -13.929688 7
-0.049341001 -0.88720697 -13.905273 7
-0.052758999 -0.92468297 -13.926758 7
-0.065490998 -0.96643102 -14.010742 7
-0.068924002 -1.004395 -14.03125 7
-0.062224999 -1.037842 -13.982422 7
-0.059755001 -1.07312 -13.961914 7
-0.061501 -1.110229 -13.970703 7
-0.071686 -1.151855 -14.037109 7
-0.081868999 -1.1937259 -14.104492 7
-0.080236003 -1.2294919 -14.089844 7
-0.076917998 -1.264282 -14.063477 7
-0.079519004 -1.302246 -14.077148 7
-0.294458 -4.5050049 -14.951172 7
-0.29368001 -4.5419922 -14.935547 7
-0.291208 -4.5761719 -14.908203 7
-0.29721299 -4.625854 -14.935547 7
-0.303215 -4.6755371 -14.963867 7
-0.30838001 -4.7241211 -14.986328 7
-0.31523699 -4.7758789 -15.019531 7
-0.080549002 -0.993774 -13.331055 7
-0.069061004 -1.023438 -13.253906 7
-0.063776001 -1.055542 -13.216797 7
-0.057619002 -1.087158 -13.172852 7
-0.069220997 -1.127441 -13.246094 7
-0.087934002 -1.171753 -13.363281 7
-0.081754997 -1.203369 -13.320312 7
-0.079147004 -1.236694 -13.299805 7
-0.078316003 -1.271118 -13.291992 7
-0.30670199 -4.4841309 -14.15625 7
-0.297869 -4.5048828 -14.09082 7
-0.29795301 -4.541626 -14.079102 7
-0.29534301 -4.5733638 -14.051758 7
-0.29629701 -4.6114502 -14.046875 7
-0.299936 -4.6549072 -14.058594 7
-0.314262 -4.7183838 -14.135742 7
-0.313454 -4.753418 -14.119141 7
-0.31709301 -4.7971191 -14.129883 7
-0.077643998 -1.044556 -12.606445 7
-0.079596996 -1.111816 -12.613281 7
-0.071337 -1.17395 -12.556641 7
-0.066721 -1.20459 -12.525391 7
-0.073289998 -1.241089 -12.561523 7
-0.292088 -4.4902339 -13.258789 7
-0.28942701 -4.5544429 -13.220703 7
-0.290434 -4.5908198 -13.21582 7
-0.29236999 -4.6289058 -13.21582 7
-0.29719201 -4.7067871 -13.220703 7
-0.30940399 -4.764771 -13.28125 7
-0.109457 4.743896 -12.030273 7
-0.112257 4.7175288 -12.057617 7
-0.11784 4.6967769 -12.101562 7
-0.122509 4.6740718 -12.139648 7
-0.123447 4.6436772 -12.15625 7
-0.132723 4.6298828 -12.22168 7
-0.14758299 4.6268311 -12.321289 7
-0.141113 4.5814209 -12.292969 7
-0.134661 4.5362549 -12.265625 7
-0.124477 4.4836431 -12.21582 7
-0.071649998 -1.303833 -11.847656 7
-0.074625 -1.337036 -11.862305 7
-0.088379003 -1.376587 -11.939453 7
-0.093323 -1.411377 -11.964844 7
-0.083627999 -1.468262 -11.899414 7
-0.085703 -1.5324709 -11.904297 7
-0.091620997 -1.567993 -11.93457 7
-0.296278 -4.5048828 -12.483398 7
-0.292494 -4.563354 -12.439453 7
-0.294516 -4.5996089 -12.439453 7
-0.29269999 -4.661377 -12.40625 7
-0.309452 -4.725708 -12.487305 7
-0.31444001 -4.768188 -12.503906 7
-0.118223 4.7376709 -11.331055 7
-0.116308 4.7036128 -11.331055 7
-0.116308 4.6732178 -11.342773 7
-0.1173 4.6447749 -11.359375 7
-0.117323 4.6143799 -11.370117 7
-0.12513401 4.5994868 -11.424805 7
-0.13978 4.5977778 -11.516602 7
-0.13881899 4.565186 -11.522461 7
-0.125195 4.507812 -11.457031 7
-0.075718001 -1.3076169 -11.272461 7
-0.076778002 -1.338135 -11.275391 7
-0.075809002 -1.367676 -11.265625 7
-0.085054003 -1.403198 -11.314453 7
-0.097388998 -1.4412839 -11.379883 7
-0.086176001 -1.463989 -11.313477 7
-0.088274002 -1.495605 -11.321289 7
-0.091394 -1.527832 -11.334961 7
-0.089387998 -1.556641 -11.320312 7
-0.10581 -1.598145 -11.408203 7
-0.30106899 -4.5 -11.825195 7
-0.301146 -4.5314941 -11.814453 7
-0.296087 -4.5533452 -11.776367 7
-0.296148 -4.5844731 -11.765625 7
-0.29724699 -4.6174321 -11.759766 7
-0.29422599 -4.6429439 -11.732422 7
-0.29737699 -4.67981 -11.738281 7
-0.30768999 -4.7303472 -11.78125 7
-0.31290099 -4.7714839 -11.795898 7
-0.066908002 -1.296021 -10.606445 7
-0.068029001 -1.325195 -10.609375 7
-0.071300998 -1.355347 -10.623047 7
-0.074565999 -1.385864 -10.636719 7
-0.087495998 -1.422485 -10.702148 7
-0.091821998 -1.453979 -10.72168 7
-0.087580003 -1.479858 -10.695312 7
-0.084408 -1.5062259 -10.674805 7
-0.086595997 -1.536255 -10.681641 7
-0.087724999 -1.565552 -10.683594 7
-0.296707 -4.5108638 -11.079102 7
-0.30107701 -4.5483398 -11.089844 7
-0.29361701 -4.5638428 -11.040039 7
-0.29367799 -4.5933838 -11.029297 7
-0.295883 -4.6268311 -11.030273 7
-0.29273999 -4.650146 -11 7
-0.297104 -4.6876221 -11.011719 7
-0.30685201 -4.7354741 -11.048828 7
-0.3123 -4.775269 -11.06543 7
-0.39621401 -6.270752 -10.868164 7
-0.401667 -6.3128662 -10.87793 7
-0.40174299 -6.342041 -10.863281 7
-0.406122 -6.3817139 -10.869141 7
-0.080158003 -1.3017581 -10.147461 7
-0.067869 -1.321655 -10.080078 7
-0.069035999 -1.3494869 -10.083984 7
-0.084812 -1.413574 -10.15625 7
-0.082653001 -1.4669189 -10.137695 7
-0.083866 -1.522339 -10.136719 7
-0.096285 -1.585449 -10.191406 7
-0.302948 -4.4953609 -10.503906 7
-0.30975199 -4.5357671 -10.525391 7
-0.299759 -4.57373 -10.455078 7
-0.303253 -4.6359859 -10.448242 7
-0.30452001 -4.6940918 -10.431641 7
-0.315878 -4.771729 -10.462891 7
-0.40456 -6.2944341 -10.225586 7
-0.409197 -6.3604741 -10.21582 7
-0.072485 -1.3187259 -9.6005859 7
-0.072538003 -1.3449709 -9.5966797 7
-0.074925996 -1.372192 -9.6044922 7
-0.066765003 -1.393311 -9.5625 7
-0.087856002 -1.432495 -9.6611328 7
-0.096101999 -1.464111 -9.6972656 7
-0.087954998 -1.484985 -9.6542969 7
-0.090336002 -1.512695 -9.6621094 7
-0.091541 -1.539551 -9.6640615 7
-0.084559999 -1.560791 -9.6259766 7
-0.097475 -1.596069 -9.6845703 7
-0.413073 -6.328979 -9.5966797 7
-0.068138003 -1.285767 -9.1162109 7
-0.085247003 -1.3206789 -9.1923828 7
-0.073110998 -1.338501 -9.1308594 7
-0.073135003 -1.363403 -9.1289062 7
-0.076834001 -1.390625 -9.1416016 7
-0.075650997 -1.414795 -9.1328115 7
-0.080580004 -1.442871 -9.1523438 7
-0.090359002 -1.474121 -9.1943359 7
-0.089175999 -1.498413 -9.1855469 7
-0.088009 -1.522583 -9.1757812 7
-0.089909002 -1.549194 -9.1777344 7
-0.089938998 -1.574463 -9.1738281 7
-0.41190699 -6.3571782 -8.9521484 7
-0.40951899 -6.3757319 -8.9277344 7
-0.40836 -6.3972168 -8.9082031 7
-0.110821 4.7753911 -8.2607422 7
-0.107197 4.744751 -8.2558594 7
-0.108418 4.7241211 -8.2724609 7
-0.102352 4.6885991 -8.2578115 7
-0.101141 4.6629639 -8.2636719 7
-0.108448 4.6547852 -8.3056641 7
-0.109669 4.6341548 -8.3222656 7
-0.113316 4.6182861 -8.3486328 7
-0.116961 4.6022949 -8.375 7
-0.063662 -1.320068 -8.6113281 7
-0.062417999 -1.34314 -8.6015615 7
-0.062456001 -1.366699 -8.5986328 7
-0.065041997 -1.39209 -8.6074219 7
-0.074051 -1.445068 -8.6396484 7
-0.089368999 -1.478882 -8.7041016 7
-0.076706 -1.518188 -8.6416016 7
-0.076752 -1.54187 -8.6367188 7
-0.080605 -1.568359 -8.6503906 7
-0.087018996 -1.596558 -8.6748047 7
-0.30485001 -4.6184082 -8.7402344 7
-0.30362901 -4.6400151 -8.7246094 7
-0.30118799 -4.683105 -8.6914062 7
-0.30507901 -4.714355 -8.6972656 7
-0.31407899 -4.755249 -8.7207031 7
-0.31795499 -4.7866211 -8.7255859 7
-0.40067899 -6.2988281 -8.2822266 7
-0.39442399 -6.328979 -8.2294922 7
-0.400879 -6.3674321 -8.2373047 7
-0.117792 4.793335 -7.7402339 7
-0.115269 4.7662349 -7.742188 7
-0.108936 4.7313228 -7.7285161 7
-0.094977997 4.6809082 -7.6826172 7
-0.089911997 4.6488042 -7.6738281 7
-0.087387003 4.6219478 -7.6738281 7
-0.091209002 4.6080322 -7.7001948 7
-0.091209002 4.5863042 -7.710938 7
-0.089942999 4.5618901 -7.7167969 7
-0.089957997 4.5404048 -7.7275391 7
-0.093758002 4.526123 -7.7539058 7
-0.103918 4.524292 -7.8056641 7
-0.112804 4.519897 -7.851562 7
-0.114079 4.5 -7.8681641 7
-0.083890997 -1.300781 -8.2880859 7
-0.085240997 -1.324463 -8.2910156 7
-0.087926999 -1.348999 -8.2988281 7
-0.077370003 -1.365479 -8.25 7
-0.078735001 -1.38916 -8.2529297 7
-0.080086 -1.41272 -8.2548828 7
-0.080139004 -1.4356689 -8.2519531 7
-0.086797997 -1.462891 -8.2763672 7
-0.097424001 -1.4925539 -8.3183594 7
-0.104099 -1.52002 -8.3427734 7
-0.093542002 -1.536011 -8.2939453 7
-0.093572997 -1.55896 -8.2910156 7
-0.097590998 -1.584595 -8.3037109 7
-0.096295998 -1.606567 -8.2939453 7
-0.101643 -1.633301 -8.3115234 7
-0.302553 -4.495728 -8.2890615 7
-0.30659699 -4.5257568 -8.2929688 7
-0.31726801 -4.5682368 -8.3242188 7
-0.31600201 -4.5887451 -8.3076172 7
-0.31738999 -4.6141362 -8.3017578 7
-0.313456 -4.6297612 -8.2753906 7
-0.31218901 -4.650269 -8.2597656 7
-0.31224301 -4.6730962 -8.2480469 7
-0.31495899 -4.7009282 -8.2480469 7
-0.31368399 -4.7211909 -8.2314453 7
-0.31241 -4.7415771 -8.2148438 7
-0.317772 -4.7745361 -8.2246094 7
-0.12369 4.6514888 -7.3652339 7
-0.122379 4.6279302 -7.3720698 7
-0.125017 4.6123052 -7.3925781 7
-0.122395 4.58606 -7.3925781 7
-0.121075 4.5625 -7.3994141 7
-0.12109 4.5413818 -7.4091802 7
-0.119762 4.5175781 -7.4150391 7
-0.119778 4.4967041 -7.4257808 7
-0.30414999 -4.5072021 -7.796875 7
-0.304203 -4.5290532 -7.7851558 7
-0.30563501 -4.5533452 -7.780273 7
-0.30983901 -4.5826421 -7.7841802 7
-0.31128901 -4.6069341 -7.7773442 7
-0.30440101 -4.6158452 -7.742188 7
-0.298931 -4.6270752 -7.710938 7
-0.29899201 -4.6486821 -7.7001948 7
-0.29903001 -4.6704102 -7.688477 7
-0.303249 -4.699585 -7.6933589 7
-0.306072 -4.7263179 -7.6914058 7
-0.30889499 -4.7530522 -7.6894531 7
-0.314486 -4.7852778 -7.6982422 7
-0.29838201 -4.4908452 -7.3398442 7
-0.30418 -4.5220952 -7.3486328 7
-0.30136499 -4.537354 -7.328125 7
-0.29855001 -4.5527339 -7.3066411 7
-0.307217 -4.589355 -7.3261719 7
-0.30582801 -4.6072998 -7.3105469 7
-0.30730799 -4.6306152 -7.3037109 7
-0.30305099 -4.643188 -7.2783198 7
-0.301678 -4.6608891 -7.2617192 7
-0.30173901 -4.681396 -7.250977 7
-0.30464599 -4.707397 -7.25 7
-0.30470699 -4.7277832 -7.2382808 7
-0.30761299 -4.7539058 -7.2382808 7
-0.309109 -4.7771001 -7.2314448 7
-0.30451599 -4.482666 -6.9326172 7
-0.29861301 -4.4915771 -6.9023442 7
-0.298666 -4.5111079 -6.891602 7
-0.307652 -4.5472412 -6.9111328 7
-0.30770499 -4.566895 -6.8994141 7
-0.307758 -4.5864258 -6.8886719 7
-0.30631599 -4.603271 -6.8730469 7
-0.304874 -4.6201172 -6.8574219 7
-0.30939901 -4.6479492 -6.860352 7
-0.310947 -4.6704102 -6.8544922 7
-0.302046 -4.6729741 -6.8144531 7
-0.30955899 -4.706543 -6.828125 7
-0.309605 -4.7260742 -6.8154302 7
-0.30070299 -4.7285161 -6.7753911 7
-0.30225199 -4.7507319 -6.7695308 7
-0.303785 -4.7729492 -6.7636719 7
-0.30197701 -4.7097168 -6.3974609 7
-0.30048901 -4.7254639 -6.3818359 7
-0.299009 -4.7407231 -6.3652339 7
-0.29241201 -4.48877 -6.0722661 7
-0.287651 -4.4976811 -6.046875 7
-0.286102 -4.5123291 -6.03125 7
-0.292564 -4.541748 -6.0400391 7
-0.30061099 -4.5742192 -6.0527339 7
-0.302259 -4.594604 -6.046875 7
-0.29910901 -4.6063228 -6.0263672 7
-0.30075601 -4.6269531 -6.0205078 7
-0.297607 -4.6385498 -6 7
-0.29765299 -4.6560059 -5.9882808 7
-0.29609701 -4.6704102 -5.9726558 7
-0.29615 -4.6881099 -5.9619141 7
-0.2994 -4.7114258 -5.9599609 7
-0.30104601 -4.7319341 -5.954102 7
-0.29948401 -4.7463379 -5.938477 7
-0.29793501 -4.760498 -5.921875 7
-0.30278599 -4.7871089 -5.9248052 7
-0.120962 4.7912598 -5.1523442 7
-0.120939 4.7756348 -5.164062 7
-0.120947 4.7600098 -5.1748052 7
-0.119345 4.7409668 -5.1816411 7
-0.116158 4.7186279 -5.1835942 7
-0.112984 4.6965332 -5.1855469 7
-0.111382 4.6774902 -5.1923828 7
-0.105021 4.6486821 -5.1835942 7
-0.089107998 4.6008301 -5.148438 7
-0.087513 4.5819092 -5.155273 7
-0.087513 4.5662842 -5.1660161 7
-0.092280999 4.5600591 -5.1904302 7
-0.093852997 4.5474849 -5.2060552 7
-0.097048 4.5380859 -5.2246089 7
-0.098641999 4.5253911 -5.2402339 7
-0.104982 4.5219731 -5.2705078 7
-0.112946 4.521729 -5.304688 7
-0.116127 4.5119629 -5.3242192 7
-0.111336 4.4866939 -5.3222661 7
-0.29948401 -4.4968262 -5.7001948 7
-0.31116301 -4.53479 -5.7226558 7
-0.29127499 -4.5151372 -5.655273 7
-0.29634899 -4.5577388 -5.648438 7
-0.29640201 -4.5743408 -5.6376948 7
-0.30478501 -4.6231689 -5.639648 7
-0.30152899 -4.6334229 -5.6181641 7
-0.29990399 -4.6469731 -5.6025391 7
-0.294983 -4.6541748 -5.578125 7
-0.29507399 -4.6871338 -5.554688 7
-0.30011001 -4.7131348 -5.5576172 7
-0.293556 -4.7331538 -5.516602 7
-0.29693601 -4.755981 -5.5136719 7
-0.29862201 -4.7755132 -5.507812 7
-0.298691 -4.7918701 -5.4960942 7
-0.121977 4.7883301 -4.7675781 7
-0.130217 4.7906489 -4.8007808 7
-0.135159 4.7861328 -4.8251948 7
-0.125257 4.7506099 -4.8105469 7
-0.120308 4.7258301 -4.8076172 7
-0.116997 4.704102 -4.8105469 7
-0.112045 4.6790771 -4.8066411 7
-0.105448 4.651001 -4.7998052 7
-0.093891002 4.6126709 -4.7792969 7
-0.089374997 4.5874019 -4.7773442 7
-0.094325997 4.58252 -4.8007808 7
-0.084425002 4.547729 -4.7851558 7
-0.091022 4.5461431 -4.813477 7
-0.089359 4.5280762 -4.820312 7
-0.089359 4.513062 -4.8310552 7
-0.087706 4.494873 -4.8369141 7
-0.089344002 4.483398 -4.8525391 7
-0.097584002 4.4844971 -4.8857422 7
-0.29789001 -4.7817378 -5.1132808 7
-0.12249 4.791748 -4.389648 7
-0.12249 4.777832 -4.4013672 7
-0.122475 4.763916 -4.4130859 7
-0.124191 4.753418 -4.4277339 7
-0.115639 4.7219238 -4.4160161 7
-0.124168 4.7255859 -4.4501948 7
-0.119041 4.7010498 -4.4482422 7
-0.119019 4.6868901 -4.4599609 7
-0.1122 4.6591802 -4.452148 7
-0.103647 4.6279302 -4.4414058 7
-0.095096998 4.5966802 -4.4306641 7
-0.095096998 4.5826421 -4.4414058 7
-0.091670997 4.5618901 -4.4433589 7
-0.100636 4.5644531 -4.476562 7
-0.097209997 4.543457 -4.4785161 7
-0.092074998 4.5192871 -4.4755859 7
-0.092074998 4.505249 -4.4863281 7
-0.092068002 4.4910889 -4.4970698 7
-0.097186998 4.486938 -4.5214839 7
-0.115959 4.4810791 -4.6025391 7
-0.293612 -4.4960942 -4.9423828 7
-0.282976 -4.4916992 -4.9042969 7
-0.279461 -4.5001221 -4.8857422 7
-0.286623 -4.5279541 -4.8925781 7
-0.28667599 -4.5428472 -4.8808589 7
-0.293825 -4.5709229 -4.8886719 7
-0.28676 -4.5726318 -4.858398 7
-0.29036099 -4.5938721 -4.8574219 7
-0.28863001 -4.6054692 -4.8417969 7
-0.29579401 -4.6335449 -4.8496089 7
-0.302948 -4.6616211 -4.8554692 7
-0.302986 -4.6763921 -4.844727 7
-0.29948401 -4.6844478 -4.8251948 7
-0.295977 -4.6925049 -4.804688 7
-0.29601499 -4.7071528 -4.7929692 7
-0.30139199 -4.7319341 -4.795898 7
-0.29610601 -4.7364502 -4.7705078 7
-0.30149099 -4.76123 -4.773438 7
-0.30152899 -4.7757568 -4.7617192 7
-0.29623601 -4.7800288 -4.7373052 7
-0.117317 4.789917 -4.0068359 7
-0.126137 4.7952881 -4.0400391 7
-0.111994 4.7529302 -4.016602 7
-0.126129 4.7692871 -4.0625 7
-0.126114 4.7562261 -4.0742192 7
-0.111963 4.7139888 -4.0507808 7
-0.111963 4.7009282 -4.061523 7
-0.120804 4.705811 -4.094727 7
-0.111948 4.6748052 -4.0839839 7
-0.117233 4.6722412 -4.108398 7
-0.10663 4.6376948 -4.09375 7
-0.111933 4.6352539 -4.1162109 7
-0.101307 4.6005859 -4.101562 7
-0.095996998 4.5767822 -4.1005859 7
-0.095996998 4.5637212 -4.1113281 7
-0.099528998 4.557373 -4.1308589 7
-0.099933997 4.5437012 -4.141602 7
-0.099926002 4.530396 -4.1523442 7
-0.099926002 4.5169678 -4.1630859 7
-0.098148003 4.5003662 -4.1689448 7
-0.098132998 4.486938 -4.1806641 7
-0.105213 4.4875488 -4.2080078 7
0.099831998 -1.094229 -13.697104 7
-0.141642 -4.5561652 -13.066579 7
-0.047683999 -1.575291 -8.9091196 7
-0.28254399 -4.587666 -10.445354 7
-0.028347 -1.5024019 -7.3546739 7
-0.26858899 -4.6411748 -8.6034822 7
0.016695 -1.433194 -5.8660359 7
-0.25119501 -4.6572452 -7.0934372 7
-0.39317599 -6.3531661 -7.4141989 7
0.034731999 -1.3870569 -4.8793359 7
-0.236532 -4.6610188 -5.8713942 7
-0.039680999 -1.351575 -4.1624551 7
-0.31794399 -4.6513362 -4.8553162 7
-0.021190999 -1.3209 -3.503355 7
-0.30487001 -4.6555748 -4.0354948 7
-0.29065001 -4.6436892 -3.3124731 7
-0.27646101 -4.6211901 -2.6743431 7
-0.037935998 -1.652928 -1.700331 7
-0.069567002 -1.881089 -1.7980551 7
-0.014683 -1.344913 -0.59092098 7
-0.022562999 -1.506997 -0.58946002 7
-0.043738 -1.6780061 -0.63129997 7
-0.27058399 -4.7133398 0.68480599 7
-0.001611 -1.326663 -0.383165 7
-0.0094299996 -1.4800431 -0.38249201 7
-0.028037 -1.6404901 -0.414309 7
-0.048305999 -1.805585 -0.444455 7
-0.24909399 -4.5078259 0.826446 7
-0.27302599 -4.6664648 0.93699503 7
-0.099436998 4.6336832 -11.924736 7
0.003941 4.7174611 -8.0093193 7
-0.077408999 4.553153 -5.1015038 7
-0.064755 4.4978561 -4.1017952 7
-0.026302001 -0.222587 -15.312096 7
-0.176502 -1.147552 -12.640281 7
-0.147329 -1.5569119 -12.083729 7
-0.187025 4.588891 -12.223647 7
-0.097984001 -1.559553 -9.5596189 7
-0.296083 -4.6314101 -12.000243 7
-0.081940003 -1.306244 -8.1929235 7
-0.069493003 -1.5673569 -7.9888682 7
-0.278705 -4.685348 -9.991188 7
-0.113734 4.528554 -7.5889592 7
-0.048381999 -1.322446 -6.9197431 7
-0.047058001 -1.562789 -6.858367 7
-0.26665199 -4.7071171 -8.4742165 7
-0.40359899 -6.3695288 -9.4406366 7
-0.356289 -6.3847008 -8.7765436 7
0.0076899999 1.391686 -6.2349501 7
-0.079990998 -1.337093 -6.032516 7
-0.087408997 -1.565084 -6.0489302 7
-0.33295399 -4.6654801 -7.220829 7
-0.103313 4.5796828 -4.4358339 7
-0.060952 -1.35627 -5.3950291 7
-0.069192998 -1.560697 -5.4099922 7
-0.28650501 -4.673656 -5.8642421 7
-0.014995 1.234664 -5.0158482 7
-0.015743 1.071331 -5.0633421 7
-0.048820999 -1.376949 -4.9081841 7
-0.060107999 -1.570755 -4.937469 7
-0.26057601 -4.6840529 -4.8145142 7
-0.037838999 -1.388654 -4.4981952 7
-0.054120999 -1.581193 -4.5518079 7
-0.252886 -4.7189221 -3.966002 7
-0.065057002 -1.398649 -4.1582589 7
-0.082092002 -1.576237 -4.1987448 7
-0.299541 -4.5636439 -3.376523 7
-0.30169001 -4.689002 -3.199085 7
-0.300311 -4.7861152 -3.0067911 7
-0.056088001 -1.406507 -3.8703461 7
-0.071365997 -1.567634 -3.893383 7
-0.048230998 -1.41045 -3.618211 7
-0.065488003 -1.567379 -3.643743 7
-0.042470001 -1.4144109 -3.4002931 7
-0.03994 -1.503594 -3.3333321 7
-0.075430997 -1.860939 -1.892938 7
-0.078189 -1.905589 -1.819594 7
-0.053723998 -1.679762 -1.903693 7
-0.050466999 -1.703748 -1.830212 7
-0.067721002 -1.7937649 -1.780187 7
-0.064398997 -1.812335 -1.702588 7
-0.064231999 -1.838569 -1.6273789 7
-0.041719999 -1.6099401 -1.792662 7
-0.038458999 -1.629257 -1.722479 7
-0.053181 -1.640601 -1.64996 7
