# .PCD v0.7 - Point Cloud Data file format
VERSION 0.7
FIELDS x y z intensity
SIZE 4 4 4 4
TYPE F F F F
COUNT 1 1 1 1
WIDTH 730
HEIGHT 1
VIEWPOINT 0 0 0 1 0 0 0
POINTS 730
DATA ascii
3.998318 4.173584 -60.165039 7
-0.53543103 -2.1135249 72.950195 7
-0.51055098 -0.581909 72.383789 7
-0.568865 -5.4970698 66.658203 7
-0.62598598 -5.4536128 68.030273 7
-0.68261302 -5.40271 69.391602 7
-0.493458 -2.4871831 65.141602 7
-0.54089898 -2.377686 66.280273 7
-0.494856 -0.068847999 65.306641 7
-0.001457 4.4414058 -57.771484 7
-0.10047 4.4953609 -60.461914 7
-0.018446 4.1921391 -58.242188 7
-0.093589999 4.1882319 -60.28418 7
-0.15453 4.1496582 -61.939453 7
-0.01116 0.78539997 -58.037109 7
-0.67328298 -5.5224609 63.447266 7
-0.73133701 -5.4848628 64.724609 7
-0.440853 0.20678701 58.791992 7
-0.45509499 0.34484899 59.106445 7
-0.48361999 3.2558589 59.743164 7
-0.445189 3.345459 58.901367 7
-0.089844003 4.4515381 -54.351562 7
-0.017111 4.1806641 -52.571289 7
-0.064343996 4.1391602 -53.737305 7
-0.113255 4.0952148 -54.941406 7
-0.164598 -2.64978 -50.430664 7
-0.417732 0.191406 53.499023 7
-0.36961901 0.309082 52.539062 7
-0.40187299 0.43579099 53.1875 7
-0.43901101 3.4307859 53.919922 7
-0.38661 3.4844971 52.868164 7
-0.018246001 4.3721919 -47.494141 7
-0.065586001 4.3474121 -48.551758 7
-0.097212002 4.2879639 -49.262695 7
-0.038415998 4.059937 -47.960938 7
-0.069262996 3.997314 -48.651367 7
-0.131302 3.9849851 -50.038086 7
-0.25555199 -2.6569819 -48.264648 7
-0.20837399 -2.720825 -47.295898 7
-0.150003 -2.7668459 -46.097656 7
-0.35766 0.395264 48.711914 7
-0.40272099 0.51647902 49.552734 7
-0.43899 3.5358889 50.194336 7
-0.39425701 3.5896001 49.357422 7
-0.35297 3.644165 48.584961 7
-0.055355001 4.3178711 -44.422852 7
-0.084500998 4.2635498 -45.026367 7
-0.16023301 4.291748 -46.585938 7
-0.083685003 4.0410161 -45.022461 7
-0.123062 3.9989009 -45.836914 7
-0.013241 0.686279 -43.472656 7
-0.0044920002 0.577393 -43.292969 7
-0.010349 0.47277799 -43.411133 7
-0.015347 0.367432 -43.511719 7
-0.38156101 -2.5379641 45.165039 7
-0.387573 -2.4403081 45.276367 7
-0.29486701 0.45813 43.828125 7
-0.30016699 0.55981398 43.920898 7
-0.353964 3.5578611 44.786133 7
-0.331285 3.6281741 44.393555 7
-0.34645101 3.753052 44.646484 7
-0.092988998 4.507812 -41.033203 7
-0.111189 4.4421391 -41.379883 7
-0.12846801 4.3728032 -41.710938 7
-0.16165 4.3314209 -42.337891 7
-0.18672401 4.272583 -42.814453 7
0.0070989998 0.92529303 -39.282227 7
-0.023024 0.84021002 -39.84668 7
-0.0069519999 0.73669398 -39.543945 7
-0.039593 0.64892602 -40.154297 7
-0.054910999 0.454712 -40.4375 7
-0.0091650002 0.34814501 -39.579102 7
-0.00059100002 0.24975599 -39.415039 7
-0.011995 0.153687 -39.625977 7
-0.035975002 -0.048950002 -36.761719 7
-0.014654 -0.138062 -36.393555 7
-0.034488998 -0.229614 -36.731445 7
-0.34586301 -2.5141599 41.47168 7
-0.356071 -2.4289551 41.641602 7
-0.378407 -2.3543701 42.003906 7
-0.28492901 0.421509 40.650391 7
-0.28611201 0.60778803 40.670898 7
-0.36467701 3.606323 41.84375 7
-0.33219501 3.6551509 41.322266 7
-0.308548 3.714844 40.94043 7
-0.091642 4.5279541 -37.679688 7
-0.123171 4.496582 -38.229492 7
-0.139837 4.4338379 -38.525391 7
-0.18791801 4.4285889 -39.361328 7
-0.211016 4.3736572 -39.766602 7
-0.021579999 0.95556599 -36.623047 7
-0.025460999 0.86669898 -36.689453 7
-0.055052001 0.78662097 -37.200195 7
-0.02949 0.68701202 -36.756836 7
-0.016813001 0.041138001 -36.43457 7
-0.060238 -0.119141 -34.03418 7
-0.0025309999 -0.280029 -33.116211 7
-0.033707 -0.36718801 -33.605469 7
-0.013165 -0.44616699 -33.27832 7
-0.31565899 -2.551147 37.913086 7
-0.28000301 -2.429688 37.400391 7
-0.31462899 -2.3773191 37.913086 7
-0.32488799 -2.300415 38.070312 7
-0.34791899 -2.233887 38.414062 7
-0.24823201 0.55480999 37.076172 7
-0.27519801 0.64636201 37.47168 7
-0.31778899 3.526489 38.004883 7
-0.357016 3.6702881 38.572266 7
-0.33697501 3.7288821 38.272461 7
-0.30978799 3.7753911 37.869141 7
-0.28656599 3.82605 37.522461 7
-0.048092 4.6541748 -33.654297 7
-0.064041004 4.603271 -33.914062 7
-0.086987004 4.5654302 -34.283203 7
-0.114357 4.5344238 -34.723633 7
-0.143923 4.5056152 -35.198242 7
-0.174238 4.4759521 -35.68457 7
-0.20013399 4.4359131 -36.101562 7
0.010036 1.271484 -32.936523 7
-0.010027 1.200684 -33.254883 7
-0.021233 1.124146 -33.432617 7
-0.0091880001 1.035645 -33.243164 7
-0.045841001 0.96923798 -33.823242 7
-0.060828999 -0.35534701 -31.648438 7
-0.034343999 -0.42858899 -31.255859 7
-0.026098 -0.50402802 -31.133789 7
-0.045632999 -0.58642602 -31.417969 7
-0.021116 -0.65661597 -31.054688 7
-0.30009499 -2.460083 35.456055 7
-0.303801 -2.383301 35.514648 7
-0.30242699 -2.301147 35.50293 7
-0.31209201 -2.2290039 35.642578 7
-0.227907 0.750732 34.609375 7
-0.34017599 3.6687009 36.037109 7
-0.294985 3.7645259 35.40332 7
-0.27959099 3.8212891 35.186523 7
0.25734299 17.666992 21.980469 7
0.255032 17.73877 21.963867 7
0.25272 17.810181 21.949219 7
0.25705299 17.820435 21.862305 7
0.25597799 17.880371 21.833008 7
0.255344 17.936401 21.799805 7
-0.072068997 4.7086182 -31.647461 7
-0.089911997 4.6663818 -31.918945 7
-0.105778 4.6191411 -32.161133 7
-0.12754799 4.582397 -32.490234 7
-0.165117 4.5748291 -33.051758 7
-0.0068950001 1.197021 -30.917969 7
-0.049215 1.049927 -31.488281 7
-0.059062999 -0.53820801 -29.176758 7
-0.032683998 -0.60376 -28.813477 7
-0.014866 -0.67016602 -28.566406 7
-0.050039001 -0.753052 -29.043945 7
-0.032210998 -0.818726 -28.796875 7
-0.018657999 -0.88488799 -28.607422 7
-0.090616003 4.8302002 -29.350586 7
-0.072812997 4.719604 -29.120117 7
-0.089089997 4.6802979 -29.350586 7
-0.107498 4.6445308 -29.609375 7
-0.127193 4.6099849 -29.885742 7
-0.15284 4.585815 -30.243164 7
-0.143572 4.4924321 -30.126953 7
-0.0019 1.459229 -28.410156 7
0.00044100001 1.316162 -28.381836 7
-0.043313999 1.197876 -28.984375 7
-0.029484 -0.83544898 -26.730469 7
-0.102428 4.7373052 -27.413086 7
-0.117121 4.6986079 -27.608398 7
-0.14912 4.6939702 -28.022461 7
-0.17202801 4.669312 -28.322266 7
-0.154787 4.5646968 -28.113281 7
-0.02899 1.499634 -26.734375 7
-0.018517001 1.42627 -26.602539 7
-0.024094 1.363281 -26.677734 7
-0.052127998 1.31311 -27.036133 7
-0.043148 -0.96716303 -24.875 7
-0.037785999 -1.0271 -24.808594 7
-0.068024002 -1.103882 -25.161133 7
-0.051295999 -1.1580811 -24.960938 7
-0.047442999 -1.218384 -24.911133 7
-0.095077999 4.889771 -25.169922 7
-0.097107001 4.830811 -25.204102 7
-0.108473 4.7910161 -25.347656 7
-0.120335 4.7518311 -25.49707 7
-0.140053 4.7279048 -25.738281 7
-0.161259 4.705811 -25.996094 7
-0.15495101 4.6280522 -25.932617 7
-0.121143 4.4969478 -25.546875 7
-0.016009999 1.52002 -24.577148 7
-0.077669002 -1.034912 -23.510742 7
-0.085831001 -1.216431 -23.589844 7
-0.068980999 -1.265991 -23.400391 7
-0.25151399 -4.2067871 -25.064453 7
-0.238905 -4.247314 -24.916016 7
-0.231583 -4.2965088 -24.825195 7
-0.231163 -4.357666 -24.808594 7
-0.246099 -4.447021 -24.959961 7
-0.110809 4.952271 -23.505859 7
-0.10405 4.87854 -23.441406 7
-0.115683 4.84375 -23.580078 7
-0.1548 4.7446289 -24.038086 7
-0.164343 4.7030029 -24.152344 7
-0.032841001 1.778931 -23.014648 7
-0.028904 1.601685 -22.980469 7
-0.060109999 -0.96032703 -21.720703 7
-0.058487002 -1.01416 -21.701172 7
-0.064282998 -1.126587 -21.753906 7
-0.059845001 -1.179199 -21.705078 7
-0.25818399 -4.2391362 -23.37207 7
-0.257139 -4.2957759 -23.350586 7
-0.246475 -4.335083 -23.230469 7
-0.242035 -4.3852539 -23.174805 7
-0.242699 -4.444458 -23.170898 7
-0.031576 1.771118 -21.40625 7
-0.032949001 1.609253 -21.429688 7
-0.08309 -1.015747 -20.547852 7
-0.080136999 -1.066162 -20.516602 7
-0.092243001 -1.124146 -20.629883 7
-0.081487998 -1.170776 -20.523438 7
-0.073142998 -1.2180181 -20.438477 7
-0.25244901 -4.1948242 -21.790039 7
-0.27483001 -4.2885742 -21.992188 7
-0.27371001 -4.3417969 -21.970703 7
-0.26779699 -4.386353 -21.902344 7
-0.26366201 -4.43396 -21.852539 7
-0.036469001 1.566162 -20.081055 7
-0.047911 1.522705 -20.195312 7
-0.052181002 1.474121 -20.239258 7
-0.042684998 1.416626 -20.149414 7
-0.031387001 1.358521 -20.041992 7
-0.039856002 1.312378 -20.126953 7
-0.088529997 -1.150879 -19.239258 7
-0.26387 -4.162231 -20.430664 7
-0.26524401 -4.216187 -20.432617 7
-0.27174401 -4.2790532 -20.478516 7
-0.28658101 -4.356812 -20.599609 7
-0.27384201 -4.3861079 -20.474609 7
-0.269447 -4.4299321 -20.425781 7
-0.26632699 -4.4755859 -20.384766 7
-0.13875 4.969727 -19.192383 7
-0.110167 4.860229 -18.949219 7
-0.117847 4.8277588 -19.02832 7
-0.128086 4.800415 -19.130859 7
-0.169598 4.736938 -19.535156 7
-0.062268998 1.43811 -18.989258 7
-0.05596 1.385498 -18.935547 7
-0.029963 1.2738039 -18.704102 7
-0.026226001 1.223877 -18.671875 7
-0.046066001 1.18689 -18.854492 7
-0.035294998 1.133057 -18.758789 7
-0.023891 1.079468 -18.657227 7
-0.013754 1.026978 -18.567383 7
-0.017667999 0.981323 -18.603516 7
-0.033344001 0.92553699 -17.646484 7
-0.031369999 0.87963903 -17.630859 7
-0.030745 0.83422899 -17.626953 7
-0.040943 0.79284698 -17.716797 7
-0.034901001 0.74548298 -17.666016 7
-0.019386001 0.69543499 -17.53418 7
-0.021477001 0.65112299 -17.552734 7
-0.088655002 -1.415527 -16.947266 7
-0.085855 -1.457153 -16.919922 7
-0.015055 0.28027299 -16.383789 7
-0.021562999 0.238525 -16.4375 7
-0.019479999 0.195923 -16.419922 7
-0.010967 0.152954 -16.350586 7
-0.034395002 -0.019897001 -15.584961 7
-0.033677999 -0.060180999 -15.579102 7
-0.029947 -0.100098 -15.549805 7
-0.027712001 -0.140259 -15.532227 7
-0.024731001 -0.180176 -15.509766 7
-0.023266001 -0.22021499 -15.49707 7
-0.028627001 -0.26062 -15.537109 7
-0.030184001 -0.301025 -15.547852 7
-0.081577003 -1.292236 -15.884766 7
-0.089236997 -1.337769 -15.939453 7
-0.091624998 -1.421265 -15.951172 7
-0.094720997 -1.464233 -15.969727 7
-0.28893501 -4.3232422 -16.978516 7
-0.29966 -4.385498 -17.047852 7
-0.30583999 -4.440063 -17.082031 7
-0.297546 -4.4686279 -17.008789 7
-0.29238299 -4.5462651 -16.948242 7
-0.29018599 -4.5854492 -16.920898 7
-0.29635 -4.6403809 -16.955078 7
-0.116678 4.8283691 -15.557617 7
-0.121248 4.7974849 -15.602539 7
-0.12506101 4.7648931 -15.641602 7
-0.047662999 -0.47741699 -14.731445 7
-0.04693 -0.51550299 -14.724609 7
-0.047219999 -0.74462903 -14.71582 7
-0.044062 -0.78161597 -14.69043 7
-0.044117 -0.81994599 -14.688477 7
-0.046579 -0.85888702 -14.704102 7
-0.097019002 -1.384521 -15.02832 7
-0.089047998 -1.4187011 -14.967773 7
-0.089915998 -1.457886 -14.970703 7
-0.097202003 -1.501343 -15.018555 7
-0.292225 -4.4995122 -15.881836 7
-0.286663 -4.5300288 -15.832031 7
-0.288349 -4.5739751 -15.833008 7
-0.30050099 -4.637207 -15.905273 7
-0.310303 -4.7373052 -15.949219 7
-0.31198901 -4.7816162 -15.949219 7
-0.065485001 -0.96838403 -14.012695 7
-0.067267999 -1.042236 -14.019531 7
-0.064005002 -1.113403 -13.991211 7
-0.062364999 -1.14917 -13.977539 7
-0.090277001 -1.200317 -14.166016 7
-0.081100002 -1.268921 -14.09668 7
-0.29401001 -4.5487061 -14.955078 7
-0.29838201 -4.6340332 -14.960938 7
-0.31038901 -4.7340088 -15.016602 7
-0.079666004 -0.99511701 -13.328125 7
-0.081490003 -1.030762 -13.337891 7
-0.077102996 -1.063843 -13.306641 7
-0.068285003 -1.094238 -13.245117 7
-0.063874997 -1.126587 -13.213867 7
-0.069261998 -1.164185 -13.245117 7
-0.092398003 -1.21106 -13.393555 7
-0.085341997 -1.24231 -13.344727 7
-0.081840999 -1.2750241 -13.318359 7
-0.106907 -1.430176 -13.466797 7
-0.30727801 -4.489624 -14.170898 7
-0.299404 -4.548584 -14.098633 7
-0.29599601 -4.615356 -14.054688 7
-0.29785001 -4.655273 -14.054688 7
-0.30592701 -4.7070308 -14.09375 7
-0.318468 -4.7674561 -14.15918 7
-0.298574 -4.5074458 -13.311523 7
-0.299559 -4.5439448 -13.306641 7
-0.297766 -4.5753169 -13.28418 7
-0.28849801 -4.592896 -13.21875 7
-0.29136699 -4.6325679 -13.224609 7
-0.293304 -4.6707759 -13.223633 7
-0.301779 -4.721313 -13.261719 7
-0.31303 -4.7775879 -13.317383 7
-0.116104 4.7270508 -12.085938 7
-0.119871 4.6702881 -12.129883 7
-0.128233 4.6549072 -12.19043 7
-0.13473099 4.635498 -12.239258 7
-0.14587601 4.6251221 -12.316406 7
-0.142208 4.585083 -12.305664 7
-0.12464 4.4855962 -12.222656 7
-0.071842 -1.305786 -11.849609 7
-0.071896002 -1.33728 -11.84668 7
-0.075855002 -1.370972 -11.866211 7
-0.097411998 -1.415894 -11.991211 7
-0.088655002 -1.441772 -11.93457 7
-0.082827002 -1.469727 -11.896484 7
-0.085825004 -1.503052 -11.910156 7
-0.088799998 -1.536743 -11.923828 7
-0.099616997 -1.575562 -11.984375 7
-0.29351801 -4.5380859 -12.46875 7
-0.290649 -4.5654302 -12.441406 7
-0.29267099 -4.6018071 -12.441406 7
-0.291756 -4.632812 -12.424805 7
-0.29573801 -4.6730962 -12.436523 7
-0.30366299 -4.7205811 -12.46875 7
-0.394573 -6.1264648 -12.475586 7
-0.403635 -6.2462158 -12.479492 7
-0.39683899 -6.2624512 -12.427734 7
-0.402805 -6.3096919 -12.444336 7
-0.40680099 -6.3520508 -12.450195 7
-0.40983 -6.3920898 -12.451172 7
-0.123352 4.719604 -11.375977 7
-0.120445 4.683105 -11.371094 7
-0.120468 4.65271 -11.382812 7
-0.118538 4.6182861 -11.382812 7
-0.129271 4.6092529 -11.453125 7
-0.14197201 4.572876 -11.544922 7
-0.13033099 4.4884028 -11.501953 7
-0.087220997 -1.286011 -11.341797 7
-0.072926 -1.307983 -11.258789 7
-0.078091003 -1.340942 -11.28418 7
-0.078143999 -1.370972 -11.280273 7
-0.078181997 -1.400879 -11.277344 7
-0.097663999 -1.443359 -11.382812 7
-0.088503003 -1.467651 -11.327148 7
-0.090646997 -1.529297 -11.332031 7
-0.091721997 -1.560059 -11.333984 7
-0.092790999 -1.591064 -11.335938 7
-0.29942301 -4.5335689 -11.817383 7
-0.29538 -4.557251 -11.785156 7
-0.29653901 -4.621582 -11.768555 7
-0.29455 -4.6490479 -11.746094 7
-0.29973599 -4.6896968 -11.761719 7
-0.31005701 -4.740356 -11.804688 7
-0.068350002 -1.298584 -10.614258 7
-0.072682999 -1.32959 -10.633789 7
-0.071653001 -1.3575439 -10.625 7
-0.074910998 -1.387939 -10.638672 7
-0.092133999 -1.427246 -10.726562 7
-0.094315998 -1.457275 -10.734375 7
-0.085766003 -1.4805911 -10.686523 7
-0.087954998 -1.510498 -10.693359 7
-0.091220997 -1.541504 -10.707031 7
-0.093415998 -1.571411 -10.714844 7
-0.29502299 -4.4836431 -11.091797 7
-0.297243 -4.5170898 -11.091797 7
-0.29085001 -4.5350342 -11.048828 7
-0.28983501 -4.5623779 -11.032227 7
-0.29741901 -4.605835 -11.058594 7
-0.29426 -4.629395 -11.032227 7
-0.29216999 -4.6547852 -11.009766 7
-0.299761 -4.6982422 -11.037109 7
-0.30412301 -4.736084 -11.046875 7
-0.309578 -4.7757568 -11.0625 7
-0.405386 -6.3874512 -10.876953 7
-0.079496004 -1.302979 -10.143555 7
-0.069471002 -1.3243411 -10.088867 7
-0.071736999 -1.352905 -10.097656 7
-0.072904997 -1.380859 -10.100586 7
-0.072966002 -1.407959 -10.095703 7
-0.087559 -1.444458 -10.166016 7
-0.097689003 -1.478394 -10.213867 7
-0.083166003 -1.496338 -10.136719 7
-0.084324002 -1.5244139 -10.138672 7
-0.084370002 -1.5517581 -10.134766 7
-0.086658001 -1.580566 -10.142578 7
-0.30485699 -4.5039058 -10.522461 7
-0.31165299 -4.544189 -10.542969 7
-0.30160701 -4.5540771 -10.483398 7
-0.30166101 -4.5821528 -10.473633 7
-0.301714 -4.610229 -10.462891 7
-0.29840299 -4.6320801 -10.435547 7
-0.30071399 -4.664185 -10.435547 7
-0.29852501 -4.6881099 -10.413086 7
-0.308687 -4.735352 -10.450195 7
-0.31549799 -4.7763672 -10.470703 7
-0.405157 -6.302979 -10.239258 7
-0.40297499 -6.3249512 -10.214844 7
-0.405294 -6.3580322 -10.209961 7
-0.40874299 -6.3937988 -10.209961 7
-0.089313999 -1.304199 -9.6865234 7
-0.082335003 -1.3262939 -9.6484385 7
-0.074202001 -1.347656 -9.6054688 7
-0.074231997 -1.373535 -9.6015615 7
-0.076612003 -1.401123 -9.609375 7
-0.073165998 -1.4250489 -9.5888672 7
-0.093066998 -1.463745 -9.6826172 7
-0.095454998 -1.491577 -9.6894531 7
-0.086134002 -1.511475 -9.6416016 7
-0.094371997 -1.543213 -9.6767578 7
-0.094410002 -1.569458 -9.6728516 7
-0.087422997 -1.59082 -9.6357422 7
-0.065154999 -1.285889 -9.1015615 7
-0.089557998 -1.3249511 -9.2109385 7
-0.071312003 -1.339111 -9.1230469 7
-0.076233 -1.367065 -9.1425781 7
-0.079916 -1.394287 -9.15625 7
-0.071425997 -1.413818 -9.1132812 7
-0.090956002 -1.4512939 -9.2011719 7
-0.094654001 -1.47876 -9.2138672 7
-0.088597998 -1.499878 -9.1826172 7
-0.089856997 -1.525757 -9.1845703 7
-0.089895003 -1.5506589 -9.1806641 7
-0.094821997 -1.579224 -9.1992188 7
-0.40553299 -6.3239751 -8.9511719 7
-0.40438801 -6.345459 -8.9306641 7
-0.40811199 -6.3787842 -8.9306641 7
-0.119854 4.772583 -8.3134766 7
-0.117435 4.7443848 -8.3144531 7
-0.107733 4.7011719 -8.2841797 7
-0.105314 4.6733398 -8.2861328 7
-0.106543 4.6525879 -8.3017578 7
-0.10655 4.6295171 -8.3115234 7
-0.117489 4.6280522 -8.3691406 7
-0.119915 4.6097412 -8.390625 7
-0.071952999 -1.3031009 -8.6513672 7
-0.079627998 -1.331177 -8.6816406 7
-0.064386003 -1.345947 -8.6113281 7
-0.063150004 -1.368896 -8.6025391 7
-0.064455003 -1.393433 -8.6044922 7
-0.068323001 -1.419434 -8.6181641 7
-0.081078 -1.4512939 -8.671875 7
-0.086217999 -1.478516 -8.6904297 7
-0.096433997 -1.509033 -8.7314453 7
-0.077370003 -1.520142 -8.6445312 7
-0.079956003 -1.545776 -8.6513672 7
-0.082549997 -1.5712889 -8.6582031 7
-0.085129 -1.597046 -8.6669922 7
-0.30110499 -4.6165771 -8.734375 7
-0.30117401 -4.6405029 -8.7226562 7
-0.30250201 -4.6669922 -8.7167969 7
-0.29745299 -4.6812739 -8.6845703 7
-0.297506 -4.7050781 -8.6738281 7
-0.31033701 -4.7531738 -8.7138672 7
-0.31420299 -4.7845459 -8.71875 7
-0.4032 -6.3117681 -8.2998047 7
-0.39558601 -6.3157959 -8.2558594 7
-0.39438099 -6.3355708 -8.2363281 7
-0.394449 -6.358398 -8.2207031 7
-0.397066 -6.3874512 -8.2148438 7
-0.118391 4.7961431 -7.7460942 7
-0.120937 4.7575679 -7.7792969 7
-0.098128997 4.6887212 -7.6992192 7
-0.091821998 4.6325679 -7.6943359 7
-0.091821998 4.6107178 -7.7060552 7
-0.091829002 4.5889888 -7.7167969 7
-0.091836996 4.5672612 -7.7275391 7
-0.094393 4.528687 -7.7587891 7
-0.105812 4.5294189 -7.8154302 7
-0.119757 4.5126948 -7.8935552 7
-0.085988998 -1.303467 -8.296875 7
-0.087332003 -1.327271 -8.2998047 7
-0.086057998 -1.3494869 -8.2900391 7
-0.080811001 -1.369019 -8.2636719 7
-0.083488002 -1.393677 -8.2724609 7
-0.083518997 -1.416504 -8.2685547 7
-0.086212002 -1.44104 -8.2763672 7
-0.096845999 -1.470703 -8.3173828 7
-0.102169 -1.497192 -8.3359385 7
-0.104862 -1.522217 -8.3447266 7
-0.094313003 -1.538208 -8.2958984 7
-0.096991003 -1.562866 -8.3027344 7
-0.098356001 -1.586792 -8.3056641 7
-0.099714004 -1.6105959 -8.3066406 7
-0.30809399 -4.4875488 -8.3291016 7
-0.309475 -4.513062 -8.3232422 7
-0.30820099 -4.5335689 -8.3076172 7
-0.313555 -4.5662842 -8.3173828 7
-0.31891799 -4.5991211 -8.3271484 7
-0.314989 -4.614624 -8.3007812 7
-0.312397 -4.63269 -8.2792969 7
-0.31244299 -4.655396 -8.2675781 7
-0.311169 -4.6760249 -8.2519531 7
-0.31123701 -4.698853 -8.2402344 7
-0.31394601 -4.726562 -8.2392578 7
-0.31267199 -4.7469478 -8.2226562 7
-0.319368 -4.7823491 -8.2373047 7
-0.29765099 -4.5001221 -7.7792969 7
-0.30322799 -4.532104 -7.789062 7
-0.30743 -4.5612788 -7.7929692 7
-0.30890301 -4.6074219 -7.7763672 7
-0.29791099 -4.6087651 -7.7246089 7
-0.30073401 -4.6352539 -7.7246089 7
-0.30083299 -4.6784668 -7.702148 7
-0.30917001 -4.7158198 -7.7216802 7
-0.309223 -4.7374272 -7.7099609 7
-0.31763101 -4.7965088 -7.717773 7
-0.298994 -4.4963379 -7.3476558 7
-0.300482 -4.5197749 -7.3417969 7
-0.297667 -4.5350342 -7.3212891 7
-0.30345699 -4.5662842 -7.3300781 7
-0.30923301 -4.5975342 -7.3398442 7
-0.307852 -4.6156011 -7.3232422 7
-0.305029 -4.6308589 -7.3027339 7
-0.302214 -4.6461182 -7.28125 7
-0.30228201 -4.666626 -7.2705078 7
-0.30232799 -4.6872559 -7.2597661 7
-0.30522701 -4.7132568 -7.2587891 7
-0.305296 -4.7336431 -7.2470698 7
-0.306784 -4.7567139 -7.2402339 7
-0.30827901 -4.7799072 -7.234375 7
-0.305235 -4.4884028 -6.9404302 7
-0.306768 -4.5107422 -6.9355469 7
-0.305334 -4.5279541 -6.9199219 7
-0.30537999 -4.5476069 -6.9082031 7
-0.30094701 -4.559082 -6.8837891 7
-0.31439599 -4.603394 -6.9169922 7
-0.302542 -4.6009521 -6.8662109 7
-0.305563 -4.6260991 -6.8652339 7
-0.30860701 -4.6512451 -6.8642578 7
-0.30715799 -4.6679692 -6.8476558 7
-0.29978201 -4.6734619 -6.811523 7
-0.29982799 -4.6928711 -6.7998052 7
-0.30284899 -4.717896 -6.7988281 7
-0.31035399 -4.7514648 -6.8125 7
-0.31040001 -4.7709961 -6.8017578 7
-0.31044599 -4.7904048 -6.789062 7
-0.402493 -6.3787842 -6.063477 7
-0.402538 -6.3963618 -6.0488281 7
-0.396635 -6.3991699 -6.016602 7
-0.29673001 -4.704102 -6.3857422 7
-0.296776 -4.7226558 -6.375 7
-0.29991099 -4.7469478 -6.3730469 7
-0.29995701 -4.7652588 -6.3613281 7
-0.30000299 -4.783813 -6.3505859 7
-0.29028499 -4.4891362 -6.070312 7
-0.291933 -4.5097661 -6.063477 7
-0.29199401 -4.5273442 -6.0527339 7
-0.29524201 -4.5509028 -6.0517578 7
-0.298531 -4.5919189 -6.0400391 7
-0.30176499 -4.6157231 -6.0400391 7
-0.30662501 -4.642334 -6.0429692 7
-0.305069 -4.6568599 -6.0263672 7
-0.29231501 -4.6503911 -5.9775391 7
-0.29555699 -4.6739502 -5.9755859 7
-0.29560301 -4.6912842 -5.9638672 7
-0.29569399 -4.7261958 -5.9423828 7
-0.29734999 -4.746582 -5.9355469 7
-0.297396 -4.7640381 -5.9248052 7
-0.29264301 -4.7720952 -5.898438 7
-0.39592001 -6.403687 -4.507812 7
-0.39431 -6.4134521 -4.4882808 7
-0.39103699 -6.4190669 -4.4658198 7
-0.38943499 -6.428833 -4.4472661 7
-0.38948801 -6.442627 -4.4316411 7
-0.39453101 -6.4688721 -4.4277339 7
-0.392914 -6.4785161 -4.4082031 7
-0.39465299 -6.4963379 -4.3964839 7
-0.398018 -6.5185552 -4.389648 7
-0.393089 -6.5195308 -4.3632808 7
-0.39313501 -6.5332031 -4.3476558 7
-0.40484601 -6.576416 -4.3574219 7
-0.40822399 -6.5986328 -4.3496089 7
-0.41992599 -6.6417241 -4.358398 7
-0.41830999 -6.6512451 -4.3388672 7
-0.42668501 -6.6860352 -4.3417969 7
-0.425091 -6.695435 -4.3222661 7
-0.42021 -6.7095952 -4.280273 7
-0.122017 4.788208 -4.7685552 7
-0.122002 4.7587891 -4.7900391 7
-0.12529001 4.750854 -4.8105469 7
-0.120333 4.710938 -4.8193359 7
-0.121986 4.6993408 -4.8349609 7
-0.11207 4.6643071 -4.8193359 7
-0.097217999 4.6195068 -4.789062 7
-0.085669003 4.5665278 -4.780273 7
-0.093915999 4.5682368 -4.813477 7
-0.092260003 4.5351558 -4.8300781 7
-0.095555998 4.5267329 -4.8505859 7
-0.095555998 4.5118408 -4.860352 7
-0.092253 4.4902339 -4.8623052 7
-0.2906 -4.7567139 -5.109375 7
-0.29751799 -4.7852778 -5.1152339 7
-0.29413199 -4.7940669 -5.094727 7
-0.12253 4.777832 -4.4013672 7
-0.12593099 4.7709961 -4.421875 7
-0.122507 4.75 -4.4248052 7
-0.122515 4.736084 -4.4355469 7
-0.124208 4.7255859 -4.4511719 7
-0.122492 4.7080078 -4.4580078 7
-0.120783 4.6905522 -4.4648442 7
-0.122477 4.6800542 -4.4794922 7
-0.115633 4.6521001 -4.4736328 7
-0.108807 4.6242681 -4.4667969 7
-0.101955 4.596436 -4.4599609 7
-0.096822999 4.5722661 -4.4580078 7
-0.098531999 4.561646 -4.4726558 7
-0.098516002 4.5476069 -4.483398 7
-0.098516002 4.5334468 -4.4951172 7
-0.098516002 4.519165 -4.5058589 7
-0.098508999 4.505249 -4.516602 7
-0.096799999 4.4876709 -4.5224609 7
-0.101917 4.4832759 -4.546875 7
-0.28453401 -4.4984131 -4.9101558 7
-0.28813601 -4.519897 -4.9091802 7
-0.28462601 -4.5283198 -4.8886719 7
-0.284657 -4.5430908 -4.8779302 7
-0.28470999 -4.5579829 -4.867188 7
-0.29362899 -4.5892329 -4.8789058 7
-0.283016 -4.5843511 -4.8417969 7
-0.29194301 -4.6158452 -4.8535161 7
-0.29554901 -4.637207 -4.8505859 7
-0.29025701 -4.6418462 -4.8261719 7
-0.30097401 -4.6767578 -4.8417969 7
-0.29744899 -4.6846919 -4.8212891 7
-0.29394901 -4.6928711 -4.8017578 7
-0.29576501 -4.7106929 -4.795898 7
-0.288708 -4.7119141 -4.766602 7
-0.295872 -4.7401118 -4.7724609 7
-0.29234701 -4.7479248 -4.7519531 7
-0.299494 -4.776123 -4.7597661 7
-0.297777 -4.787231 -4.7431641 7
-0.294254 -4.7949219 -4.7236328 7
-0.103064 4.5379639 -4.1621089 7
-0.103079 4.5247798 -4.171875 7
-0.103071 4.5114751 -4.1835942 7
-0.099531002 4.4909668 -4.1845698 7
-0.101286 4.4812012 -4.2001948 7
-0.065080002 -1.633229 -7.708118 7
-0.26024699 -4.731123 -8.4578953 7
-0.043170001 -1.55863 -6.4060769 7
-0.234028 -4.7051811 -6.8892722 7
-0.0055720001 -1.490172 -5.2044039 7
-0.057976998 -1.4355969 -4.2785301 7
-0.296978 -4.6699772 -4.6734819 7
-0.452528 -6.69104 -4.3495808 7
-0.050032001 -1.40144 -3.683171 7
-0.27735001 -4.6466851 -3.8310511 7
-0.27264601 -4.654808 -3.1727049 7
-0.072554 -1.770291 -0.90693998 7
-0.024018001 -1.388041 -0.61959898 7
-0.034885999 -1.552989 -0.62752998 7
-0.056116998 -1.726238 -0.667252 7
-0.062684 -1.891434 -0.64382797 7
-0.011232 -1.3676 -0.411937 7
-0.022162 -1.5238431 -0.42073801 7
-0.040848002 -1.686437 -0.45064399 7
-0.048856001 -1.843822 -0.43457901 7
-0.026322 -0.37100101 -15.312985 7
-0.069987997 4.6313028 -16.202169 7
-0.161533 -1.238788 -12.364542 7
-0.144357 4.7443972 -11.366605 7
-0.199819 4.6790681 -12.441163 7
-0.105813 -1.310312 -9.7076387 7
-0.37013099 -4.557168 -13.200942 7
-0.095195003 4.687912 -8.6191959 7
-0.072173998 -1.3560129 -8.0569458 7
-0.322512 -4.5422349 -10.664321 7
-0.04442 -1.37292 -6.864368 7
-0.30337599 -4.5934591 -9.0022383 7
0.014873 1.31655 -6.166327 7
-0.081422001 -1.392588 -6.0336418 7
-0.325551 -4.6221409 -7.1644831 7
-0.142418 4.4814038 -5.0537858 7
-0.031175001 1.588275 -5.4870219 7
-0.021547001 1.374706 -5.454608 7
-0.059818 -1.398441 -5.3738098 7
-0.28178501 -4.644268 -5.8346281 7
-0.056550998 -1.4384381 -4.9520779 7
-0.070770003 -1.644174 -4.999856 7
-0.25386199 -4.6846151 -4.7364988 7
-0.041393001 -1.4346 -4.5090022 7
-0.059397999 -1.28734 -4.163331 7
-0.072885998 -1.452087 -4.1893539 7
-0.29809701 -4.693954 -3.1429601 7
-0.053986002 -1.31276 -3.8975649 7
-0.062495001 -1.453459 -3.890281 7
-0.044884998 -1.321209 -3.6408031 7
-0.050841 -1.444406 -3.6171899 7
-0.049630001 -1.8844531 -0.957178 7
-0.041852999 -1.8518929 -0.88185 7
-0.040217999 -1.838585 -0.80467802 7
-0.043092001 -1.713043 -0.901591 7
-0.046473 -1.717242 -0.82705301 7
-0.037337001 -1.630071 -0.91351002 7
-0.040950999 -1.634782 -0.84244299 7
