# .PCD v0.7 - Point Cloud Data file format
VERSION 0.7
FIELDS x y z intensity
SIZE 4 4 4 4
TYPE F F F F
COUNT 1 1 1 1
WIDTH 675
HEIGHT 1
VIEWPOINT 0 0 0 1 0 0 0
POINTS 675
DATA ascii
-0.61743301 -5.4862061 74.793945 7
-0.49241701 -2.4160161 71.776367 7
-0.53624302 -2.2862549 72.939453 7
-0.551561 -2.128906 73.353516 7
-0.53472197 -0.76001 72.990234 7
-0.157681 4.4753418 -69.370117 7
-0.21270999 4.4084468 -71.039062 7
-0.018523 1.01001 -65.120117 7
-0.60054201 -5.5617681 67.394531 7
-0.727359 -5.48877 70.435547 7
-0.50611001 -2.65271 65.414062 7
-0.50713998 -2.502197 65.450195 7
-0.079167999 4.295898 -59.621094 7
-0.135563 4.2541499 -61.148438 7
-0.021309 0.93432599 -58.089844 7
-0.194916 -2.827148 -56.491211 7
-0.67749101 -5.3852539 63.541992 7
-0.43973699 0.203491 58.762695 7
-0.41685101 0.47143599 58.269531 7
-0.465408 3.3669429 59.333008 7
-0.41442701 3.437134 58.214844 7
-0.076521002 4.41394 -53.799805 7
-0.128194 4.3806152 -55.070312 7
-0.064659998 4.1296391 -53.522461 7
-0.110383 4.0802002 -54.646484 7
-0.15706 4.0271001 -55.794922 7
-0.182367 -2.674072 -50.826172 7
-0.15555499 -2.765991 -50.223633 7
-0.39093101 0.30895999 52.954102 7
-0.41527501 3.52002 53.433594 7
-0.36111999 3.567749 52.345703 7
-0.091617003 4.3886719 -48.939453 7
-0.028739 4.0345459 -47.55957 7
-0.107026 4.0568848 -49.300781 7
-0.19099601 3.955322 -51.174805 7
-0.46348301 3.4481201 50.645508 7
-0.41904601 3.505249 49.81543 7
-0.37431201 3.558105 48.978516 7
-0.072414003 4.3408198 -44.611328 7
-0.11131 4.3043208 -45.413086 7
-0.14708599 4.2581792 -46.151367 7
-0.087595001 4.0394292 -44.943359 7
-0.122516 3.989502 -45.664062 7
-0.17997099 3.9741211 -46.844727 7
-0.37002501 -2.5280759 44.959961 7
-0.374686 -2.4294429 45.047852 7
-0.404681 -2.3535161 45.567383 7
-0.29057601 0.454956 43.74707 7
-0.27557099 0.65173298 43.493164 7
-0.375505 3.5848391 45.147461 7
-0.34224501 3.6408689 44.573242 7
-0.320252 3.710815 44.191406 7
-0.109911 4.4311519 -41.212891 7
-0.131263 4.3701172 -41.620117 7
-0.15047801 4.3017578 -41.991211 7
-0.18872499 4.2674561 -42.710938 7
-0.015184 0.83972198 -39.591797 7
-0.0074880002 0.73974597 -39.447266 7
-0.035789002 0.65112299 -39.974609 7
-0.049825002 0.457275 -40.234375 7
-0.010311 0.25512701 -39.494141 7
-0.035172001 0.159668 -39.957031 7
-0.0083670001 0.060669001 -39.454102 7
-0.055750001 -0.052368 -37.118164 7
-0.031408001 -0.141968 -36.696289 7
-0.018616 -0.230957 -36.472656 7
-0.32861301 -2.4984131 41.192383 7
-0.34618199 -2.421021 41.477539 7
-0.351583 -2.3312991 41.570312 7
-0.292548 0.60717797 40.769531 7
-0.36322701 3.6009519 41.813477 7
-0.34288201 3.66748 41.485352 7
-0.31629699 3.723145 41.057617 7
-0.29740801 3.7884519 40.751953 7
-0.099687003 4.5343022 -37.698242 7
-0.124165 4.4890141 -38.126953 7
-0.148651 4.4416499 -38.555664 7
-0.177203 4.3997798 -39.054688 7
-0.211164 4.365356 -39.645508 7
-0.152 4.162354 -38.638672 7
-0.024212999 0.86840802 -36.575195 7
-0.060242001 0.130615 -37.199219 7
-0.064626001 -0.115112 -34.03125 7
-0.051887002 -0.281616 -33.826172 7
-0.032023001 -0.36206099 -33.508789 7
-0.019642999 -0.525024 -33.308594 7
-0.29837 -2.4489751 37.664062 7
-0.299858 -2.364502 37.691406 7
-0.333552 -2.2225339 38.198242 7
-0.29103401 0.47656199 37.697266 7
-0.26354 0.72656202 37.295898 7
-0.31293601 3.777344 37.910156 7
-0.289722 3.828125 37.564453 7
-0.064845003 4.5965581 -33.821289 7
-0.108867 4.6010742 -34.522461 7
-0.13406999 4.565063 -34.927734 7
-0.167025 4.54248 -35.454102 7
-0.207469 4.4422612 -36.108398 7
-0.001493 1.197266 -33.040039 7
-0.0030710001 1.116333 -33.066406 7
-0.029441999 1.046875 -33.483398 7
-0.067286 0.98034698 -34.081055 7
-0.067772001 -0.28027299 -31.764648 7
-0.053202 -0.356567 -31.546875 7
-0.027922999 -0.42956501 -31.171875 7
-0.064149 -0.51501501 -31.702148 7
-0.042842999 -0.58776897 -31.384766 7
-0.28928199 -2.370728 35.30957 7
-0.29897001 -2.299438 35.448242 7
-0.329128 3.64978 35.879883 7
-0.334079 3.7388921 35.94043 7
-0.310637 3.7853999 35.612305 7
-0.28254101 3.822998 35.22168 7
-0.27478299 3.891113 35.108398 7
0.25356901 17.689575 22.005859 7
0.25665 17.711426 21.933594 7
0.25640699 17.764038 21.895508 7
0.25199699 17.854614 21.902344 7
0.25591901 17.868408 21.820312 7
0.25359899 17.939819 21.803711 7
-0.084345996 4.645752 -31.74707 7
-0.111692 4.6220698 -32.158203 7
-0.129558 4.5773931 -32.428711 7
-0.15414301 4.5446782 -32.798828 7
-0.176753 4.5064702 -33.138672 7
-0.001288 1.3479 -30.761719 7
-0.063031003 1.054565 -31.708984 7
-0.026782 -0.66906703 -28.679688 7
-0.051718999 -0.74890101 -29.016602 7
-0.028262001 -0.81237799 -28.694336 7
-0.075392999 4.7165532 -29.075195 7
-0.090412997 4.6749272 -29.288086 7
-0.108416 4.6383061 -29.541016 7
-0.1277 4.6031489 -29.8125 7
-0.172187 4.6160889 -30.423828 7
-0.022291999 1.473022 -28.628906 7
-0.015625 1.326416 -28.541992 7
-0.041896999 1.19812 -28.904297 7
-0.035985 1.123047 -28.825195 7
-0.037921999 -0.84094203 -26.84668 7
-0.113796 4.8215332 -27.47168 7
-0.116603 4.758667 -27.517578 7
-0.13151599 4.7194819 -27.719727 7
-0.144851 4.6767578 -27.897461 7
-0.171434 4.65979 -28.243164 7
-0.183846 4.6132808 -28.410156 7
-0.023080001 1.57605 -26.628906 7
-0.04228 1.50769 -26.918945 7
-0.023203 1.36145 -26.681641 7
-0.040259 1.304932 -26.899414 7
-0.040959999 -0.96814001 -24.855469 7
-0.050655998 -1.15979 -24.958984 7
-0.239446 -4.0836182 -26.858398 7
-0.233137 -4.139771 -26.774414 7
-0.21603499 -4.2425542 -26.552734 7
-0.100175 4.829102 -25.177734 7
-0.113524 4.7938228 -25.342773 7
-0.122441 4.7484131 -25.457031 7
-0.135791 4.711792 -25.623047 7
-0.16342101 4.7028809 -25.957031 7
-0.17233799 4.655273 -26.072266 7
-0.133022 4.5133061 -25.621094 7
-0.018139999 1.521729 -24.555664 7
-0.032008 1.469116 -24.722656 7
-0.051323 1.419312 -24.952148 7
-0.035112001 1.34668 -24.763672 7
-0.027798001 1.280273 -24.679688 7
-0.057493001 -1.086182 -23.290039 7
-0.062886998 -1.147583 -23.345703 7
-0.238022 -4.2471919 -24.902344 7
-0.233888 -4.3018799 -24.845703 7
-0.238785 -4.3728032 -24.887695 7
-0.109903 4.8831792 -23.448242 7
-0.117332 4.8396001 -23.540039 7
-0.12844799 4.8033452 -23.670898 7
-0.159113 4.7459722 -24.027344 7
-0.17288201 4.7130132 -24.1875 7
-0.033344999 1.604736 -22.988281 7
-0.057144001 -0.96093798 -21.695312 7
-0.06459 -1.018921 -21.769531 7
-0.079449996 -1.136108 -21.916016 7
-0.063721001 -1.182983 -21.749023 7
-0.063248001 -1.2375489 -21.741211 7
-0.24987 -4.2258301 -23.282227 7
-0.25281501 -4.2893071 -23.300781 7
-0.24556801 -4.3347168 -23.21582 7
-0.240007 -4.38269 -23.148438 7
-0.248612 -4.456543 -23.224609 7
-0.171206 4.8016362 -22.43457 7
-0.103259 -1.288574 -20.730469 7
-0.10033 -1.339111 -20.699219 7
-0.096807003 -1.3894041 -20.661133 7
-0.095090002 -1.440552 -20.640625 7
-0.255631 -4.2012939 -21.81543 7
-0.27020201 -4.2813721 -21.942383 7
-0.27694499 -4.3483891 -21.995117 7
-0.27162099 -4.394165 -21.933594 7
-0.263886 -4.4353032 -21.849609 7
-0.049573999 1.575073 -20.176758 7
-0.069415003 1.537231 -20.37207 7
-0.05094 1.421875 -20.199219 7
-0.040817 1.36438 -20.102539 7
-0.035470001 1.310059 -20.052734 7
-0.093649 -1.155151 -19.290039 7
-0.084770001 -1.1993411 -19.205078 7
-0.284881 -4.3548579 -20.579102 7
-0.28562099 -4.4080811 -20.575195 7
-0.131878 4.9476318 -19.092773 7
-0.119795 4.8731689 -18.99707 7
-0.128766 4.8435059 -19.087891 7
-0.13836201 4.8145752 -19.18457 7
-0.179296 4.7497559 -19.580078 7
-0.034503002 1.277588 -18.716797 7
-0.038385 1.231934 -18.754883 7
-0.050491001 1.189453 -18.868164 7
-0.038424 1.135132 -18.759766 7
-0.026349001 1.081177 -18.65332 7
-0.021939 1.031494 -18.615234 7
-0.023267001 0.98425299 -18.628906 7
-0.103316 -1.3737791 -18.198242 7
-0.097976997 -1.41687 -18.148438 7
-0.092621997 -1.459717 -18.098633 7
-0.032125 0.92419398 -17.643555 7
-0.032194 0.87914997 -17.646484 7
-0.03224 0.83410603 -17.648438 7
-0.046519 0.79394501 -17.772461 7
-0.030339999 0.74304199 -17.634766 7
-0.024321999 0.69604498 -17.583984 7
-0.017616 0.64916998 -17.527344 7
-0.088664003 -1.330322 -16.956055 7
-0.085293002 -1.458252 -16.916992 7
-0.018252 0.28210399 -16.393555 7
-0.020463999 0.239868 -16.411133 7
-0.02482 0.19812 -16.446289 7
-0.022715 0.155396 -16.429688 7
-0.017054999 0.112671 -16.382812 7
-0.010662 0.070312001 -16.331055 7
-0.035707001 -0.020996001 -15.601562 7
-0.037287001 -0.061400998 -15.613281 7
-0.035073999 -0.101685 -15.595703 7
-0.032083999 -0.14172401 -15.572266 7
-0.027605999 -0.18139599 -15.537109 7
-0.027674999 -0.221558 -15.535156 7
-0.028483 -0.261841 -15.541016 7
-0.033107001 -0.30261201 -15.574219 7
-0.082486004 -1.294067 -15.894531 7
-0.095531002 -1.384033 -15.986328 7
-0.095599003 -1.4250489 -15.982422 7
-0.092625 -1.464478 -15.957031 7
-0.29187301 -4.545898 -16.941406 7
-0.12308 4.7947998 -15.585938 7
-0.129914 4.7684331 -15.647461 7
-0.132966 4.7340088 -15.681641 7
-0.13752 4.7025151 -15.726562 7
-0.15116701 4.6890869 -15.838867 7
-0.164822 4.675293 -15.951172 7
-0.163334 4.631104 -15.950195 7
-0.13462199 4.5335689 -15.748047 7
-0.130869 4.4854741 -15.730469 7
-0.050843999 -0.47937 -14.759766 7
-0.050898001 -0.51770002 -14.758789 7
-0.053376 -0.55664098 -14.774414 7
-0.039912999 -0.66735798 -14.670898 7
-0.046397001 -0.70752001 -14.716797 7
-0.046572998 -0.82202101 -14.710938 7
-0.043430001 -0.85888702 -14.686523 7
-0.047525998 -0.89855999 -14.710938 7
-0.077841997 -1.296997 -14.899414 7
-0.078712001 -1.336182 -14.902344 7
-0.091687001 -1.421509 -14.988281 7
-0.090947002 -1.4599611 -14.978516 7
-0.088606 -1.49707 -14.958008 7
-0.29569599 -4.5062261 -15.902344 7
-0.29094401 -4.5384521 -15.858398 7
-0.287808 -4.5733638 -15.824219 7
-0.29272899 -4.6230469 -15.84668 7
-0.304896 -4.686646 -15.920898 7
-0.307399 -4.7324219 -15.925781 7
-0.31070101 -4.779541 -15.9375 7
-0.048273999 -0.67224097 -13.917969 7
-0.052554 -0.709961 -13.944336 7
-0.056832999 -0.74780297 -13.97168 7
-0.066178001 -0.787476 -14.03418 7
-0.067924999 -0.82446301 -14.043945 7
-0.064613998 -0.85986298 -14.017578 7
-0.059595 -0.89428699 -13.981445 7
-0.054591 -0.928711 -13.944336 7
-0.057185002 -0.966187 -13.959961 7
-0.071603 -1.008911 -14.055664 7
-0.074188001 -1.046753 -14.070312 7
-0.069183998 -1.081055 -14.033203 7
-0.065874003 -1.115723 -14.007812 7
-0.066774003 -1.152832 -14.010742 7
-0.077820003 -1.195068 -14.083008 7
-0.087180004 -1.236816 -14.141602 7
-0.078795999 -1.2687989 -14.081055 7
-0.30263901 -4.4859619 -15.024414 7
-0.296803 -4.5140381 -14.974609 7
-0.29350099 -4.5466309 -14.941406 7
-0.295286 -4.5883789 -14.942383 7
-0.30044299 -4.6367192 -14.964844 7
-0.30223599 -4.6785889 -14.963867 7
-0.30994001 -4.731812 -15.00293 7
-0.308323 -4.7674561 -14.981445 7
-0.078088 -0.99572802 -13.321289 7
-0.084366001 -1.033325 -13.358398 7
-0.075539999 -1.064209 -13.297852 7
-0.068506002 -1.095459 -13.248047 7
-0.062343001 -1.126953 -13.205078 7
-0.081038997 -1.171265 -13.324219 7
-0.094426997 -1.213257 -13.407227 7
-0.089156002 -1.245483 -13.370117 7
-0.080338001 -1.275269 -13.310547 7
-0.31197 -4.4985352 -14.196289 7
-0.30225101 -4.5174561 -14.125 7
-0.297003 -4.5445561 -14.080078 7
-0.295302 -4.5780029 -14.058594 7
-0.29448599 -4.612793 -14.041992 7
-0.299025 -4.6578369 -14.058594 7
-0.30890399 -4.7128911 -14.108398 7
-0.316998 -4.7651372 -14.147461 7
-0.081262998 -1.281738 -12.612305 7
-0.086900003 -1.318115 -12.643555 7
-0.083237998 -1.349121 -12.617188 7
-0.097319998 -1.424194 -12.696289 7
-0.090912998 -1.486816 -12.649414 7
-0.102164 -1.527588 -12.714844 7
-0.107809 -1.564697 -12.746094 7
-0.307219 -4.5218511 -13.354492 7
-0.292366 -4.5292969 -13.253906 7
-0.29525 -4.5693359 -13.260742 7
-0.29064301 -4.5953369 -13.22168 7
-0.29352599 -4.6352539 -13.227539 7
-0.297333 -4.677002 -13.239258 7
-0.31152201 -4.7730708 -13.297852 7
-0.120583 4.7625728 -12.082031 7
-0.126166 4.7418208 -12.125977 7
-0.121536 4.7001948 -12.109375 7
-0.128989 4.6829829 -12.164062 7
-0.128997 4.6506348 -12.174805 7
-0.134588 4.6296391 -12.217773 7
-0.14481699 4.6174321 -12.290039 7
-0.15876199 4.6121831 -12.381836 7
-0.146709 4.5557861 -12.322266 7
-0.13558801 4.5014648 -12.266602 7
-0.076113999 -1.309448 -11.87793 7
-0.076237001 -1.372437 -11.871094 7
-0.090966001 -1.4130861 -11.954102 7
-0.098853998 -1.449585 -11.996094 7
-0.084230997 -1.471802 -11.907227 7
-0.087220997 -1.505127 -11.920898 7
-0.111792 -1.585205 -12.056641 7
-0.2976 -4.511353 -12.493164 7
-0.29473999 -4.53894 -12.46582 7
-0.29383901 -4.5698242 -12.449219 7
-0.29194799 -4.5991211 -12.428711 7
-0.297975 -4.6756592 -12.439453 7
-0.30795199 -4.7600098 -12.472656 7
-0.30998901 -4.7963872 -12.47168 7
-0.143277 4.7851558 -11.458008 7
-0.13550401 4.738647 -11.424805 7
-0.13356701 4.704102 -11.425781 7
-0.129683 4.665771 -11.415039 7
-0.131652 4.6391602 -11.436523 7
-0.131667 4.608521 -11.447266 7
-0.134627 4.5223389 -11.49707 7
-0.13172799 4.4859619 -11.491211 7
-0.085574001 -1.2861331 -11.333984 7
-0.076426998 -1.311035 -11.279297 7
-0.076481 -1.340942 -11.276367 7
-0.076518998 -1.371094 -11.273438 7
-0.085787997 -1.406616 -11.321289 7
-0.10119 -1.446533 -11.404297 7
-0.094080001 -1.47229 -11.360352 7
-0.089015 -1.4992681 -11.328125 7
-0.092127003 -1.53125 -11.341797 7
-0.090136997 -1.560181 -11.326172 7
-0.103494 -1.5994869 -11.396484 7
-0.303642 -4.5085449 -11.841797 7
-0.30166 -4.5362549 -11.820312 7
-0.29969099 -4.5637212 -11.798828 7
-0.29668599 -4.5892329 -11.771484 7
-0.29573199 -4.6185298 -11.754883 7
-0.29271901 -4.644043 -11.728516 7
-0.29383299 -4.677124 -11.722656 7
-0.306207 -4.7314448 -11.775391 7
-0.311409 -4.7724609 -11.792969 7
-0.080608003 -1.3067631 -10.681641 7
-0.072058 -1.330322 -10.632812 7
-0.074254997 -1.3601069 -10.641602 7
-0.074316002 -1.388672 -10.637695 7
-0.085110001 -1.42395 -10.691406 7
-0.095888004 -1.459473 -10.745117 7
-0.086268999 -1.481934 -10.69043 7
-0.086329997 -1.510498 -10.686523 7
-0.089596003 -1.54126 -10.700195 7
-0.090732001 -1.570557 -10.702148 7
-0.29623601 -4.484375 -11.088867 7
-0.301691 -4.52356 -11.105469 7
-0.29638201 -4.543457 -11.068359 7
-0.29430699 -4.5689702 -11.045898 7
-0.29438299 -4.5985112 -11.035156 7
-0.29444399 -4.6279302 -11.023438 7
-0.29235399 -4.6533198 -11.00293 7
-0.29458901 -4.6867681 -11.001953 7
-0.30864799 -4.7427979 -11.060547 7
-0.310868 -4.7763672 -11.05957 7
-0.39834499 -6.307373 -10.865234 7
-0.39948899 -6.3391109 -10.855469 7
-0.40711799 -6.3867192 -10.875977 7
-0.072226003 -1.3269041 -10.104492 7
-0.068907999 -1.352173 -10.083984 7
-0.074568003 -1.382935 -10.109375 7
-0.083631001 -1.443115 -10.148438 7
-0.092648 -1.4761961 -10.19043 7
-0.085965 -1.499146 -10.152344 7
-0.087186001 -1.554688 -10.151367 7
-0.30609301 -4.503418 -10.519531 7
-0.30622301 -4.559814 -10.499023 7
-0.30517 -4.58606 -10.482422 7
-0.29961699 -4.6036382 -10.444336 7
-0.29976201 -4.659668 -10.421875 7
-0.30205801 -4.691895 -10.421875 7
-0.31449199 -4.7434082 -10.469727 7
-0.08286 -1.301514 -9.6552734 7
-0.074729003 -1.322876 -9.6123047 7
-0.075942002 -1.349609 -9.6142578 7
-0.078328997 -1.377197 -9.6230469 7
-0.072524004 -1.399536 -9.5908203 7
-0.086590998 -1.434448 -9.65625 7
-0.103015 -1.471313 -9.7324219 7
-0.092541002 -1.490723 -9.6777344 7
-0.089093 -1.514526 -9.65625 7
-0.092639998 -1.5430911 -9.6708984 7
-0.091512002 -1.568359 -9.6611328 7
-0.092731997 -1.595459 -9.6621094 7
-0.068176001 -1.288452 -9.1162109 7
-0.071869001 -1.31543 -9.1298828 7
-0.071915001 -1.340454 -9.1269531 7
-0.073188998 -1.366089 -9.1298828 7
-0.080542997 -1.3955081 -9.1611328 7
-0.078139 -1.418945 -9.1464844 7
-0.076972 -1.443115 -9.1376953 7
-0.081892997 -1.471191 -9.15625 7
-0.094136 -1.504272 -9.2080078 7
-0.086874001 -1.524536 -9.1708984 7
-0.091793999 -1.552856 -9.1894531 7
-0.093060002 -1.5788569 -9.1914062 7
-0.40969101 -6.3293462 -8.9589844 7
-0.41342199 -6.362915 -8.9589844 7
-0.406167 -6.3693848 -8.9140615 7
-0.114332 4.6398931 -8.3349609 7
-0.122846 4.6337891 -8.3828115 7
-0.062517002 -1.345825 -8.6025391 7
-0.068971001 -1.396973 -8.625 7
-0.066462003 -1.419189 -8.609375 7
-0.30615601 -4.5991211 -8.7587891 7
-0.29983199 -4.6113281 -8.7216797 7
-0.30118299 -4.6376948 -8.7158203 7
-0.30129701 -4.6856689 -8.6943359 7
-0.302632 -4.711792 -8.6875 7
-0.316798 -4.786499 -8.7216797 7
-0.401079 -6.3018799 -8.2841797 7
-0.397311 -6.3154302 -8.2558594 7
-0.39482501 -6.3320308 -8.2314453 7
-0.398799 -6.3869629 -8.2148438 7
-0.123754 4.7800288 -7.7685552 7
-0.123746 4.7581792 -7.780273 7
-0.122479 4.7337651 -7.7871089 7
-0.100907 4.6677251 -7.7099609 7
-0.094567999 4.632935 -7.6962891 7
-0.097107999 4.6164551 -7.7167969 7
-0.094567999 4.589478 -7.71875 7
-0.097108997 4.572998 -7.7392578 7
-0.094584003 4.5461431 -7.7392578 7
-0.098397002 4.5316162 -7.765625 7
-0.104729 4.5223389 -7.8027339 7
-0.113631 4.5179439 -7.8496089 7
-0.122511 4.5131841 -7.8964839 7
-0.119986 4.4862061 -7.8974609 7
-0.086661004 -1.281616 -8.3027344 7
-0.085380003 -1.303955 -8.2949219 7
-0.089391999 -1.3293459 -8.3085938 7
-0.092084996 -1.35376 -8.3164062 7
-0.082861997 -1.371338 -8.2744141 7
-0.081580997 -1.393433 -8.2646484 7
-0.084257998 -1.417847 -8.2734385 7
-0.082976997 -1.439941 -8.2636719 7
-0.093611002 -1.469604 -8.3056641 7
-0.100286 -1.496948 -8.3300781 7
-0.105633 -1.52356 -8.3486328 7
-0.097714998 -1.5411381 -8.3115234 7
-0.097769 -1.564209 -8.3076172 7
-0.097815 -1.58728 -8.3037109 7
-0.30407399 -4.5003662 -8.2949219 7
-0.30811799 -4.5307622 -8.2998047 7
-0.31084099 -4.5583501 -8.2988281 7
-0.31621799 -4.591187 -8.3085938 7
-0.31626499 -4.6141362 -8.2978516 7
-0.31367901 -4.6322021 -8.2763672 7
-0.30708799 -4.6427002 -8.2392578 7
-0.30715701 -4.6655269 -8.2285156 7
-0.31384701 -4.7006841 -8.2431641 7
-0.31258801 -4.7210689 -8.2275391 7
-0.30998701 -4.7388921 -8.2050781 7
-0.311391 -4.7642822 -8.1992188 7
-0.31808099 -4.799561 -8.2138672 7
-0.41520801 -6.4051509 -7.7167969 7
-0.41793901 -6.433228 -7.7099609 7
-0.41668001 -6.4515381 -7.6904302 7
-0.30159599 -4.4830322 -7.797852 7
-0.30165699 -4.5048828 -7.7871089 7
-0.298949 -4.5214839 -7.766602 7
-0.30454099 -4.5534668 -7.7763672 7
-0.30735499 -4.5800781 -7.7753911 7
-0.30742499 -4.6018071 -7.764648 7
-0.30332801 -4.6159668 -7.7382808 7
-0.296462 -4.6246338 -7.702148 7
-0.30204701 -4.6564941 -7.7119141 7
-0.30211499 -4.6781011 -7.7001948 7
-0.302176 -4.699707 -7.6894531 7
-0.30637899 -4.7290039 -7.6933589 7
-0.31065199 -4.7797852 -7.6845698 7
-0.29161799 -4.4803472 -7.3154302 7
-0.29453999 -4.506104 -7.3144531 7
-0.29746899 -4.532104 -7.3144531 7
-0.30039099 -4.5579829 -7.313477 7
-0.29615 -4.5706792 -7.2871089 7
-0.30767599 -4.6125488 -7.3173828 7
-0.30916399 -4.6357422 -7.3105469 7
-0.29917899 -4.6376948 -7.264648 7
-0.29779801 -4.655396 -7.249023 7
-0.299301 -4.6785889 -7.242188 7
-0.30078 -4.7019038 -7.2363281 7
-0.30084899 -4.722168 -7.2246089 7
-0.30519801 -4.7507319 -7.2285161 7
-0.30383199 -4.7685552 -7.2119141 7
-0.29608199 -4.4888921 -6.8935552 7
-0.29316801 -4.5032959 -6.8730469 7
-0.30513701 -4.5444341 -6.9023442 7
-0.31116301 -4.5750728 -6.9101558 7
-0.30377099 -4.5810552 -6.875 7
-0.31574801 -4.622437 -6.9023442 7
-0.312819 -4.6368408 -6.8818359 7
-0.300964 -4.6341548 -6.8310552 7
-0.30100301 -4.6534419 -6.820312 7
-0.30106401 -4.6729741 -6.8095698 7
-0.30707499 -4.7037349 -6.8183589 7
-0.30416101 -4.7174072 -6.796875 7
-0.301231 -4.7312012 -6.7763672 7
-0.31022501 -4.7675781 -6.7939448 7
-0.31177399 -4.789917 -6.7880859 7
-0.297959 -4.6854248 -6.3945308 7
-0.29805899 -4.722168 -6.3730469 7
-0.296624 -4.755981 -6.3457031 7
-0.30747199 -4.795166 -6.3681641 7
-0.28830901 -4.4829102 -6.0585942 7
-0.29155201 -4.5064702 -6.0585942 7
-0.298013 -4.5358891 -6.0664058 7
-0.296464 -4.550415 -6.0507808 7
-0.29651701 -4.5681152 -6.0400391 7
-0.29976699 -4.5916748 -6.039062 7
-0.30462599 -4.618042 -6.0419922 7
-0.30307901 -4.632812 -6.0263672 7
-0.29672399 -4.6384282 -5.9970698 7
-0.295176 -4.6529541 -5.9814448 7
-0.29683101 -4.6733398 -5.9736328 7
-0.29208601 -4.6817632 -5.9492192 7
-0.30014101 -4.714478 -5.9619141 7
-0.29699901 -4.725708 -5.9404302 7
-0.29383299 -4.736938 -5.9199219 7
-0.29709101 -4.760498 -5.9189448 7
-0.29554901 -4.7746582 -5.9023442 7
-0.297205 -4.7950439 -5.8964839 7
-0.29029399 -4.4815669 -5.672852 7
-0.288753 -4.512207 -5.6464839 7
-0.29709801 -4.5439448 -5.6591802 7
-0.29715201 -4.5606689 -5.648438 7
-0.292209 -4.5681152 -5.6230469 7
-0.29562601 -4.6074219 -5.6113281 7
-0.297342 -4.6274409 -5.6054692 7
-0.29412401 -4.6541748 -5.5732422 7
-0.30082101 -4.6833501 -5.5810552 7
-0.295885 -4.6904302 -5.5566411 7
-0.289294 -4.6942139 -5.5263672 7
-0.29438299 -4.7364502 -5.5175781 7
-0.296092 -4.755981 -5.5117192 7
-0.294543 -4.785522 -5.484375 7
-0.125245 4.7902832 -4.7744141 7
-0.095472001 4.596436 -4.7939448 7
-0.090521 4.5716548 -4.7900391 7
-0.088866003 4.5535889 -4.796875 7
-0.125764 4.7800288 -4.407227 7
-0.12746499 4.7557368 -4.4345698 7
-0.122332 4.7310791 -4.4326172 7
-0.125733 4.7102051 -4.4638672 7
-0.122301 4.6893311 -4.4667969 7
-0.115451 4.6473389 -4.4707031 7
-0.103475 4.6091309 -4.4511719 7
-0.10005 4.5743408 -4.4638672 7
-0.10005 4.5601811 -4.4746089 7
-0.098325998 4.5427251 -4.4814448 7
-0.098310001 4.528564 -4.492188 7
-0.096601002 4.51123 -4.4980469 7
-0.096601002 4.4970698 -4.5087891 7
-0.291706 -4.7001948 -4.78125 7
-0.293522 -4.7182622 -4.7753911 7
-0.29713699 -4.739624 -4.7714839 7
-0.29718301 -4.754395 -4.7607422 7
-0.297236 -4.7689209 -4.749023 7
-0.29728299 -4.7833252 -4.7373052 7
-0.10455 4.5367432 -4.164062 7
-0.106305 4.526978 -4.1787109 7
-0.106297 4.5136719 -4.1894531 7
-0.10629 4.5002441 -4.2001948 7
-0.108068 4.4902339 -4.2148442 7
-0.023218 -1.548214 -6.21769 7
-0.012074 -1.4932441 -5.2601991 7
-0.228361 -4.723999 -5.75425 7
-0.05686 -1.435155 -4.270421 7
-0.300102 -4.6789021 -4.6928701 7
-0.041108001 -1.398175 -3.6230879 7
-0.28255001 -4.6616759 -3.8603401 7
-0.26548499 -4.6340418 -3.1359899 7
-0.023436001 -1.387831 -0.617356 7
-0.028418999 -1.549621 -0.60282803 7
-0.043742001 -1.717855 -0.62048101 7
-0.28774801 -4.8669362 5.4449701 7
-0.012132 -1.367911 -0.415259 7
-0.021569001 -1.523548 -0.418567 7
-0.037186 -1.684062 -0.43737599 7
-0.055952001 -1.849476 -0.45998201 7
-0.001467 -1.3497339 -0.230766 7
-0.014098 -1.499151 -0.24598099 7
-0.023269 -1.330416 -0.042229 7
-0.033034001 -1.470421 -0.047215998 7
-0.090195 4.5116901 -4.3358631 7
-0.085229002 -1.24801 -17.003727 7
-0.14261299 -1.315827 -12.017601 7
-0.208395 4.6134028 -12.620975 7
-0.093811996 -1.371143 -9.5180759 7
-0.347092 -4.5591278 -12.834714 7
-0.072576001 -1.430195 -8.0514622 7
-0.315732 -4.6072512 -10.546019 7
-0.12981901 4.5015688 -7.8442822 7
-0.058045998 -1.471994 -7.005775 7
-0.29191601 -4.6114092 -8.8467808 7
-0.053103998 1.3514349 -6.2981381 7
-0.095247 -1.481111 -6.1448421 7
-0.32744399 -4.7018361 -7.1372309 7
-0.119503 4.4921041 -4.7436252 7
-0.034120999 1.550998 -5.5267129 7
-0.035110001 1.3659559 -5.5869918 7
-0.066765003 -1.462606 -5.4171228 7
-0.30564499 -4.62117 -6.1140118 7
-0.29773599 -4.7996068 -5.8907828 7
-0.111331 4.4585772 -3.8769529 7
-0.121744 4.3925462 -4.0962539 7
-0.053514 -1.308303 -4.966619 7
-0.059677001 -1.4879659 -4.9617519 7
-0.26218 -4.7388978 -4.7779989 7
-0.042061001 -1.327746 -4.5510778 7
-0.044785999 -1.480489 -4.5182252 7
-0.235801 -4.4999371 -4.0310211 7
-0.242589 -4.6862402 -3.880389 7
-0.063386001 -1.329607 -4.174068 7
-0.071296997 -1.480329 -4.1667552 7
-0.27545199 -4.5544758 -3.083889 7
-0.2811 -4.690484 -2.913502 7
-0.054308999 -1.343055 -3.8868229 7
-0.053955 -1.458917 -3.8323319 7
-0.043161999 -1.343425 -3.6197929 7
-0.051178001 -1.472023 -3.604955 7
-0.033805002 -1.341992 -3.3879869 7
-0.036865 -1.446823 -3.3482201 7
