# .PCD v0.7 - Point Cloud Data file format
VERSION 0.7
FIELDS x y z intensity
SIZE 4 4 4 4
TYPE F F F F
COUNT 1 1 1 1
WIDTH 742
HEIGHT 1
VIEWPOINT 0 0 0 1 0 0 0
POINTS 742
DATA ascii
-0.59673899 -5.4542241 74.28125 7
-0.47527799 -2.394531 71.152344 7
-0.52635098 -2.2723391 72.501953 7
-0.53637499 -2.1118159 72.775391 7
-0.51756001 -0.584961 72.366211 7
-0.201115 4.3980708 -70.893555 7
-0.57375997 -5.5161128 66.783203 7
-0.62522203 -5.4615479 68.019531 7
-0.69463402 -5.434937 69.683594 7
-0.0069229999 4.449707 -57.80957 7
-0.12527201 4.541748 -61.016602 7
-0.032919999 4.2174072 -58.523438 7
-0.109863 4.2164311 -60.611328 7
-0.022209 0.79406703 -58.261719 7
-0.203223 -2.830811 -56.816406 7
-0.16846199 -2.925293 -55.956055 7
-0.67465502 -5.387085 63.50293 7
-0.72386599 -5.330688 64.586914 7
-0.422674 0.340332 58.260742 7
-0.427854 0.47607401 58.375977 7
-0.063050002 4.3964839 -53.59668 7
-0.152199 4.434937 -55.788086 7
-0.087529004 4.047729 -54.214844 7
-0.141002 4.0075679 -55.532227 7
-0.198302 -2.6862791 -51.273438 7
-0.36212 0.42553699 52.282227 7
-0.38179499 3.4703369 52.652344 7
-0.31009501 3.6099851 51.212891 7
-0.035328999 4.4034419 -47.791992 7
-0.084804997 4.3822021 -48.898438 7
-0.11672 4.3225098 -49.613281 7
-0.052003998 4.0830078 -48.182617 7
-0.092569999 4.0368652 -49.09082 7
-0.14573801 4.0081792 -50.277344 7
-0.431353 3.5184331 49.944336 7
-0.385573 3.5700679 49.09082 7
-0.34579101 3.6260991 48.34668 7
-0.062734 4.3295898 -44.5 7
-0.100135 4.2906489 -45.274414 7
-0.13213401 4.2380371 -45.936523 7
-0.072215997 4.0186772 -44.71582 7
-0.105909 3.967407 -45.414062 7
-0.145888 3.9234619 -46.239258 7
-0.196692 3.893188 -47.286133 7
-0.016462 0.588135 -43.630859 7
-0.02004 0.48193401 -43.703125 7
-0.353008 -2.5158689 44.681641 7
-0.37068301 -2.430176 44.990234 7
-0.384231 -2.339478 45.229492 7
-0.29203501 0.45446801 43.701172 7
-0.38411099 3.5931399 45.211914 7
-0.34909001 3.6468511 44.609375 7
-0.32568499 3.7149661 44.205078 7
-0.32619601 3.817261 44.207031 7
-0.099117003 4.4160161 -41.091797 7
-0.119813 4.3538818 -41.485352 7
-0.140836 4.2906489 -41.886719 7
-0.171524 4.2429199 -42.466797 7
0.00047500001 0.83447301 -39.369141 7
-0.062724002 0.55957001 -40.548828 7
-0.059223 0.359741 -40.481445 7
-0.021524999 0.255981 -39.774414 7
-0.032914001 0.159058 -39.985352 7
-0.021159999 0.060424998 -39.763672 7
-0.024894999 -0.043701001 -36.634766 7
-0.014307 -0.2229 -36.445312 7
-0.34080601 -2.4125979 41.333008 7
-0.34733599 -2.323853 41.443359 7
-0.37488201 -2.253418 41.886719 7
-0.35765201 3.6855471 41.648438 7
-0.32550499 3.7332759 41.133789 7
-0.31027099 3.8043211 40.886719 7
0.386069 21.143799 21.862305 7
0.386253 21.192139 21.8125 7
-0.110038 4.4681401 -37.946289 7
-0.136499 4.4248052 -38.411133 7
-0.193726 4.4370122 -39.40332 7
-0.021376001 0.86804199 -36.586914 7
-0.043512002 0.78539997 -36.967773 7
-0.079861 0.70556599 -37.595703 7
-0.069126002 -0.116211 -34.154297 7
-0.010428 -0.44189501 -33.21582 7
-0.310646 -2.4649661 37.849609 7
-0.28458801 -2.35376 37.477539 7
-0.31401101 -2.2952881 37.914062 7
-0.24305201 0.55078101 36.944336 7
-0.33323699 3.6298831 38.160156 7
-0.34903499 3.740479 38.383789 7
-0.327371 3.795532 38.060547 7
-0.29337001 3.8300779 37.558594 7
0.32084399 19.23645 21.770508 7
-0.059436999 4.674561 -33.783203 7
-0.071321003 4.6149902 -33.978516 7
-0.092069998 4.5725098 -34.314453 7
-0.12569501 4.5537109 -34.853516 7
-0.155285 4.5246582 -35.327148 7
-0.194837 4.5124512 -35.958984 7
-0.213366 4.4578862 -36.260742 7
-0.016772 1.206787 -33.333008 7
-0.036826 1.1343991 -33.651367 7
-0.021418 1.043823 -33.408203 7
-0.059574001 0.97790498 -34.012695 7
-0.070183001 -0.35278299 -31.831055 7
-0.037808999 -0.42541501 -31.350586 7
-0.060915001 -0.50830102 -31.6875 7
-0.047169 -0.58288598 -31.481445 7
-0.030646 -0.65612799 -31.235352 7
-0.281526 -2.3601069 35.160156 7
-0.29367 -2.2111821 35.339844 7
-0.31528899 -2.1494141 35.642578 7
-0.34817001 3.7568359 36.081055 7
-0.315795 3.7900391 35.630859 7
-0.28072599 3.897095 35.137695 7
0.26192001 17.862305 21.716797 7
-0.080119997 4.6430659 -31.729492 7
-0.097161002 4.5983891 -31.989258 7
-0.116972 4.558228 -32.291016 7
-0.141908 4.5266109 -32.665039 7
-0.174358 4.5075679 -33.151367 7
-0.013052 1.2794189 -30.980469 7
-0.043572001 1.219116 -31.432617 7
-0.015211 1.126587 -31.015625 7
-0.059347998 1.060791 -31.688477 7
-0.061025001 -0.53552198 -29.19043 7
-0.023181999 -0.669312 -28.667969 7
-0.087729 4.8195801 -29.264648 7
-0.084386997 4.739624 -29.230469 7
-0.100666 4.7001948 -29.460938 7
-0.116952 4.65979 -29.691406 7
-0.141332 4.6342769 -30.032227 7
-0.169991 4.6157231 -30.430664 7
-0.16964 4.539185 -30.43457 7
-0.038419001 1.41333 -28.888672 7
-0.0077530001 1.322754 -28.47168 7
-0.051920999 1.204712 -29.078125 7
-0.048273999 -0.772461 -27.00293 7
-0.037838999 -0.83593798 -26.867188 7
-0.11144 4.7521968 -27.489258 7
-0.124285 4.7098389 -27.662109 7
-0.138962 4.6700439 -27.858398 7
-0.16323499 4.648438 -28.174805 7
-0.178819 4.6086431 -28.381836 7
-0.152411 4.4868159 -28.057617 7
-0.031044999 1.582886 -26.762695 7
-0.035248 1.5098881 -26.852539 7
-0.020236 1.433105 -26.663086 7
-0.030877 1.3731689 -26.798828 7
-0.056607001 1.321411 -27.128906 7
-0.049658 -0.96740699 -24.975586 7
-0.072580002 -1.103516 -25.238281 7
-0.054403 -1.157227 -25.020508 7
-0.22845399 -4.195435 -26.727539 7
-0.217195 -4.242065 -26.584961 7
-0.230681 -4.3322749 -26.730469 7
-0.102906 4.838623 -25.234375 7
-0.105919 4.7814941 -25.280273 7
-0.119741 4.74646 -25.452148 7
-0.12964299 4.7025151 -25.578125 7
-0.15477 4.6885991 -25.882812 7
-0.17107201 4.6557622 -26.083984 7
-0.163756 4.5761719 -26.008789 7
-0.025624 1.527954 -24.672852 7
-0.029635999 1.46875 -24.722656 7
-0.047920998 1.4180911 -24.942383 7
-0.046517 1.354614 -24.927734 7
-0.029865 1.282593 -24.732422 7
-0.062139999 -0.966919 -23.363281 7
-0.08179 -1.0344239 -23.575195 7
-0.062857002 -1.084473 -23.363281 7
-0.059790999 -1.141602 -23.326172 7
-0.087901004 -1.215088 -23.631836 7
-0.073186003 -1.266113 -23.464844 7
-0.25107399 -4.204834 -25.071289 7
-0.243782 -4.254395 -24.980469 7
-0.237535 -4.3056641 -24.901367 7
-0.236596 -4.3660889 -24.878906 7
-0.25843599 -4.4682622 -25.105469 7
-0.12839399 4.9257808 -23.672852 7
-0.11265 4.8328862 -23.512695 7
-0.12587 4.8010249 -23.666992 7
-0.136969 4.7641602 -23.798828 7
-0.146496 4.7233891 -23.913086 7
-0.167611 4.7054439 -24.15332 7
-0.170303 4.6499019 -24.193359 7
-0.13783801 4.5263672 -23.853516 7
-0.033628002 1.72229 -23.010742 7
-0.060708001 -1.177246 -21.727539 7
-0.247743 -4.1612549 -23.285156 7
-0.26143599 -4.2432861 -23.412109 7
-0.258728 -4.296875 -23.374023 7
-0.24750701 -4.3355708 -23.249023 7
-0.24310499 -4.3858638 -23.192383 7
-0.247171 -4.4511719 -23.222656 7
-0.16808601 4.8553472 -22.411133 7
-0.16981 4.8022461 -22.44043 7
-0.16817001 4.742065 -22.43457 7
-0.108715 -1.340332 -20.789062 7
-0.098599002 -1.386597 -20.686523 7
-0.093878001 -1.436035 -20.636719 7
-0.107777 -1.497192 -20.766602 7
-0.265237 -4.2703862 -21.90625 7
-0.27918899 -4.3499761 -22.027344 7
-0.27628201 -4.400269 -21.989258 7
-0.27037001 -4.4445801 -21.920898 7
-0.048827 1.575684 -20.188477 7
-0.044693001 1.521484 -20.150391 7
-0.061528001 1.481323 -20.317383 7
-0.051993001 1.423584 -20.227539 7
-0.038880002 1.364136 -20.102539 7
-0.046119999 1.317261 -20.176758 7
-0.26750401 -4.2183838 -20.455078 7
-0.28747499 -4.30481 -20.621094 7
-0.28758901 -4.3570561 -20.611328 7
-0.27742901 -4.3908691 -20.509766 7
-0.272394 -4.4335942 -20.454102 7
-0.268657 -4.478394 -20.40918 7
-0.121305 4.8795171 -19.025391 7
-0.127073 4.8430181 -19.087891 7
-0.13413 4.8087158 -19.161133 7
-0.17246801 4.7388921 -19.536133 7
-0.17122599 4.686523 -19.535156 7
-0.057968002 1.436401 -18.94043 7
-0.064391002 1.3918459 -19.001953 7
-0.052963998 1.336426 -18.900391 7
-0.028210999 1.2261961 -18.678711 7
-0.046122 1.187988 -18.844727 7
-0.048098002 1.140747 -18.864258 7
-0.035381 1.0863039 -18.751953 7
-0.022688 1.032349 -18.637695 7
-0.020186 0.98352098 -18.617188 7
-0.285409 -4.209106 -19.348633 7
-0.27939799 -4.2478032 -19.288086 7
-0.297126 -4.3275151 -19.424805 7
-0.297896 -4.3781738 -19.420898 7
-0.29325899 -4.4189448 -19.370117 7
-0.28453299 -4.452271 -19.286133 7
-0.039967999 0.931885 -17.71582 7
-0.033934001 0.88415498 -17.665039 7
-0.036711 0.83984399 -17.691406 7
-0.040151998 0.79589802 -17.72168 7
-0.039540999 0.75036597 -17.717773 7
-0.032836001 0.70300299 -17.661133 7
-0.024796 0.65527302 -17.592773 7
-0.091228001 -1.197876 -16.991211 7
-0.019549999 0.28222701 -16.416016 7
-0.018948 0.19751 -16.411133 7
-0.024005 0.155518 -16.452148 7
-0.022631999 0.112915 -16.441406 7
-0.017673001 0.070435002 -16.400391 7
-0.012715 0.02771 -16.360352 7
-0.031238999 -0.017456001 -15.568359 7
-0.039629001 -0.058104999 -15.632812 7
-0.040438 -0.098389 -15.637695 7
-0.038233999 -0.13867199 -15.621094 7
-0.033741001 -0.178589 -15.584961 7
-0.026982 -0.21814001 -15.533203 7
-0.028577 -0.25854501 -15.542969 7
-0.033932 -0.299438 -15.583984 7
-0.084813997 -1.292358 -15.915039 7
-0.093983002 -1.3388669 -15.980469 7
-0.097172 -1.422974 -15.99707 7
-0.095721997 -1.463257 -15.982422 7
-0.098072 -1.505859 -15.995117 7
-0.294949 -4.5924072 -16.957031 7
-0.121692 4.7944341 -15.586914 7
-0.127002 4.764771 -15.637695 7
-0.131578 4.7336431 -15.681641 7
-0.135377 4.700562 -15.720703 7
-0.13993201 4.6690669 -15.765625 7
-0.15962701 4.6672359 -15.923828 7
-0.166462 4.6394038 -15.984375 7
-0.143059 4.5522461 -15.821289 7
-0.13174599 4.4892578 -15.74707 7
-0.052730002 -0.51501501 -14.773438 7
-0.053615 -0.55346698 -14.775391 7
-0.051256999 -0.591187 -14.757812 7
-0.049724001 -0.62902802 -14.745117 7
-0.044971 -0.66589397 -14.708008 7
-0.041836999 -0.70288098 -14.683594 7
-0.049098998 -0.74352998 -14.734375 7
-0.054781999 -0.78369099 -14.772461 7
-0.052439999 -0.82104498 -14.75293 7
-0.049281999 -0.85803199 -14.728516 7
-0.04614 -0.89502001 -14.703125 7
-0.051022001 -0.93530297 -14.735352 7
-0.078079 -1.294312 -14.902344 7
-0.075737998 -1.331543 -14.881836 7
-0.094328001 -1.420166 -15.007812 7
-0.091977999 -1.45752 -14.987305 7
-0.091254003 -1.49585 -14.978516 7
-0.30536899 -4.4803472 -15.983398 7
-0.29822901 -4.5085449 -15.922852 7
-0.29429299 -4.5422359 -15.883789 7
-0.28713799 -4.5698242 -15.822266 7
-0.293668 -4.6225591 -15.856445 7
-0.30340201 -4.6816411 -15.913086 7
-0.307513 -4.7302251 -15.929688 7
-0.31726301 -4.7896729 -15.985352 7
-0.060070001 -0.96435499 -13.979492 7
-0.063518003 -1.002319 -13.999023 7
-0.073687002 -1.043579 -14.066406 7
-0.074593998 -1.080688 -14.070312 7
-0.072122999 -1.115967 -14.049805 7
-0.065439999 -1.14917 -14.000977 7
-0.070565999 -1.1882319 -14.033203 7
-0.093413003 -1.237305 -14.185547 7
-0.081666 -1.267578 -14.101562 7
-0.309643 -4.4962158 -15.073242 7
-0.299566 -4.5167241 -14.995117 7
-0.29606399 -4.5484619 -14.956055 7
-0.29701 -4.5887451 -14.951172 7
-0.29877999 -4.6307368 -14.951172 7
-0.30479899 -4.6806641 -14.978516 7
-0.31079501 -4.7305908 -15.006836 7
-0.315121 -4.77771 -15.023438 7
-0.071489997 -0.98999 -13.276367 7
-0.083070002 -1.029907 -13.348633 7
-0.086678997 -1.066528 -13.369141 7
-0.074313 -1.095459 -13.286133 7
-0.068172 -1.127319 -13.243164 7
-0.068226002 -1.1619869 -13.240234 7
-0.090461999 -1.208496 -13.382812 7
-0.096747003 -1.246948 -13.418945 7
-0.084381998 -1.275146 -13.334961 7
-0.31236699 -4.4968262 -14.200195 7
-0.30444899 -4.519165 -14.138672 7
-0.301855 -4.551147 -14.111328 7
-0.29837701 -4.5812988 -14.078125 7
-0.29846099 -4.6179199 -14.067383 7
-0.30211499 -4.6612549 -14.079102 7
-0.30930901 -4.7114258 -14.111328 7
-0.31295499 -4.7548828 -14.123047 7
-0.12677599 4.7781978 -12.883789 7
-0.115311 4.7205811 -12.823242 7
-0.112672 4.6812739 -12.818359 7
-0.110032 4.6420898 -12.8125 7
-0.119781 4.627686 -12.884766 7
-0.14279599 4.639648 -13.039062 7
-0.140157 4.5999761 -13.033203 7
-0.14018001 4.5656738 -13.043945 7
-0.133131 4.517334 -13.010742 7
-0.134039 4.4847412 -13.026367 7
-0.30083501 -4.50769 -13.313477 7
-0.30557901 -4.5510249 -13.330078 7
-0.302856 -4.580688 -13.302734 7
-0.29173401 -4.5949712 -13.224609 7
-0.29087299 -4.6278081 -13.208984 7
-0.299355 -4.6781011 -13.248047 7
-0.311591 -4.7359619 -13.307617 7
-0.31819701 -4.7832031 -13.334961 7
-0.13526 4.7946782 -12.174805 7
-0.119515 4.72998 -12.09375 7
-0.124161 4.70752 -12.130859 7
-0.124184 4.6751709 -12.142578 7
-0.129767 4.6541748 -12.186523 7
-0.129783 4.6219478 -12.197266 7
-0.139074 4.6079102 -12.262695 7
-0.154872 4.6064448 -12.366211 7
-0.15488 4.5736079 -12.376953 7
-0.139135 4.5102539 -12.294922 7
-0.072926998 -1.305176 -11.858398 7
-0.074941002 -1.337646 -11.866211 7
-0.079898998 -1.37207 -11.890625 7
-0.097551003 -1.414551 -11.990234 7
-0.094682999 -1.444214 -11.969727 7
-0.087885998 -1.47168 -11.926758 7
-0.088916004 -1.5037839 -11.928711 7
-0.092891 -1.537964 -11.948242 7
-0.105668 -1.578369 -12.018555 7
-0.29979801 -4.5125728 -12.501953 7
-0.296929 -4.5402832 -12.474609 7
-0.293093 -4.5657959 -12.441406 7
-0.29511499 -4.6022949 -12.442383 7
-0.29126301 -4.627686 -12.410156 7
-0.29723501 -4.6715088 -12.431641 7
-0.31005901 -4.728394 -12.491211 7
-0.311111 -4.7634282 -12.486328 7
-0.143217 4.7871089 -11.463867 7
-0.141279 4.7523189 -11.464844 7
-0.14324 4.7258301 -11.486328 7
-0.142279 4.6929932 -11.492188 7
-0.139373 4.6564941 -11.487305 7
-0.138419 4.6239009 -11.492188 7
-0.139403 4.5949712 -11.508789 7
-0.150144 4.5853271 -11.580078 7
-0.144308 4.5429692 -11.557617 7
-0.134583 4.4931641 -11.513672 7
-0.092532001 -1.28772 -11.371094 7
-0.078252003 -1.309814 -11.288086 7
-0.077298 -1.339111 -11.279297 7
-0.079388998 -1.370483 -11.288086 7
-0.081494004 -1.401611 -11.295898 7
-0.100969 -1.44397 -11.400391 7
-0.10103 -1.474365 -11.397461 7
-0.091876999 -1.498657 -11.342773 7
-0.097056001 -1.532227 -11.367188 7
-0.096072003 -1.56189 -11.358398 7
-0.093060002 -1.589722 -11.336914 7
-0.30902901 -4.5158691 -11.867188 7
-0.30809101 -4.5452881 -11.850586 7
-0.299952 -4.561646 -11.796875 7
-0.29900599 -4.591064 -11.780273 7
-0.30011201 -4.624146 -11.774414 7
-0.29915801 -4.6534419 -11.757812 7
-0.29716799 -4.6807861 -11.736328 7
-0.31365201 -4.743042 -11.8125 7
-0.314758 -4.7762451 -11.806641 7
-0.084775001 -1.3067631 -10.702148 7
-0.071958996 -1.328003 -10.629883 7
-0.073089004 -1.357056 -10.631836 7
-0.077421002 -1.388184 -10.651367 7
-0.078543 -1.417358 -10.655273 7
-0.091487996 -1.454224 -10.719727 7
-0.096896999 -1.48645 -10.745117 7
-0.090520002 -1.510864 -10.706055 7
-0.090566002 -1.5394289 -10.702148 7
-0.092770003 -1.569702 -10.709961 7
-0.094967 -1.5999759 -10.717773 7
-0.297656 -4.4841309 -11.091797 7
-0.30095199 -4.5197749 -11.097656 7
-0.30424699 -4.5552979 -11.103516 7
-0.30002099 -4.5770259 -11.070312 7
-0.296864 -4.6005859 -11.043945 7
-0.29694 -4.630127 -11.032227 7
-0.29915899 -4.6634521 -11.032227 7
-0.298161 -4.69104 -11.015625 7
-0.306849 -4.7366939 -11.046875 7
-0.31228101 -4.7766109 -11.063477 7
-0.398727 -6.3067632 -10.862305 7
-0.077711999 -1.3006589 -10.132812 7
-0.073273003 -1.325195 -10.106445 7
-0.073325999 -1.352417 -10.104492 7
-0.075613998 -1.381104 -10.112305 7
-0.080131002 -1.411255 -10.131836 7
-0.096996002 -1.449219 -10.213867 7
-0.092542 -1.473755 -10.1875 7
-0.088118002 -1.498413 -10.161133 7
-0.089299999 -1.526489 -10.163086 7
-0.091580003 -1.55542 -10.170898 7
-0.088270001 -1.580444 -10.150391 7
-0.30530801 -4.5006099 -10.511719 7
-0.310976 -4.53894 -10.52832 7
-0.30655199 -4.559082 -10.495117 7
-0.29989201 -4.574707 -10.452148 7
-0.303325 -4.6092529 -10.458008 7
-0.30340099 -4.637207 -10.446289 7
-0.30234101 -4.663208 -10.430664 7
-0.30689499 -4.699585 -10.441406 7
-0.31034401 -4.7341309 -10.445312 7
-0.31604201 -4.7728271 -10.460938 7
-0.088712998 -1.3026119 -9.6806641 7
-0.082907997 -1.325439 -9.6494141 7
-0.07711 -1.348145 -9.6181641 7
-0.080656998 -1.3762209 -9.6308594 7
-0.077209003 -1.400391 -9.6113281 7
-0.077262998 -1.426392 -9.6074219 7
-0.094830997 -1.4638669 -9.6894531 7
-0.099552996 -1.49292 -9.7089844 7
-0.092596002 -1.514648 -9.6708984 7
-0.093809001 -1.541626 -9.6728516 7
-0.095022 -1.5687259 -9.6757812 7
-0.085738003 -1.588379 -9.625 7
-0.41848701 -6.3686519 -9.5996094 7
-0.067025997 -1.310425 -9.1035156 7
-0.082901001 -1.344727 -9.1757812 7
-0.075645998 -1.365234 -9.1376953 7
-0.080619998 -1.418335 -9.1542969 7
-0.079444997 -1.442627 -9.1445312 7
-0.094099 -1.4769289 -9.2089844 7
-0.091765001 -1.525635 -9.1904297 7
-0.095464997 -1.553223 -9.2041016 7
-0.094296999 -1.5773931 -9.1943359 7
-0.40902001 -6.3503418 -8.9365234 7
-0.40786901 -6.3717041 -8.9160156 7
-0.13418899 4.7984619 -8.3662109 7
-0.122045 4.7501221 -8.3261719 7
-0.117201 4.7169189 -8.3173828 7
-0.107475 4.6739502 -8.2871094 7
-0.107491 4.6508789 -8.2978516 7
-0.112342 4.6374512 -8.3300781 7
-0.115989 4.621582 -8.3564453 7
-0.120848 4.6080322 -8.3876953 7
-0.073977001 -1.302979 -8.6572266 7
-0.077844001 -1.328979 -8.671875 7
-0.063883997 -1.3444819 -8.6044922 7
-0.066477999 -1.369751 -8.6132812 7
-0.069063999 -1.395142 -8.6210938 7
-0.067836002 -1.417969 -8.6123047 7
-0.088242002 -1.454712 -8.7001953 7
-0.085747004 -1.477173 -8.6855469 7
-0.090873003 -1.504272 -8.7050781 7
-0.080734998 -1.52124 -8.65625 7
-0.083337002 -1.546753 -8.6630859 7
-0.083366998 -1.570557 -8.6601562 7
-0.084687002 -1.595459 -8.6621094 7
-0.309201 -4.603271 -8.765625 7
-0.30289301 -4.615356 -8.7294922 7
-0.305502 -4.6442871 -8.7285156 7
-0.30301499 -4.6634521 -8.7080078 7
-0.30180201 -4.684937 -8.6904297 7
-0.305693 -4.716064 -8.6953115 7
-0.30959001 -4.7471919 -8.6992188 7
-0.31602901 -4.7834468 -8.7138672 7
-0.406755 -6.3137212 -8.3007812 7
-0.40681601 -6.3366699 -8.2861328 7
-0.39921999 -6.3408198 -8.2421885 7
-0.40057001 -6.3666992 -8.2324219 7
-0.40320101 -6.395752 -8.2265615 7
-0.126828 4.7880859 -7.7841802 7
-0.123022 4.7581792 -7.780273 7
-0.121748 4.7336431 -7.7871089 7
-0.121763 4.7119141 -7.797852 7
-0.115417 4.6768799 -7.7832031 7
-0.101458 4.626709 -7.7373052 7
-0.097650997 4.5974121 -7.7324219 7
-0.098925002 4.578125 -7.749023 7
-0.095118999 4.5487061 -7.7451172 7
-0.097650997 4.5319819 -7.766602 7
-0.102739 4.52002 -7.796875 7
-0.112892 4.518188 -7.8496089 7
-0.117972 4.5058589 -7.8808589 7
-0.121787 4.4912109 -7.90625 7
-0.093397997 -1.283447 -8.3291016 7
-0.093443997 -1.306519 -8.3251953 7
-0.094810002 -1.330444 -8.328125 7
-0.092207998 -1.351807 -8.3134766 7
-0.082993999 -1.369141 -8.2705078 7
-0.086989999 -1.394531 -8.2851562 7
-0.089684002 -1.419189 -8.2919922 7
-0.091049001 -1.442993 -8.2949219 7
-0.10301 -1.473511 -8.3417969 7
-0.10835 -1.500122 -8.3603516 7
-0.105749 -1.521606 -8.3457031 7
-0.097854003 -1.539185 -8.3085938 7
-0.099211998 -1.5632319 -8.3105469 7
-0.103224 -1.5888669 -8.3242188 7
-0.100623 -1.6101069 -8.3085938 7
-0.312619 -4.537354 -8.3134766 7
-0.31534201 -4.5649409 -8.3115234 7
-0.31805 -4.592896 -8.3105469 7
-0.318111 -4.6159668 -8.3007812 7
-0.31551799 -4.6339111 -8.2792969 7
-0.31159699 -4.6495361 -8.2529297 7
-0.31565601 -4.6799321 -8.2568359 7
-0.31172699 -4.69519 -8.2304688 7
-0.31312299 -4.7205811 -8.2236328 7
-0.31583101 -4.748291 -8.2226562 7
-0.31854701 -4.7763672 -8.2226562 7
-0.30361101 -4.5067139 -7.7900391 7
-0.305053 -4.5308838 -7.7841802 7
-0.30925599 -4.5604248 -7.7880859 7
-0.31208599 -4.5871582 -7.7880859 7
-0.31214699 -4.6087651 -7.7763672 7
-0.312208 -4.6306152 -7.766602 7
-0.30535001 -4.6394038 -7.7294922 7
-0.29987299 -4.6507568 -7.6992192 7
-0.30270299 -4.6774902 -7.6972661 7
-0.30136901 -4.6964111 -7.6816411 7
-0.304198 -4.723145 -7.6806641 7
-0.309791 -4.755249 -7.6894531 7
-0.31400099 -4.784668 -7.6914058 7
-0.40421 -6.4136958 -7.0722661 7
-0.40565199 -6.4372559 -7.0605469 7
-0.40572101 -6.4571528 -7.045898 7
-0.41833001 -6.5284419 -7.054688 7
-0.421161 -6.5556641 -7.0488281 7
-0.42679 -6.589478 -7.0498052 7
-0.16621999 6.5151372 -5.766602 7
-0.16895901 6.5056152 -5.7910161 7
-0.17031699 6.4924321 -5.8105469 7
-0.16204 6.452271 -5.7998052 7
-0.167532 6.4501948 -5.8320308 7
-0.16613699 6.4290771 -5.84375 7
-0.168859 6.419312 -5.867188 7
-0.168859 6.401978 -5.8818359 7
-0.29937699 -4.4929199 -7.3378911 7
-0.30235299 -4.5395508 -7.327148 7
-0.306777 -4.588623 -7.320312 7
-0.308265 -4.612061 -7.313477 7
-0.30544999 -4.6273189 -7.2929692 7
-0.30701399 -4.6712651 -7.2763672 7
-0.307129 -4.7122798 -7.2539058 7
-0.30436701 -4.7478032 -7.2216802 7
-0.308745 -4.7764888 -7.2246089 7
-0.30418399 -4.5018311 -6.9150391 7
-0.29679999 -4.5080571 -6.8808589 7
-0.30429801 -4.5411382 -6.8945308 7
-0.30585501 -4.563477 -6.8876948 7
-0.31634301 -4.602417 -6.9111328 7
-0.30893701 -4.6081538 -6.875977 7
-0.30899799 -4.6279302 -6.8642578 7
-0.30607599 -4.6418462 -6.844727 7
-0.310599 -4.6696782 -6.8476558 7
-0.312148 -4.6920171 -6.8408198 7
-0.303262 -4.6948242 -6.8007808 7
-0.30929601 -4.7253418 -6.8085942 7
-0.30933401 -4.744873 -6.797852 7
-0.30342999 -4.7530522 -6.7675781 7
-0.304986 -4.7753911 -6.7607422 7
-0.29546499 -4.660522 -6.3945308 7
-0.29551899 -4.6790771 -6.382812 7
-0.300188 -4.7061772 -6.3867192 7
-0.297167 -4.7188721 -6.3652339 7
-0.29567999 -4.7342529 -6.3496089 7
-0.29882199 -4.7585449 -6.3476558 7
-0.30041701 -4.7799072 -6.3408198 7
-0.292178 -4.4882808 -6.0664058 7
-0.29543501 -4.5117192 -6.0644531 7
-0.303498 -4.544189 -6.078125 7
-0.29235399 -4.5412598 -6.0332031 7
-0.300394 -4.5736079 -6.046875 7
-0.297243 -4.5854492 -6.0273442 7
-0.303698 -4.614624 -6.0351558 7
-0.305352 -4.635376 -6.0283198 7
-0.30539799 -4.6529541 -6.0175781 7
-0.29906699 -4.6585689 -5.9873052 7
-0.295917 -4.6700439 -5.9667969 7
-0.299173 -4.693481 -5.9658198 7
-0.29922 -4.710938 -5.954102 7
-0.30246899 -4.7344971 -5.952148 7
-0.29772499 -4.7425542 -5.9277339 7
-0.29777801 -4.7600098 -5.9160161 7
-0.29783201 -4.7773442 -5.9042969 7
-0.292689 -4.484375 -5.6748052 7
-0.29771701 -4.5102539 -5.679688 7
-0.29610699 -4.5238042 -5.664062 7
-0.289516 -4.5283198 -5.632812 7
-0.29621401 -4.5571289 -5.641602 7
-0.297923 -4.5770259 -5.6347661 7
-0.29631299 -4.5905762 -5.6191411 7
-0.29637399 -4.6071782 -5.6074219 7
-0.304728 -4.6394038 -5.6201172 7
-0.30144799 -4.6497798 -5.6005859 7
-0.29983801 -4.6630859 -5.5849609 7
-0.29160699 -4.664062 -5.5507808 7
-0.29496399 -4.6867681 -5.547852 7
-0.291706 -4.6968989 -5.5283198 7
-0.29340699 -4.7164311 -5.5224609 7
-0.29513201 -4.7359619 -5.514648 7
-0.29517701 -4.7524409 -5.5039058 7
-0.29687899 -4.7719731 -5.4970698 7
-0.30191299 -4.797852 -5.499023 7
-0.12359 4.7443848 -4.8017578 7
-0.126886 4.7364502 -4.8222661 7
-0.125223 4.7180181 -4.829102 7
-0.120265 4.6932368 -4.8261719 7
-0.120273 4.6783452 -4.8369141 7
-0.110355 4.643311 -4.8212891 7
-0.107045 4.6217041 -4.8232422 7
-0.098775998 4.5900879 -4.8125 7
-0.093832999 4.5654302 -4.8085942 7
-0.088859998 4.540771 -4.8066411 7
-0.095466003 4.5388179 -4.835938 7
-0.095458001 4.5240479 -4.8457031 7
-0.090499997 4.4993901 -4.842773 7
-0.095443003 4.4941411 -4.867188 7
-0.13097499 4.7923579 -4.4189448 7
-0.122416 4.7608638 -4.4091802 7
-0.125818 4.7539058 -4.4287109 7
-0.12751999 4.7435298 -4.4443359 7
-0.122378 4.7191162 -4.4423828 7
-0.125788 4.7120361 -4.4628911 7
-0.118945 4.68396 -4.4560552 7
-0.117214 4.65271 -4.4736328 7
-0.110364 4.6246338 -4.4667969 7
-0.103514 4.5969238 -4.460938 7
-0.096671 4.5692139 -4.454102 7
-0.098371997 4.5584722 -4.46875 7
-0.29597899 -4.6921391 -4.7988281 7
-0.29425499 -4.7034912 -4.7832031 7
-0.29784799 -4.724854 -4.78125 7
-0.29790899 -4.7393799 -4.7695308 7
-0.294393 -4.7471919 -4.749023 7
-0.29800799 -4.7687988 -4.7470698 7
-0.298062 -4.7833252 -4.735352 7
-0.104612 4.5384521 -4.1621089 7
-0.104605 4.525146 -4.1738281 7
-0.106375 4.5152588 -4.1875 7
-0.102813 4.4949951 -4.1904302 7
-0.106344 4.4885249 -4.2089839 7
-0.080636002 4.3161292 6.3468938 7
-0.082036003 4.2344179 5.8677492 7
0.038970999 -1.474133 -14.703084 7
0.090205997 -1.375387 -10.889293 7
-0.060690001 -1.326237 -9.1411448 7
0.00063099997 -1.631036 -5.9659691 7
0.0091559999 -1.569163 -5.0557628 7
-0.215377 -4.769979 -5.6014681 7
-0.036839999 -1.503485 -4.1077728 7
-0.29520699 -4.7414298 -4.610992 7
-0.019839 -1.70402 -1.341628 7
-0.009389 -1.422169 -0.55557001 7
-0.030507 -1.5904649 -0.60132599 7
0.0025500001 -1.400174 -0.35392201 7
-0.014505 -1.557554 -0.38389599 7
-0.025459001 4.6133718 -8.5187397 7
-0.095996 4.2730069 6.2987142 7
-0.078681 4.328949 6.0991492 7
-0.126422 4.1857219 5.9784532 7
-0.121633 4.2704892 5.8210649 7
-0.053816002 -1.176631 -16.097271 7
-0.19368599 4.6918292 -19.825346 7
-0.157957 4.61726 -11.663903 7
-0.06983 -1.312194 -9.1585207 7
-0.33618101 -4.623847 -12.64353 7
-0.099555999 4.6379681 -8.7144384 7
-0.048976 -1.437203 -7.7373772 7
-0.30680701 -4.6573648 -10.401747 7
-0.028287999 -1.446764 -6.6608281 7
-0.284426 -4.6512108 -8.7319021 7
-0.0083919996 1.552527 -6.3887439 7
-0.001279 1.30869 -6.3578291 7
-0.069077 -1.462465 -5.8990102 7
-0.32088599 -4.7306399 -7.0456791 7
-0.126395 4.500072 -4.8279228 7
-0.035144001 1.507277 -5.5492182 7
-0.034859002 1.31806 -5.5966091 7
-0.050372001 -1.284573 -5.3210239 7
-0.054582 -1.473524 -5.3065472 7
-0.29598299 -4.619967 -6.0096459 7
-0.046468999 -1.490206 -4.8525739 7
-0.013507 1.204405 -4.6648469 7
-0.0075170002 1.040949 -4.6614361 7
-0.057179999 -1.700686 -4.5268221 7
-0.070584998 4.420136 -1.0291131 7
-0.121802 4.426198 -1.213466 7
-0.031112 1.366953 -4.174026 7
-0.060323 -1.321885 -4.1565342 7
-0.068236001 -1.4718651 -4.1495342 7
-0.052042 -1.3371789 -3.874871 7
-0.060525998 -1.477427 -3.8663001 7
-0.055008002 -1.824263 -1.563022 7
-0.054891001 -1.844925 -1.487144 7
-0.056306999 -1.867992 -1.4110301 7
-0.060823999 -1.8992161 -1.3346519 7
-0.048579 -1.665711 -1.526824 7
-0.050356999 -1.6904401 -1.458593 7
-0.057124998 -1.729008 -1.3912309 7
-0.063873 -1.7649601 -1.321191 7
-0.04569 -1.613506 -1.44442 7
-0.040700998 -1.612781 -1.374998 7
-0.037443001 -1.614622 -1.306684 7
