# .PCD v0.7 - Point Cloud Data file format
VERSION 0.7
FIELDS x y z intensity
SIZE 4 4 4 4
TYPE F F F F
COUNT 1 1 1 1
WIDTH 1352
HEIGHT 1
VIEWPOINT 0 0 0 1 0 0 0
POINTS 1352
DATA ascii
3.8919449 5.2130132 -56.952148 7
0.051552001 -1.2911381 -70.992188 7
0.089996003 -1.436157 -69.678711 7
0.035789002 5.268311 -71.066406 7
0.020324999 -1.477905 -64.079102 7
0.050709002 -1.6101069 -63.150391 7
0.010506 -1.796265 -64.357422 7
0.043400001 -1.922363 -63.352539 7
-0.038490001 5.499146 -65.446289 7
0.025356 5.1862788 -63.52832 7
-0.029929999 5.1603999 -65.198242 7
-0.066540003 -1.635986 -58.933594 7
0.031307001 -1.725464 -56.735352 7
0.077510998 -1.8232419 -55.479492 7
0.015396 -2.0153811 -57.146484 7
-0.66652298 -0.72192401 69.392578 7
0.013927 5.210938 -56.853516 7
0.070285998 4.9403081 -55.344727 7
0.024089999 4.9101558 -56.591797 7
-0.067249 4.973877 -59.052734 7
0.153347 1.500488 -53.177734 7
-0.036263 -1.869751 -52.921875 7
0.0051799999 -1.96106 -51.900391 7
0.044723999 -2.049438 -50.925781 7
-0.0025180001 -2.221313 -52.071289 7
0.017581999 5.0917969 -51.279297 7
0.086608998 4.8096919 -49.630859 7
0.032391001 4.8093262 -50.958984 7
-0.018448001 4.667603 -52.210938 7
-0.074763998 -1.940063 -48.351562 7
-0.016956 -2.0053711 -47.066406 7
0.002686 -2.10144 -46.624023 7
-0.044434 -2.262939 -47.65332 7
-0.51490802 -0.31689501 55.44043 7
-0.50245702 -0.187866 55.196289 7
-0.496719 -0.060424998 55.084961 7
0.05632 4.981689 -45.479492 7
0.015812 4.962646 -46.380859 7
0.098922998 4.6629639 -44.553711 7
0.041786 4.6781011 -45.821289 7
0.014187 4.6245122 -46.4375 7
-0.040325001 4.6239009 -47.647461 7
0.091072001 1.272095 -44.811523 7
-0.105358 -2.0552981 -45.415039 7
-0.05463 -2.1181641 -44.370117 7
-0.010746 -2.182739 -43.464844 7
0.027718 -2.2489009 -42.670898 7
-0.039009001 -2.4260249 -44.026367 7
0.0054509998 -2.4827881 -43.109375 7
0.029899999 -2.55896 -42.601562 7
-0.51698703 -3.0284419 51.503906 7
-0.54074103 -2.935303 51.954102 7
-0.50260502 -0.174438 51.40332 7
-0.42509499 -0.054320998 49.964844 7
-0.464531 0.061523002 50.701172 7
0.046337001 4.824707 -42.033203 7
0.003609 4.8154302 -42.910156 7
-0.031394999 4.785522 -43.631836 7
0.030994 4.5465088 -42.369141 7
0.010536 4.484375 -42.792969 7
-0.044769 4.4906011 -43.925781 7
-0.066666 -2.2401121 -40.553711 7
-0.039218999 -2.3109131 -40.03418 7
-0.0073699998 -2.3742681 -39.433594 7
0.004429 -2.4576421 -39.207031 7
-0.042376999 -2.6086431 -40.070312 7
-0.015861999 -2.674438 -39.568359 7
0.011913 -2.736572 -39.042969 7
0.035918999 -2.8009031 -38.585938 7
-0.434246 -3.0162351 46.037109 7
-0.44986299 -2.927856 46.3125 7
-0.40672699 0.055785999 45.742188 7
0.027611 4.8188481 -38.510742 7
0.0099219996 4.7624512 -38.84668 7
-0.0074499999 4.7038569 -39.178711 7
-0.037048001 4.669312 -39.735352 7
-0.002598 4.4039311 -39.111328 7
-0.034088001 4.3693848 -39.703125 7
-0.074963003 -2.717896 -37.40332 7
-0.077457003 -2.8127439 -37.436523 7
-0.029118 -2.932373 -36.59082 7
-0.022449 -3.0131841 -36.466797 7
-0.38516599 -2.8449709 42.078125 7
-0.39165899 -2.755615 42.188477 7
-0.364948 0.051392 41.921875 7
-0.38943899 0.148682 42.3125 7
-0.36428499 0.24340799 41.915039 7
-0.044853002 5.049438 -36.615234 7
-0.021594999 4.907104 -36.226562 7
-0.041072998 4.8599849 -36.569336 7
-0.054435998 4.7980962 -36.807617 7
-0.088169001 4.7779541 -37.391602 7
0.094627 1.327637 -34.432617 7
0.089386001 1.245728 -34.523438 7
0.084793001 1.162842 -34.600586 7
0.060520001 1.089722 -35.019531 7
0.085166998 0.99145502 -34.59375 7
0.095829003 0.47582999 -34.405273 7
-0.064152002 -2.9814451 -33.955078 7
-0.048702002 -3.0440669 -33.703125 7
-0.040656999 -3.1156011 -33.567383 7
-0.35033 -2.589355 38.426758 7
-0.038001999 5.0279541 -33.285156 7
-0.032951001 4.9338379 -33.21582 7
-0.052692 4.8945308 -33.53418 7
-0.077583 4.8648682 -33.93457 7
-0.105453 4.839478 -34.379883 7
-0.12630101 4.797729 -34.713867 7
0.082194999 1.303345 -31.625977 7
0.057587001 1.239014 -32.015625 7
0.034442998 1.172241 -32.380859 7
0.046890002 0.60620099 -32.195312 7
0.058249999 0.52355999 -32.015625 7
0.085170999 0.43847701 -31.59082 7
0.050170999 0.366211 -32.140625 7
0.081920996 0.28210399 -31.639648 7
0.092545003 0.20251501 -31.470703 7
-0.105141 -3.0744629 -32.206055 7
-0.100502 -3.147583 -32.12793 7
-0.085529 -3.205688 -31.900391 7
-0.074130997 -3.2680659 -31.722656 7
-0.075428002 -3.3482671 -31.731445 7
-0.037418 4.927124 -30.956055 7
-0.055732999 4.8898931 -31.233398 7
-0.094623998 4.8956299 -31.8125 7
-0.123627 4.8779302 -32.245117 7
0.065944999 1.523315 -29.694336 7
0.041512001 1.391235 -30.056641 7
0.059246 1.305542 -29.797852 7
0.068893 0.25891101 -29.833984 7
0.073959 0.18457 -29.758789 7
0.051334001 0.111816 -30.091797 7
0.076180004 0.036865 -29.722656 7
0.056694001 -0.096069001 -27.488281 7
0.068576999 -0.163818 -27.325195 7
-0.118687 -3.2307129 -29.836914 7
-0.106365 -3.2871089 -29.660156 7
-0.094566002 -3.4161379 -29.481445 7
-0.014549 5.075439 -28.140625 7
-0.010395 4.9954829 -28.094727 7
-0.029297 4.9676509 -28.360352 7
-0.048214 4.938477 -28.624023 7
-0.067547001 4.9090581 -28.896484 7
-0.095863 4.8977051 -29.288086 7
-0.112644 4.8599849 -29.524414 7
0.047839999 1.559448 -27.600586 7
0.081988998 1.466675 -27.136719 7
0.059165999 1.414062 -27.450195 7
0.037188999 1.359253 -27.750977 7
0.0298 -0.032104 -26.069336 7
0.051266 -0.096190996 -25.793945 7
0.065394998 -0.15978999 -25.613281 7
0.030060001 -0.227295 -26.061523 7
0.047401 -0.29016101 -25.839844 7
0.059689 -0.352539 -25.680664 7
-0.11692 -3.220093 -27.709961 7
-0.146374 -3.3309331 -28.073242 7
-0.146 -3.400269 -28.060547 7
-0.127285 -3.4420171 -27.813477 7
-0.117752 -3.49646 -27.683594 7
-0.045715 5.0712891 -26.516602 7
-0.036208998 4.983398 -26.407227 7
-0.050491001 4.9484859 -26.597656 7
-0.067074001 4.9179692 -26.81543 7
-0.090503998 4.9012451 -27.121094 7
-0.094727002 4.8421631 -27.18457 7
0.069645002 1.696411 -25.386719 7
0.057151999 1.642334 -25.546875 7
0.036880001 1.593262 -25.808594 7
0.065661997 1.507935 -25.445312 7
0.041320998 1.457153 -25.901367 7
0.033927999 1.397095 -26 7
0.062725 1.3143311 -25.634766 7
0.037730999 -0.21008299 -24.007812 7
0.036198001 -0.27050799 -24.024414 7
0.059310999 -0.32714799 -23.749023 7
0.062706001 -0.38635299 -23.708984 7
0.031574 -0.45214799 -24.074219 7
0.051739 -0.50769001 -23.834961 7
0.061028 -0.56494099 -23.72168 7
0.039248999 -0.63085902 -23.976562 7
-0.138405 -3.5332029 -25.813477 7
-0.132568 -3.588501 -25.736328 7
-0.11784 -3.629272 -25.553711 7
-0.111996 -3.6838379 -25.476562 7
-0.108143 -3.740967 -25.420898 7
-0.043667 5.0736079 -24.423828 7
-0.041278999 5.0064702 -24.408203 7
-0.051228002 4.967041 -24.53418 7
-0.063606001 4.9324951 -24.689453 7
-0.078979 4.9034419 -24.87793 7
-0.096805997 4.8790278 -25.095703 7
-0.090496004 4.8024902 -25.033203 7
0.050944999 1.529175 -23.683594 7
0.029625 1.484375 -23.9375 7
0.034069002 -0.36511201 -22.358398 7
0.031376 -0.42211899 -22.386719 7
0.047141999 -0.47485399 -22.210938 7
0.047607001 -0.530518 -22.204102 7
0.022213001 -0.59350598 -22.482422 7
0.036919001 -0.64550799 -22.317383 7
0.042670999 -0.69995099 -22.251953 7
-0.135197 -3.594116 -23.929688 7
-0.142151 -3.6647949 -23.99707 7
-0.13112999 -3.7072749 -23.867188 7
-0.121708 -3.7515869 -23.753906 7
-0.118099 -3.8049321 -23.705078 7
-0.056529999 5.052856 -22.790039 7
-0.066096999 5.016602 -22.905273 7
-0.071445003 4.9703369 -22.974609 7
-0.081032 4.933105 -23.088867 7
-0.099564001 4.9145508 -23.299805 7
-0.110714 4.879272 -23.432617 7
0.030003 1.892334 -22.224609 7
0.037822999 1.829468 -22.141602 7
0.038242001 1.773193 -22.139648 7
0.023304 1.729126 -22.3125 7
0.049107 1.65271 -22.032227 7
0.041072998 1.602905 -22.12207 7
0.016903 -0.54968297 -20.849609 7
0.030624 -0.658081 -20.847656 7
0.015919 -0.715698 -20.99707 7
0.027695 -0.764404 -20.873047 7
0.032143001 -0.815552 -20.824219 7
0.020798 -0.87268102 -20.938477 7
0.010029 -0.93029797 -21.045898 7
-0.12249 -3.898926 -22.070312 7
-0.066868 5.1260991 -21.246094 7
-0.064133003 5.0656738 -21.228516 7
-0.070950001 5.026978 -21.310547 7
-0.079487003 4.9915771 -21.407227 7
-0.089694999 4.9594731 -21.521484 7
-0.107231 4.942627 -21.709961 7
-0.116882 4.907959 -21.818359 7
-0.095004998 4.806519 -21.607422 7
0.042259 1.864746 -20.55957 7
0.029758001 1.822998 -20.691406 7
0.04377 1.758911 -20.549805 7
0.041992001 1.7080081 -20.572266 7
0.031741999 1.6636961 -20.680664 7
0.023731001 1.617065 -20.765625 7
0.012268 -0.72338903 -19.681641 7
0.0056230002 -0.77575701 -19.745117 7
-0.006451 -0.83032203 -19.858398 7
0.013222 -0.922607 -19.661133 7
-0.161266 -3.832397 -21.014648 7
-0.153522 -3.8725591 -20.931641 7
-0.145805 -3.912354 -20.84668 7
-0.14167 -3.9580081 -20.797852 7
-0.136948 -4.0020752 -20.742188 7
-0.158657 -4.0924072 -20.939453 7
-0.077614002 5.0948491 -19.921875 7
-0.087863997 5.066895 -20.03125 7
-0.096302003 5.0344238 -20.123047 7
-0.101177 4.9936519 -20.179688 7
-0.117416 4.9771729 -20.344727 7
-0.133072 4.9588618 -20.50293 7
-0.111576 4.8612061 -20.310547 7
0.020676 1.919434 -19.43457 7
0.00079700002 1.887085 -19.630859 7
0.025908999 1.815918 -19.391602 7
0.021019001 1.770264 -19.442383 7
0.014942 1.725342 -19.503906 7
0.000462 1.6867681 -19.647461 7
0.020767 1.621582 -19.453125 7
0.009056 -0.67358398 -18.283203 7
0.0031969999 -0.72228998 -18.334961 7
-0.0096739996 -0.77380401 -18.449219 7
0.0055920002 -0.81518602 -18.306641 7
0.014465 -0.85852098 -18.223633 7
0.0028609999 -0.91015601 -18.327148 7
-0.00092299999 -0.96557599 -18.493164 7
0.0041430001 -1.010376 -18.445312 7
0.0047229999 -1.056885 -18.43457 7
-0.160706 -3.8935549 -19.575195 7
-0.165249 -3.950562 -19.606445 7
-0.153809 -3.9807129 -19.493164 7
-0.149399 -4.022583 -19.444336 7
-0.143738 -4.0618901 -19.381836 7
-0.147018 -4.1165771 -19.400391 7
-0.074042998 5.1063228 -18.496094 7
-0.081757002 5.0761719 -18.576172 7
-0.091376998 5.0499272 -18.672852 7
-0.098461002 5.0174561 -18.74707 7
-0.106831 4.9876709 -18.832031 7
0.012794 1.994995 -18.203125 7
0.012718 1.948364 -18.207031 7
-0.0052450001 1.917358 -18.374023 7
0.008568 1.7648931 -18.259766 7
-0.003643 1.7275389 -18.374023 7
-0.14756 -3.842041 -18.258789 7
-0.179462 -3.941772 -18.518555 7
-0.178844 -3.9876709 -18.503906 7
-0.181637 -4.0395508 -18.516602 7
-0.179676 -4.0831299 -18.490234 7
-0.17095201 -4.1148682 -18.405273 7
-0.163582 -4.14856 -18.333008 7
-0.096946999 5.1411128 -17.501953 7
-0.096336 5.094727 -17.508789 7
-0.103828 5.0662842 -17.581055 7
-0.109283 5.0327148 -17.638672 7
-0.116764 5.0036621 -17.712891 7
-0.133701 4.9946289 -17.865234 7
-0.14724 4.9775391 -17.989258 7
-0.136494 4.9084468 -17.912109 7
-0.116985 4.8215332 -17.759766 7
-0.004559 -0.98645002 -16.329102 7
-0.016068 -1.033813 -16.419922 7
-0.028313 -1.0819089 -16.516602 7
-0.021202 -1.120728 -16.456055 7
-0.017662 -1.1611331 -16.423828 7
-0.027031001 -1.208496 -16.49707 7
-0.032097001 -1.253662 -16.53418 7
-0.18058001 -4.072144 -17.310547 7
-0.182083 -4.119019 -17.3125 7
-0.17218 -4.1898189 -17.212891 7
-0.167229 -4.224854 -17.163086 7
-0.17090601 -4.275269 -17.181641 7
-0.183174 -4.3416748 -17.268555 7
-0.018223001 -0.97766101 -15.453125 7
-0.01675 -1.0168459 -15.439453 7
-0.033463001 -1.064575 -15.56543 7
-0.038070999 -1.107056 -15.59668 7
-0.029030001 -1.1427 -15.523438 7
-0.028328 -1.182373 -15.514648 7
-0.036713 -1.2269289 -15.577148 7
-0.044334002 -1.271606 -15.630859 7
-0.195213 -4.1230469 -16.329102 7
-0.186996 -4.1921391 -16.24707 7
-0.18630999 -4.2325439 -16.231445 7
-0.18486001 -4.2714839 -16.209961 7
-0.19101 -4.3243408 -16.244141 7
-0.200203 -4.382812 -16.301758 7
-0.0075449999 1.891968 -15.209961 7
-0.0091249999 1.8536381 -15.225586 7
-0.0023729999 1.808472 -15.178711 7
0.0021019999 1.765503 -15.147461 7
-0.007057 1.7331541 -15.219727 7
-0.011665 1.697144 -15.258789 7
0.0026509999 1.646484 -15.15332 7
0.003338 1.606567 -15.151367 7
-0.026981 -0.96484399 -14.583008 7
-0.018215001 -0.99865699 -14.517578 7
-0.018261001 -1.036255 -14.514648 7
-0.02953 -1.0793459 -14.592773 7
-0.042397 -1.1237791 -14.683594 7
-0.032017 -1.156372 -14.605469 7
-0.03286 -1.194702 -14.608398 7
-0.028094999 -1.230103 -14.570312 7
-0.039368 -1.27417 -14.648438 7
-0.19886801 -4.177979 -15.307617 7
-0.195724 -4.2116699 -15.274414 7
-0.19017801 -4.2412109 -15.224609 7
-0.189445 -4.2790532 -15.208984 7
-0.18711101 -4.3139648 -15.181641 7
-0.196823 -4.3709722 -15.238281 7
-0.209732 -4.434082 -15.317383 7
-0.20980801 -4.4737549 -15.306641 7
-0.096996002 5.0783691 -14.272461 7
-0.100216 5.0479741 -14.307617 7
-0.105076 5.0211182 -14.351562 7
-0.021519 -1.02124 -13.732422 7
-0.023251001 -1.057861 -13.741211 7
-0.025814001 -1.0949709 -13.755859 7
-0.20719101 -4.1687012 -14.469727 7
-0.20726 -4.2064209 -14.458984 7
-0.20057701 -4.2320561 -14.405273 7
-0.20148499 -4.270874 -14.400391 7
-0.198174 -4.302124 -14.367188 7
-0.199081 -4.341064 -14.363281 7
-0.20761099 -4.3937988 -14.408203 7
-0.21526299 -4.445435 -14.448242 7
-0.101089 0.81347698 16.603516 7
-0.102757 0.85022002 16.613281 7
-0.100956 0.88549799 16.599609 7
-0.104382 0.92285198 16.619141 7
-0.103458 0.95861799 16.611328 7
-0.128952 5.10498 -13.618164 7
-0.120617 5.0152588 -13.585938 7
-0.12151 4.9813228 -13.603516 7
-0.123226 4.9492192 -13.625977 7
-0.135086 4.9024658 -13.726562 7
0.006763 1.403931 -13.419922 7
0.011986 1.365234 -13.388672 7
0.0051839999 1.334106 -13.4375 7
0.00507 1.26355 -13.444336 7
-0.022884 -0.97033697 -12.982422 7
-0.029124999 -1.007202 -13.021484 7
-0.022076 -1.037964 -12.97168 7
-0.020336 -1.071045 -12.958008 7
-0.029255001 -1.109619 -13.013672 7
-0.039051 -1.1488039 -13.074219 7
-0.038219001 -1.182495 -13.06543 7
-0.032047 -1.213379 -13.021484 7
-0.032977998 -1.248047 -13.025391 7
-0.21453901 -4.1855469 -13.661133 7
-0.218155 -4.227417 -13.673828 7
-0.209351 -4.247437 -13.607422 7
-0.20496 -4.2750239 -13.570312 7
-0.20592099 -4.3121338 -13.56543 7
-0.206871 -4.348999 -13.560547 7
-0.207817 -4.3861079 -13.555664 7
-0.215874 -4.4362788 -13.595703 7
-0.099247001 0.80761701 15.848633 7
-0.095477998 0.87463403 15.821289 7
-0.102726 0.91174299 15.866211 7
-0.104496 0.94665498 15.875 7
-0.0092510004 1.275635 -12.782227 7
-0.00758 1.207153 -12.776367 7
0.003883 1.167114 -12.704102 7
0.01181 1.129395 -12.655273 7
0.025047 1.089111 -12.571289 7
0.023224 1.056641 -12.585938 7
0.00985 1.029663 -12.673828 7
0.0071410001 0.99755901 -12.694336 7
-0.022263 -0.98877001 -12.291992 7
-0.023232 -1.021729 -12.294922 7
-0.022338999 -1.053589 -12.286133 7
-0.014946 -1.082153 -12.238281 7
-0.031718999 -1.123047 -12.338867 7
-0.031757001 -1.1555181 -12.335938 7
-0.025307 -1.18457 -12.292969 7
-0.025345 -1.217163 -12.290039 7
-0.032825001 -1.25354 -12.333008 7
-0.218483 -4.1968989 -12.911133 7
-0.21575899 -4.2258301 -12.884766 7
-0.212093 -4.2530522 -12.851562 7
-0.214947 -4.291748 -12.858398 7
-0.209408 -4.3154302 -12.81543 7
-0.20294601 -4.3372798 -12.766602 7
-0.206738 -4.377686 -12.77832 7
-0.222664 -4.4405522 -12.860352 7
-0.217125 -4.4638672 -12.817383 7
-0.097499996 0.77002001 15.174805 7
-0.086917996 0.798706 15.109375 7
-0.090686999 0.83264202 15.130859 7
-0.090640999 0.86511201 15.128906 7
-0.088665001 0.896851 15.115234 7
-0.092433996 0.93078601 15.135742 7
0.0039440002 0.95165998 -12.041992 7
0.002022 0.92040998 -12.054688 7
0.033596002 0.87548798 -11.861328 7
0.016807999 0.85046399 -11.967773 7
0.023251001 0.81616199 -11.927734 7
0.033436 0.78064001 -11.866211 7
0.027798001 0.75085402 -11.90332 7
0.016739 0.72021502 -12.079102 7
0.023220001 0.686279 -12.040039 7
0.024112999 0.65429699 -12.035156 7
-0.019112 -0.96887201 -11.592773 7
-0.022087 -1.000977 -11.607422 7
-0.018227 -1.029907 -11.582031 7
-0.014359 -1.0587161 -11.555664 7
-0.015366 -1.0899661 -11.55957 7
-0.017371999 -1.12146 -11.567383 7
-0.033050999 -1.1604 -11.65625 7
-0.040904999 -1.195557 -11.700195 7
-0.026299 -1.218384 -11.611328 7
-0.027306 -1.249756 -11.613281 7
-0.210491 -4.1668701 -12.097656 7
-0.219372 -4.2142329 -12.136719 7
-0.220402 -4.2479248 -12.132812 7
-0.214588 -4.2696528 -12.088867 7
-0.208775 -4.290894 -12.045898 7
-0.210796 -4.326416 -12.046875 7
-0.211842 -4.3599849 -12.041992 7
-0.20798901 -4.384521 -12.009766 7
-0.211964 -4.423584 -12.021484 7
-0.224758 -4.4790039 -12.081055 7
-0.069397002 0.75451702 14.347656 7
-0.071341999 0.78576702 14.356445 7
-0.071304001 0.81652802 14.355469 7
-0.071258999 0.84716803 14.353516 7
-0.073207997 0.87853998 14.363281 7
-0.073154002 0.90917999 14.360352 7
-0.073109001 0.93994099 14.359375 7
-0.118134 5.0357671 -11.197266 7
-0.101562 4.969604 -11.117188 7
-0.101608 4.9398189 -11.128906 7
-0.104561 4.9161382 -11.157227 7
-0.1007 4.8779302 -11.146484 7
-0.099739 4.8458252 -11.152344 7
-0.104637 4.8261719 -11.191406 7
0.018734001 0.62585402 -11.296875 7
0.014774 0.59667999 -11.321289 7
0.010799 0.56738299 -11.345703 7
0.015652001 0.53576702 -11.318359 7
0.027325001 0.50280797 -11.250977 7
0.034107 0.47106901 -11.210938 7
0.036015 0.440552 -11.200195 7
0.038897999 0.410034 -11.18457 7
0.0359 0.380615 -11.202148 7
0.029987 0.35144001 -11.238281 7
0.024058999 0.322144 -11.273438 7
0.037601002 0.230103 -11.195312 7
0.041443001 0.19958501 -11.171875 7
0.037487 0.170044 -11.195312 7
-0.025238 -0.98681599 -11.040039 7
-0.026299 -1.016724 -11.043945 7
-0.033500999 -1.049561 -11.081055 7
-0.021255 -1.0732419 -11.010742 7
-0.021300999 -1.102417 -11.007812 7
-0.023391999 -1.132935 -11.016602 7
-0.025474999 -1.163452 -11.025391 7
-0.037758 -1.1993411 -11.091797 7
-0.040871002 -1.230835 -11.105469 7
-0.032738 -1.2557369 -11.056641 7
-0.219036 -4.177856 -11.480469 7
-0.22114199 -4.2119141 -11.482422 7
-0.222233 -4.2441411 -11.477539 7
-0.226383 -4.2818599 -11.489258 7
-0.224392 -4.30896 -11.46875 7
-0.21934099 -4.3299561 -11.430664 7
-0.216328 -4.3547359 -11.40332 7
-0.217411 -4.387085 -11.399414 7
-0.216434 -4.4152832 -11.382812 7
-0.214458 -4.441772 -11.361328 7
-0.106529 4.9569092 -10.5 7
-0.106552 4.9285889 -10.510742 7
-0.110657 4.9086909 -10.544922 7
0.021060999 0.30847201 -10.71875 7
0.018986 0.27978501 -10.731445 7
0.021999 0.250366 -10.714844 7
0.015812 0.222168 -10.75 7
0.015759001 0.19323701 -10.750977 7
0.032226998 0.160156 -10.763672 7
0.033218 0.131348 -10.758789 7
0.030131999 0.102661 -10.775391 7
0.024998 0.073974997 -10.804688 7
0.014744 0.04541 -10.861328 7
0.022892 0.016235 -10.816406 7
0.018955 -0.0091549996 -10.140625 7
0.015690001 -0.036621001 -10.158203 7
0.015644001 -0.064208999 -10.158203 7
0.013432 -0.091797002 -10.167969 7
0.016604999 -0.119263 -10.150391 7
0.016543999 -0.14672901 -10.150391 7
0.024002001 -0.173706 -10.110352 7
0.0261 -0.20105 -10.097656 7
0.029274 -0.228149 -10.080078 7
0.022781 -0.256226 -10.114258 7
0.019512 -0.284058 -10.130859 7
0.020855 -0.314697 -10.228516 7
0.020824 -0.342163 -10.228516 7
0.019703001 -0.397461 -10.232422 7
0.018603999 -0.425293 -10.236328 7
-0.024909999 -0.96655297 -10.43457 7
-0.026024001 -0.99511701 -10.4375 7
-0.032485999 -1.026123 -10.469727 7
-0.020775 -1.076538 -10.401367 7
-0.018661 -1.103394 -10.387695 7
-0.022987001 -1.133423 -10.407227 7
-0.020888999 -1.160278 -10.393555 7
-0.037002999 -1.197021 -10.476562 7
-0.033821002 -1.223389 -10.457031 7
-0.033875 -1.251343 -10.453125 7
-0.21423 -4.1687012 -10.763672 7
-0.21751 -4.2030029 -10.769531 7
-0.22185101 -4.2392578 -10.782227 7
-0.225201 -4.3027339 -10.777344 7
-0.21771599 -4.3181152 -10.730469 7
-0.217777 -4.3469238 -10.719727 7
-0.216763 -4.3735352 -10.704102 7
-0.21681599 -4.4022222 -10.693359 7
-0.220112 -4.4368901 -10.699219 7
-0.089642003 -2.085938 13.116211 7
-0.086262003 -1.999634 13.115234 7
-0.081828997 -1.9680181 13.098633 7
-0.079613 -1.938354 13.091797 7
-0.079581998 -1.910767 13.09668 7
-0.076233 -1.880493 13.083008 7
-0.070708998 -1.848267 13.05957 7
-0.070671 -1.820557 13.063477 7
-0.069541998 -1.792114 13.0625 7
-0.06842 -1.763672 13.060547 7
-0.065257996 0.68640101 13.176758 7
-0.065219998 0.71423298 13.174805 7
-0.066265002 0.742432 13.178711 7
-0.066219002 0.77038598 13.177734 7
-0.069476999 0.79931599 13.192383 7
-0.066134997 0.82604998 13.173828 7
-0.066073999 0.85400403 13.170898 7
-0.069339998 0.88317901 13.186523 7
-0.068203002 0.91052198 13.179688 7
-0.072529003 0.94018602 13.199219 7
-0.13290399 5.096313 -9.9111328 7
-0.134003 5.0717769 -9.9287109 7
-0.130821 5.0377202 -9.9248047 7
-0.129776 5.0083008 -9.9316406 7
-0.130859 4.9836431 -9.9492188 7
-0.12660199 4.9473882 -9.9384766 7
-0.121277 4.908813 -9.9238281 7
-0.118088 4.8751221 -9.9189453 7
-0.115974 4.8436279 -9.9208984 7
-0.121353 4.8277588 -9.9580078 7
-0.124588 4.8074951 -9.9853516 7
0.0043830001 -0.32958999 -9.8066406 7
0.00771 -0.355591 -9.7880859 7
0.014385 -0.38110399 -9.7529297 7
0.017708 -0.40685999 -9.7353516 7
0.016563 -0.43322799 -9.7392578 7
0.0098230001 -0.461182 -9.7734385 7
0.0030710001 -0.48913601 -9.8056641 7
-0.0036810001 -0.51721197 -9.8378906 7
-0.0025899999 -0.54345697 -9.8310547 7
0.0040859999 -0.56835902 -9.7958984 7
0.006298 -0.59435999 -9.7822266 7
0.0073890002 -0.62023902 -9.7753906 7
-0.024352999 -0.97778302 -9.9130859 7
-0.02668 -1.032349 -9.9189453 7
-0.022266001 -1.08374 -9.8896484 7
-0.024536001 -1.111694 -9.9003906 7
-0.025696 -1.138916 -9.9033203 7
-0.024605 -1.1650389 -9.8945312 7
-0.217411 -4.1846919 -10.181641 7
-0.21409599 -4.2061772 -10.154297 7
-0.223125 -4.2495122 -10.1875 7
-0.226551 -4.2827148 -10.194336 7
-0.228855 -4.314209 -10.194336 7
-0.21992899 -4.325562 -10.142578 7
-0.217739 -4.3487549 -10.120117 7
-0.218914 -4.3781738 -10.116211 7
-0.21562199 -4.3991699 -10.088867 7
-0.220165 -4.4346919 -10.099609 7
-0.21909 -4.4597168 -10.083984 7
-0.0068319999 -0.52075201 -9.3681641 7
-0.0092120003 -0.546875 -9.3769531 7
-0.0068780002 -0.57165498 -9.3652344 7
-0.001072 -0.59570301 -9.3349609 7
0.001232 -0.62036097 -9.3222656 7
0.0035290001 -0.64502001 -9.3085938 7
-2.7e-05 -0.67138702 -9.3232422 7
-0.014057 -0.70117199 -9.390625 7
-0.018757001 -0.72827101 -9.4111328 7
-0.014118 -0.75231898 -9.3867188 7
-0.008312 -0.77575701 -9.3564453 7
-0.0083349999 -0.80114698 -9.3554688 7
-0.007214 -0.82617199 -9.3466797 7
-0.0072440002 -0.85168499 -9.3447266 7
-0.013111 -0.87951702 -9.3720703 7
-0.024822 -0.90966803 -9.4267578 7
-0.027202999 -0.936279 -9.4355469 7
-0.030716 -0.96350098 -9.4521484 7
-0.030754 -0.98913598 -9.4492188 7
-0.031943999 -1.015381 -9.4521484 7
-0.036658999 -1.043213 -9.4736328 7
-0.040192001 -1.0706789 -9.4873047 7
-0.032035999 -1.0925291 -9.4453115 7
-0.026249001 -1.1151119 -9.4130859 7
-0.028605999 -1.141968 -9.421875 7
-0.029823 -1.1680911 -9.4248047 7
-0.026348 -1.191895 -9.4042969 7
-0.039223 -1.224365 -9.4658203 7
-0.049773999 -1.256104 -9.5136719 7
-0.038132001 -1.275391 -9.4541016 7
-0.0051839999 -0.64477497 -8.8984385 7
-0.010082 -0.67053199 -8.9199219 7
-0.012577 -0.72009301 -8.9267578 7
-0.015049 -0.74536097 -8.9365234 7
-0.0053369999 -0.76660198 -8.8896484 7
-0.0053829998 -0.81518602 -8.8867188 7
-0.015148 -0.84326202 -8.9296885 7
-0.028584 -0.87304699 -8.9902344 7
-0.024998 -0.92053199 -8.9677734 7
-0.020168001 -0.94299299 -8.9423828 7
-0.015316 -0.96545398 -8.9179688 7
-0.022701001 -1.0174561 -8.9472656 7
-0.032458998 -1.046631 -8.9902344 7
-0.022747001 -1.06665 -8.9423828 7
-0.037422001 -1.122925 -9.0058594 7
-0.037482999 -1.172241 -9.0009766 7
-0.039948002 -1.197998 -9.0097656 7
-0.044868 -1.225342 -9.0283203 7
-0.044884 -1.25 -9.0263672 7
-0.044914 -1.274658 -9.0234385 7
-0.011112 -0.96655297 -8.4316406 7
-0.023869 -0.99560499 -8.4863281 7
-0.027713999 -1.020752 -8.5009766 7
-0.02647 -1.043579 -8.4931641 7
-0.013783 -1.060791 -8.4335938 7
-0.012539 -1.083374 -8.4257812 7
-0.016384 -1.108765 -8.4394531 7
-0.01897 -1.1331789 -8.4482422 7
-0.016445 -1.155151 -8.4345703 7
-0.019032 -1.17981 -8.4433594 7
-0.021594999 -1.204468 -8.4521484 7
-0.035618 -1.2355959 -8.5107422 7
-0.036938 -1.259766 -8.5136719 7
-0.217949 -4.4411621 -8.4179688 7
-0.220551 -4.4691162 -8.4169922 7
-0.106213 4.7888179 -7.6699219 7
-0.021557 -0.97644001 -8.0732422 7
-0.021594999 -0.998779 -8.0693359 7
-0.021617999 -1.02124 -8.0673828 7
-0.020321 -1.042969 -8.0595703 7
-0.032246001 -1.071045 -8.1083984 7
-0.040233999 -1.0975339 -8.1396484 7
-0.042904001 -1.12146 -8.1474609 7
-0.031033 -1.137939 -8.0947266 7
-0.031055 -1.160278 -8.0908203 7
-0.032398 -1.183472 -8.0947266 7
-0.032435998 -1.205933 -8.0917969 7
-0.033794001 -1.229126 -8.09375 7
-0.043110002 -1.256714 -8.1298828 7
-0.22972099 -4.3261719 -8.0439453 7
-0.236404 -4.360352 -8.0605469 7
-0.233803 -4.3779302 -8.0400391 7
-0.23386399 -4.4003911 -8.0292969 7
-0.23124699 -4.4178472 -8.0087891 7
-0.22731 -4.4327388 -7.9824219 7
-0.22471599 -4.4500728 -7.960938 7
-0.228745 -4.4796138 -7.9658198 7
-0.115406 4.7990718 -7.233398 7
-0.111477 4.77002 -7.2285161 7
-0.111485 4.7493901 -7.2402339 7
-0.114155 4.7342529 -7.2607422 7
-0.118114 4.7218022 -7.2880859 7
-0.126049 4.7171631 -7.328125 7
-0.131336 4.7071528 -7.360352 7
-0.130024 4.6834722 -7.3662109 7
-0.128719 4.65979 -7.3720698 7
-0.11948 4.6203609 -7.3486328 7
-0.119495 4.5993652 -7.359375 7
-0.119518 4.5784912 -7.3701172 7
-0.116894 4.5523682 -7.3701172 7
-0.120861 4.539062 -7.3964839 7
-0.116924 4.510376 -7.391602 7
-0.115612 4.4868159 -7.3974609 7
-0.323975 -6.088501 -6.9335942 7
-0.32679701 -6.1147461 -6.9287109 7
-0.326866 -6.134521 -6.914062 7
-0.32416499 -6.1473389 -6.889648 7
-0.32423401 -6.1671138 -6.875 7
-0.32843801 -6.1967769 -6.875 7
-0.32157099 -6.1993408 -6.8378911 7
-0.32442501 -6.2255859 -6.8300781 7
-0.32862899 -6.255249 -6.829102 7
-0.33836401 -6.2990718 -6.8466802 7
-0.341198 -6.325562 -6.8398442 7
-0.34681299 -6.3588872 -6.84375 7
-0.349628 -6.385376 -6.8369141 7
-0.062671997 -1.890747 10.310547 7
-0.062648997 -1.869629 10.314453 7
-0.073872 -1.85791 10.363281 7
-0.065417998 -1.829834 10.334961 7
-0.049915001 -1.775269 10.282227 7
-0.049885001 -1.754272 10.286133 7
-0.047031 -1.710205 10.283203 7
-0.052646998 -1.693481 10.30957 7
-0.066684999 -1.682861 10.369141 7
-0.053996999 -1.652344 10.323242 7
-0.051151 -1.608032 10.319336 7
-0.105835 4.7745361 -6.7255859 7
-0.105835 4.755127 -6.7373052 7
-0.105865 4.7357178 -6.7470698 7
-0.10862 4.7220459 -6.7675781 7
-0.105896 4.677124 -6.780273 7
-0.11414 4.674438 -6.8212891 7
-0.116909 4.6602778 -6.8417969 7
-0.12241 4.651855 -6.8730469 7
-0.114162 4.615356 -6.8544922 7
-0.114193 4.5957031 -6.8652339 7
-0.112816 4.5732422 -6.8710942 7
-0.10598 4.52002 -6.867188 7
-0.108734 4.5058589 -6.8876948 7
-0.105995 4.4804692 -6.8886719 7
-0.216351 -4.4281011 -7.023438 7
-0.216389 -4.447998 -7.0136719 7
-0.219311 -4.4732671 -7.0126948 7
-0.32674399 -6.1595459 -6.391602 7
-0.32249501 -6.1673579 -6.3642578 7
-0.31825301 -6.1750488 -6.335938 7
-0.31545299 -6.1861572 -6.3125 7
-0.32413501 -6.2259521 -6.3242192 7
-0.32706499 -6.2514648 -6.3183589 7
-0.33285499 -6.2840581 -6.3212891 7
-0.33866099 -6.3165278 -6.3232422 7
-0.343018 -6.3457031 -6.3222661 7
-0.35026899 -6.3820801 -6.329102 7
-0.347458 -6.3930659 -6.3037109 7
-0.060626999 -1.919189 9.9472656 7
-0.057673998 -1.896606 9.9394531 7
-0.054752 -1.873901 9.9335938 7
-0.05328 -1.8525389 9.9326172 7
-0.056155998 -1.834717 9.9472656 7
-0.064898998 -1.821655 9.9863281 7
-0.060658 -1.796875 9.9726562 7
-0.048985001 -1.767578 9.9335938 7
-0.043125 -1.742798 9.9150391 7
-0.041653 -1.721436 9.9140615 7
-0.040173002 -1.700195 9.9130859 7
-0.038704 -1.678833 9.9121094 7
-0.041584 -1.661011 9.9257812 7
-0.051785 -1.648315 9.96875 7
-0.045924999 -1.6237791 9.9501953 7
-0.107635 4.7807622 -6.304688 7
-0.107628 4.7623291 -6.3173828 7
-0.10907 4.7468262 -6.3330078 7
-0.103371 4.7165532 -6.3242192 7
-0.107651 4.7067871 -6.3505859 7
-0.111938 4.697144 -6.375977 7
-0.114799 4.6842041 -6.3974609 7
-0.218922 -4.2008061 -6.733398 7
-0.22343799 -4.2280269 -6.7392578 7
-0.22953799 -4.2961431 -6.7275391 7
-0.32941401 -6.080811 -5.9658198 7
-0.33394599 -6.1091309 -5.9638672 7
-0.33995801 -6.1411128 -5.967773 7
-0.32810199 -6.1295171 -5.9179692 7
-0.33411399 -6.1612549 -5.920898 7
-0.32672101 -6.1602778 -5.8847661 7
-0.33422899 -6.1959229 -5.891602 7
-0.332809 -6.2094731 -5.8720698 7
-0.32094601 -6.197144 -5.8232422 7
-0.32993299 -6.2364502 -5.8349609 7
-0.33745599 -6.2720952 -5.8408198 7
-0.33602101 -6.2853999 -5.8212891 7
-0.33905801 -6.3100591 -5.8154302 7
-0.34656501 -6.3458252 -5.8212891 7
-0.35706699 -6.3890381 -5.8369141 7
-0.34818301 -6.383667 -5.7949219 7
-0.071064003 -1.911743 9.6396484 7
-0.064983003 -1.887207 9.6220703 7
-0.057422999 -1.861694 9.5986328 7
-0.054370999 -1.839722 9.5917969 7
-0.061923999 -1.826416 9.625 7
-0.067974001 -1.811646 9.6523438 7
-0.061893001 -1.787354 9.6337891 7
-0.061877999 -1.767944 9.6386719 7
-0.052784 -1.741333 9.6083984 7
-0.052769002 -1.7219239 9.6123047 7
-0.043682002 -1.6956789 9.5839844 7
-0.043652002 -1.676392 9.5878906 7
-0.046658002 -1.65918 9.6025391 7
-0.055706002 -1.646484 9.640625 7
-0.061740998 -1.6312259 9.6660156 7
-0.054164998 -1.606323 9.6425781 7
-0.056816 0.966919 9.7695312 7
-0.041683 0.98010302 9.7109385 7
-0.037128001 0.99768102 9.6914062 7
-0.038593002 1.018066 9.6953115 7
-0.044613 1.040283 9.7158203 7
-0.038532 1.057129 9.6904297 7
-0.041508 1.078247 9.6992188 7
-0.053557999 1.103882 9.7421885 7
-0.056549001 1.125122 9.7509766 7
-0.048950002 1.140869 9.7197266 7
-0.051941 1.1619869 9.7285156 7
-0.047371 1.179443 9.7089844 7
-0.068474002 1.2105711 9.7851562 7
-0.065413997 1.228516 9.7705078 7
-0.053298999 1.241699 9.7226562 7
-0.066849001 1.269043 9.7705078 7
-0.33157301 -6.1973882 -5.4199219 7
-0.331635 -6.213501 -5.405273 7
-0.33476999 -6.2371831 -5.3994141 7
-0.33174899 -6.245605 -5.375977 7
-0.33335099 -6.2655029 -5.3652339 7
-0.331848 -6.27771 -5.3466802 7
-0.33963799 -6.3129878 -5.351562 7
-0.34278899 -6.3366699 -5.344727 7
-0.342834 -6.3525391 -5.3300781 7
-0.347527 -6.380249 -5.327148 7
-0.057034001 -1.907715 9.2841797 7
-0.055454001 -1.887817 9.2832031 7
-0.060139 -1.872925 9.3056641 7
-0.056979999 -1.851685 9.2978516 7
-0.058674 -1.833374 9.3085938 7
-0.060230002 -1.815918 9.3183594 7
-0.066471003 -1.802124 9.3447266 7
-0.053936001 -1.773682 9.3046885 7
-0.049236 -1.7512209 9.2919922 7
-0.038272999 -1.724121 9.2578115 7
-0.049198002 -1.713745 9.3007812 7
-0.044482999 -1.69165 9.2871094 7
-0.041347999 -1.6706541 9.2802734 7
-0.044452999 -1.654297 9.2958984 7
-0.052265 -1.6413569 9.3271484 7
-0.055362999 -1.624878 9.3417969 7
-0.055346999 -1.606079 9.3457031 7
-0.045524999 0.96630901 9.4326172 7
-0.048615001 0.98657203 9.4414062 7
-0.039211001 1.001465 9.4052734 7
-0.040752001 1.021118 9.4091797 7
-0.03915 1.039185 9.4003906 7
-0.035992 1.056519 9.3867188 7
-0.035960998 1.075439 9.3847656 7
-0.042171001 1.097412 9.4042969 7
-0.037457 1.114014 9.3847656 7
-0.043648001 1.135864 9.4042969 7
-0.043616999 1.154785 9.4013672 7
-0.042034 1.172974 9.3945312 7
-0.048248 1.195312 9.4140615 7
-0.051314998 1.215942 9.421875 7
-0.049720999 1.234009 9.4140615 7
-0.05748 1.257202 9.4384766 7
-0.052765001 1.273682 9.4189453 7
-0.228916 -4.481812 -5.8300781 7
-0.228962 -4.4989009 -5.8193359 7
-0.224209 -4.5070801 -5.7939448 7
-0.22905301 -4.5330811 -5.796875 7
-0.230701 -4.552979 -5.7910161 7
-0.232334 -4.5731201 -5.7851558 7
-0.22919101 -4.5839839 -5.765625 7
-0.230839 -4.6040039 -5.7587891 7
-0.238888 -4.636353 -5.7714839 7
-0.25011399 -4.6746831 -5.7929692 7
-0.246971 -4.6855469 -5.773438 7
-0.250229 -4.7087402 -5.7705078 7
-0.25029001 -4.7255859 -5.7587891 7
-0.250328 -4.7425542 -5.7480469 7
-0.25038099 -4.7593989 -5.7363281 7
-0.25522599 -4.7858891 -5.7392578 7
-0.25206801 -4.7963872 -5.71875 7
-0.32684699 -6.09375 -4.9960942 7
-0.32690001 -6.1087651 -4.9814448 7
-0.33017001 -6.1315918 -4.9746089 7
-0.32862499 -6.1428218 -4.9560552 7
-0.33829501 -6.181396 -4.9648442 7
-0.335136 -6.1887212 -4.9433589 7
-0.33999601 -6.215332 -4.9404302 7
-0.33044401 -6.206665 -4.9013672 7
-0.330502 -6.2215581 -4.8867192 7
-0.33057001 -6.2364502 -4.8720698 7
-0.33223701 -6.255249 -4.860352 7
-0.32268101 -6.2460942 -4.8212891 7
-0.33073801 -6.2807622 -4.8261719 7
-0.33238199 -6.299561 -4.8154302 7
-0.33564001 -6.3222661 -4.8085942 7
-0.054988999 -1.885254 8.9580078 7
-0.059834 -1.87146 8.9785156 7
-0.058208 -1.852173 8.9775391 7
-0.053326 -1.830322 8.9658203 7
-0.053309999 -1.8125 8.9707031 7
-0.063033998 -1.802246 9.0087891 7
-0.063026004 -1.784302 9.0126953 7
-0.063004002 -1.766235 9.0166016 7
-0.058125 -1.744507 9.0039062 7
-0.043490998 -1.715332 8.9580078 7
-0.041866001 -1.696045 8.9570312 7
-0.040226001 -1.677124 8.9550781 7
-0.043453 -1.661621 8.9707031 7
-0.041813001 -1.6424561 8.9697266 7
-0.04665 -1.628052 8.9892578 7
-0.053142998 -1.614868 9.015625 7
-0.235424 -4.4836431 -5.4658198 7
-0.237148 -4.5029302 -5.4580078 7
-0.238842 -4.5223389 -5.452148 7
-0.235577 -4.532104 -5.4326172 7
-0.243919 -4.5639648 -5.4443359 7
-0.240658 -4.5739751 -5.4248052 7
-0.232388 -4.5742192 -5.391602 7
-0.235752 -4.5966802 -5.389648 7
-0.239124 -4.6191411 -5.3876948 7
-0.24081799 -4.6383061 -5.3818359 7
-0.24583399 -4.6636958 -5.3837891 7
-0.252518 -4.692749 -5.391602 7
-0.25753799 -4.7183838 -5.3945308 7
-0.259262 -4.7376709 -5.3876948 7
-0.25764501 -4.7506099 -5.3710942 7
-0.256035 -4.7633061 -5.3554692 7
-0.26271799 -4.7922359 -5.3623052 7
-0.254471 -4.7921138 -5.328125 7
-0.33501801 -6.1729741 -4.4648442 7
-0.34005699 -6.1989751 -4.4619141 7
-0.34177399 -6.217041 -4.4501948 7
-0.34016401 -6.226685 -4.4326172 7
-0.32526001 -6.2034912 -4.3837891 7
-0.322689 -6.2125239 -4.3642578 7
-0.32438999 -6.2303472 -4.3535161 7
-0.32776999 -6.2523189 -4.3466802 7
-0.33116499 -6.2740479 -4.3388672 7
-0.332867 -6.2918701 -4.328125 7
-0.33458301 -6.3094478 -4.3164058 7
-0.33464399 -6.3231201 -4.3027339 7
-0.32804501 -6.3199458 -4.2724609 7
-0.33308801 -6.3458252 -4.2685552 7
-0.338139 -6.371582 -4.2636719 7
-0.069068998 -1.9111331 8.6943359 7
-0.058945 -1.885498 8.6650391 7
-0.058945 -1.868286 8.6708984 7
-0.063979998 -1.855225 8.6914062 7
-0.063950002 -1.837891 8.6953115 7
-0.062256001 -1.819458 8.6943359 7
-0.070662998 -1.80896 8.7265615 7
-0.060555 -1.783447 8.6972656 7
-0.068947002 -1.772827 8.7294922 7
-0.072304003 -1.758057 8.7451172 7
-0.050434001 -1.723877 8.6777344 7
-0.048725002 -1.705444 8.6757812 7
-0.048717 -1.68811 8.6806641 7
-0.047024 -1.669678 8.6796885 7
-0.047015999 -1.652588 8.6835938 7
-0.053722002 -1.640137 8.7089844 7
-0.063789003 -1.630127 8.7460938 7
-0.063781999 -1.612793 8.75 7
-0.122494 4.395752 7.8056641 7
-0.130798 4.4268799 7.8183589 7
-0.13911401 4.4578862 7.8310552 7
-0.23266201 -4.4804692 -5.0849609 7
-0.23270001 -4.495728 -5.0742192 7
-0.231022 -4.50769 -5.0595698 7
-0.236233 -4.5325928 -5.0625 7
-0.231121 -4.5383301 -5.0371089 7
-0.236332 -4.5632319 -5.0400391 7
-0.23292901 -4.572021 -5.0214839 7
-0.236416 -4.5936279 -5.0185552 7
-0.239887 -4.6152339 -5.016602 7
-0.246822 -4.6435552 -5.023438 7
-0.24171799 -4.6489258 -4.999023 7
-0.25550801 -4.6904302 -5.023438 7
-0.24696 -4.689209 -4.9902339 7
-0.253883 -4.7174072 -4.9960942 7
-0.25565299 -4.7359619 -4.9892578 7
-0.25054899 -4.7410889 -4.9648442 7
-0.25400501 -4.7628169 -4.9628911 7
-0.25405899 -4.77771 -4.9511719 7
-0.332836 -6.0822749 -4.0839839 7
-0.332874 -6.0953369 -4.070312 7
-0.332928 -6.1082759 -4.0556641 7
-0.33298099 -6.1212158 -4.0410161 7
-0.336483 -6.1425781 -4.0341802 7
-0.33653599 -6.155273 -4.0195308 7
-0.34346801 -6.1850591 -4.0195308 7
-0.34352899 -6.1977539 -4.0048828 7
-0.33842799 -6.197876 -3.9794919 7
-0.34191501 -6.2189941 -3.9716799 7
-0.34368899 -6.2359619 -3.960938 7
-0.33341599 -6.223145 -3.9238279 7
-0.338642 -6.2485352 -3.9199221 7
-0.33352301 -6.248291 -3.894531 7
-0.33012 -6.2523189 -3.8730471 7
-0.32674801 -6.256104 -3.8505859 7
-0.33022699 -6.2772222 -3.842773 7
-0.332012 -6.2939448 -3.832031 7
-0.33379701 -6.3106689 -3.820312 7
-0.33385101 -6.322998 -3.804688 7
-0.33388901 -6.3353271 -3.7910161 7
-0.33566701 -6.3518071 -3.7792971 7
-0.33745199 -6.3684082 -3.7675779 7
-0.339214 -6.3850098 -3.7558589 7
-0.069672003 -1.907349 8.4091797 7
-0.069664001 -1.890747 8.4140615 7
-0.059211999 -1.8656009 8.3857422 7
-0.064415 -1.8531491 8.4072266 7
-0.064415 -1.836792 8.4121094 7
-0.064406998 -1.82019 8.4169922 7
-0.078322999 -1.814697 8.4648438 7
-0.067863002 -1.789795 8.4355469 7
-0.064369 -1.770264 8.4287109 7
-0.069580004 -1.75769 8.4501953 7
-0.062599003 -1.735718 8.4326172 7
-0.059105001 -1.716431 8.4257812 7
-0.055610999 -1.697266 8.4189453 7
-0.055594999 -1.6806639 8.4228516 7
-0.052104998 -1.661377 8.4160156 7
-0.052074 -1.644897 8.4189453 7
-0.0625 -1.635864 8.4560547 7
-0.059013002 -1.616699 8.4492188 7
-0.064217001 -1.60376 8.46875 7
-0.034759998 0.97412097 8.5048828 7
-0.038208 0.992432 8.5136719 7
-0.039917 1.010132 8.5166016 7
-0.027721001 1.02124 8.4755859 7
-0.027682999 1.0380861 8.4736328 7
-0.027659999 1.054932 8.4716797 7
-0.031101 1.072998 8.4794922 7
-0.027592 1.088135 8.4667969 7
-0.036254998 1.109131 8.4921885 7
-0.027538 1.121582 8.4619141 7
-0.032715 1.140869 8.4755859 7
-0.032676999 1.157593 8.4726562 7
-0.044815 1.1806639 8.5087891 7
-0.041297998 1.195557 8.4941406 7
-0.039535999 1.211548 8.4863281 7
-0.041237 1.229248 8.4892578 7
-0.041198999 1.245972 8.4863281 7
-0.051598001 1.268555 8.5166016 7
-0.041138001 1.279297 8.4804688 7
-0.138092 4.202271 7.6503911 7
-0.138046 4.2171631 7.640625 7
-0.143196 4.241333 7.6445308 7
-0.146614 4.2623291 7.6435552 7
-0.13443799 4.2547612 7.6005859 7
-0.12920401 4.259644 7.577148 7
-0.122219 4.2615972 7.5488281 7
-0.122189 4.276123 7.539062 7
-0.118687 4.2841802 7.5205078 7
-0.116909 4.2954102 7.5068359 7
-0.11858 4.3131099 7.5 7
-0.123714 4.3370361 7.5029302 7
-0.123684 4.35144 7.4931641 7
-0.127068 4.372437 7.4912109 7
-0.121845 4.376709 7.467773 7
-0.123524 4.3942871 7.4619141 7
-0.13559 4.4318848 7.483398 7
-0.139 4.4526372 7.4814448 7
-0.144142 4.4771729 7.484375 7
-0.25204501 -4.4987788 -4.7929692 7
-0.243214 -4.4970698 -4.7597661 7
-0.239712 -4.5048828 -4.7402339 7
-0.23621 -4.512939 -4.719727 7
-0.239811 -4.533936 -4.717773 7
-0.241611 -4.5518799 -4.7119141 7
-0.24168 -4.5662842 -4.7001948 7
-0.24171101 -4.580688 -4.6904302 7
-0.24175601 -4.5950928 -4.679688 7
-0.23824701 -4.6026611 -4.6601558 7
-0.243618 -4.6270752 -4.6611328 7
-0.245434 -4.644897 -4.655273 7
-0.240154 -4.6491699 -4.6308589 7
-0.257965 -4.6973882 -4.664062 7
-0.249134 -4.6945801 -4.6308589 7
-0.254509 -4.7193599 -4.632812 7
-0.25457001 -4.733521 -4.6201172 7
-0.26348901 -4.7650151 -4.6308589 7
-0.25466201 -4.7619629 -4.5986328 7
-0.256477 -4.7796631 -4.5917969 7
-0.332798 -6.0906978 -3.613281 7
-0.33640701 -6.1113281 -3.605469 7
-0.33646801 -6.1231689 -3.5917971 7
-0.336514 -6.1350098 -3.577148 7
-0.336575 -6.146606 -3.5625 7
-0.33838999 -6.1627202 -3.5517581 7
-0.33311099 -6.1612549 -3.5263669 7
-0.34918201 -6.2124019 -3.542969 7
-0.34389099 -6.210938 -3.5175779 7
-0.35285199 -6.2443848 -3.5205081 7
-0.34756899 -6.2427979 -3.4951169 7
-0.34939599 -6.2587891 -3.483398 7
-0.347675 -6.2658691 -3.4658201 7
-0.34059501 -6.2598882 -3.4375 7
-0.33886299 -6.2667241 -3.4189451 7
-0.33356899 -6.2648931 -3.394531 7
-0.33005899 -6.2672119 -3.3720701 7
-0.33012 -6.278564 -3.3574221 7
-0.33372101 -6.2987061 -3.3496089 7
-0.34092301 -6.3277588 -3.3466799 7
-0.34095401 -6.3391109 -3.3330081 7
-0.34101501 -6.3502202 -3.3173831 7
-0.342861 -6.3658452 -3.304688 7
-0.34470701 -6.3812261 -3.292969 7
-0.34118301 -6.3835449 -3.2714839 7
-0.34302899 -6.3991699 -3.2597661 7
-0.073936 -1.906128 8.1542969 7
-0.066726997 -1.884155 8.1376953 7
-0.073913999 -1.874146 8.1630859 7
-0.070320003 -1.855225 8.1572266 7
-0.072082996 -1.840942 8.1669922 7
-0.068480998 -1.8218991 8.1611328 7
-0.077454001 -1.81311 8.1914062 7
-0.081038997 -1.799927 8.2070312 7
-0.068443 -1.773926 8.1728516 7
-0.066628002 -1.75647 8.171875 7
-0.073821999 -1.745972 8.1982422 7
-0.059402 -1.718872 8.1591797 7
-0.062987998 -1.705566 8.1738281 7
-0.062981002 -1.689697 8.1777344 7
-0.057556 -1.669678 8.1650391 7
-0.057556 -1.653564 8.1689453 7
-0.057533 -1.637695 8.1738281 7
-0.062927 -1.62561 8.1933594 7
-0.064704999 -1.61084 8.2021484 7
-0.13605499 4.1607671 7.3457031 7
-0.128838 4.1619868 7.3173828 7
-0.13237 4.182373 7.3164058 7
-0.137695 4.2060552 7.3193359 7
-0.141243 4.226562 7.3193359 7
-0.130447 4.2209468 7.282227 7
-0.141129 4.254395 7.2988281 7
-0.15541799 4.2946782 7.3251948 7
-0.14463 4.2888179 7.2880859 7
-0.13382 4.2827148 7.250977 7
-0.12841 4.2866211 7.226562 7
-0.13015699 4.3037109 7.2216802 7
-0.131897 4.3208008 7.2158198 7
-0.126472 4.3242192 7.1914058 7
-0.128212 4.3413091 7.186523 7
-0.129959 4.358398 7.1806641 7
-0.12992901 4.3719478 7.170898 7
-0.12808201 4.3822021 7.15625 7
-0.128052 4.395874 7.1464839 7
-0.133369 4.4195561 7.1494141 7
-0.136894 4.4398189 7.1474609 7
-0.054008 -1.683134 9.9722614 7
-0.018743999 1.036563 9.3443413 7
-0.083495997 -1.707182 9.2251377 7
-0.092652 -1.810349 8.8538036 7
-0.15349001 4.3021121 7.7351151 7
-0.135931 4.3700638 7.4875412 7
-0.071682997 -1.829017 8.3509855 7
-0.063957997 -1.6295919 8.3756924 7
-0.040123001 1.0421489 8.4017668 7
-0.042440999 1.227857 8.3715305 7
-0.235861 -4.9152789 6.4683638 7
-0.051442999 -1.996347 7.833364 7
-0.057308 -1.849268 7.9400148 7
-0.046046 -1.65824 7.9508328 7
-0.089950003 -1.8678139 7.5902181 7
-0.073886 -1.681399 7.587893 7
-0.12818 -4.1983099 -13.056851 7
-0.022407999 -1.315146 -8.6850739 7
0.00251 -1.273891 -7.0887489 7
-0.10873 -1.796064 13.339542 7
0.036867 -1.23885 -5.7216091 7
-0.194708 -4.7051711 -5.4483781 7
-0.027856 -1.499253 -4.0427418 7
-0.274248 -4.6803031 -4.4817781 7
-0.36946499 -6.1580262 -4.1065869 7
-0.112381 -1.870803 10.426 7
-0.011321 -1.4563169 -3.4076149 7
-0.24146301 -4.609623 -3.581332 7
-0.34574601 -6.278378 -2.945919 7
-0.067474 -1.78073 9.6738853 7
-0.22895201 -4.5878091 -2.9029939 7
-0.038674999 -1.71272 9.1069098 7
-0.21218599 -4.5448699 -2.2840979 7
-0.105482 -1.901628 8.7373161 7
-0.088403001 -1.663367 8.7079697 7
-0.086919002 -1.8398809 8.357933 7
-0.082446001 -1.624895 8.3890686 7
-0.0053940001 -1.333595 -1.605912 7
-0.019159 -1.540887 -1.632668 7
-0.241327 -4.6104689 -1.081175 7
-0.072809003 -1.787436 8.0359135 7
-0.226115 -4.5480261 -0.66178203 7
-0.217094 -4.6671991 -0.46798399 7
-0.253939 -4.9611378 6.551475 7
-0.247641 -4.806282 6.7029238 7
-0.083159 -2.1315 7.7366381 7
-0.079319 -1.942291 7.7804098 7
-0.054637998 -1.737098 7.7262311 7
0.0059349998 -1.298155 -1.082422 7
0.0020339999 -1.478734 -1.065446 7
-0.205191 -4.5962 -0.103631 7
-0.277082 -4.8142591 6.1664019 7
-0.087650001 -1.866012 7.412991 7
-0.075562 -1.685245 7.4123549 7
-0.245178 -4.6351829 0.386958 7
-0.010371 -1.422564 -0.55934501 7
-0.028502 -1.589342 -0.59368902 7
-0.239948 -4.574677 0.668818 7
-0.23333 -4.6497359 0.840285 7
0.00155 -1.400558 -0.35760599 7
-0.018502999 -1.559697 -0.3985 7
-0.223956 -4.6612649 1.299469 7
-0.22455101 -4.7329311 1.457541 7
0.009664 -1.3816431 -0.184642 7
-0.0092630005 -1.532696 -0.220698 7
-0.212718 -4.4915171 1.389501 7
-0.216498 -4.5696058 1.5355361 7
-0.215104 -4.626328 1.691458 7
-0.218683 -4.6919322 1.843146 7
0.013129 -1.365757 -0.040070999 7
-0.039625 -1.507547 -0.060961999 7
-0.25131899 -4.5269251 1.904997 7
-0.25221199 -4.6518559 2.361187 7
-0.247973 -4.6678939 2.5184169 7
-0.258313 -4.7212029 2.668576 7
-0.25381199 -4.7241492 2.8269529 7
-0.25241199 -4.7322798 3.2969241 7
-0.258443 -4.742281 3.4541039 7
-0.237524 -4.5136909 2.5487499 7
-0.246189 -4.5603199 2.69328 7
-0.241447 -4.5624461 2.844883 7
-0.24355499 -4.5807061 3.2945731 7
-0.24975801 -4.5909958 3.4454031 7
-0.042711999 1.09078 9.6166134 7
-0.110415 4.2322979 7.9659448 7
-0.160889 4.3707008 7.753396 7
-0.147304 4.1607218 7.4732509 7
-0.13768899 4.288064 7.2790451 7
-0.15002599 4.4728899 7.1590142 7
-0.0028860001 -1.060903 -14.627616 7
-0.113379 5.007628 -17.424854 7
0.049129002 1.06638 -13.098706 7
-0.027308 -0.32422599 -9.98598 7
-0.066987999 -1.151787 -10.66339 7
-0.26575801 -4.3432879 -13.828609 7
-0.26451501 4.998457 -13.577975 7
-0.059796002 0.049210001 -10.571186 7
-0.235232 -4.3705931 -11.099583 7
-0.179663 4.9008522 -9.9498243 7
-0.021692 -1.294567 -7.397459 7
-0.092817999 4.7912431 -7.1262021 7
-0.111271 4.6568818 -7.4850702 7
-0.0043219998 -1.32051 -6.403667 7
-0.032933 -1.126528 -5.6306448 7
-0.03991 -1.334556 -5.6510992 7
-0.339551 -6.1003199 -6.241138 7
-0.221683 -4.5191221 -5.254631 7
-0.33388501 -6.1221271 -5.0707598 7
-0.32808101 -6.2747898 -4.8071961 7
-0.089203998 4.670702 -3.2539051 7
-0.100913 4.6447291 -3.4808879 7
-0.0086580003 -1.343001 -4.5908809 7
-0.019938 -1.525318 -4.6208611 7
-0.215073 -4.5944901 -4.3716221 7
-0.32510301 -6.1810389 -3.7768569 7
-0.31996 -6.2847161 -3.515281 7
0.003083 -1.3411959 -4.2017932 7
-0.0083990004 -1.508324 -4.225152 7
-0.202941 -4.5521278 -3.552912 7
-0.022737 -1.34604 -3.8935411 7
-0.033346001 -1.495276 -3.8997159 7
-0.25128901 -4.5028219 -2.8431461 7
-0.249185 -4.5798621 -2.6563351 7
-0.253842 -4.6937551 -2.4786329 7
-0.21505301 -4.7675591 -1.267013 7
-0.214426 -4.7908621 -1.066897 7
-0.015027 -1.34927 -3.6311131 7
-0.027376 -1.49316 -3.640744 7
-0.0091660004 -1.327484 -3.4178791 7
-0.023348 -1.467535 -3.4318359 7
-0.0099879997 -1.346496 -3.2435241 7
-0.016248999 -1.4555531 -3.217077 7
-0.028391 -1.571089 -1.915398 7
-0.011999 -1.460246 -1.8614 7
-0.015379 -1.503216 -1.805833 7
-0.020337 -1.549261 -1.749904 7
-0.015559 -1.332778 -1.869596 7
-0.017571 -1.370706 -1.817421 7
-0.033700999 -1.447764 -1.781137 7
-0.033881001 -1.4770989 -1.721506 7
-0.028809 -1.488187 -1.655223 7
-0.022864999 -1.572625 -1.269565 7
-0.019254001 -1.57029 -1.18698 7
-0.0229 -1.586568 -1.120864 7
-0.019672001 -1.577697 -1.054876 7
-0.019858999 -1.577177 -0.988415 7
-0.0042969999 -1.286067 -1.776203 7
-0.013774 -1.34083 -1.734569 7
-0.01226 -1.36306 -1.677448 7
-0.025266999 -1.425198 -1.633721 7
-0.023264 -1.517398 -1.26521 7
-0.01462 -1.497787 -1.20087 7
-0.021708 -1.525534 -1.121846 7
-0.014917 -1.505635 -1.059122 7
-0.018781001 -1.516555 -0.99448699 7
0.00060799997 -1.280706 -1.645579 7
-0.000421 -1.395803 -1.256072 7
0.006509 -1.3816 -1.197009 7
-0.0012469999 -1.40932 -1.138819 7
0.001982 -1.401366 -1.08017 7
0.001786 -1.400772 -1.006434 7
-0.0061090002 -1.319831 -1.249984 7
-0.004708 -1.322029 -1.194612 7
-0.0092120003 -1.338605 -1.139039 7
-0.005901 -1.330761 -1.083352 7
-0.01399 -1.352253 -1.01098 7
-0.0064500002 -1.284089 -1.193187 7
-0.0064869998 -1.288316 -1.031117 7
