# .PCD v0.7 - Point Cloud Data file format
VERSION 0.7
FIELDS x y z intensity
SIZE 4 4 4 4
TYPE F F F F
COUNT 1 1 1 1
WIDTH 653
HEIGHT 1
VIEWPOINT 0 0 0 1 0 0 0
POINTS 653
DATA ascii
-0.561638 -5.368042 73.313477 7
-0.50200701 -2.249146 72.016602 7
-0.49331 -2.0753169 71.799805 7
-0.51010501 -0.57714802 72.325195 7
-0.478751 -0.40429699 71.506836 7
-0.16502 4.484375 -69.753906 7
-0.217989 4.412354 -71.366211 7
-0.023476001 0.85949701 -65.170898 7
-0.55066001 -5.454102 66.193359 7
-0.60016799 -5.3968511 67.384766 7
-0.64991403 -5.3345952 68.581055 7
-0.475582 -2.6152339 64.667969 7
-0.50830698 -2.4958501 65.456055 7
-0.51472998 -2.349854 65.619141 7
-0.02633 4.335938 -58.330078 7
-0.100619 4.1881099 -60.352539 7
-0.147174 4.1235352 -61.618164 7
-0.25931299 4.164917 -64.658203 7
-0.023362 0.78295898 -58.271484 7
-0.171865 -2.6585691 -55.926758 7
-0.144954 -2.762207 -55.259766 7
-0.657543 -5.4857178 63.075195 7
-0.69815701 -5.4163818 63.973633 7
-0.42421401 0.209839 58.382812 7
-0.44262999 3.3431399 58.790039 7
-0.080937997 4.4185791 -54.007812 7
-0.14084101 4.400269 -55.483398 7
-0.069077 4.1333008 -53.731445 7
-0.120171 4.092896 -54.990234 7
-0.166991 4.0393071 -56.142578 7
-0.371227 0.31189001 52.540039 7
-0.34661001 0.54895002 52.051758 7
-0.44213599 3.436157 53.9375 7
-0.40342799 3.508301 53.158203 7
-0.34956399 3.5556641 52.077148 7
-0.062950999 4.3304439 -48.407227 7
-0.107446 4.2954102 -49.402344 7
-0.020386999 4.0161128 -47.476562 7
-0.083531998 4.0115972 -48.884766 7
-0.11097 3.9390869 -49.5 7
-0.19303299 3.9545901 -51.329102 7
-0.33825201 0.61804199 48.318359 7
-0.39855701 3.5957029 49.391602 7
-0.35883501 3.6525879 48.649414 7
-0.32446101 3.7137451 48.004883 7
-0.085573003 4.2524409 -44.958008 7
-0.119007 4.2032471 -45.648438 7
-0.158711 4.1618652 -46.467773 7
-0.084780999 3.920166 -44.962891 7
-0.125332 3.8781741 -45.799805 7
-0.173862 3.8449709 -46.800781 7
-0.021902001 0.58264202 -43.655273 7
-0.018340001 0.47521999 -43.580078 7
-0.025084 0.36987299 -43.71582 7
-0.36753201 -2.520386 44.90332 7
-0.367394 -2.4173579 44.908203 7
-0.29742101 0.46057099 43.845703 7
-0.265876 0.65173298 43.306641 7
-0.351239 3.657104 44.695312 7
-0.32753 3.7249761 44.285156 7
-0.306216 3.794189 43.916016 7
-0.111163 4.4309082 -41.310547 7
-0.140287 4.3841548 -41.861328 7
-0.15723699 4.3126221 -42.186523 7
-0.19978701 4.2853999 -42.987305 7
-0.00321 0.92480499 -39.428711 7
-0.034897 0.839966 -40.021484 7
-0.019389 0.736206 -39.731445 7
-0.044837002 0.64599597 -40.206055 7
-0.014661 0.247437 -39.637695 7
-0.036058001 0.151611 -40.03418 7
-0.0067739999 0.052368 -39.485352 7
-0.033606999 -0.048705999 -36.72168 7
-0.062311001 -0.140747 -37.211914 7
-0.033553999 -0.22937 -36.714844 7
-0.31774399 -2.482666 41.006836 7
-0.338631 -2.4086909 41.345703 7
-0.344024 -2.3193359 41.438477 7
-0.25786299 0.51159698 40.193359 7
-0.25648901 0.69494599 40.172852 7
-0.35916901 3.5983889 41.720703 7
-0.330006 3.6517329 41.25293 7
-0.311483 3.71875 40.952148 7
-0.28820899 3.7771001 40.576172 7
0.38960999 21.14624 21.766602 7
-0.107437 4.548584 -37.886719 7
-0.124089 4.4874272 -38.183594 7
-0.15087999 4.444458 -38.652344 7
-0.176998 4.3978271 -39.110352 7
-0.21902899 4.3780522 -39.841797 7
-0.035932001 0.86633301 -36.829102 7
-0.080362998 -0.123291 -34.326172 7
-0.050515 -0.20544399 -33.853516 7
-0.056281999 -0.373779 -33.938477 7
-0.030499 -0.452393 -33.529297 7
-0.29461101 -2.5262451 37.587891 7
-0.26734 -2.4136961 37.197266 7
-0.29438201 -2.35498 37.599609 7
-0.301469 -2.275635 37.709961 7
-0.33528501 -2.2193601 38.211914 7
-0.274939 0.47705099 37.447266 7
-0.24490499 0.555664 37.006836 7
-0.275473 0.64807099 37.455078 7
-0.249047 0.72570801 37.067383 7
-0.25251001 0.811279 37.119141 7
-0.34438899 3.651855 38.357422 7
-0.33349499 3.7236331 38.191406 7
-0.30749699 3.7714839 37.804688 7
-0.28427601 3.822144 37.458984 7
-0.27778399 3.8973391 37.356445 7
-0.068499997 4.6022949 -33.930664 7
-0.090713002 4.5626221 -34.290039 7
-0.116229 4.527832 -34.700195 7
-0.144705 4.4970698 -35.157227 7
-0.17836 4.4737549 -35.696289 7
-0.206843 4.438477 -36.15332 7
-0.009633 1.196045 -33.213867 7
-0.043715 1.131104 -33.753906 7
-0.01315 1.033203 -33.271484 7
-0.046866 0.96545398 -33.804688 7
-0.078491002 -0.357788 -31.90625 7
-0.052021001 -0.43164101 -31.512695 7
-0.032706998 -0.505005 -31.224609 7
-0.065760002 -0.59106398 -31.708984 7
-0.044859 -0.66345203 -31.398438 7
-0.25648999 0.68200701 34.978516 7
-0.26426399 3.876343 34.938477 7
-0.089358002 4.6550288 -31.861328 7
-0.112708 4.6229248 -32.212891 7
-0.12817 4.5736079 -32.450195 7
-0.15626401 4.547729 -32.871094 7
-0.18357401 4.518311 -33.282227 7
-0.0072479998 1.346436 -30.887695 7
-0.031939998 1.206665 -31.255859 7
-0.057234999 -0.61267102 -29.134766 7
-0.030811001 -0.67712402 -28.770508 7
-0.063421004 -0.75988799 -29.212891 7
-0.049821001 -0.82751501 -29.023438 7
-0.028096 -0.89099097 -28.724609 7
-0.079764999 4.7242432 -29.169922 7
-0.095601 4.684082 -29.395508 7
-0.11529 4.6507568 -29.672852 7
-0.12942401 4.60498 -29.874023 7
-0.15594 4.582397 -30.242188 7
-0.178184 4.5500488 -30.553711 7
-0.014956 1.464478 -28.567383 7
-0.031684 1.403809 -28.798828 7
-0.018952001 1.3243411 -28.625977 7
-0.078391001 -0.71740699 -27.354492 7
-0.067033 -0.78161597 -27.206055 7
-0.076415002 -0.92102098 -27.318359 7
-0.26199999 -3.9989009 -29.367188 7
-0.2474 -4.0472412 -29.172852 7
-0.23419601 -4.0970459 -28.995117 7
-0.226042 -4.1547852 -28.881836 7
-0.111096 4.7454829 -27.481445 7
-0.121204 4.697144 -27.620117 7
-0.135423 4.6568599 -27.808594 7
-0.151923 4.619873 -28.02832 7
-0.17618801 4.597168 -28.344727 7
-0.043967001 1.58667 -26.922852 7
-0.036529999 1.505493 -26.833008 7
-0.043037001 1.442749 -26.917969 7
-0.02894 1.3668211 -26.740234 7
-0.049192999 1.31189 -27.000977 7
-0.072214998 1.2574461 -27.294922 7
-0.046805002 -1.030762 -24.908203 7
-0.23804399 -4.21106 -26.806641 7
-0.228256 -4.260376 -26.681641 7
-0.234825 -4.338501 -26.746094 7
-0.103036 4.8337402 -25.238281 7
-0.12724 4.7568359 -25.541992 7
-0.141559 4.7219238 -25.720703 7
-0.165694 4.705688 -26.012695 7
-0.177564 4.6638179 -26.162109 7
-0.14120799 4.5274658 -25.748047 7
-0.052154999 1.603882 -24.980469 7
-0.025624 1.522827 -24.669922 7
-0.040973 1.470947 -24.853516 7
-0.055824 1.4180911 -25.03125 7
-0.034710001 1.342407 -24.78418 7
-0.034786001 1.280273 -24.787109 7
-0.068700999 -0.97155797 -23.407227 7
-0.091539003 -1.040894 -23.655273 7
-0.075764999 -1.0925291 -23.477539 7
-0.064741999 -1.145874 -23.353516 7
-0.088129997 -1.217041 -23.606445 7
-0.085055999 -1.274536 -23.568359 7
-0.077214003 -1.329102 -23.478516 7
-0.080480002 -1.3898931 -23.509766 7
-0.26363799 -4.2259521 -25.179688 7
-0.251571 -4.267334 -25.036133 7
-0.248512 -4.3243408 -24.990234 7
-0.241212 -4.3735352 -24.900391 7
-0.25564501 -4.4620361 -25.044922 7
-0.121751 4.8475342 -23.613281 7
-0.157672 4.7415771 -24.038086 7
-0.176147 4.717896 -24.25 7
-0.162516 4.630127 -24.111328 7
-0.096415997 -1.309082 -22.064453 7
-0.086332001 -1.358521 -21.957031 7
-0.084159002 -1.41272 -21.930664 7
-0.09612 -1.4755861 -22.048828 7
-0.25005499 -4.164185 -23.282227 7
-0.26547101 -4.2492681 -23.427734 7
-0.272955 -4.321167 -23.493164 7
-0.25663099 -4.3508301 -23.31543 7
-0.250505 -4.3980708 -23.242188 7
-0.25174901 -4.4586182 -23.243164 7
-0.17168701 4.8015141 -22.461914 7
-0.174547 4.7502441 -22.500977 7
-0.16839901 4.681396 -22.449219 7
-0.108288 -1.289062 -20.766602 7
-0.105367 -1.3399661 -20.735352 7
-0.102445 -1.390625 -20.703125 7
-0.109753 -1.44751 -20.768555 7
-0.27031699 -4.2233891 -21.944336 7
-0.283079 -4.3006592 -22.053711 7
-0.286192 -4.3618159 -22.074219 7
-0.27665699 -4.400146 -21.970703 7
-0.272569 -4.4477539 -21.919922 7
-0.054678999 1.575439 -20.243164 7
-0.048133999 1.519531 -20.183594 7
-0.069766998 1.482422 -20.396484 7
-0.059636999 1.424316 -20.300781 7
-0.050696999 1.367065 -20.216797 7
-0.038187001 1.30835 -20.097656 7
-0.084123999 -1.050781 -19.197266 7
-0.079967 -1.24353 -19.146484 7
-0.27340099 -4.2279048 -20.487305 7
-0.28953499 -4.3077388 -20.619141 7
-0.29861301 -4.3757319 -20.69043 7
-0.28781101 -4.4085689 -20.582031 7
-0.28150299 -4.4490972 -20.513672 7
-0.277109 -4.4929199 -20.464844 7
-0.127333 4.8392329 -19.091797 7
-0.1331 4.8024902 -19.154297 7
-0.170783 4.7314448 -19.522461 7
-0.18164501 4.7032471 -19.629883 7
-0.038493998 1.228271 -18.776367 7
-0.034093 1.177979 -18.738281 7
-0.053277999 1.140015 -18.915039 7
-0.048861999 1.089355 -18.87793 7
-0.035519999 1.034912 -18.757812 7
-0.025992 0.98290998 -18.672852 7
-0.31275001 -4.403564 -19.527344 7
-0.054568999 0.93481398 -17.826172 7
-0.045850001 0.88574201 -17.75293 7
-0.035758 0.83654797 -17.667969 7
-0.039205998 0.79247999 -17.699219 7
-0.048078001 0.75012201 -17.775391 7
-0.042043999 0.70288098 -17.725586 7
-0.040075999 0.65673798 -17.708984 7
-0.023302 0.56201202 -17.566406 7
-0.013888 0.51477098 -17.486328 7
-0.090755001 -1.198975 -16.973633 7
-0.083737001 -1.282104 -16.910156 7
-0.078778997 -1.32251 -16.865234 7
-0.090489 -1.459717 -16.949219 7
-0.026996 0.280029 -16.477539 7
-0.02203 0.236816 -16.4375 7
-0.0228 0.19458 -16.443359 7
-0.025699999 0.152344 -16.467773 7
-0.027194001 0.109863 -16.478516 7
-0.021519 0.067261003 -16.432617 7
-0.01441 0.024901999 -16.374023 7
-0.034800999 -0.34167501 -15.576172 7
-0.038639002 -0.382568 -15.604492 7
-0.038722999 -0.42285201 -15.603516 7
-0.036495 -0.46264601 -15.584961 7
-0.033528 -0.50231898 -15.560547 7
-0.038158 -0.54333502 -15.592773 7
-0.044284001 -0.58544898 -15.638672 7
-0.098422997 -1.218994 -16.012695 7
-0.088689998 -1.295898 -15.931641 7
-0.088003002 -1.336426 -15.921875 7
-0.30779499 -4.4847412 -17.071289 7
-0.301799 -4.5175781 -17.015625 7
-0.29960901 -4.5570068 -16.987305 7
-0.29818299 -4.5977778 -16.96582 7
-0.30513299 -4.6540532 -17.004883 7
-0.31283 -4.7120361 -17.050781 7
-0.31824601 -4.7658691 -17.078125 7
-0.125003 4.7974849 -15.614258 7
-0.129564 4.766602 -15.658203 7
-0.053668 -0.670044 -14.759766 7
-0.048106998 -0.70654303 -14.716797 7
-0.049770001 -0.74536097 -14.727539 7
-0.060260002 -0.78723103 -14.800781 7
-0.059519999 -0.82531703 -14.792969 7
-0.055569001 -0.86206102 -14.762695 7
-0.054852001 -0.90026897 -14.753906 7
-0.081978001 -1.297852 -14.917969 7
-0.082047001 -1.3363039 -14.915039 7
-0.098173 -1.384766 -15.02832 7
-0.097441003 -1.423218 -15.018555 7
-0.097502001 -1.46228 -15.015625 7
-0.31090799 -4.44873 -16.021484 7
-0.29902399 -4.5093989 -15.916016 7
-0.29508799 -4.5429692 -15.875977 7
-0.297589 -4.5882568 -15.881836 7
-0.30653799 -4.645752 -15.932617 7
-0.31627899 -4.7050781 -15.988281 7
-0.31726399 -4.78894 -15.97168 7
-0.069132999 -1.0062259 -14.027344 7
-0.079369999 -1.084106 -14.092773 7
-0.077822 -1.156738 -14.075195 7
-0.070285 -1.1893311 -14.020508 7
-0.093993001 -1.23877 -14.179688 7
-0.091576003 -1.3112791 -14.157227 7
-0.111981 -1.397095 -14.289062 7
-0.101958 -1.465088 -14.212891 7
-0.10626 -1.5048831 -14.238281 7
-0.111394 -1.545288 -14.268555 7
-0.303601 -4.523438 -15.010742 7
-0.301245 -4.5965581 -14.97168 7
-0.31241199 -4.6948242 -15.022461 7
-0.071033001 -0.991211 -13.264648 7
-0.079088002 -1.029541 -13.314453 7
-0.091582999 -1.070312 -13.391602 7
-0.086305 -1.102661 -13.354492 7
-0.079272002 -1.134155 -13.305664 7
-0.072223999 -1.165161 -13.256836 7
-0.080264002 -1.2043459 -13.306641 7
-0.100753 -1.250244 -13.436523 7
-0.091927998 -1.2805181 -13.375 7
-0.090218998 -1.3143311 -13.360352 7
-0.089387 -1.348755 -13.351562 7
-0.087687001 -1.382568 -13.335938 7
-0.103797 -1.462646 -13.433594 7
-0.10385 -1.497925 -13.430664 7
-0.10125 -1.53125 -13.410156 7
-0.31470999 -4.5004878 -14.203125 7
-0.31299299 -4.5341802 -14.180664 7
-0.30685201 -4.559814 -14.131836 7
-0.30513701 -4.5931401 -14.110352 7
-0.30432799 -4.6281738 -14.092773 7
-0.302634 -4.6617432 -14.071289 7
-0.31251299 -4.7166748 -14.121094 7
-0.32149899 -4.7705078 -14.165039 7
-0.113862 4.748291 -12.804688 7
-0.116531 4.7199712 -12.833008 7
-0.112115 4.677002 -12.816406 7
-0.113015 4.644897 -12.833008 7
-0.122757 4.6306152 -12.904297 7
-0.146671 4.644165 -13.064453 7
-0.140485 4.5975342 -13.037109 7
-0.140508 4.5631099 -13.047852 7
-0.133444 4.5148931 -13.014648 7
-0.133467 4.4807129 -13.025391 7
-0.081257001 -1.280151 -12.601562 7
-0.085032001 -1.315308 -12.62207 7
-0.095322996 -1.354614 -12.681641 7
-0.091660999 -1.385864 -12.655273 7
-0.097305998 -1.4226069 -12.686523 7
-0.096437 -1.455444 -12.676758 7
-0.099281996 -1.4906009 -12.691406 7
-0.106804 -1.528931 -12.733398 7
-0.098489001 -1.556641 -12.677734 7
-0.107849 -1.596558 -12.731445 7
-0.30842501 -4.4857178 -13.361328 7
-0.31504601 -4.5325928 -13.388672 7
-0.30297899 -4.5452881 -13.305664 7
-0.30305499 -4.5802002 -13.295898 7
-0.30686101 -4.6220698 -13.306641 7
-0.29947001 -4.6428218 -13.251953 7
-0.30608401 -4.6899409 -13.279297 7
-0.31269699 -4.737061 -13.305664 7
-0.314643 -4.7753911 -13.305664 7
-0.121713 4.731689 -12.106445 7
-0.12265 4.701416 -12.123047 7
-0.121751 4.6673579 -12.128906 7
-0.12546501 4.6424561 -12.162109 7
-0.13290299 4.625 -12.217773 7
-0.134757 4.596313 -12.240234 7
-0.14684001 4.5875239 -12.322266 7
-0.15520801 4.5712891 -12.381836 7
-0.148717 4.5257568 -12.354492 7
-0.076085001 -1.307861 -11.868164 7
-0.080059998 -1.341675 -11.887695 7
-0.079121999 -1.372559 -11.878906 7
-0.096804 -1.414917 -11.977539 7
-0.102738 -1.450317 -12.008789 7
-0.087131999 -1.4719239 -11.914062 7
-0.091098003 -1.506104 -11.932617 7
-0.093111999 -1.539062 -11.94043 7
-0.098070003 -1.573975 -11.96582 7
-0.30432999 -4.4880371 -12.53418 7
-0.30833399 -4.5281978 -12.545898 7
-0.30153799 -4.548584 -12.496094 7
-0.29769301 -4.5743408 -12.463867 7
-0.30070701 -4.6125488 -12.46875 7
-0.29883 -4.6418462 -12.448242 7
-0.30086699 -4.6783452 -12.447266 7
-0.30877799 -4.7259521 -12.479492 7
-0.31866401 -4.77771 -12.523438 7
-0.092638999 -1.288818 -11.365234 7
-0.089625999 -1.317261 -11.344727 7
-0.079457998 -1.341187 -11.28418 7
-0.0836 -1.373901 -11.304688 7
-0.081616998 -1.402588 -11.289062 7
-0.093944997 -1.440552 -11.353516 7
-0.106272 -1.4786381 -11.418945 7
-0.097110003 -1.503052 -11.365234 7
-0.094097003 -1.531128 -11.34375 7
-0.098246999 -1.564209 -11.363281 7
-0.096263997 -1.592896 -11.34668 7
-0.30609301 -4.572144 -11.823242 7
-0.30413201 -4.599731 -11.800781 7
-0.305231 -4.632812 -11.794922 7
-0.3053 -4.664185 -11.78418 7
-0.29920501 -4.6837158 -11.741211 7
-0.30851901 -4.7322998 -11.77832 7
-0.31679499 -4.7794189 -11.810547 7
-0.087963998 -1.280884 -10.713867 7
-0.079428002 -1.304688 -10.666016 7
-0.077322997 -1.332031 -10.651367 7
-0.080603004 -1.362427 -10.665039 7
-0.080649003 -1.390991 -10.661133 7
-0.092510998 -1.427002 -10.720703 7
-0.102221 -1.4619139 -10.768555 7
-0.092602998 -1.484619 -10.714844 7
-0.091596 -1.5124511 -10.705078 7
-0.092725001 -1.5419919 -10.707031 7
-0.091695003 -1.569824 -10.697266 7
-0.30794001 -4.5029302 -11.140625 7
-0.308016 -4.5325928 -11.129883 7
-0.304851 -4.5562739 -11.102539 7
-0.3017 -4.5799561 -11.075195 7
-0.29854199 -4.6036382 -11.047852 7
-0.30184501 -4.6390381 -11.052734 7
-0.29976299 -4.6645508 -11.03125 7
-0.305217 -4.704102 -11.046875 7
-0.32251 -4.7663569 -11.121094 7
-0.32042 -4.7919922 -11.099609 7
-0.086576 -1.306641 -10.171875 7
-0.077666998 -1.328735 -10.12207 7
-0.075470001 -1.354614 -10.108398 7
-0.078878999 -1.384033 -10.12207 7
-0.074440002 -1.408447 -10.095703 7
-0.093534 -1.447876 -10.189453 7
-0.104786 -1.4825439 -10.243164 7
-0.091398001 -1.5012209 -10.170898 7
-0.092573002 -1.5294189 -10.172852 7
-0.093748003 -1.557739 -10.174805 7
-0.09268 -1.5843509 -10.165039 7
-0.306178 -4.5015869 -10.511719 7
-0.31747499 -4.5500488 -10.554688 7
-0.31080201 -4.5661621 -10.511719 7
-0.30636099 -4.5861821 -10.479492 7
-0.30418801 -4.6099849 -10.458008 7
-0.30424899 -4.6381841 -10.447266 7
-0.30658299 -4.6704102 -10.446289 7
-0.306629 -4.6984859 -10.435547 7
-0.31457701 -4.741333 -10.461914 7
-0.324761 -4.7888179 -10.498047 7
-0.41383299 -6.37146 -10.228516 7
-0.085020997 -1.301147 -9.65625 7
-0.089743003 -1.330322 -9.6757812 7
-0.076926999 -1.348877 -9.6103516 7
-0.079300001 -1.376343 -9.6181641 7
-0.081696004 -1.403809 -9.6269531 7
-0.075897999 -1.42627 -9.5947266 7
-0.091146 -1.462036 -9.6650391 7
-0.100545 -1.494385 -9.7070312 7
-0.095914997 -1.517578 -9.6806641 7
-0.092450999 -1.541504 -9.6601562 7
-0.098341003 -1.571655 -9.6845703 7
-0.092559002 -1.593872 -9.6523438 7
-0.077667996 -1.292603 -9.1523438 7
-0.078927003 -1.318359 -9.1542969 7
-0.078965001 -1.343384 -9.1513672 7
-0.076585002 -1.3668211 -9.1367188 7
-0.081490003 -1.394897 -9.15625 7
-0.083976999 -1.421265 -9.1650391 7
-0.087677002 -1.448853 -9.1777344 7
-0.091375999 -1.4761961 -9.1914062 7
-0.107274 -1.511719 -9.2607422 7
-0.091467999 -1.526489 -9.1845703 7
-0.097608998 -1.555542 -9.2080078 7
-0.096441999 -1.579834 -9.1992188 7
-0.413331 -6.3599849 -8.9501953 7
-0.41217899 -6.3814702 -8.9306641 7
-0.139461 4.7834468 -8.4023438 7
-0.118818 4.717896 -8.3251953 7
-0.111534 4.6335449 -8.3271484 7
-0.118811 4.625 -8.3701172 7
-0.118826 4.601685 -8.3798828 7
-0.076090001 -1.28125 -8.6650391 7
-0.077402003 -1.305542 -8.6679688 7
-0.081269003 -1.331787 -8.6816406 7
-0.068576001 -1.348145 -8.6220703 7
-0.068628997 -1.3718261 -8.6191406 7
-0.073755004 -1.398682 -8.6386719 7
-0.072527997 -1.421631 -8.6298828 7
-0.077661999 -1.44873 -8.6484385 7
-0.089171998 -1.47998 -8.6953115 7
-0.098136 -1.509766 -8.7304688 7
-0.084175996 -1.524292 -8.6650391 7
-0.088027999 -1.550781 -8.6787109 7
-0.085533999 -1.572876 -8.6630859 7
-0.089400999 -1.599365 -8.6767578 7
-0.31119999 -4.6063228 -8.7714844 7
-0.308705 -4.6256099 -8.75 7
-0.30621901 -4.64502 -8.7285156 7
-0.30756199 -4.6713872 -8.7216797 7
-0.30507499 -4.6905522 -8.7011719 7
-0.306402 -4.7167969 -8.6943359 7
-0.309019 -4.745605 -8.6933594 7
-0.31674701 -4.7840581 -8.7128906 7
-0.41247699 -6.3270259 -8.3193359 7
-0.40486401 -6.3310552 -8.2753906 7
-0.40237799 -6.3476558 -8.2509766 7
-0.39989901 -6.3642578 -8.2265615 7
-0.40507799 -6.3996582 -8.2294922 7
-0.087638997 -1.281128 -8.2988281 7
-0.089005001 -1.30481 -8.3007812 7
-0.090363003 -1.328613 -8.3037109 7
-0.091728002 -1.352295 -8.3056641 7
-0.083839998 -1.370483 -8.2685547 7
-0.089165002 -1.396729 -8.2890615 7
-0.089211002 -1.419556 -8.2851562 7
-0.087930001 -1.441772 -8.2763672 7
-0.097243004 -1.4705811 -8.3115234 7
-0.10391 -1.498047 -8.3359385 7
-0.111897 -1.526489 -8.3671885 7
-0.100036 -1.541382 -8.3125 7
-0.100074 -1.564575 -8.3085938 7
-0.102767 -1.589478 -8.3164062 7
-0.102805 -1.612427 -8.3125 7
-0.31191 -4.5126948 -8.3173828 7
-0.32143801 -4.6217041 -8.3105469 7
-0.318845 -4.6398931 -8.2890615 7
-0.31359601 -4.652832 -8.2578115 7
-0.314969 -4.6781011 -8.2509766 7
-0.315045 -4.7010498 -8.2402344 7
-0.315099 -4.7237549 -8.2294922 7
-0.31648701 -4.749146 -8.2236328 7
-0.32451999 -4.7871089 -8.2431641 7
-0.418993 -6.4118652 -7.7226558 7
-0.420389 -6.436523 -7.7119141 7
-0.41913801 -6.4549561 -7.6914058 7
-0.30972901 -4.495605 -7.8193359 7
-0.30426699 -4.5073242 -7.7880859 7
-0.301552 -4.5240479 -7.766602 7
-0.30989599 -4.5609131 -7.7880859 7
-0.31410801 -4.590332 -7.7919922 7
-0.314161 -4.6121831 -7.78125 7
-0.312841 -4.6312261 -7.765625 7
-0.30736399 -4.6427002 -7.734375 7
-0.30326101 -4.6564941 -7.7070308 7
-0.30332199 -4.677979 -7.695312 7
-0.30753201 -4.7076421 -7.7001948 7
-0.30758601 -4.729248 -7.688477 7
-0.31457299 -4.7637939 -7.703125 7
-0.31600001 -4.788208 -7.6972661 7
-0.30136901 -4.4962158 -7.3417969 7
-0.305733 -4.5246582 -7.3457031 7
-0.297189 -4.5296631 -7.304688 7
-0.30586201 -4.56604 -7.3242192 7
-0.30878401 -4.5921631 -7.3232422 7
-0.31313199 -4.620605 -7.328125 7
-0.310325 -4.6359859 -7.3066411 7
-0.30607599 -4.64856 -7.280273 7
-0.30612901 -4.6689448 -7.2685552 7
-0.307625 -4.6923828 -7.2626948 7
-0.306236 -4.7102051 -7.2470698 7
-0.310592 -4.73877 -7.250977 7
-0.312087 -4.762085 -7.2441411 7
-0.313582 -4.7852778 -7.2392578 7
-0.31070599 -4.5133061 -6.9335942 7
-0.31524599 -4.5412598 -6.9394531 7
-0.30933401 -4.5501709 -6.907227 7
-0.309387 -4.5697021 -6.8964839 7
-0.309441 -4.589355 -6.8847661 7
-0.32140899 -4.630981 -6.9150391 7
-0.30657199 -4.6231689 -6.8535161 7
-0.30662501 -4.6425781 -6.842773 7
-0.30966899 -4.667603 -6.8417969 7
-0.31270599 -4.692627 -6.8398442 7
-0.303819 -4.695435 -6.7998052 7
-0.30536699 -4.7176509 -6.7929692 7
-0.30542099 -4.7371831 -6.782227 7
-0.31142399 -4.7678218 -6.7900391 7
-0.30380401 -4.7310791 -6.3837891 7
-0.30385 -4.7495122 -6.3730469 7
-0.29927301 -4.7590332 -6.3466802 7
-0.30086699 -4.780273 -6.3398442 7
-0.29264399 -4.4888921 -6.0644531 7
-0.29587799 -4.5125728 -6.0644531 7
-0.29592401 -4.5300288 -6.0537109 7
-0.300791 -4.556519 -6.0566411 7
-0.30083701 -4.5740972 -6.045898 7
-0.304102 -4.5976558 -6.0439448 7
-0.31054801 -4.6273189 -6.0537109 7
-0.30739701 -4.6387939 -6.032227 7
-0.30744299 -4.6566162 -6.0214839 7
-0.30109599 -4.6619868 -5.9912109 7
-0.29635099 -4.6704102 -5.9658198 7
-0.30119601 -4.697021 -5.96875 7
-0.29804501 -4.708374 -5.9482422 7
-0.304499 -4.7380371 -5.9570308 7
-0.30296499 -4.7523189 -5.9394531 7
-0.29980001 -4.7635498 -5.9189448 7
-0.299869 -4.7810059 -5.907227 7
-0.299914 -4.7983398 -5.8964839 7
-0.30174601 -4.7320561 -4.7880859 7
-0.30178499 -4.7468262 -4.7773442 7
-0.30362299 -4.764771 -4.7705078 7
-0.30366099 -4.7794189 -4.7587891 7
-0.31013 -4.9717112 5.8200822 7
-0.3035 -4.850513 6.0095048 7
-0.29122999 -4.812592 5.1089139 7
0.001411 -1.410392 -12.301387 7
-0.213485 -4.6134849 -14.213191 7
-0.100702 -1.3378299 -9.617815 7
-0.082799003 -1.295635 -7.9915409 7
-0.019809 -1.585415 -5.3036718 7
-0.31995201 -4.943584 6.266108 7
-0.32379401 -5.114789 5.644083 7
-0.30693299 -4.962811 5.7837009 7
-0.29615101 -4.8250079 5.9279399 7
-0.27998599 -4.821054 5.4721289 7
-0.270271 -4.8784919 4.8932552 7
-0.27287 -4.8156681 5.0590181 7
-0.316241 -4.9452028 4.18575 7
-0.29640701 -4.8426471 4.3333039 7
-0.022593001 4.4939442 -8.5693827 7
0.025630999 1.3267601 -5.8475041 7
0.038527999 1.292468 -4.9011712 7
-0.014229 -0.651528 -14.962304 7
-0.041322 -1.301728 -15.732682 7
-0.16054501 -1.472639 -12.329771 7
-0.113229 -1.510371 -9.7987432 7
-0.32665199 -4.5687861 -12.506723 7
-0.088417001 -1.5477051 -8.2434769 7
-0.30062699 -4.6200199 -10.327602 7
-0.068503998 -1.564955 -7.1106138 7
-0.277942 -4.610919 -8.6662664 7
0.0024069999 1.243499 -6.3273449 7
-0.084564999 -1.295988 -6.0848312 7
-0.106432 -1.5649461 -6.231442 7
-0.32077399 -4.7299671 -7.0448408 7
-0.043430999 1.5323009 -5.6221709 7
-0.03689 1.323427 -5.6146951 7
-0.30774701 -4.6914868 -6.0847979 7
-0.028039001 1.520157 -5.0458179 7
-0.018030999 1.3250721 -5.0172629 7
-0.062481001 -1.372341 -5.0205979 7
-0.070088997 -1.55916 -5.0236669 7
-0.24885 -4.7974172 -3.8120551 7
-0.084693 -1.682425 -4.167532 7
-0.108784 -1.891812 -4.2315421 7
