# .PCD v0.7 - Point Cloud Data file format
VERSION 0.7
FIELDS x y z intensity
SIZE 4 4 4 4
TYPE F F F F
COUNT 1 1 1 1
WIDTH 600
HEIGHT 1
VIEWPOINT 0 0 0 1 0 0 0
POINTS 600
DATA ascii
-0.60079002 -5.4511719 74.328125 7
-0.23518801 4.275269 -71.710938 7
-0.51644802 -5.391602 65.376953 7
-0.577048 -5.3580322 66.830078 7
-0.624345 -5.2923579 67.967773 7
-0.70830399 -5.2885742 69.974609 7
-0.41541201 0.22399899 63.387695 7
-0.085767001 4.1627202 -59.801758 7
-0.15605099 4.141479 -61.703125 7
-0.26223099 4.1724849 -64.575195 7
-0.67371702 -5.375977 63.436523 7
-0.38658401 0.34082001 57.610352 7
-0.40191001 0.47692901 57.949219 7
-0.44839901 3.3540039 58.964844 7
-0.403016 3.4304199 57.96875 7
-0.363554 3.5106201 57.103516 7
-0.087856002 4.4359131 -54.076172 7
-0.149574 4.420898 -55.589844 7
-0.079115003 4.1558838 -53.875 7
-0.122244 4.1011958 -54.933594 7
-0.16823301 4.0465088 -56.064453 7
-0.35602701 3.5679929 52.245117 7
-0.33076099 3.651978 51.734375 7
-0.054903001 4.3123779 -48.142578 7
-0.113708 4.30481 -49.453125 7
-0.034940999 4.0404048 -47.713867 7
-0.081655003 4.0062261 -48.754883 7
-0.123114 3.9580081 -49.679688 7
-0.191414 3.950073 -51.200195 7
-0.37653399 0.40222201 49.0625 7
-0.31695601 0.50329602 47.956055 7
-0.35953701 0.62402302 48.749023 7
-0.35894299 3.65625 48.688477 7
-0.32896301 3.7241211 48.125977 7
-0.083048001 4.2513428 -44.838867 7
-0.121966 4.2125239 -45.640625 7
-0.163745 4.1748052 -46.500977 7
-0.092866004 3.938477 -45.05957 7
-0.134362 3.8974609 -45.914062 7
-0.177873 3.855957 -46.80957 7
-0.34161299 -2.4993899 44.46582 7
-0.355847 -2.4108889 44.71582 7
-0.37797001 -2.328491 45.100586 7
-0.27052501 0.454712 43.413086 7
-0.25657901 0.650024 43.176758 7
-0.36652899 3.578613 44.994141 7
-0.329523 3.628906 44.357422 7
-0.307529 3.6981201 43.975586 7
-0.27735201 3.753418 43.453125 7
0.46842599 22.545044 21.71582 7
-0.121574 4.4527588 -41.442383 7
-0.13982099 4.3852539 -41.789062 7
-0.161195 4.3218989 -42.195312 7
-0.202912 4.2930908 -42.980469 7
-0.208977 4.1982422 -43.100586 7
-0.030948 0.258057 -39.875 7
-0.052696001 0.16149899 -40.279297 7
-0.028705999 0.061889999 -39.830078 7
-0.041526001 -0.047240999 -36.852539 7
-0.061046001 -0.139038 -37.185547 7
-0.038734 -0.228149 -36.797852 7
-0.30567199 -2.474854 40.819336 7
-0.32839599 -2.4034419 41.185547 7
-0.332683 -2.3131101 41.261719 7
-0.33618501 3.6638179 41.379883 7
-0.30519101 3.7125239 40.881836 7
-0.28668499 3.7780759 40.582031 7
0.40084401 20.919312 21.738281 7
0.404612 20.925415 21.648438 7
0.40266699 20.998657 21.623047 7
0.40178201 21.059082 21.584961 7
0.40339199 21.089844 21.519531 7
-0.13132 4.5031738 -38.256836 7
-0.15581401 4.4555659 -38.685547 7
-0.18065099 4.4064941 -39.120117 7
-0.217669 4.377563 -39.764648 7
-0.250653 4.3383789 -40.338867 7
-0.042323999 0.87597698 -36.887695 7
-0.064501002 0.043823 -37.25 7
-0.073774002 -0.19946299 -34.171875 7
-0.27977699 -2.4300539 37.382812 7
-0.281652 -2.3466799 37.417969 7
-0.29512399 -2.2736821 37.62207 7
-0.22903299 0.63232398 36.783203 7
-0.25122401 0.72265601 37.107422 7
-0.22511201 0.80151403 36.738281 7
-0.33210799 3.724365 38.195312 7
-0.30730799 3.7740481 37.827148 7
-0.26008001 3.872437 37.124023 7
-0.071741 4.6075439 -33.946289 7
-0.091407001 4.5627441 -34.262695 7
-0.113666 4.521606 -34.621094 7
-0.141073 4.4890141 -35.0625 7
-0.178481 4.4728999 -35.658203 7
-0.21513399 4.4528809 -36.244141 7
-0.239254 4.407104 -36.631836 7
-0.015515 1.2052 -33.263672 7
-0.043738998 1.137207 -33.709961 7
-0.021655999 1.043335 -33.362305 7
-0.045821998 0.971313 -33.744141 7
-0.093299001 0.90673798 -34.495117 7
-0.088508002 -0.357788 -32.046875 7
-0.061641999 -0.43200701 -31.649414 7
-0.041526999 -0.50573701 -31.350586 7
-0.07062 -0.59106398 -31.775391 7
-0.044943999 -0.66210902 -31.394531 7
-0.27838501 -2.3594971 35.152344 7
-0.28198501 -2.2030029 35.21582 7
-0.298897 -2.137573 35.454102 7
-0.247849 0.52160603 34.881836 7
-0.222249 0.59472698 34.530273 7
-0.25227401 0.68164098 34.943359 7
-0.31580999 3.717041 35.69043 7
-0.30635899 3.7841799 35.554688 7
-0.097801998 4.594604 -31.961914 7
-0.130687 4.5803218 -32.453125 7
-0.160025 4.5567632 -32.892578 7
-0.187783 4.5281978 -33.308594 7
-0.038539998 1.293335 -31.31543 7
-0.032986999 1.116089 -31.242188 7
-0.064567 1.05896 -31.711914 7
-0.041820001 -0.673096 -28.885742 7
-0.076191999 -0.75634801 -29.350586 7
-0.063033998 -0.82458502 -29.167969 7
-0.039585002 -0.88781703 -28.844727 7
-0.27496499 -3.9172361 -31.806641 7
-0.259213 -3.9702151 -31.582031 7
-0.238327 -4.0135498 -31.289062 7
-0.229876 -4.076416 -31.163086 7
-0.091968998 4.7489009 -29.313477 7
-0.093762003 4.6794429 -29.347656 7
-0.117745 4.6549072 -29.680664 7
-0.132772 4.6109619 -29.893555 7
-0.154192 4.5782471 -30.195312 7
-0.185018 4.5625 -30.621094 7
-0.031335 1.264282 -28.762695 7
-0.063662 -0.64599597 -27.189453 7
-0.084884003 -0.72045898 -27.456055 7
-0.066644996 -0.78259301 -27.220703 7
-0.05116 -0.84435999 -27.020508 7
-0.084296003 -0.92541498 -27.438477 7
-0.27375501 -3.8751221 -29.555664 7
-0.28169599 -3.96106 -29.645508 7
-0.27171901 -4.0180659 -29.508789 7
-0.25393 -4.061523 -29.273438 7
-0.244403 -4.1179199 -29.142578 7
-0.122638 4.770874 -27.606445 7
-0.12453 4.705688 -27.640625 7
-0.13740499 4.6625981 -27.8125 7
-0.15211301 4.6221919 -28.007812 7
-0.178262 4.6030269 -28.348633 7
-0.191131 4.5568848 -28.520508 7
-0.051261 1.596436 -26.992188 7
-0.047637999 1.514038 -26.970703 7
-0.029391 1.434814 -26.741211 7
-0.040490001 1.375 -26.883789 7
-0.063961998 1.321655 -27.18457 7
-0.083742 -0.920044 -25.345703 7
-0.069013 -0.976807 -25.169922 7
-0.055771001 -1.033569 -25.008789 7
-0.088007003 -1.111938 -25.385742 7
-0.072292998 -1.167236 -25.196289 7
-0.064474002 -1.225952 -25.100586 7
-0.26822099 -4.0640869 -27.208008 7
-0.269335 -4.133667 -27.210938 7
-0.24187399 -4.2209468 -26.868164 7
-0.231599 -4.2695308 -26.736328 7
-0.117431 4.8000488 -25.40332 7
-0.12981001 4.7618408 -25.556641 7
-0.165876 4.705688 -25.999023 7
-0.159119 4.5620122 -25.94043 7
-0.036876999 1.6594239 -24.777344 7
-0.033589002 1.532593 -24.744141 7
-0.044016998 1.477417 -24.870117 7
-0.048633002 1.355225 -24.928711 7
-0.040334001 1.28772 -24.833008 7
-0.073004998 -0.972534 -23.452148 7
-0.096910998 -1.042236 -23.710938 7
-0.080595002 -1.093994 -23.52832 7
-0.071175002 -1.148193 -23.419922 7
-0.103548 -1.224365 -23.772461 7
-0.087773003 -1.277222 -23.613281 7
-0.274753 -4.1846919 -25.324219 7
-0.270634 -4.2407231 -25.267578 7
-0.25699499 -4.2797852 -25.108398 7
-0.25551501 -4.3397222 -25.081055 7
-0.249291 -4.3911128 -25.000977 7
-0.122597 4.848999 -23.611328 7
-0.13639601 4.7581792 -23.783203 7
-0.14648101 4.7186279 -23.90332 7
-0.164979 4.695435 -24.115234 7
-0.177688 4.659668 -24.263672 7
-0.15034901 4.5454102 -23.976562 7
-0.148296 4.4810791 -23.963867 7
-0.073059 1.6337889 -23.432617 7
-0.070054002 1.5137939 -23.404297 7
-0.075012997 -0.96533197 -21.861328 7
-0.080765001 -1.022949 -21.917969 7
-0.092146002 -1.08374 -22.032227 7
-0.078111 -1.132202 -21.883789 7
-0.074243002 -1.185181 -21.839844 7
-0.096945003 -1.252686 -22.070312 7
-0.096478999 -1.308105 -22.061523 7
-0.093176998 -1.361572 -22.024414 7
-0.095532998 -1.418457 -22.042969 7
-0.27020201 -4.2015381 -23.498047 7
-0.280507 -4.2781978 -23.591797 7
-0.274389 -4.3265381 -23.518555 7
-0.26262799 -4.3642578 -23.387695 7
-0.258203 -4.414917 -23.332031 7
-0.177506 4.7564702 -22.521484 7
-0.178124 4.7006841 -22.539062 7
-0.091980003 -1.281006 -20.618164 7
-0.111394 -1.397095 -20.798828 7
-0.10668 -1.446655 -20.749023 7
-0.29578099 -4.3812261 -22.173828 7
-0.28806099 -4.4232178 -22.088867 7
-0.277459 -4.5145259 -21.963867 7
-0.28419501 -4.5821528 -22.016602 7
-0.066481002 1.587402 -20.34668 7
-0.055762999 1.528442 -20.244141 7
-0.051605999 1.474121 -20.208008 7
-0.070265003 1.434448 -20.392578 7
-0.060150001 1.376465 -20.295898 7
-0.047022 1.317261 -20.170898 7
-0.089304 -1.052246 -19.241211 7
-0.095795996 -1.104248 -19.296875 7
-0.108039 -1.159546 -19.40332 7
-0.092088997 -1.200317 -19.255859 7
-0.087062001 -1.246582 -19.207031 7
-0.119802 -1.313965 -19.5 7
-0.110915 -1.3581541 -19.414062 7
-0.111716 -1.457275 -19.414062 7
-0.27915299 -4.188354 -20.557617 7
-0.30243501 -4.3326421 -20.743164 7
-0.30575299 -4.3907471 -20.760742 7
-0.29058099 -4.4681401 -20.603516 7
-0.132688 4.8509521 -19.133789 7
-0.135921 4.8087158 -19.173828 7
-0.18326201 4.706665 -19.639648 7
-0.16928799 4.6291499 -19.525391 7
-0.049885001 1.237671 -18.867188 7
-0.039731 1.184082 -18.777344 7
-0.049380999 1.141113 -18.866211 7
-0.059014998 1.0975339 -18.957031 7
-0.047587998 1.043823 -18.854492 7
-0.034873001 0.98986799 -18.741211 7
-0.29239699 -4.2227778 -19.394531 7
-0.30705199 -4.44519 -19.473633 7
-0.089314997 -1.153931 -16.960938 7
-0.104465 -1.205444 -17.080078 7
-0.090902001 -1.241943 -16.967773 7
-0.090254001 -1.284912 -16.958008 7
-0.086370997 -1.327881 -16.931641 7
-0.31369001 -4.3883061 -18.291016 7
-0.31594801 -4.4389648 -18.297852 7
-0.048432 0.372192 -16.642578 7
-0.041384 0.28564501 -16.586914 7
-0.034283001 0.241943 -16.529297 7
-0.029324999 0.198853 -16.489258 7
-0.028675999 0.156372 -16.483398 7
-0.032313999 0.113892 -16.512695 7
-0.033085 0.071410999 -16.518555 7
-0.028134 0.028687 -16.477539 7
-0.051242001 -0.14086901 -15.703125 7
-0.052058 -0.18139599 -15.708984 7
-0.050616998 -0.22168 -15.696289 7
-0.038656 -0.341553 -15.601562 7
-0.044034 -0.38281199 -15.641602 7
-0.045612998 -0.42333999 -15.651367 7
-0.044148002 -0.46350101 -15.639648 7
-0.044232 -0.50402802 -15.637695 7
-0.042776 -0.54394501 -15.625977 7
-0.0436 -0.58459502 -15.629883 7
-0.100484 -1.220825 -16.032227 7
-0.09381 -1.299561 -15.973633 7
-0.096151002 -1.342041 -15.988281 7
-0.13165499 4.7713618 -15.671875 7
-0.13623901 4.6993408 -15.728516 7
-0.149138 4.6845698 -15.834961 7
-0.16655301 4.6782231 -15.975586 7
-0.167355 4.6383061 -15.992188 7
-0.14321201 4.5085449 -15.833008 7
-0.061740998 -0.67175299 -14.814453 7
-0.057797 -0.70886201 -14.78418 7
-0.054653998 -0.746216 -14.758789 7
-0.058727998 -0.78588903 -14.786133 7
-0.063602 -0.82617199 -14.819336 7
-0.066073999 -0.86535603 -14.833984 7
-0.064540997 -0.903198 -14.820312 7
-0.060582001 -0.940063 -14.789062 7
-0.086854003 -1.3000489 -14.950195 7
-0.088517003 -1.339478 -14.958984 7
-0.109457 -1.391113 -15.105469 7
-0.105513 -1.4276119 -15.073242 7
-0.104781 -1.466187 -15.064453 7
-0.103232 -1.50415 -15.049805 7
-0.110388 -1.549438 -15.103516 7
-0.117665 -1.593384 -15.151367 7
-0.31579101 -4.5004878 -16.047852 7
-0.30944401 -4.5301509 -15.992188 7
-0.30632401 -4.5654302 -15.958008 7
-0.303197 -4.6005859 -15.923828 7
-0.31212199 -4.6583252 -15.976562 7
-0.32107699 -4.7159419 -16.025391 7
-0.32519001 -4.7650151 -16.041992 7
-0.074153997 -0.97241199 -14.068359 7
-0.069150001 -1.0068361 -14.03125 7
-0.071742997 -1.044556 -14.045898 7
-0.085306004 -1.087646 -14.135742 7
-0.087068997 -1.125366 -14.145508 7
-0.082056999 -1.159546 -14.107422 7
-0.0779 -1.194092 -14.076172 7
-0.088091001 -1.2362061 -14.142578 7
-0.092371002 -1.2755131 -14.167969 7
-0.31547901 -4.507935 -15.101562 7
-0.31132999 -4.5393071 -15.0625 7
-0.30972001 -4.5753169 -15.041016 7
-0.31065801 -4.6158452 -15.036133 7
-0.31497699 -4.6624761 -15.053711 7
-0.32014099 -4.71106 -15.076172 7
-0.32699901 -4.763062 -15.108398 7
-0.077312 -0.993164 -13.300781 7
-0.081813999 -1.029907 -13.327148 7
-0.095186003 -1.0712889 -13.412109 7
-0.092577003 -1.105103 -13.391602 7
-0.084643997 -1.136108 -13.336914 7
-0.080273002 -1.1687011 -13.305664 7
-0.079442002 -1.203125 -13.296875 7
-0.098139003 -1.248047 -13.416016 7
-0.091990001 -1.279785 -13.371094 7
-0.094728 -1.3162839 -13.385742 7
-0.092119999 -1.349731 -13.365234 7
-0.090396002 -1.383667 -13.350586 7
-0.104844 -1.5330811 -13.429688 7
-0.32457399 -4.4829102 -14.27832 7
-0.321987 -4.5152588 -14.250977 7
-0.31583899 -4.540894 -14.200195 7
-0.312361 -4.5712891 -14.166992 7
-0.308898 -4.601562 -14.133789 7
-0.30986699 -4.6402588 -14.12793 7
-0.315283 -4.6870122 -14.150391 7
-0.32427701 -4.7406011 -14.195312 7
-0.32969299 -4.7878418 -14.217773 7
-0.127418 4.7772222 -12.891602 7
-0.119476 4.7268071 -12.852539 7
-0.122154 4.6982422 -12.880859 7
-0.121284 4.6625981 -12.885742 7
-0.119545 4.625 -12.885742 7
-0.125754 4.603271 -12.935547 7
-0.145245 4.6077881 -13.067383 7
-0.14085101 4.5644531 -13.051758 7
-0.139989 4.5284419 -13.055664 7
-0.144436 4.502563 -13.094727 7
-0.088917002 -1.285156 -12.651367 7
-0.100161 -1.324707 -12.71582 7
-0.097415 -1.356812 -12.696289 7
-0.103067 -1.393433 -12.727539 7
-0.091015004 -1.419434 -12.649414 7
-0.101321 -1.459229 -12.708984 7
-0.100451 -1.492065 -12.700195 7
-0.101443 -1.526123 -12.702148 7
-0.109887 -1.565308 -12.75 7
-0.311133 -4.4926758 -13.378906 7
-0.312148 -4.529541 -13.374023 7
-0.309425 -4.5594478 -13.34668 7
-0.30204901 -4.5805659 -13.291992 7
-0.30959299 -4.629272 -13.325195 7
-0.303132 -4.651978 -13.275391 7
-0.31161499 -4.7026372 -13.314453 7
-0.32195899 -4.756958 -13.363281 7
-0.31738201 -4.7830811 -13.324219 7
-0.133056 4.755981 -12.176758 7
-0.124733 4.7067871 -12.138672 7
-0.124756 4.6743159 -12.149414 7
-0.12939499 4.6514888 -12.1875 7
-0.13221601 4.6245122 -12.21582 7
-0.137793 4.603271 -12.259766 7
-0.145246 4.5854492 -12.314453 7
-0.158252 4.5782471 -12.401367 7
-0.162912 4.5541992 -12.439453 7
-0.150875 4.4981689 -12.378906 7
-0.084165998 -1.281616 -11.919922 7
-0.082272999 -1.312134 -11.905273 7
-0.084288001 -1.344727 -11.914062 7
-0.086301997 -1.377563 -11.921875 7
-0.104945 -1.4206541 -12.027344 7
-0.101086 -1.4499511 -12.000977 7
-0.096248999 -1.4786381 -11.96875 7
-0.097286001 -1.510986 -11.970703 7
-0.098324001 -1.543335 -11.972656 7
-0.113054 -1.5849611 -12.055664 7
-0.312576 -4.504272 -12.581055 7
-0.306779 -4.5266109 -12.536133 7
-0.308808 -4.563354 -12.537109 7
-0.30398801 -4.5872798 -12.499023 7
-0.30601701 -4.6237788 -12.499023 7
-0.30512401 -4.6549072 -12.482422 7
-0.31501001 -4.7062988 -12.525391 7
-0.324889 -4.757935 -12.569336 7
-0.323989 -4.789185 -12.552734 7
-0.100208 -1.2937011 -11.408203 7
-0.085937001 -1.3156739 -11.324219 7
-0.084974997 -1.345337 -11.316406 7
-0.088095002 -1.377197 -11.330078 7
-0.085089996 -1.4055181 -11.30957 7
-0.10252 -1.446655 -11.40332 7
-0.105648 -1.478882 -11.416016 7
-0.097524002 -1.503906 -11.367188 7
-0.102688 -1.537598 -11.392578 7
-0.103764 -1.568604 -11.394531 7
-0.099735998 -1.595947 -11.367188 7
-0.31419501 -4.4949951 -11.901367 7
-0.317352 -4.5319819 -11.90625 7
-0.314347 -4.5579829 -11.878906 7
-0.310312 -4.5817871 -11.84668 7
-0.30936599 -4.6113281 -11.830078 7
-0.30945 -4.6427002 -11.819336 7
-0.306445 -4.6682129 -11.791016 7
-0.30651399 -4.6994629 -11.780273 7
-0.31994 -4.755981 -11.839844 7
-0.091711998 -1.312378 -10.731445 7
-0.082107998 -1.335327 -10.676758 7
-0.080017999 -1.362671 -10.662109 7
-0.082213998 -1.392578 -10.669922 7
-0.083343998 -1.421875 -10.673828 7
-0.10056 -1.461426 -10.760742 7
-0.104909 -1.493042 -10.780273 7
-0.093162 -1.514038 -10.713867 7
-0.099646002 -1.547241 -10.745117 7
-0.095412001 -1.572998 -10.717773 7
-0.31283799 -4.512939 -11.164062 7
-0.31505001 -4.5466309 -11.165039 7
-0.312967 -4.5723882 -11.142578 7
-0.30874899 -4.5941162 -11.110352 7
-0.31203699 -4.6298828 -11.115234 7
-0.30674401 -4.6494141 -11.077148 7
-0.307879 -4.6810298 -11.072266 7
-0.31440899 -4.7227778 -11.092773 7
-0.32417399 -4.770874 -11.130859 7
-0.094993003 -1.312012 -10.214844 7
-0.080528997 -1.358276 -10.133789 7
-0.081712 -1.386353 -10.135742 7
-0.079515003 -1.412231 -10.121094 7
-0.10539 -1.483521 -10.246094 7
-0.094283 -1.531006 -10.181641 7
-0.096625 -1.587646 -10.185547 7
-0.31208301 -4.4858398 -10.550781 7
-0.31672099 -4.5506592 -10.550781 7
-0.31461599 -4.6031489 -10.518555 7
-0.31475401 -4.6594238 -10.496094 7
-0.31938401 -4.7243652 -10.496094 7
-0.092681997 -1.3062741 -9.6933594 7
-0.095054999 -1.33374 -9.7021484 7
-0.081087001 -1.351807 -9.6298828 7
-0.0823 -1.37854 -9.6318359 7
-0.087021999 -1.407715 -9.6513672 7
-0.081216998 -1.430176 -9.6201172 7
-0.105818 -1.472046 -9.7373047 7
-0.108213 -1.5 -9.7441406 7
-0.098907001 -1.52002 -9.6953115 7
-0.098967999 -1.546387 -9.6914062 7
-0.104865 -1.57666 -9.7158203 7
-0.100234 -1.599854 -9.6904297 7
-0.083300002 -1.2961431 -9.1777344 7
-0.083345003 -1.321167 -9.1738281 7
-0.084604003 -1.3469239 -9.1757812 7
-0.087090999 -1.373535 -9.1845703 7
-0.090797998 -1.401001 -9.1982422 7
-0.087174997 -1.4237061 -9.1787109 7
-0.086000003 -1.447998 -9.1689453 7
-0.098236002 -1.480957 -9.2226562 7
-0.095840998 -1.504517 -9.2080078 7
-0.100769 -1.532959 -9.2275391 7
-0.097159997 -1.555542 -9.2060547 7
-0.108176 -1.588501 -9.2529297 7
-0.123487 4.775269 -8.3271484 7
-0.123503 4.7520752 -8.3388672 7
-0.12229 4.7263179 -8.3447266 7
-0.110138 4.6783452 -8.3037109 7
-0.110146 4.655273 -8.3144531 7
-0.110161 4.6320801 -8.3251953 7
-0.112595 4.61377 -8.3466797 7
-0.124754 4.6147461 -8.4101562 7
-0.078181997 -1.282715 -8.6728516 7
-0.080783002 -1.308105 -8.6816406 7
-0.087182999 -1.335693 -8.7070312 7
-0.073232003 -1.351318 -8.6416016 7
-0.074565999 -1.3757319 -8.6435547 7
-0.075878002 -1.400391 -8.6455078 7
-0.079746 -1.4267581 -8.6582031 7
-0.089968003 -1.4569089 -8.7011719 7
-0.096375003 -1.4851069 -8.7255859 7
-0.100243 -1.511475 -8.7392578 7
-0.088831 -1.527954 -8.6845703 7
-0.090158001 -1.5526119 -8.6865234 7
-0.090204 -1.576538 -8.6826172 7
-0.31442699 -4.6138921 -8.7832031 7
-0.31321499 -4.635498 -8.7675781 7
-0.31454301 -4.6621089 -8.7617188 7
-0.31588501 -4.688477 -8.7548828 7
-0.31211701 -4.7053218 -8.7285156 7
-0.32373399 -4.775269 -8.7529297 7
-0.32380301 -4.7993159 -8.7412109 7
-0.090043999 -1.374634 -8.2939453 7
-0.094109997 -1.4230959 -8.3046885 7
-0.095484003 -1.447021 -8.3066406 7
-0.32101899 -4.6679692 -8.2851562 7
-0.323735 -4.6959229 -8.2841797 7
-0.323865 -4.7418208 -8.2617188 7
-0.321271 -4.759644 -8.2402344 7
-0.31743401 -4.4891362 -7.858398 7
-0.31748801 -4.5109859 -7.8486328 7
-0.30924901 -4.5178218 -7.8066411 7
-0.30930999 -4.5396729 -7.795898 7
-0.313521 -4.5689702 -7.8007808 7
-0.32048601 -4.6035161 -7.8154302 7
-0.32193601 -4.6279302 -7.8085942 7
-0.31370401 -4.6342769 -7.7675781 7
-0.31513101 -4.6586909 -7.7617192 7
-0.31519201 -4.6804199 -7.750977 7
-0.30973801 -4.6915278 -7.717773 7
-0.313941 -4.7210689 -7.7216802 7
-0.31261399 -4.7399902 -7.7060552 7
-0.31960899 -4.7747798 -7.719727 7
-0.30667099 -4.5068359 -7.359375 7
-0.30959299 -4.5328369 -7.358398 7
-0.30821201 -4.5509028 -7.342773 7
-0.30827299 -4.5716548 -7.3320308 7
-0.315505 -4.6055908 -7.3466802 7
-0.315566 -4.6263428 -7.3349609 7
-0.31848001 -4.6524658 -7.3349609 7
-0.311371 -4.6595459 -7.297852 7
-0.308557 -4.6749272 -7.2773442 7
-0.31149301 -4.7008061 -7.2763672 7
-0.31442299 -4.7268071 -7.2753911 7
-0.31304899 -4.7445068 -7.2587891 7
-0.315979 -4.7706299 -7.2568359 7
-0.31459799 -4.7883301 -7.2412109 7
-0.30572599 -4.4858398 -6.9287109 7
-0.29983699 -4.494751 -6.8964839 7
-0.317779 -4.546875 -6.945312 7
-0.31038001 -4.5531011 -6.9091802 7
-0.311928 -4.5753169 -6.9042969 7
-0.32240999 -4.6142578 -6.9267578 7
-0.32097501 -4.6313481 -6.9111328 7
-0.312089 -4.6343989 -6.8710942 7
-0.310662 -4.6512451 -6.8554692 7
-0.309228 -4.6680908 -6.8388672 7
-0.084867001 4.2057672 5.9605579 7
-0.074173003 4.233129 5.763413 7
-0.064446002 4.2568049 5.5692339 7
-0.159455 -4.6122909 -13.32585 7
-0.063069001 -1.583537 -9.0912495 7
-0.30826601 -4.660306 -10.724492 7
0.004253 -1.438472 -5.983829 7
0.0048449999 -1.3985161 -5.1364779 7
-0.046270002 -1.353687 -4.210371 7
-0.30590099 -4.6614652 -0.31278399 7
-0.284237 -4.6074901 0.75723702 7
-0.28712401 -4.707469 0.91100597 7
-0.293378 -5.1141801 4.4574151 7
-0.278557 -4.886858 4.9452028 7
-0.31668299 -4.6743569 1.3399431 7
-0.310222 -4.7245741 1.507795 7
-0.294819 -4.870337 4.210783 7
-0.30364299 -4.8526268 4.379931 7
-0.29469299 -4.5506148 1.5887541 7
-0.270827 -4.7479458 2.583729 7
-0.26837501 -4.7603331 2.7428939 7
-0.25537899 -4.576611 2.6137531 7
-0.25655901 -4.59899 2.7642131 7
-0.117829 4.6770301 -15.542705 7
-0.108629 4.6644421 -12.054035 7
-0.13434599 4.2589269 5.9248271 7
-0.120461 4.313983 5.7444892 7
-0.128923 4.4294028 5.612772 7
-0.127652 4.200696 5.659699 7
-0.115721 4.252377 5.4908409 7
-0.0092369998 -0.78816801 -14.816447 7
-0.074832998 0.244348 -16.707739 7
-0.124366 -1.49843 -11.673222 7
-0.18593401 4.5811992 -12.205098 7
-0.096882999 -1.556496 -9.5431442 7
-0.39039701 -4.6678901 -13.49361 7
-0.083779998 -1.3106461 -8.2166386 7
-0.344145 -4.667172 -10.925882 7
-0.059083998 -1.350067 -7.040144 7
-0.072382003 -1.640231 -7.1409869 7
-0.31359199 -4.6546121 -9.1067085 7
-0.093286999 -1.369772 -6.1517239 7
-0.33585 -4.682436 -7.2428761 7
-0.042114001 1.241221 -5.683989 7
-0.075549997 -1.393986 -5.512939 7
-0.29240799 -4.7104168 -5.9012809 7
-0.024378 1.25885 -5.0914769 7
-0.061737001 -1.411628 -5.0027089 7
-0.079728 -1.629558 -5.079071 7
-0.052623 -1.429564 -4.5966859 7
-0.073785 -1.421724 -4.2078071 7
