# .PCD v0.7 - Point Cloud Data file format
VERSION 0.7
FIELDS x y z intensity
SIZE 4 4 4 4
TYPE F F F F
COUNT 1 1 1 1
WIDTH 631
HEIGHT 1
VIEWPOINT 0 0 0 1 0 0 0
POINTS 631
DATA ascii
-0.54541302 -5.3548579 72.986328 7
-0.61351198 -5.3149409 74.791016 7
-0.19134399 4.3614502 -70.601562 7
-0.237378 4.271606 -72.001953 7
-0.527439 -5.4243159 65.72168 7
-0.57985401 -5.374146 66.981445 7
-0.62881303 -5.311646 68.161133 7
-0.72050601 -5.3218989 70.354492 7
-0.44233799 0.074584998 64.107422 7
-0.39530799 0.219238 62.990234 7
-0.41546199 3.3175049 63.487305 7
-0.172857 4.467896 -62.31543 7
-0.121042 4.221313 -60.919922 7
-0.170609 4.1607671 -62.266602 7
-0.27951801 4.1947021 -65.219727 7
-0.65321499 -5.3478999 63.069336 7
-0.67473501 -5.2414551 63.554688 7
-0.42819399 3.4615481 58.553711 7
-0.39378199 3.5500491 57.798828 7
-0.352718 3.6252439 56.896484 7
-0.095321998 4.3126221 -54.399414 7
-0.15498 4.2893071 -55.868164 7
-0.079189003 4.0185552 -54.015625 7
-0.135277 3.9832759 -55.396484 7
-0.194233 3.9459231 -56.847656 7
-0.35957101 0.30273399 52.369141 7
-0.33457199 0.41955599 51.873047 7
-0.332039 0.53857398 51.824219 7
-0.39868101 3.5028081 53.130859 7
-0.34308401 3.547729 52.013672 7
-0.28517801 3.5839839 50.849609 7
-0.069052003 4.220459 -48.5625 7
-0.041873999 4.052124 -47.966797 7
-0.129053 3.9669189 -49.915039 7
-0.207056 3.8483889 -51.661133 7
-0.359824 0.39624 48.769531 7
-0.28580701 0.493774 47.395508 7
-0.32113299 0.61145002 48.053711 7
-0.392214 3.588623 49.339844 7
-0.34874699 3.640259 48.527344 7
-0.317211 3.705322 47.935547 7
-0.094664 4.268311 -45.167969 7
-0.131515 4.224731 -45.929688 7
-0.173758 4.1870122 -46.801758 7
-0.095022999 3.936646 -45.196289 7
-0.137861 3.8977051 -46.081055 7
-0.185239 3.862061 -47.056641 7
-0.01535 -0.047485001 -39.662109 7
-0.34725499 -2.4077151 44.610352 7
-0.35225901 -2.309814 44.704102 7
-0.28496999 0.45214799 43.682617 7
-0.25579199 0.54577601 43.185547 7
-0.28123999 0.65148902 43.621094 7
-0.248307 0.74157703 43.060547 7
-0.344668 3.649292 44.635742 7
-0.31823599 3.712769 44.179688 7
-0.29248199 3.7750239 43.734375 7
-0.275608 3.8492429 43.439453 7
-0.123091 4.3492432 -41.553711 7
-0.15159699 4.2996831 -42.09375 7
-0.16949201 4.228394 -42.435547 7
-0.210797 4.1965332 -43.213867 7
-0.016728001 0.830688 -39.701172 7
-0.059682 0.747437 -40.501953 7
-0.032618999 0.64001501 -39.996094 7
-0.067126997 0.55017102 -40.639648 7
-0.093313999 0.354736 -41.12793 7
-0.049995001 0.24890099 -40.316406 7
-0.058249 0.150391 -40.46875 7
-0.044305999 0.050659001 -40.206055 7
-0.077004001 -0.04541 -37.503906 7
-0.037599001 -0.226074 -36.818359 7
-0.30623299 -2.3865969 40.87207 7
-0.32525799 -2.310791 41.180664 7
-0.26454401 0.51074201 40.339844 7
-0.26829001 0.69653302 40.400391 7
-0.32820901 3.745605 41.266602 7
0.41449401 20.852051 21.480469 7
-0.118992 4.4754639 -38.108398 7
-0.133294 4.4085689 -38.362305 7
-0.164836 4.3726811 -38.913086 7
-0.182175 4.3084722 -39.220703 7
-0.229948 4.2969971 -40.049805 7
-0.063423999 0.875 -37.320312 7
-0.050662 0.77832001 -37.101562 7
-0.081251003 0.69653302 -37.628906 7
-0.090429001 0.047240999 -37.737305 7
-0.090640001 -0.211426 -34.500977 7
-0.057489 -0.29235801 -33.973633 7
-0.035415001 -0.37255901 -33.623047 7
-0.31934899 -2.213501 38.011719 7
-0.25283799 0.46765101 37.160156 7
-0.258948 0.63854998 37.25 7
-0.318685 3.7033689 38.016602 7
-0.27623299 3.8114009 37.382812 7
-0.25739101 3.867065 37.101562 7
-0.076699004 4.5327148 -34.081055 7
-0.098180003 4.4906011 -34.428711 7
-0.126288 4.4597168 -34.879883 7
-0.151454 4.421021 -35.28418 7
-0.21718401 4.455811 -36.327148 7
-0.238671 4.4050288 -36.674805 7
-0.025761001 1.1201169 -33.484375 7
-0.056898002 1.05188 -33.978516 7
-0.029666999 0.95605499 -33.547852 7
-0.058118999 -0.50781202 -31.621094 7
-0.086410999 -0.59350598 -32.036133 7
-0.067920998 -0.66723597 -31.758789 7
-0.260162 -3.8651121 -34.301758 7
-0.25238201 -3.9367681 -34.176758 7
-0.277596 -2.2828369 35.175781 7
-0.282478 -2.1269529 35.256836 7
-0.247609 0.75732398 34.889648 7
-0.31537101 3.7971189 35.694336 7
-0.28558999 3.8322749 35.279297 7
-0.246342 3.929688 34.727539 7
-0.12726 4.7310791 -32.428711 7
-0.100098 4.5958252 -32.040039 7
-0.120701 4.5570068 -32.352539 7
-0.137353 4.5091548 -32.606445 7
-0.16781101 4.4863281 -33.063477 7
-0.194746 4.4547119 -33.467773 7
-0.023773 1.277588 -31.147461 7
-0.045605 1.212036 -31.47168 7
-0.028303999 1.125244 -31.217773 7
-0.045147002 1.0531009 -31.457031 7
-0.076559 0.98889202 -31.920898 7
-0.082318 -0.54846197 -29.492188 7
-0.061136 -0.68847698 -29.197266 7
-0.042431999 -0.75476098 -28.938477 7
-0.076742999 -0.83947802 -29.402344 7
-0.043065999 -0.89904797 -28.939453 7
-0.292173 -3.8605959 -32.038086 7
-0.25426301 -3.957031 -31.50293 7
-0.237252 -4.0067139 -31.261719 7
-0.090451002 4.7453609 -29.327148 7
-0.103389 4.6253662 -29.522461 7
-0.137142 4.618896 -29.990234 7
-0.16535901 4.5993652 -30.382812 7
-0.189325 4.5699458 -30.717773 7
-0.028085999 1.470947 -28.754883 7
-0.064732 1.203979 -29.263672 7
-0.069476001 -0.71203601 -27.25293 7
-0.094359003 -0.78857398 -27.566406 7
-0.068347998 -0.847534 -27.231445 7
-0.074869998 -0.91796899 -27.311523 7
-0.28884301 -3.9675291 -29.723633 7
-0.283932 -4.032959 -29.650391 7
-0.26521999 -4.0751948 -29.40332 7
-0.25479999 -4.130249 -29.259766 7
-0.24297 -4.182373 -29.099609 7
-0.117099 4.7565918 -27.568359 7
-0.12903699 4.7119141 -27.729492 7
-0.143721 4.6719971 -27.924805 7
-0.161136 4.6367192 -28.15625 7
-0.185408 4.613647 -28.47168 7
-0.19643 4.5637212 -28.621094 7
-0.052611999 1.591309 -27.045898 7
-0.044588 1.515381 -26.954102 7
-0.055702001 1.4552 -27.09668 7
-0.040224999 1.3781739 -26.902344 7
-0.049493 1.3162839 -27.022461 7
-0.076641001 1.26416 -27.369141 7
-0.087237999 -0.98388702 -25.398438 7
-0.064148001 -1.036621 -25.12207 7
-0.068709001 -1.101685 -25.171875 7
-0.090061001 -1.1756589 -25.419922 7
-0.073867001 -1.230225 -25.224609 7
-0.27893099 -4.1451421 -27.310547 7
-0.26816699 -4.1947021 -27.174805 7
-0.25593299 -4.2408452 -27.020508 7
-0.245666 -4.2896729 -26.888672 7
-0.25472799 -4.3728032 -26.982422 7
-0.11055 4.7850342 -25.348633 7
-0.121922 4.744751 -25.492188 7
-0.132305 4.7020259 -25.623047 7
-0.147599 4.668335 -25.813477 7
-0.172741 4.6530762 -26.117188 7
-0.18262701 4.6070561 -26.243164 7
-0.058138002 1.543945 -25.066406 7
-0.037039001 1.467041 -24.820312 7
-0.055819999 1.416626 -25.043945 7
-0.067712002 1.360962 -25.1875 7
-0.045621 1.2850339 -24.928711 7
-0.080596 -0.974976 -23.546875 7
-0.098148003 -1.04187 -23.736328 7
-0.098255001 -1.10144 -23.734375 7
-0.079871997 -1.151611 -23.526367 7
-0.078918003 -1.210083 -23.511719 7
-0.090255 -1.334839 -23.628906 7
-0.086121 -1.391602 -23.579102 7
-0.280215 -4.1894531 -25.373047 7
-0.28034499 -4.2529302 -25.363281 7
-0.269887 -4.297852 -25.238281 7
-0.26418999 -4.350708 -25.164062 7
-0.25848401 -4.4030762 -25.09082 7
-0.117661 4.837769 -23.580078 7
-0.1277 4.7993159 -23.701172 7
-0.138806 4.7623291 -23.832031 7
-0.147273 4.7193599 -23.93457 7
-0.167862 4.7001948 -24.168945 7
-0.181081 4.6655269 -24.324219 7
-0.161645 4.5662842 -24.123047 7
-0.047568001 1.5517581 -23.182617 7
-0.057652 1.5 -23.296875 7
-0.07564 1.452881 -23.498047 7
-0.052503999 1.379272 -23.245117 7
-0.055737998 1.322754 -23.28418 7
-0.099432997 -1.14209 -22.113281 7
-0.092606999 -1.4161381 -22.023438 7
-0.267479 -4.192627 -23.460938 7
-0.287435 -4.2858891 -23.651367 7
-0.288129 -4.346313 -23.647461 7
-0.27465701 -4.3814702 -23.499023 7
-0.26853999 -4.4290771 -23.425781 7
-0.116568 -1.1337889 -20.862305 7
-0.27808401 -4.179688 -22.02832 7
-0.28543001 -4.2476811 -22.086914 7
-0.307239 -4.341064 -22.282227 7
-0.30313501 -4.3898931 -22.232422 7
-0.294218 -4.429565 -22.135742 7
-0.289527 -4.476685 -22.079102 7
-0.075810999 1.589355 -20.458984 7
-0.065681003 1.530396 -20.364258 7
-0.056765001 1.4729 -20.28125 7
-0.057413001 1.421631 -20.290039 7
-0.074842997 1.380615 -20.461914 7
-0.051539 1.314941 -20.237305 7
-0.096332997 -1.299805 -19.292969 7
-0.113786 -1.408569 -19.443359 7
-0.106844 -1.453613 -19.375977 7
-0.28624099 -4.1966548 -20.611328 7
-0.29531899 -4.2642822 -20.681641 7
-0.30954501 -4.341187 -20.797852 7
-0.309659 -4.3936772 -20.787109 7
-0.30271801 -4.4335942 -20.713867 7
-0.29577601 -4.4735112 -20.640625 7
-0.135197 4.8555908 -19.170898 7
-0.17102601 4.7314448 -19.53418 7
-0.181896 4.703125 -19.641602 7
-0.052418999 1.234619 -18.90918 7
-0.040359002 1.179932 -18.801758 7
-0.044883002 1.134277 -18.844727 7
-0.062801003 1.094604 -19.011719 7
-0.049467001 1.039917 -18.891602 7
-0.038672999 0.986938 -18.794922 7
-0.115946 -1.237671 -18.307617 7
-0.092413001 -1.3173831 -18.097656 7
-0.31152201 -4.3009028 -19.536133 7
-0.31502301 -4.3565669 -19.553711 7
-0.33074501 -4.4335942 -19.674805 7
-0.31931099 -4.4631348 -19.567383 7
-0.31262901 -4.5004878 -19.5 7
-0.30799901 -4.5413818 -19.449219 7
-0.31286499 -4.5994868 -19.478516 7
-0.092978999 -1.285767 -16.982422 7
-0.103094 -1.335205 -17.060547 7
-0.112607 -1.428589 -17.128906 7
-0.104071 -1.467041 -17.056641 7
-0.115643 -1.518188 -17.146484 7
-0.30762699 -4.5592041 -18.188477 7
-0.120463 4.768188 -16.666016 7
-0.120502 4.7249761 -16.678711 7
-0.119807 4.6807861 -16.683594 7
-0.124826 4.6477051 -16.734375 7
-0.144881 4.6446528 -16.90332 7
-0.14775699 4.606689 -16.9375 7
-0.14136399 4.550415 -16.897461 7
-0.14138 4.506958 -16.907227 7
-0.048861999 0.28149399 -16.663086 7
-0.044620998 0.23803701 -16.628906 7
-0.038938999 0.194702 -16.583008 7
-0.033980001 0.15185501 -16.542969 7
-0.029030001 0.108765 -16.501953 7
-0.031943001 0.066284001 -16.526367 7
-0.034864999 0.023804 -16.548828 7
-0.047561001 -0.342163 -15.673828 7
-0.044585999 -0.38207999 -15.650391 7
-0.046944 -0.42285201 -15.666016 7
-0.051557999 -0.46423301 -15.700195 7
-0.051642001 -0.50476098 -15.698242 7
-0.050193001 -0.545044 -15.685547 7
-0.047989 -0.58483899 -15.666992 7
-0.048827998 -0.62560999 -15.670898 7
-0.097076997 -1.299194 -15.992188 7
-0.097153999 -1.340454 -15.990234 7
-0.31827 -4.5019531 -17.144531 7
-0.31608 -4.5418701 -17.117188 7
-0.313151 -4.5800781 -17.083008 7
-0.310954 -4.6196289 -17.056641 7
-0.32323599 -4.6862788 -17.134766 7
-0.329422 -4.7414551 -17.167969 7
-0.33409899 -4.7945561 -17.191406 7
-0.128398 4.7640381 -15.658203 7
-0.13372201 4.7340088 -15.708008 7
-0.136766 4.699585 -15.742188 7
-0.142846 4.671021 -15.798828 7
-0.15571401 4.6555181 -15.905273 7
-0.16858301 4.6398931 -16.011719 7
-0.15878899 4.5792241 -15.949219 7
-0.13840701 4.4984131 -15.807617 7
-0.070523001 -0.673706 -14.880859 7
-0.059425 -0.74719203 -14.795898 7
-0.060309999 -0.78588903 -14.799805 7
-0.066800997 -0.82653803 -14.84375 7
-0.075687997 -0.86852998 -14.90625 7
-0.070142999 -0.90490699 -14.863281 7
-0.092524998 -1.3026119 -14.993164 7
-0.116752 -1.394775 -15.160156 7
-0.10881 -1.429077 -15.098633 7
-0.108888 -1.468262 -15.094727 7
-0.104943 -1.504517 -15.0625 7
-0.123487 -1.5562741 -15.191406 7
-0.325342 -4.5140381 -16.105469 7
-0.318194 -4.5423579 -16.044922 7
-0.31186399 -4.5718989 -15.989258 7
-0.31517401 -4.6191411 -16 7
-0.32412201 -4.6767578 -16.050781 7
-0.33468699 -4.737915 -16.112305 7
-0.077581003 -0.89855999 -14.091797 7
-0.085248001 -0.93859899 -14.141602 7
-0.073554002 -1.006958 -14.055664 7
-0.088886 -1.08728 -14.154297 7
-0.094097003 -1.1636961 -14.18457 7
-0.089101002 -1.19812 -14.146484 7
-0.095081002 -1.2381589 -14.18457 7
-0.099444002 -1.314453 -14.207031 7
-0.11647 -1.39856 -14.31543 7
-0.113236 -1.470947 -14.285156 7
-0.115006 -1.509277 -14.293945 7
-0.115914 -1.547119 -14.296875 7
-0.32973799 -4.5301509 -15.188477 7
-0.31713599 -4.5465088 -15.09375 7
-0.31647199 -4.6229248 -15.066406 7
-0.33359101 -4.7329102 -15.155273 7
-0.10168 -1.109009 -13.452148 7
-0.103778 -1.285889 -13.448242 7
-0.097631 -1.317627 -13.405273 7
-0.098583996 -1.353271 -13.408203 7
-0.091550998 -1.384033 -13.359375 7
-0.096065998 -1.421753 -13.384766 7
-0.119226 -1.471436 -13.530273 7
-0.110408 -1.501099 -13.469727 7
-0.112254 -1.5374759 -13.477539 7
-0.110545 -1.571533 -13.461914 7
-0.32980001 -4.526001 -14.291992 7
-0.32721299 -4.5583501 -14.264648 7
-0.32107401 -4.5839839 -14.21582 7
-0.31939501 -4.6176758 -14.192383 7
-0.31681001 -4.6497798 -14.165039 7
-0.31421599 -4.681519 -14.137695 7
-0.32588699 -4.740356 -14.199219 7
-0.337558 -4.7993159 -14.258789 7
-0.11612 4.7191162 -12.838867 7
-0.120553 4.6942139 -12.87793 7
-0.126755 4.672852 -12.926758 7
-0.1259 4.6368408 -12.932617 7
-0.12592299 4.6026611 -12.943359 7
-0.131248 4.579102 -12.987305 7
-0.14629699 4.5744629 -13.091797 7
-0.14455099 4.536377 -13.091797 7
-0.133948 4.4813228 -13.036133 7
-0.090086997 -1.283813 -12.65332 7
-0.092947997 -1.31897 -12.667969 7
-0.103261 -1.358276 -12.726562 7
-0.10053 -1.390015 -12.706055 7
-0.111766 -1.430542 -12.772461 7
-0.10159 -1.45752 -12.706055 7
-0.107235 -1.494629 -12.737305 7
-0.111027 -1.53064 -12.756836 7
-0.110165 -1.563477 -12.74707 7
-0.32032701 -4.5411382 -13.416992 7
-0.31948 -4.5744629 -13.400391 7
-0.31676501 -4.6044922 -13.373047 7
-0.320586 -4.6463618 -13.383789 7
-0.31973201 -4.67981 -13.367188 7
-0.31982401 -4.7147222 -13.356445 7
-0.334851 -4.7780762 -13.432617 7
-0.131485 4.783936 -12.163086 7
-0.118525 4.7249761 -12.097656 7
-0.124101 4.7043462 -12.140625 7
-0.124108 4.6721191 -12.152344 7
-0.128769 4.6491699 -12.189453 7
-0.13343 4.6260991 -12.228516 7
-0.137153 4.6010742 -12.260742 7
-0.146451 4.5866699 -12.327148 7
-0.156666 4.573853 -12.398438 7
-0.146475 4.5213618 -12.348633 7
-0.09809 -1.287842 -11.996094 7
-0.086404003 -1.312866 -11.923828 7
-0.085496001 -1.34375 -11.915039 7
-0.088486999 -1.377197 -11.929688 7
-0.096373998 -1.4136961 -11.97168 7
-0.113079 -1.455811 -12.06543 7
-0.101401 -1.480225 -11.993164 7
-0.101455 -1.5118411 -11.989258 7
-0.100539 -1.542969 -11.980469 7
-0.105497 -1.578125 -12.004883 7
-0.32209799 -4.5184331 -12.62793 7
-0.31630799 -4.540894 -12.583008 7
-0.31442401 -4.5705571 -12.560547 7
-0.31155601 -4.598022 -12.53418 7
-0.310671 -4.629395 -12.517578 7
-0.30584201 -4.6530762 -12.478516 7
-0.31476 -4.7025151 -12.516602 7
-0.32562301 -4.7562261 -12.567383 7
-0.32865 -4.7947998 -12.571289 7
-0.096344002 -1.289673 -11.380859 7
-0.101523 -1.322998 -11.40625 7
-0.088280998 -1.345459 -11.329102 7
-0.088334002 -1.3757319 -11.326172 7
-0.088404 -1.405762 -11.322266 7
-0.092546001 -1.438599 -11.341797 7
-0.111013 -1.480713 -11.441406 7
-0.108015 -1.509033 -11.419922 7
-0.100914 -1.534668 -11.376953 7
-0.104049 -1.567139 -11.390625 7
-0.10308 -1.59668 -11.380859 7
-0.31387499 -4.491333 -11.891602 7
-0.324211 -4.5413818 -11.936523 7
-0.32325801 -4.5712891 -11.920898 7
-0.316156 -4.5897222 -11.871094 7
-0.31828499 -4.6247559 -11.871094 7
-0.31836101 -4.6561279 -11.860352 7
-0.31537899 -4.6818848 -11.832031 7
-0.31340301 -4.7094731 -11.810547 7
-0.32373101 -4.7602539 -11.853516 7
-0.092950001 -1.282593 -10.735352 7
-0.087641001 -1.30835 -10.705078 7
-0.084476002 -1.335205 -10.68457 7
-0.085611999 -1.36438 -10.686523 7
-0.083521999 -1.391968 -10.671875 7
-0.092173003 -1.425781 -10.713867 7
-0.107253 -1.464233 -10.791016 7
-0.098718002 -1.487427 -10.742188 7
-0.094484001 -1.513306 -10.71582 7
-0.099908002 -1.545776 -10.740234 7
-0.103188 -1.576782 -10.753906 7
-0.31344101 -4.4814448 -11.170898 7
-0.323282 -4.5585942 -11.198242 7
-0.316897 -4.5766602 -11.155273 7
-0.31698099 -4.6064448 -11.143555 7
-0.31598201 -4.6341548 -11.12793 7
-0.31712601 -4.6660161 -11.123047 7
-0.321513 -4.7037349 -11.132812 7
-0.32698199 -4.7434082 -11.148438 7
-0.33351201 -4.785522 -11.169922 7
-0.091867 -1.3087161 -10.194336 7
-0.088564999 -1.334106 -10.173828 7
-0.085254997 -1.359619 -10.15332 7
-0.084187001 -1.38623 -10.144531 7
-0.087604001 -1.415771 -10.158203 7
-0.087658003 -1.443115 -10.154297 7
-0.105644 -1.482056 -10.242188 7
-0.104577 -1.509033 -10.233398 7
-0.096787997 -1.531494 -10.19043 7
-0.102448 -1.562622 -10.214844 7
-0.100267 -1.588501 -10.199219 7
-0.32091799 -4.6116939 -10.542969 7
-0.31875199 -4.6358638 -10.520508 7
-0.32106301 -4.668457 -10.520508 7
-0.31889701 -4.6922612 -10.499023 7
-0.134082 4.7979741 -9.4746094 7
-0.13854399 4.7811279 -9.5068359 7
-0.116225 4.7093511 -9.4130859 7
-0.108414 4.6678472 -9.3867188 7
-0.108421 4.6419678 -9.3984385 7
-0.107315 4.6140141 -9.4042969 7
-0.110672 4.5949712 -9.4306641 7
-0.11068 4.5690918 -9.4414062 7
-0.128545 4.5784912 -9.5371094 7
-0.129674 4.55481 -9.5527344 7
-0.126325 4.5220952 -9.5478516 7
-0.118529 4.480835 -9.5214844 7
-0.092882998 -1.30481 -9.6894531 7
-0.099962004 -1.335449 -9.7207031 7
-0.087146997 -1.353882 -9.6552734 7
-0.084873997 -1.3787839 -9.6396484 7
-0.088427998 -1.4069819 -9.6542969 7
-0.086140998 -1.431885 -9.6386719 7
-0.088535003 -1.4593509 -9.6464844 7
-0.115478 -1.503296 -9.7744141 7
-0.108514 -1.5250241 -9.7363281 7
-0.100382 -1.545898 -9.6933594 7
-0.107453 -1.577026 -9.7236328 7
-0.094493002 -1.301392 -9.2255859 7
-0.088459998 -1.322876 -9.1933594 7
-0.093379997 -1.350952 -9.2128906 7
-0.088559002 -1.373047 -9.1875 7
-0.091038004 -1.399536 -9.1943359 7
-0.092326999 -1.425537 -9.1972656 7
-0.092358001 -1.450562 -9.1943359 7
-0.099719003 -1.4805911 -9.2246094 7
-0.108309 -1.511108 -9.2597656 7
-0.103487 -1.533325 -9.234375 7
-0.105967 -1.560181 -9.2421885 7
-0.104815 -1.584473 -9.2324219 7
-0.129316 4.7862549 -8.3554688 7
-0.114747 4.7098389 -8.3164062 7
-0.1111 4.6793208 -8.3115234 7
-0.106249 4.6462402 -8.3017578 7
-0.10747 4.6256099 -8.3183594 7
-0.114755 4.617065 -8.3603516 7
-0.082235001 -1.283691 -8.6865234 7
-0.083554998 -1.30835 -8.6894531 7
-0.086149 -1.33374 -8.6972656 7
-0.083654001 -1.356079 -8.6835938 7
-0.077345997 -1.3762209 -8.6523438 7
-0.076118 -1.39917 -8.6425781 7
-0.081243999 -1.42627 -8.6621094 7
-0.085119002 -1.452637 -8.6757812 7
-0.097897001 -1.484619 -8.7285156 7
-0.100498 -1.510498 -8.7363281 7
-0.099261999 -1.533569 -8.7275391 7
-0.090421997 -1.551514 -8.6845703 7
-0.096822001 -1.579834 -8.7089844 7
-0.098041996 -1.2861331 -8.3388672 7
-0.099407002 -1.309937 -8.3408203 7
-0.104754 -1.33606 -8.3603516 7
-0.106128 -1.359985 -8.3623047 7
-0.094258003 -1.375977 -8.3085938 7
-0.094304003 -1.399048 -8.3046885 7
-0.095684998 -1.422974 -8.3076172 7
-0.099697001 -1.4482419 -8.3203115 7
-0.098416001 -1.4705811 -8.3115234 7
-0.114351 -1.503906 -8.3759766 7
-0.118379 -1.529785 -8.3886719 7
-0.113123 -1.549561 -8.3632812 7
-0.109202 -1.569702 -8.3427734 7
-0.110576 -1.593872 -8.34375 7
-0.085543998 4.4648442 -5.2314448 7
-0.093492001 4.464355 -5.265625 7
-0.095077999 4.4516602 -5.28125 7
-0.096665002 4.4387212 -5.295898 7
-0.109397 4.4475098 -5.344727 7
-0.115743 4.4437261 -5.3730469 7
-0.118932 4.4335942 -5.3935552 7
-0.109382 4.3990479 -5.375977 7
-0.107787 4.3800049 -5.3798828 7
-0.110975 4.369751 -5.4003911 7
-0.107787 4.3474121 -5.4003911 7
-0.107772 4.3314209 -5.4101558 7
-0.109351 4.3181152 -5.4267578 7
-0.109344 4.3017578 -5.436523 7
-0.120427 4.7512212 -4.7910161 7
-0.122479 4.7874761 -4.3955078 7
-0.124188 4.7631841 -4.4238281 7
-0.12760501 4.7563481 -4.4433589 7
-0.125866 4.7250981 -4.460938 7
-0.129292 4.717896 -4.4814448 7
-0.122441 4.6759028 -4.484375 7
-0.117308 4.6513672 -4.483398 7
-0.11045 4.6235352 -4.476562 7
-0.098489001 4.5855708 -4.4560552 7
-0.100205 4.5749512 -4.4707031 7
-0.098475002 4.5576172 -4.4775391 7
-0.098475002 4.5435791 -4.4882808 7
-0.098475002 4.529541 -4.4980469 7
-0.098458998 4.5153809 -4.5087891 7
-0.100053 4.5040278 -4.5253911 7
-0.100045 4.4898682 -4.5361328 7
-0.122396 4.6126709 -4.1816411 7
-0.11708 4.5888672 -4.1787109 7
-0.122389 4.58606 -4.203125 7
-0.117072 4.5621338 -4.2011719 7
-0.115294 4.545166 -4.2080078 7
-0.117057 4.5351558 -4.2226558 7
-0.113441 4.5142822 -4.2246089 7
-0.111664 4.497437 -4.2314448 7
-0.252332 -5.0028162 6.511076 7
-0.24077401 -4.8244939 6.6798639 7
-0.30535999 -4.9688082 5.7607508 7
-0.29766399 -4.8446612 5.9485178 7
-0.29199201 -4.8297248 5.0597711 7
0.084423997 -1.274742 -13.91533 7
-0.097075999 -4.508626 -15.681102 7
-0.001263 -1.596053 -7.0386319 7
0.0098130004 -1.53097 -5.9058189 7
0.043168999 -1.467144 -4.7861152 7
-0.016455 -1.419156 -3.977278 7
-0.052953001 -1.741513 -4.1666942 7
-0.32922599 -4.8780589 6.4145069 7
-0.32148001 -5.0330338 5.7696171 7
-0.306077 -4.8816028 5.907485 7
-0.28534499 -4.8596492 5.4407978 7
-0.26720399 -4.6922798 1.027353 7
-0.26334301 -4.7612629 1.19512 7
-0.270796 -4.913095 4.8119521 7
-0.26326701 -4.8047538 5.0050788 7
-0.29888299 -4.7235551 1.602402 7
-0.29924399 -4.7828498 1.762184 7
-0.33027601 -5.110393 3.259402 7
-0.30736199 -4.8976779 4.2611852 7
-0.29645601 -4.8191772 4.413682 7
-0.28106001 -4.5429869 1.6819021 7
-0.28490901 -4.6095428 1.829923 7
-0.29230899 -4.68047 1.977136 7
-0.29406801 -4.72929 2.1326711 7
-0.279246 -4.7232041 2.3024051 7
-0.28809699 -4.7802482 2.4547629 7
-0.293639 -4.857512 3.258256 7
-0.29613799 -4.8582091 3.42009 7
-0.268397 -4.5304141 2.19186 7
-0.26807299 -4.5651479 2.3422041 7
-0.27517301 -4.6151428 2.4890611 7
-0.099417999 4.5417638 -4.4012532 7
-0.032807 -0.526335 -15.499809 7
-0.16052 -1.354672 -12.338275 7
-0.205339 4.592442 -12.56888 7
-0.109684 -1.410157 -9.7560368 7
-0.36013499 -4.6324468 -13.022545 7
-0.13134401 4.532948 -9.2896032 7
-0.090069003 -1.476819 -8.2762861 7
-0.063786 -1.4881769 -7.0700998 7
-0.003735 1.371096 -6.3739481 7
-0.101248 4.521328 -4.4662929 7
-0.118228 4.4822898 -4.735785 7
-0.04752 1.592718 -5.6443062 7
-0.041680001 1.383937 -5.6453319 7
-0.077936999 -1.306596 -5.5559192 7
-0.085582003 -1.514461 -5.5682311 7
-0.026241001 1.221543 -5.1176548 7
-0.01646 1.249451 -4.6753492 7
-0.012015 1.088429 -4.6851468 7
-0.048133999 -1.34368 -4.5918341 7
-0.054085001 -1.5075459 -4.57969 7
-0.075018004 -1.358933 -4.2406559 7
-0.082947999 -1.512549 -4.232306 7
-0.099026002 -1.692744 -4.2621861 7
-0.061825 -1.362529 -3.926434 7
-0.067391001 -1.496762 -3.901783 7
