# .PCD v0.7 - Point Cloud Data file format
VERSION 0.7
FIELDS x y z intensity
SIZE 4 4 4 4
TYPE F F F F
COUNT 1 1 1 1
WIDTH 604
HEIGHT 1
VIEWPOINT 0 0 0 1 0 0 0
POINTS 604
DATA ascii
-0.55669898 -5.3659668 73.245117 7
-0.61035001 -5.2979741 74.669922 7
-0.47201499 -2.2297361 71.297852 7
-0.46843699 -2.0614009 71.214844 7
-0.24585401 4.277832 -72.032227 7
-0.53364497 -5.427002 65.838867 7
-0.58164197 -5.3679199 66.994141 7
-0.64561301 -5.333374 68.529297 7
-0.49000901 -2.3331299 65.088867 7
-0.44633901 0.081665002 64.178711 7
-0.39044499 0.225586 62.850586 7
-0.180632 4.473999 -62.352539 7
-0.177315 4.164917 -62.274414 7
-0.27897099 4.1864009 -65.023438 7
-0.65346199 -5.3388672 63.047852 7
-0.69270998 -5.2648931 63.917969 7
-0.38859701 3.5457759 57.665039 7
-0.104767 4.3231201 -54.494141 7
-0.157674 4.287231 -55.792969 7
-0.085752003 4.0236821 -54.041016 7
-0.146294 3.995605 -55.527344 7
-0.189643 3.932251 -56.592773 7
-0.352815 0.30773899 52.21875 7
-0.32798401 0.66259801 51.729492 7
-0.34703201 3.555908 52.078125 7
-0.29533401 3.719238 51.03418 7
-0.071981996 4.2193599 -48.517578 7
-0.158162 4.2573242 -50.433594 7
-0.10502 3.919678 -49.269531 7
-0.146485 3.868042 -50.195312 7
-0.20479199 3.8392329 -51.493164 7
-0.35806599 0.39929199 48.723633 7
-0.28906 0.49755901 47.441406 7
-0.330053 0.61682099 48.206055 7
-0.275846 0.71215802 47.199219 7
-0.39243701 3.591064 49.328125 7
-0.352411 3.647583 48.579102 7
-0.306748 3.691772 47.726562 7
-0.095908999 4.264648 -45.099609 7
-0.133965 4.2235112 -45.884766 7
-0.16718499 4.1697998 -46.570312 7
-0.100563 3.9407959 -45.21582 7
-0.148321 3.9100339 -46.199219 7
-0.19923 3.879761 -47.246094 7
-0.047757 0.48425299 -44.264648 7
-0.025865 -0.045044001 -39.780273 7
-0.34057599 -2.3956299 44.484375 7
-0.35206401 -2.3040769 44.6875 7
-0.28640699 0.45752001 43.689453 7
-0.246984 0.74609399 43.018555 7
-0.34229901 3.6480711 44.583984 7
-0.316553 3.71228 44.138672 7
-0.29147801 3.7758789 43.707031 7
-0.26165199 3.829468 43.19043 7
-0.12956101 4.355957 -41.595703 7
-0.153742 4.2980962 -42.054688 7
-0.170745 4.2253418 -42.378906 7
-0.21276 4.1947021 -43.168945 7
-0.028471 0.83593798 -39.842773 7
-0.039051 0.64331102 -40.039062 7
-0.090815999 0.35620099 -41.001953 7
-0.05649 0.251587 -40.358398 7
-0.039395999 0.15136699 -40.037109 7
-0.054873001 0.053467002 -40.323242 7
-0.056084 -0.047729 -37.166992 7
-0.082042001 -0.140747 -37.611328 7
-0.056731999 -0.230591 -37.171875 7
-0.304452 -2.379761 40.833008 7
-0.320898 -2.3015139 41.100586 7
-0.34173799 -2.2259519 41.438477 7
-0.25895599 0.69665498 40.244141 7
-0.31641099 3.730103 41.068359 7
-0.28908601 3.782593 40.629883 7
-0.27351701 3.8513179 40.375977 7
-0.25757399 3.918335 40.118164 7
0.42011201 20.791992 21.424805 7
-0.119856 4.4718022 -38.057617 7
-0.137903 4.412354 -38.375 7
-0.16508999 4.3681641 -38.851562 7
-0.194327 4.3256841 -39.362305 7
-0.23033901 4.2927251 -39.988281 7
-0.25822601 4.2426758 -40.475586 7
-0.071795002 0.87890601 -37.398438 7
-0.053915001 0.78064001 -37.09082 7
-0.088644996 0.69982898 -37.688477 7
-0.089203998 0.044188999 -37.740234 7
-0.102116 -0.21008299 -34.626953 7
-0.078294002 -0.37707499 -34.244141 7
-0.051002 -0.45605499 -33.811523 7
-0.254154 -2.404053 37.02832 7
-0.293706 -2.1859131 37.628906 7
-0.23429801 0.46789601 36.880859 7
-0.257258 0.55725098 37.217773 7
-0.230773 0.63562 36.825195 7
-0.206995 0.79553199 36.476562 7
-0.31806901 3.7043459 37.999023 7
-0.29684001 3.759033 37.682617 7
-0.24868201 3.939575 36.958008 7
-0.082719997 4.5406489 -34.128906 7
-0.102751 4.4954829 -34.452148 7
-0.150098 4.5014648 -35.205078 7
-0.181952 4.4746089 -35.714844 7
-0.21897 4.4552002 -36.305664 7
-0.030789999 1.122925 -33.510742 7
-0.061225999 1.0543211 -33.993164 7
-0.059861001 0.96972698 -33.970703 7
-0.099174999 0.901245 -34.592773 7
-0.053803999 -0.50952101 -31.578125 7
-0.086048 -0.59606898 -32.049805 7
-0.064369 -0.668823 -31.726562 7
-0.26204899 -3.870728 -34.344727 7
-0.2642 -3.95874 -34.365234 7
-0.27487701 -2.2757571 35.130859 7
-0.28612801 -2.1257319 35.298828 7
-0.208793 0.66943401 34.348633 7
-0.238787 0.75671399 34.760742 7
-0.21787 0.82861298 34.472656 7
-0.21902201 0.907471 34.488281 7
-0.29044399 3.841187 35.336914 7
-0.243149 3.9259031 34.674805 7
-0.246398 4.0102539 34.710938 7
0.29384199 17.565186 21.376953 7
-0.13291501 4.7376709 -32.46582 7
-0.10216 4.5953369 -32.025391 7
-0.122007 4.5549321 -32.325195 7
-0.145417 4.5203862 -32.676758 7
-0.173962 4.4935298 -33.104492 7
-0.194984 4.4508061 -33.421875 7
-0.031029999 1.281738 -31.208008 7
-0.060017001 1.220093 -31.637695 7
-0.035576999 1.12915 -31.277344 7
-0.056127001 1.053833 -31.641602 7
-0.087431997 0.991943 -32.099609 7
-0.093336001 -0.62219203 -29.597656 7
-0.073298 -0.68969703 -29.321289 7
-0.048133999 -0.75390601 -28.975586 7
-0.086356997 -0.84008801 -29.493164 7
-0.065044999 -0.90490699 -29.197266 7
-0.28921601 -3.940186 -32.009766 7
-0.25331199 -3.960815 -31.512695 7
-0.243724 -4.0999761 -31.360352 7
-0.091034003 4.6695561 -29.310547 7
-0.105626 4.625977 -29.518555 7
-0.122766 4.5865479 -29.760742 7
-0.140341 4.5467529 -30.008789 7
-0.168595 4.5263672 -30.400391 7
-0.030765999 1.400757 -28.753906 7
-0.072186001 1.13501 -29.327148 7
-0.087787002 -0.78857398 -27.499023 7
-0.29154599 -3.9007571 -29.783203 7
-0.29215601 -3.975342 -29.779297 7
-0.28402501 -4.0357671 -29.665039 7
-0.26439101 -4.0765381 -29.407227 7
-0.25073701 -4.1262212 -29.222656 7
-0.117581 4.753418 -27.541016 7
-0.131824 4.713623 -27.731445 7
-0.146072 4.672729 -27.921875 7
-0.161222 4.632812 -28.123047 7
-0.183244 4.6055908 -28.410156 7
-0.20115501 4.5688481 -28.646484 7
-0.035270002 1.373901 -26.852539 7
-0.077613004 1.26355 -27.396484 7
-0.086760998 -0.98584002 -25.407227 7
-0.066119 -1.039673 -25.160156 7
-0.089437999 -1.114136 -25.431641 7
-0.088079996 -1.177002 -25.411133 7
-0.073862001 -1.232788 -25.239258 7
-0.28058901 -4.15271 -27.348633 7
-0.26585999 -4.195435 -27.165039 7
-0.25466901 -4.2410889 -27.016602 7
-0.248368 -4.2971191 -26.931641 7
-0.26435 -4.3927002 -27.105469 7
-0.111856 4.7845459 -25.337891 7
-0.12519699 4.7481689 -25.503906 7
-0.13657901 4.707397 -25.647461 7
-0.14844801 4.666748 -25.796875 7
-0.17214 4.6486821 -26.083984 7
-0.18744899 4.6130371 -26.273438 7
-0.047889002 1.599365 -24.913086 7
-0.062748 1.546875 -25.091797 7
-0.040635001 1.469238 -24.833008 7
-0.054021999 1.415405 -24.993164 7
-0.069880001 1.362183 -25.182617 7
-0.050239 1.287842 -24.953125 7
-0.082842 -0.97802699 -23.584961 7
-0.098800004 -1.044434 -23.756836 7
-0.096786 -1.102905 -23.730469 7
-0.081035003 -1.1544189 -23.553711 7
-0.08642 -1.216553 -23.609375 7
-0.090333998 -1.337402 -23.643555 7
-0.28690699 -4.2033691 -25.456055 7
-0.28121001 -4.2568359 -25.382812 7
-0.271263 -4.302856 -25.263672 7
-0.26609901 -4.356812 -25.195312 7
-0.266229 -4.4197998 -25.18457 7
-0.122416 4.844727 -23.609375 7
-0.128251 4.7973628 -23.68457 7
-0.13937999 4.760376 -23.814453 7
-0.147856 4.7176509 -23.917969 7
-0.170564 4.7027588 -24.175781 7
-0.185904 4.6721191 -24.354492 7
-0.153272 4.5473628 -24.007812 7
-0.079478003 1.632812 -23.505859 7
-0.054207001 1.55603 -23.231445 7
-0.062728003 1.5031739 -23.328125 7
-0.078625001 1.454712 -23.505859 7
-0.062872998 1.38562 -23.333984 7
-0.059234999 1.324707 -23.296875 7
-0.096879996 -1.1427 -22.098633 7
-0.092837997 -1.418579 -22.037109 7
-0.27641401 -4.2104492 -23.561523 7
-0.292402 -4.2971191 -23.711914 7
-0.28288999 -4.3397222 -23.604492 7
-0.27565199 -4.3858638 -23.519531 7
-0.27295199 -4.4398189 -23.480469 7
-0.169926 4.7940669 -22.43457 7
-0.175044 4.7475591 -22.498047 7
-0.17677601 4.6942139 -22.527344 7
-0.100971 -1.2854 -20.711914 7
-0.29573101 -4.3236079 -22.182617 7
-0.31030101 -4.4050288 -22.30957 7
-0.295968 -4.4354248 -22.162109 7
-0.135144 4.8579102 -20.579102 7
-0.134 4.8032231 -20.578125 7
-0.076745003 1.589355 -20.449219 7
-0.070809998 1.533447 -20.395508 7
-0.063075997 1.476562 -20.323242 7
-0.052351002 1.418213 -20.22168 7
-0.080582 1.384033 -20.499023 7
-0.067461997 1.324219 -20.374023 7
-0.115398 -1.312744 -19.475586 7
-0.113659 -1.4104 -19.452148 7
-0.104788 -1.4543459 -19.367188 7
-0.31472701 -4.352417 -20.850586 7
-0.31225601 -4.4008789 -20.818359 7
-0.171516 4.7297359 -19.523438 7
-0.186849 4.7103271 -19.670898 7
-0.061446 1.239746 -18.975586 7
-0.048089001 1.184082 -18.857422 7
-0.044321001 1.134033 -18.825195 7
-0.065451004 1.096191 -19.018555 7
-0.057197999 1.043823 -18.946289 7
-0.047045 0.99096698 -18.856445 7
-0.107062 -1.234863 -18.240234 7
-0.095040001 -1.320923 -18.130859 7
-0.310808 -4.5490718 -19.480469 7
-0.091280997 -1.112305 -16.993164 7
-0.093501002 -1.157104 -17.007812 7
-0.10148 -1.204834 -17.068359 7
-0.099398002 -1.247437 -17.047852 7
-0.095896997 -1.289185 -17.016602 7
-0.088794999 -1.328491 -16.954102 7
-0.118293 -1.3898931 -17.189453 7
-0.114067 -1.4312741 -17.151367 7
-0.109834 -1.472656 -17.113281 7
-0.104181 -1.512695 -17.063477 7
-0.122191 -1.568481 -17.204102 7
-0.32199299 -4.4949951 -18.332031 7
-0.315631 -4.5300288 -18.270508 7
-0.30997801 -4.565918 -18.213867 7
-0.31152001 -4.6151118 -18.213867 7
-0.32887399 -4.6939702 -18.339844 7
-0.33403 -4.7501221 -18.367188 7
-0.12412 4.7730708 -16.686523 7
-0.125562 4.7331538 -16.708008 7
-0.124875 4.6885991 -16.713867 7
-0.12919199 4.6542969 -16.758789 7
-0.14139 4.6352539 -16.865234 7
-0.14929999 4.6075439 -16.938477 7
-0.146455 4.558105 -16.926758 7
-0.145059 4.5118408 -16.926758 7
-0.054953001 0.282837 -16.701172 7
-0.047843002 0.23925801 -16.642578 7
-0.045752998 0.196289 -16.625 7
-0.040063001 0.15307599 -16.579102 7
-0.033670001 0.109863 -16.527344 7
-0.032297999 0.067261003 -16.516602 7
-0.040238 0.02478 -16.580078 7
-0.049318001 -0.34326199 -15.693359 7
-0.044833001 -0.383057 -15.657227 7
-0.047922999 -0.424072 -15.680664 7
-0.053307999 -0.46582001 -15.719727 7
-0.053376999 -0.50634801 -15.71875 7
-0.051927999 -0.54663098 -15.706055 7
-0.049724001 -0.58654797 -15.6875 7
-0.050547998 -0.62707502 -15.691406 7
-0.098513998 -1.177856 -16.023438 7
-0.113008 -1.227173 -16.130859 7
-0.100177 -1.261597 -16.030273 7
-0.098720998 -1.30188 -16.014648 7
-0.097278997 -1.342285 -15.999023 7
-0.122406 -1.3988039 -16.1875 7
-0.113358 -1.434692 -16.115234 7
-0.115708 -1.477905 -16.128906 7
-0.106692 -1.513306 -16.056641 7
-0.121941 -1.564941 -16.167969 7
-0.318562 -4.5048828 -17.15332 7
-0.319408 -4.5501709 -17.148438 7
-0.31493899 -4.5856929 -17.102539 7
-0.318845 -4.6368408 -17.120117 7
-0.32731199 -4.6964111 -17.170898 7
-0.33122501 -4.7475591 -17.1875 7
-0.33284301 -4.7944341 -17.1875 7
-0.129811 4.7645259 -15.660156 7
-0.13589101 4.7363281 -15.71582 7
-0.13744 4.69873 -15.738281 7
-0.141231 4.6655269 -15.777344 7
-0.15411501 4.650269 -15.883789 7
-0.170782 4.6419678 -16.018555 7
-0.16401599 4.5871582 -15.978516 7
-0.13908 4.4976811 -15.803711 7
-0.073234998 -0.675659 -14.905273 7
-0.070092 -0.71325701 -14.880859 7
-0.068550996 -0.75134301 -14.868164 7
-0.063013002 -0.788086 -14.825195 7
-0.063074999 -0.82641602 -14.824219 7
-0.069573 -0.86718798 -14.867188 7
-0.076057002 -0.90844703 -14.912109 7
-0.073716 -0.946289 -14.892578 7
-0.105488 -1.233521 -15.101562 7
-0.099941999 -1.2694089 -15.056641 7
-0.094403997 -1.305176 -15.012695 7
-0.095274001 -1.344727 -15.015625 7
-0.098554999 -1.385254 -15.035156 7
-0.117884 -1.436401 -15.171875 7
-0.109928 -1.4705811 -15.110352 7
-0.112407 -1.511353 -15.124023 7
-0.110874 -1.549316 -15.109375 7
-0.12619101 -1.599121 -15.214844 7
-0.329647 -4.4827881 -16.15332 7
-0.32652801 -4.5184331 -16.119141 7
-0.320997 -4.5499272 -16.069336 7
-0.31626001 -4.582397 -16.025391 7
-0.314742 -4.620728 -16.003906 7
-0.31806901 -4.6679692 -16.014648 7
-0.33022001 -4.7320561 -16.087891 7
-0.336757 -4.7857671 -16.120117 7
-0.084824003 -0.97656202 -14.142578 7
-0.078973003 -1.01062 -14.099609 7
-0.076508999 -1.046387 -14.079102 7
-0.077417001 -1.083496 -14.083008 7
-0.093520001 -1.12793 -14.189453 7
-0.095283002 -1.165894 -14.198242 7
-0.090278998 -1.200073 -14.161133 7
-0.086984001 -1.235352 -14.134766 7
-0.097175002 -1.27771 -14.201172 7
-0.330953 -4.4954829 -15.212891 7
-0.32934999 -4.5317378 -15.191406 7
-0.319282 -4.552856 -15.113281 7
-0.32106701 -4.5949712 -15.114258 7
-0.31946599 -4.631104 -15.091797 7
-0.31955701 -4.670166 -15.081055 7
-0.32811499 -4.7250981 -15.125 7
-0.33582801 -4.778687 -15.164062 7
-0.101249 -1.109985 -13.454102 7
-0.099546999 -1.144165 -13.44043 7
-0.098090999 -1.319214 -13.414062 7
-0.099045001 -1.354858 -13.416992 7
-0.094682001 -1.387329 -13.383789 7
-0.32849801 -4.48877 -14.300781 7
-0.329467 -4.5274658 -14.294922 7
-0.32599601 -4.5584722 -14.262695 7
-0.320741 -4.5856929 -14.217773 7
-0.319047 -4.6195068 -14.196289 7
-0.319139 -4.6564941 -14.185547 7
-0.32277799 -4.7000728 -14.196289 7
-0.33178601 -4.7539058 -14.240234 7
-0.120822 4.726685 -12.861328 7
-0.121722 4.6945801 -12.87793 7
-0.12706199 4.6712651 -12.922852 7
-0.131501 4.6461182 -12.960938 7
-0.13062499 4.610229 -12.966797 7
-0.135079 4.5847168 -13.005859 7
-0.15014499 4.5799561 -13.110352 7
-0.146605 4.5385742 -13.099609 7
-0.14398099 4.4989009 -13.09375 7
-0.099258997 -1.289795 -12.712891 7
-0.099320002 -1.3232419 -12.709961 7
-0.092867002 -1.352783 -12.666016 7
-0.102249 -1.391724 -12.720703 7
-0.111609 -1.43103 -12.775391 7
-0.107025 -1.46167 -12.743164 7
-0.107079 -1.495361 -12.739258 7
-0.109946 -1.530762 -12.75293 7
-0.113738 -1.566772 -12.772461 7
-0.32003999 -4.5428472 -13.419922 7
-0.317316 -4.572998 -13.392578 7
-0.31647 -4.6062012 -13.375977 7
-0.31374601 -4.6361079 -13.348633 7
-0.31569999 -4.674561 -13.348633 7
-0.32793501 -4.7324219 -13.40918 7
-0.117764 4.7216802 -12.087891 7
-0.123333 4.7009282 -12.130859 7
-0.126132 4.6741939 -12.15918 7
-0.131716 4.6533198 -12.202148 7
-0.134523 4.6264648 -12.230469 7
-0.136393 4.5978999 -12.251953 7
-0.148476 4.5889888 -12.334961 7
-0.15406699 4.5671391 -12.37793 7
-0.148506 4.52356 -12.354492 7
-0.098725997 -1.289551 -12.004883 7
-0.08704 -1.314575 -11.932617 7
-0.088078 -1.346802 -11.935547 7
-0.088138998 -1.378418 -11.932617 7
-0.102868 -1.419067 -12.015625 7
-0.112717 -1.457153 -12.069336 7
-0.10103 -1.481445 -11.99707 7
-0.10206 -1.513916 -11.999023 7
-0.103128 -1.546265 -12 7
-0.108064 -1.581421 -12.025391 7
-0.32481599 -4.5256348 -12.646484 7
-0.318019 -4.5462651 -12.597656 7
-0.31417501 -4.5723882 -12.564453 7
-0.31326801 -4.6037598 -12.548828 7
-0.31434199 -4.6385498 -12.542969 7
-0.314412 -4.6716309 -12.532227 7
-0.32136101 -4.7175288 -12.55957 7
-0.333215 -4.7730708 -12.614258 7
-0.095035002 -1.290405 -11.37793 7
-0.099184997 -1.322876 -11.397461 7
-0.086971998 -1.346069 -11.325195 7
-0.089063004 -1.377441 -11.333984 7
-0.091176003 -1.408936 -11.341797 7
-0.096340001 -1.4423831 -11.367188 7
-0.111733 -1.482666 -11.450195 7
-0.104639 -1.508301 -11.40625 7
-0.102641 -1.537231 -11.390625 7
-0.104753 -1.56897 -11.398438 7
-0.103793 -1.5986331 -11.388672 7
-0.092785999 -1.3125 -10.736328 7
-0.089621 -1.339355 -10.71582 7
-0.083250999 -1.36438 -10.678711 7
-0.086522996 -1.39502 -10.692383 7
-0.087637 -1.424438 -10.695312 7
-0.099491 -1.460449 -10.754883 7
-0.108142 -1.494995 -10.796875 7
-0.102818 -1.520264 -10.764648 7
-0.099666998 -1.546875 -10.743164 7
-0.101871 -1.577148 -10.750977 7
-0.098653004 -1.31311 -10.230469 7
-0.086378999 -1.333496 -10.165039 7
-0.086424999 -1.36084 -10.162109 7
-0.087606996 -1.388916 -10.164062 7
-0.087660998 -1.41626 -10.160156 7
-0.098912001 -1.450928 -10.213867 7
-0.103451 -1.4812011 -10.233398 7
-0.100148 -1.506714 -10.212891 7
-0.100202 -1.53418 -10.208984 7
-0.103611 -1.564087 -10.222656 7
-0.100308 -1.589355 -10.202148 7
-0.133818 4.7696528 -9.4824219 7
-0.118196 4.711792 -9.4199219 7
-0.110384 4.6700439 -9.3935547 7
-0.110393 4.6444092 -9.4042969 7
-0.111513 4.6208501 -9.4208984 7
-0.107059 4.58606 -9.4111328 7
-0.105953 4.558228 -9.4160156 7
-0.110423 4.5412598 -9.4482422 7
-0.123833 4.541748 -9.5224609 7
-0.122727 4.5135498 -9.5273438 7
-0.121621 4.485352 -9.5341797 7
-0.095128998 -1.307373 -9.7041016 7
-0.102185 -1.337646 -9.7353516 7
-0.090544999 -1.357056 -9.6748047 7
-0.087090001 -1.3812259 -9.6552734 7
-0.089477003 -1.408936 -9.6630859 7
-0.084862001 -1.432251 -9.6367188 7
-0.101277 -1.468994 -9.7128906 7
-0.113025 -1.503052 -9.765625 7
-0.109562 -1.5271 -9.7460938 7
-0.104924 -1.550415 -9.71875 7
-0.10732 -1.578369 -9.7265615 7
-0.089813001 -1.324219 -9.2021484 7
-0.087439999 -1.3479 -9.1875 7
-0.089928001 -1.37439 -9.1953115 7
-0.091240004 -1.425537 -9.1953115 7
-0.097381003 -1.454468 -9.2197266 7
-0.102308 -1.482788 -9.2382812 7
-0.1024 -1.533203 -9.2314453 7
-0.107335 -1.5617681 -9.2509766 7
-0.107388 -1.587036 -9.2470703 7
-0.107007 4.6463618 -8.3027344 7
-0.083506003 -1.2854 -8.6953115 7
-0.082285002 -1.308838 -8.6865234 7
-0.089966998 -1.337158 -8.7177734 7
-0.079843998 -1.355103 -8.6679688 7
-0.079874001 -1.3787839 -8.6660156 7
-0.079928003 -1.40271 -8.6621094 7
-0.079974003 -1.426636 -8.6591797 7
-0.087655 -1.4552 -8.6894531 7
-0.097893 -1.485962 -8.7304688 7
-0.108335 -1.516235 -8.7724609 7
-0.098213002 -1.533447 -8.7236328 7
-0.098251 -1.557495 -8.7207031 7
-0.099578999 -1.582397 -8.7216797 7
-0.093194 -1.375854 -8.3046885 7
-0.095886 -1.4005131 -8.3134766 7
-0.097251996 -1.424316 -8.3154297 7
-0.095977999 -1.446533 -8.3066406 7
-0.122551 4.7869868 -4.3974609 7
-0.124251 4.7766109 -4.4121089 7
-0.120811 4.7418208 -4.4267578 7
-0.120804 4.7141109 -4.4482422 7
-0.12252 4.7034912 -4.4648442 7
-0.117364 4.664917 -4.4736328 7
-0.098536998 4.585083 -4.4570308 7
-0.098530002 4.5570068 -4.4794922 7
-0.124229 4.642334 -4.1660161 7
-0.124229 4.6290278 -4.1767578 7
-0.13483199 4.6368408 -4.2138672 7
-0.120675 4.5952148 -4.1904302 7
-0.12597699 4.5925288 -4.2138672 7
-0.12596101 4.578979 -4.2246089 7
-0.11889 4.5380859 -4.2294922 7
-0.113565 4.5142822 -4.226562 7
-0.118852 4.51123 -4.250977 7
-0.118844 4.4842529 -4.2714839 7
0.071791999 -1.382646 -11.182128 7
-0.048018001 -1.322566 -8.9901743 7
-0.003786 -1.633772 -6.0075498 7
-0.032166999 -1.501283 -4.073947 7
-0.020950999 -1.687446 -2.960242 7
-0.26193401 -4.6918721 -2.5150101 7
-0.30714801 -4.699965 0.075634003 7
-0.31074199 -4.8285341 0.233889 7
-0.011164 -1.422883 -0.56239498 7
-0.024997 -1.587378 -0.58033299 7
-0.28955799 -4.613708 0.40276 7
-0.28654599 -4.7103748 0.57033497 7
-0.286991 -4.8646421 5.4436569 7
0.0022120001 -1.400304 -0.35516599 7
-0.019471999 -1.560216 -0.40204 7
-0.26994801 -4.700356 1.02247 7
-0.26446801 -4.764647 1.193264 7
-0.28069499 -4.9274688 4.8657641 7
-0.271669 -4.8303161 5.016983 7
-0.28951299 -4.485137 1.1508451 7
-0.300262 -4.7275481 1.600629 7
-0.30241501 -4.7921729 1.758505 7
-0.32344499 -4.93504 4.3151879 7
-0.316073 -4.8649468 4.4722662 7
-0.278828 -4.5367551 1.684671 7
-0.28817299 -4.6188002 1.826269 7
-0.28279099 -4.653101 1.986629 7
-0.28643101 -4.707068 2.139343 7
-0.27699399 -4.7165852 2.3040919 7
-0.26972699 -4.73248 2.5055361 7
-0.27106699 -4.759305 2.6626339 7
-0.25940999 -4.7409468 2.8250549 7
-0.26415899 -4.765533 2.981385 7
-0.26876599 -4.783556 3.13906 7
-0.26218599 -4.7617068 3.2973361 7
-0.27392599 -4.7887921 3.4567201 7
-0.27258199 -4.7703271 3.61467 7
-0.27677599 -4.762228 3.7738509 7
-0.286275 -4.7635102 3.9359989 7
-0.29374799 -4.7522678 4.0979462 7
-0.26429701 -4.5188909 2.195322 7
-0.248707 -4.5101738 2.3562231 7
-0.248621 -4.5455151 2.5423989 7
-0.25176999 -4.5764251 2.690767 7
-0.25480801 -4.6011748 2.840503 7
-0.25204599 -4.603178 2.9925189 7
-0.25102401 -4.60428 3.1438439 7
-0.249834 -4.5989661 3.294827 7
-0.25426701 -4.6040812 3.4461379 7
-0.260483 -4.608377 3.598532 7
-0.262869 -4.5955892 3.7501571 7
-0.26879001 -4.5869269 3.9032869 7
-0.27268201 -4.5663919 4.055377 7
0.015139 1.036872 -5.1860862 7
-0.030091999 -0.52345902 -15.421431 7
-0.068814002 -1.21071 -16.530046 7
-0.197217 4.71702 -19.925591 7
-0.117147 0.61496598 -17.920855 7
-0.064568996 0.079841003 -16.414097 7
-0.143213 -1.317129 -12.028346 7
-0.22539601 4.600729 -12.944808 7
-0.092226997 -1.367247 -9.4943104 7
-0.345038 -4.6750269 -12.770693 7
-0.137796 4.582077 -9.3777676 7
-0.072090998 -1.428901 -8.0452232 7
-0.052981999 -1.457716 -6.9490261 7
-0.024886001 1.37509 -6.6218061 7
-0.089005001 -1.464579 -6.0891461 7
-0.058433998 1.38035 -5.8065171 7
-0.069991 1.207997 -5.9557018 7
-0.069495998 1.0030921 -5.9903612 7
-0.070928998 -1.474082 -5.4505639 7
-0.041807 1.216804 -5.2546 7
-0.044638999 1.047823 -5.318367 7
-0.02888 1.24318 -4.7778449 7
-0.046202999 -1.338614 -4.578877 7
-0.046539001 -1.48559 -4.5298119 7
-0.067257002 -1.339367 -4.1962299 7
-0.074297003 -1.488626 -4.1836362 7
-0.031879999 1.51642 -3.870893 7
-0.032894 1.400715 -3.931462 7
-0.043072999 1.306456 -4.039804 7
-0.057512999 -1.351356 -3.9037089 7
-0.065057002 -1.490188 -3.889719 7
-0.072347 -1.656702 -3.084717 7
-0.093351997 -1.8306071 -3.0736411 7
-0.061992001 -1.623016 -2.8917241 7
