# .PCD v0.7 - Point Cloud Data file format
VERSION 0.7
FIELDS x y z intensity
SIZE 4 4 4 4
TYPE F F F F
COUNT 1 1 1 1
WIDTH 649
HEIGHT 1
VIEWPOINT 0 0 0 1 0 0 0
POINTS 649
DATA ascii
-0.59548002 -5.273315 74.224609 7
-0.51545602 -2.1036379 72.401367 7
-0.51520401 -1.935425 72.407227 7
-0.210236 4.5466309 -70.646484 7
-0.240907 4.431396 -71.574219 7
-0.213974 4.2106929 -70.766602 7
-0.262508 4.120728 -72.231445 7
-0.570683 -5.3492432 66.685547 7
-0.626324 -5.2999272 68.021484 7
-0.69673198 -5.2712402 69.708008 7
-0.109674 4.3299561 -60.21875 7
-0.0469 4.0687261 -58.537109 7
-0.108088 4.033936 -60.186523 7
-0.046973001 0.64965802 -58.546875 7
-0.63719898 -5.3112788 62.65625 7
-0.65311098 -5.1956792 63.019531 7
-0.71250403 -5.1556401 64.326172 7
-0.42585301 3.5874021 58.412109 7
-0.057907999 4.2255859 -53.165039 7
-0.103323 4.1787109 -54.27832 7
-0.026155001 3.90979 -52.40332 7
-0.097672001 3.904175 -54.152344 7
-0.141927 3.8452151 -55.234375 7
-0.38395399 0.42773399 52.814453 7
-0.37177899 0.54699701 52.574219 7
-0.41757599 3.5236821 53.475586 7
-0.32853201 3.640137 51.644531 7
-0.039198998 4.2663569 -47.601562 7
-0.088214003 4.241333 -48.688477 7
-0.0093759997 3.979126 -46.956055 7
-0.068962999 3.969238 -48.277344 7
-0.093935996 3.893677 -48.833984 7
-0.15457501 3.8747561 -50.180664 7
-0.34295401 0.50341803 48.395508 7
-0.383039 0.62463403 49.142578 7
-0.30075499 0.71423298 47.615234 7
-0.417523 3.6181641 49.749023 7
-0.369611 3.664185 48.853516 7
-0.33520001 3.726074 48.209961 7
-0.076298997 4.220459 -44.572266 7
-0.106466 4.165894 -45.193359 7
-0.147503 4.1278081 -46.037109 7
-0.083278999 3.9044189 -44.734375 7
-0.113172 3.844604 -45.349609 7
-0.15938 3.808594 -46.297852 7
-0.012691 -0.137695 -39.426758 7
-0.35660499 -2.414062 44.734375 7
-0.37494901 -2.328125 45.054688 7
-0.38608599 -2.2344971 45.253906 7
-0.28327301 0.55163598 43.623047 7
-0.27644399 0.74987799 43.509766 7
-0.37678999 3.690186 45.132812 7
-0.33768699 3.736084 44.459961 7
-0.30850199 3.7940669 43.956055 7
-0.28000399 3.8504641 43.462891 7
-0.110676 4.3131099 -41.110352 7
-0.135267 4.2570801 -41.574219 7
-0.153299 4.1878662 -41.951172 7
-0.19041499 4.1495361 -42.647461 7
-0.017235 0.63891602 -39.527344 7
-0.046257999 0.54907203 -40.066406 7
-0.074038997 0.456177 -40.582031 7
-0.020897999 0.056274001 -39.584961 7
-0.055357002 -0.045653999 -37.237305 7
-0.045014001 -0.136719 -37.056641 7
-0.060079999 -0.22949199 -37.313477 7
-0.038219001 -0.31799299 -36.932617 7
-0.240706 -3.4099121 -40.191406 7
-0.240546 -3.5081789 -40.177734 7
-0.202912 -3.647095 -39.506836 7
-0.34269199 -2.324585 41.426758 7
-0.353982 -2.2398679 41.613281 7
-0.375211 -2.16272 41.956055 7
-0.34316 3.762939 41.459961 7
-0.31360799 3.812988 40.985352 7
-0.289938 3.869873 40.603516 7
-0.27617601 3.9411621 40.378906 7
0.43521601 20.525879 21.354492 7
0.43541399 20.572998 21.305664 7
0.435231 20.62439 21.261719 7
0.436147 20.662842 21.204102 7
0.43524 20.722412 21.166992 7
-0.100231 4.4273682 -37.637695 7
-0.119019 4.3702388 -37.96582 7
-0.167347 4.3662109 -38.801758 7
-0.21171001 4.2536621 -39.578125 7
-0.046978999 0.87085003 -36.881836 7
-0.033845 0.77526897 -36.655273 7
-0.059817001 0.69299299 -37.102539 7
-0.088712998 0.046631001 -37.817383 7
-0.055342 -0.28552201 -33.80957 7
-0.026883001 -0.36438 -33.359375 7
-0.061528001 -0.453857 -33.902344 7
-0.033070002 -0.53064001 -33.451172 7
-0.041735001 -0.61584502 -33.583984 7
-0.27179599 -3.6220701 -37.161133 7
-0.26679999 -3.705688 -37.072266 7
-0.24809 -3.7675779 -36.764648 7
-0.226412 -3.8234861 -36.413086 7
-0.32444799 -2.215698 38.060547 7
-0.239461 0.63342297 36.941406 7
-0.25472501 0.80712903 37.166016 7
-0.31029201 3.859375 37.84375 7
-0.27032101 3.88269 37.25293 7
-0.271754 3.9702151 37.266602 7
0.36840501 18.898804 21.128906 7
-0.062036999 4.5753169 -33.697266 7
-0.078405999 4.5246582 -33.963867 7
-0.109253 4.500854 -34.455078 7
-0.135279 4.4659419 -34.871094 7
-0.167963 4.4412842 -35.392578 7
-0.203988 4.4204102 -35.96582 7
-0.119276 4.177856 -34.646484 7
-0.00056199997 1.190186 -32.961914 7
-0.032933999 1.125 -33.47168 7
-0.0096850004 1.03125 -33.106445 7
-0.041691002 0.96301299 -33.611328 7
-0.071477003 0.89172399 -34.080078 7
-0.094521999 -0.43835399 -32.240234 7
-0.057092998 -0.509399 -31.68457 7
-0.048420999 -0.741943 -31.545898 7
-0.298857 -3.7648931 -34.976562 7
-0.26748499 -3.887085 -34.492188 7
-0.259727 -3.9593511 -34.367188 7
-0.48394999 -5.3997798 37.609375 7
-0.23535299 0.673096 34.688477 7
-0.270053 0.762573 35.164062 7
-0.24146301 0.83300799 34.772461 7
-0.30871701 3.86377 35.563477 7
-0.28527501 3.9077151 35.235352 7
-0.26223099 3.950928 34.913086 7
-0.274786 4.051147 35.077148 7
-0.079744004 4.622437 -31.605469 7
-0.082727 4.5507808 -31.680664 7
-0.105397 4.5168462 -32.020508 7
-0.124489 4.4742432 -32.30957 7
-0.152704 4.4477539 -32.731445 7
-0.169043 4.3969731 -32.979492 7
-0.020527 1.276245 -30.989258 7
-0.036508001 1.2080081 -31.225586 7
-0.016371001 1.1201169 -30.931641 7
-0.042541999 1.054077 -31.49707 7
-0.071907997 0.98889202 -31.930664 7
-0.064299002 -0.682495 -29.142578 7
-0.036509998 -0.74560499 -28.761719 7
-0.067083001 -0.82861298 -29.174805 7
-0.056458 -0.89672899 -29.026367 7
-0.035962 -0.96008301 -28.744141 7
-0.29876301 -3.9602051 -32.191406 7
-0.27450699 -4.0002441 -31.849609 7
-0.25838199 -4.052002 -31.620117 7
-0.243104 -4.1043701 -31.402344 7
-0.076667003 4.7062988 -29.036133 7
-0.092143998 4.6656489 -29.254883 7
-0.106355 4.6213379 -29.457031 7
-0.123982 4.5828862 -29.705078 7
-0.15531699 4.57019 -30.136719 7
-0.168231 4.519897 -30.322266 7
-0.050882 1.1973881 -28.982422 7
-0.044132002 1.1218261 -28.891602 7
-0.047803 -0.64001501 -27.038086 7
-0.069443002 -0.71423298 -27.311523 7
-0.094287001 -0.790649 -27.624023 7
-0.072875999 -0.85144001 -27.348633 7
-0.058359999 -0.91369599 -27.15918 7
-0.072792999 -1.055786 -27.335938 7
-0.066973001 -1.120972 -27.256836 7
-0.29032299 -3.9790039 -29.803711 7
-0.29416001 -4.0592041 -29.839844 7
-0.272277 -4.096436 -29.552734 7
-0.25497699 -4.1402588 -29.322266 7
-0.253764 -4.2106929 -29.295898 7
-0.100119 4.711792 -27.261719 7
-0.11394 4.6715088 -27.446289 7
-0.129683 4.6352539 -27.669922 7
-0.148532 4.603271 -27.917969 7
-0.172438 4.579834 -28.228516 7
-0.178928 4.5218511 -28.320312 7
-0.032799002 1.5769041 -26.713867 7
-0.037733998 1.513672 -26.923828 7
-0.053844001 1.4569089 -27.130859 7
-0.028345 1.373291 -26.808594 7
-0.043554999 1.315308 -27.003906 7
-0.070634 1.263062 -27.350586 7
-0.087281004 -0.98632801 -25.450195 7
-0.069158003 -1.041504 -25.231445 7
-0.060385998 -1.10022 -25.124023 7
-0.090591997 -1.1787111 -25.476562 7
-0.076420002 -1.234741 -25.303711 7
-0.067161001 -1.292725 -25.19043 7
-0.28068599 -4.157227 -27.385742 7
-0.268475 -4.2042241 -27.231445 7
-0.25824499 -4.2540278 -27.100586 7
-0.25048101 -4.3077388 -26.998047 7
-0.25161701 -4.3768311 -27 7
-0.094295003 4.8052979 -25.070312 7
-0.094843999 4.7434082 -25.087891 7
-0.108719 4.7088618 -25.259766 7
-0.122113 4.6726069 -25.425781 7
-0.140931 4.6463618 -25.655273 7
-0.159725 4.619019 -25.883789 7
-0.162762 4.559937 -25.929688 7
-0.030141 1.586548 -24.665039 7
-0.044046 1.53418 -24.833008 7
-0.027341999 1.460693 -24.637695 7
-0.038295001 1.40564 -24.769531 7
-0.056152001 1.35437 -24.982422 7
-0.038959999 1.281616 -24.780273 7
-0.096841998 -1.103394 -23.761719 7
-0.085263997 -1.394287 -23.612305 7
-0.280736 -4.1989751 -25.422852 7
-0.28719699 -4.27356 -25.482422 7
-0.275702 -4.316895 -25.345703 7
-0.26949301 -4.368896 -25.266602 7
-0.26432899 -4.4224849 -25.198242 7
-0.111437 4.8754878 -23.43457 7
-0.105167 4.8033452 -23.375977 7
-0.114191 4.763062 -23.486328 7
-0.12587599 4.7276611 -23.623047 7
-0.13913301 4.6949458 -23.777344 7
-0.158714 4.6739502 -24.000977 7
-0.16405401 4.624023 -24.069336 7
-0.131385 4.4998779 -23.724609 7
-0.040463001 1.662842 -23.039062 7
-0.034804001 1.542725 -22.982422 7
-0.042806 1.4901119 -23.073242 7
-0.062973998 1.444824 -23.299805 7
-0.048771001 1.377441 -23.144531 7
-0.045682002 1.317261 -23.112305 7
-0.098408997 -1.144043 -22.140625 7
-0.094428003 -1.4200439 -22.078125 7
-0.26912999 -4.2037349 -23.518555 7
-0.29129601 -4.30127 -23.732422 7
-0.29313499 -4.36377 -23.739258 7
-0.28025201 -4.400146 -23.59668 7
-0.27189901 -4.4439702 -23.5 7
-0.042663999 1.556885 -21.478516 7
-0.048942 1.506714 -21.546875 7
-0.041673001 1.447632 -21.474609 7
-0.033275001 1.387817 -21.390625 7
-0.044075001 1.34021 -21.503906 7
-0.043031 1.285156 -21.496094 7
-0.100754 -1.285767 -20.730469 7
-0.111916 4.856689 -20.313477 7
-0.118559 4.8187261 -20.387695 7
-0.122212 4.7746582 -20.432617 7
-0.12585901 4.730103 -20.477539 7
-0.059278999 1.577515 -20.253906 7
-0.070164002 1.533447 -20.361328 7
-0.054001 1.470947 -20.208984 7
-0.043269001 1.412842 -20.107422 7
-0.048723001 1.36499 -20.163086 7
-0.065016001 1.323364 -20.323242 7
-0.039912999 1.206421 -20.085938 7
-0.035794999 1.153198 -20.046875 7
-0.093616001 -1.300903 -19.296875 7
-0.111053 -1.409668 -19.446289 7
-0.104769 -1.455078 -19.384766 7
-0.15699001 4.7957759 -19.345703 7
-0.164069 4.7607422 -19.418945 7
-0.162192 4.7072749 -19.413086 7
-0.16799 4.669312 -19.475586 7
-0.13865399 4.5620122 -19.224609 7
-0.043120001 1.08606 -18.795898 7
-0.031670999 1.032715 -18.693359 7
-0.033013001 0.985596 -18.707031 7
-0.043960001 0.94238299 -18.807617 7
-0.036988001 0.89147902 -18.74707 7
-0.029368 0.84082001 -18.679688 7
-0.019207999 0.78942901 -18.587891 7
-0.018635999 0.74169898 -18.583984 7
-0.025738001 0.696289 -18.649414 7
-0.031558 0.65051299 -18.703125 7
-0.111574 -1.237671 -18.294922 7
-0.086060002 -1.316162 -18.068359 7
-0.046815 0.61657703 -17.794922 7
-0.048921 0.57141101 -17.814453 7
-0.044259999 0.52477998 -17.775391 7
-0.042978998 0.47912601 -17.764648 7
-0.034963001 0.431885 -17.695312 7
-0.030981001 0.385986 -17.661133 7
-0.022278 0.33935499 -17.586914 7
-0.032715999 -0.016113 -16.501953 7
-0.026309 -0.058472 -16.449219 7
-0.036407001 -0.10498 -16.609375 7
-0.035057999 -0.147827 -16.597656 7
-0.02798 -0.189697 -16.537109 7
-0.027331 -0.232178 -16.53125 7
-0.030977 -0.27514601 -16.560547 7
-0.036065001 -0.31860399 -16.599609 7
-0.093718998 -1.288452 -17.010742 7
-0.090218998 -1.3299561 -16.979492 7
-0.105345 -1.382812 -17.097656 7
-0.114758 -1.432495 -17.168945 7
-0.107664 -1.471802 -17.108398 7
-0.102736 -1.5124511 -17.064453 7
-0.11787 -1.566406 -17.181641 7
-0.108444 4.7376709 -16.542969 7
-0.112777 4.7038569 -16.587891 7
-0.122136 4.6800542 -16.670898 7
-0.126461 4.6455078 -16.71582 7
-0.13723201 4.624023 -16.811523 7
-0.149459 4.6047359 -16.917969 7
-0.131587 4.526123 -16.788086 7
-0.057096001 -0.34423801 -15.765625 7
-0.058690999 -0.38537601 -15.775391 7
-0.054976001 -0.425293 -15.745117 7
-0.046700001 -0.46423301 -15.680664 7
-0.047540002 -0.50476098 -15.685547 7
-0.04989 -0.54602098 -15.702148 7
-0.056015 -0.58801299 -15.74707 7
-0.056107 -0.628784 -15.745117 7
-0.106421 -1.223877 -16.091797 7
-0.103477 -1.2637939 -16.064453 7
-0.099008001 -1.3026119 -16.027344 7
-0.098329 -1.343506 -16.018555 7
-0.111303 -1.3924561 -16.113281 7
-0.115164 -1.436523 -16.138672 7
-0.110694 -1.47522 -16.101562 7
-0.111533 -1.517212 -16.103516 7
-0.121465 -1.565308 -16.174805 7
-0.14016899 4.7828369 -15.71875 7
-0.14097001 4.7437739 -15.734375 7
-0.13949101 4.7000728 -15.735352 7
-0.14178699 4.6638179 -15.762695 7
-0.144861 4.6290278 -15.795898 7
-0.155487 4.6090088 -15.885742 7
-0.141131 4.5396729 -15.790039 7
-0.062447 -0.67248499 -14.838867 7
-0.071324997 -0.713745 -14.900391 7
-0.076215997 -0.75390601 -14.933594 7
-0.073881 -0.79199201 -14.914062 7
-0.068336003 -0.82861298 -14.87207 7
-0.062798999 -0.86499 -14.829102 7
-0.061287999 -0.90271002 -14.814453 7
-0.070160002 -0.945068 -14.876953 7
-0.076650999 -0.98632801 -14.920898 7
-0.077519998 -1.025391 -14.923828 7
-0.071983002 -1.061646 -14.881836 7
-0.07045 -1.099365 -14.867188 7
-0.084958002 -1.145142 -14.96875 7
-0.092243001 -1.187866 -15.017578 7
-0.095523 -1.228516 -15.038086 7
-0.091663003 -1.304077 -15.00293 7
-0.093349002 -1.343994 -15.011719 7
-0.089414001 -1.380493 -14.980469 7
-0.118354 -1.437256 -15.183594 7
-0.108018 -1.4699709 -15.105469 7
-0.109689 -1.510254 -15.113281 7
-0.104959 -1.546021 -15.075195 7
-0.120269 -1.595825 -15.180664 7
-0.086453997 -0.97729498 -14.162109 7
-0.091573 -1.016479 -14.193359 7
-0.085752003 -1.050903 -14.151367 7
-0.079071 -1.084473 -14.102539 7
-0.075768001 -1.119507 -14.077148 7
-0.085105002 -1.160889 -14.137695 7
-0.099528998 -1.205566 -14.232422 7
-0.093686 -1.2392581 -14.189453 7
-0.090391003 -1.274292 -14.164062 7
-0.095524997 -1.314209 -14.194336 7
-0.098118998 -1.352661 -14.208984 7
-0.097347997 -1.38916 -14.199219 7
-0.113442 -1.4362791 -14.306641 7
-0.114366 -1.473877 -14.308594 7
-0.112757 -1.510132 -14.293945 7
-0.113672 -1.547974 -14.294922 7
-0.113733 -1.585083 -14.291992 7
-0.102238 -1.146118 -13.46582 7
-0.101422 -1.180908 -13.456055 7
-0.093649998 -1.282104 -13.396484 7
-0.09815 -1.319824 -13.420898 7
-0.099996999 -1.355835 -13.429688 7
-0.100065 -1.390991 -13.426758 7
-0.096579999 -1.42395 -13.400391 7
-0.112613 -1.4694819 -13.500977 7
-0.110035 -1.50293 -13.479492 7
-0.112759 -1.5400389 -13.493164 7
-0.110165 -1.573486 -13.472656 7
-0.12827501 4.7739258 -12.885742 7
-0.106147 4.6945801 -12.759766 7
-0.10794 4.6645508 -12.782227 7
-0.115933 4.6469731 -12.842773 7
-0.119495 4.6199951 -12.875977 7
-0.122189 4.5915532 -12.902344 7
-0.12752099 4.5678711 -12.947266 7
-0.14527 4.568481 -13.068359 7
-0.15061 4.5444341 -13.111328 7
-0.13823 4.4859619 -13.045898 7
-0.096571997 -1.289551 -12.705078 7
-0.097563997 -1.323486 -12.707031 7
-0.100425 -1.358521 -12.720703 7
-0.091195002 -1.386475 -12.661133 7
-0.12195 -1.438965 -12.847656 7
-0.108998 -1.464233 -12.762695 7
-0.104406 -1.494873 -12.730469 7
-0.108198 -1.531006 -12.75 7
-0.105475 -1.562622 -12.728516 7
-0.133791 4.78479 -12.161133 7
-0.130099 4.7449951 -12.149414 7
-0.119902 4.6920171 -12.101562 7
-0.118986 4.6578369 -12.107422 7
-0.120871 4.6296391 -12.128906 7
-0.121823 4.5992432 -12.145508 7
-0.127407 4.5780029 -12.189453 7
-0.145096 4.5803218 -12.303711 7
-0.145119 4.547729 -12.314453 7
-0.136774 4.499023 -12.276367 7
-0.100204 -1.290771 -12.017578 7
-0.085605003 -1.314209 -11.928711 7
-0.085649997 -1.345825 -11.925781 7
-0.088664003 -1.37915 -11.939453 7
-0.089685999 -1.411377 -11.942383 7
-0.111258 -1.456787 -12.06543 7
-0.106437 -1.485474 -12.033203 7
-0.099656001 -1.512817 -11.989258 7
-0.099731997 -1.544556 -11.985352 7
-0.104675 -1.579712 -12.010742 7
-0.091640003 -1.288818 -11.362305 7
-0.099877 -1.323853 -11.405273 7
-0.090738997 -1.3486331 -11.349609 7
-0.090792999 -1.378906 -11.34668 7
-0.093928002 -1.4111331 -11.360352 7
-0.089909002 -1.4387209 -11.334961 7
-0.10733 -1.480225 -11.429688 7
-0.110458 -1.512695 -11.443359 7
-0.103364 -1.53833 -11.398438 7
-0.105477 -1.570068 -11.407227 7
-0.088223003 -1.281616 -10.716797 7
-0.09042 -1.311646 -10.726562 7
-0.090473004 -1.340454 -10.723633 7
-0.084096998 -1.365356 -10.685547 7
-0.086294003 -1.395264 -10.693359 7
-0.08743 -1.424683 -10.695312 7
-0.091785997 -1.455933 -10.714844 7
-0.106852 -1.494629 -10.791992 7
-0.106913 -1.52356 -10.788086 7
-0.099467002 -1.547363 -10.744141 7
-0.102733 -1.578369 -10.757812 7
-0.091701999 -1.337769 -10.195312 7
-0.085043997 -1.361084 -10.157227 7
-0.085105002 -1.388672 -10.154297 7
-0.087454997 -1.444824 -10.15918 7
-0.106593 -1.512207 -10.249023 7
-0.102245 -1.5643311 -10.217773 7
-0.100063 -1.59021 -10.203125 7
-0.104602 -1.620972 -10.22168 7
-0.123101 4.7720952 -9.4150391 7
-0.114162 4.7280269 -9.3828115 7
-0.097410999 4.6679692 -9.3154297 7
-0.096298002 4.6401372 -9.3212891 7
-0.099676996 4.62146 -9.3476562 7
-0.098563001 4.5935059 -9.3535156 7
-0.098563001 4.5681152 -9.3652344 7
-0.098586001 4.54248 -9.375 7
-0.106428 4.532104 -9.4228516 7
-0.114269 4.5218511 -9.4707031 7
-0.126573 4.52002 -9.5410156 7
-0.13105901 4.502563 -9.5732422 7
-0.089285001 -1.304443 -9.6767578 7
-0.099849999 -1.336792 -9.7246094 7
-0.095234998 -1.360352 -9.6982422 7
-0.089454003 -1.3831789 -9.6669922 7
-0.090673998 -1.410278 -9.6689453 7
-0.090713002 -1.436401 -9.6660156 7
-0.096616998 -1.466431 -9.6914062 7
-0.113031 -1.503418 -9.7666016 7
-0.11191 -1.529175 -9.7578115 7
-0.106129 -1.551636 -9.7255859 7
-0.109691 -1.580444 -9.7382812 7
-0.087348998 -1.298584 -9.1943359 7
-0.091040999 -1.325806 -9.2089844 7
-0.092307001 -1.351685 -9.2109385 7
-0.093580998 -1.377686 -9.2138672 7
-0.088767998 -1.399902 -9.1875 7
-0.093688004 -1.427979 -9.2070312 7
-0.09008 -1.450928 -9.1875 7
-0.092574 -1.4775389 -9.1943359 7
-0.102368 -1.509155 -9.2363281 7
-0.099981003 -1.532593 -9.2207031 7
-0.103688 -1.560425 -9.2353516 7
-0.11105 -1.5905761 -9.2646484 7
-0.121716 4.744873 -8.328125 7
-0.118108 4.69104 -8.3339844 7
-0.107184 4.5993652 -8.3222656 7
-0.114485 4.5908198 -8.3632812 7
-0.087609001 -1.288208 -8.7138672 7
-0.087663002 -1.312256 -8.7119141 7
-0.092804 -1.339233 -8.7304688 7
-0.094114996 -1.364014 -8.7324219 7
-0.082719997 -1.380981 -8.6787109 7
-0.081499003 -1.404053 -8.6699219 7
-0.08664 -1.4312741 -8.6894531 7
-0.086694002 -1.4552 -8.6855469 7
-0.107083 -1.49231 -8.7724609 7
-0.107144 -1.516479 -8.7685547 7
-0.099555001 -1.535645 -8.7314453 7
-0.094527997 -1.555908 -8.7050781 7
-0.097115003 -1.581665 -8.7128906 7
-0.32775399 -4.6409912 -8.8369141 7
-0.32654899 -4.6628418 -8.8203115 7
-0.32789099 -4.6895752 -8.8144531 7
-0.331797 -4.7208252 -8.8183594 7
-0.32931 -4.740356 -8.796875 7
-0.331927 -4.769165 -8.7958984 7
-0.097175002 -1.2869869 -8.3359385 7
-0.099882998 -1.311646 -8.3447266 7
-0.097281002 -1.333252 -8.3300781 7
-0.106581 -1.361694 -8.3671885 7
-0.094727002 -1.377808 -8.3134766 7
-0.096084997 -1.401733 -8.3154297 7
-0.097465999 -1.425537 -8.3164062 7
-0.100173 -1.450317 -8.3251953 7
-0.100219 -1.473145 -8.3203115 7
-0.112187 -1.50415 -8.3671885 7
-0.120173 -1.5324709 -8.3984385 7
-0.11758 -1.554077 -8.3828115 7
-0.111012 -1.572754 -8.3515615 7
-0.112386 -1.596802 -8.3525391 7
-0.33256099 -4.7376709 -8.3056641 7
-0.33262199 -4.7607422 -8.2949219 7
-0.326588 -4.4858398 -7.9013672 7
-0.32252201 -4.5003662 -7.875 7
-0.31981501 -4.5174561 -7.8544922 7
-0.32816699 -4.5543208 -7.874023 7
-0.32547501 -4.5712891 -7.8525391 7
-0.33106601 -4.603394 -7.8623052 7
-0.332508 -4.6279302 -7.8574219 7
-0.33257699 -4.6497798 -7.8457031 7
-0.32849601 -4.664062 -7.8193359 7
-0.32442299 -4.6783452 -7.7929692 7
-0.32449201 -4.7000728 -7.782227 7
-0.32178301 -4.7165532 -7.7607422 7
-0.32736701 -4.7486572 -7.7705078 7
-0.328832 -4.7731929 -7.7636719 7
-0.32398099 -4.6645508 -7.3505859 7
-0.319747 -4.6773682 -7.3242192 7
-0.31981701 -4.6981201 -7.313477 7
-0.32275301 -4.7241211 -7.3125 7
-0.32424799 -4.747437 -7.3066411 7
-0.32717699 -4.77356 -7.304688 7
-0.32437801 -4.7885742 -7.2832031 7
-0.32188299 -4.4970698 -6.9892578 7
-0.323432 -4.5197749 -6.983398 7
-0.32647499 -4.5449219 -6.9824219 7
-0.31612399 -4.546021 -6.9375 7
-0.32958001 -4.59021 -6.9707031 7
-0.33112901 -4.612793 -6.9658198 7
-0.33268499 -4.6352539 -6.9589839 7
-0.32529399 -4.6413569 -6.9238281 7
-0.32684201 -4.66394 -6.9169922 7
-0.32095301 -4.6724849 -6.8867192 7
-0.33144999 -4.7116699 -6.9091802 7
-0.327025 -4.723022 -6.8837891 7
-0.32411999 -4.737061 -6.8632808 7
-0.32865 -4.7650151 -6.8662109 7
-0.330199 -4.7874761 -6.859375 7
-0.325798 -4.7984619 -6.8339839 7
-0.315265 -4.65625 -6.0498052 7
-0.31531799 -4.6738281 -6.0380859 7
-0.31698 -4.694458 -6.032227 7
-0.32023001 -4.7182622 -6.03125 7
-0.31709599 -4.7298579 -6.0097661 7
-0.32036 -4.753418 -6.0087891 7
-0.31720999 -4.7648931 -5.9873052 7
-0.31727099 -4.7824712 -5.9755859 7
-0.31412101 -4.7939448 -5.9550781 7
-0.30467701 -4.5083008 -5.7001948 7
-0.32464701 -4.5612788 -5.7470698 7
-0.31309 -4.5571289 -5.702148 7
-0.30816299 -4.5648189 -5.6767578 7
-0.318225 -4.6166992 -5.6835942 7
-0.32326701 -4.6428218 -5.6875 7
-0.32005501 -4.670166 -5.6542969 7
-0.32177201 -4.690063 -5.6494141 7
-0.31850699 -4.700439 -5.6279302 7
-0.31525001 -4.710938 -5.6074219 7
-0.31531101 -4.7275391 -5.5966802 7
-0.318683 -4.7504878 -5.594727 7
-0.31542599 -4.7607422 -5.5732422 7
-0.31547201 -4.7772222 -5.5625 7
-0.312222 -4.7874761 -5.5419922 7
-0.042702999 -1.620194 -7.473372 7
-0.026327999 -1.5498379 -6.2470598 7
-0.22172 -4.6678419 -6.7864509 7
0.018339001 -1.478875 -4.9992042 7
-0.22090501 -4.7011542 -5.6986699 7
-0.047343001 -1.431386 -4.201375 7
-0.087293997 -1.765357 -4.4133391 7
-0.30919001 -4.7048621 -4.7492652 7
-0.044158 -1.682901 -3.57761 7
-0.297921 -4.7059851 -3.9469111 7
-0.269256 -4.6572928 -2.594933 7
-0.036541998 -1.307745 -2.0533011 7
-0.032639999 -1.5246429 -1.989818 7
-0.0091000004 -1.382642 -0.56211901 7
-0.024421001 -1.547539 -0.58755797 7
-0.030982001 -1.709211 -0.57225502 7
-0.052365001 -1.882852 -0.60530698 7
-0.292281 -4.825994 0.72335202 7
-0.30796999 -4.9661169 0.86275899 7
0.0057970001 -1.361708 -0.34904799 7
-0.00978 -1.517673 -0.37539899 7
-0.014723 -1.669493 -0.35597399 7
-0.035048001 -1.832823 -0.385149 7
-0.32346401 -5.0515351 2.573957 7
-0.31952 -5.0587358 2.746419 7
-0.29077601 -4.812973 2.6132929 7
-0.281041 -4.8022509 2.777745 7
-0.14110599 4.5744009 -16.093788 7
-0.048590999 -0.54305702 -15.955558 7
-0.087747 0.083342001 -17.083214 7
-0.170563 -1.3764549 -12.518103 7
-0.2088 4.6161842 -12.627887 7
-0.109302 -1.409218 -9.750309 7
-0.080737002 -1.451946 -8.1563454 7
-0.059769999 -1.476855 -7.0250988 7
-0.093064003 -1.475328 -6.1253581 7
-0.37948999 -4.716825 -7.703979 7
-0.071125999 -1.290176 -5.5006099 7
-0.080862999 -1.501457 -5.5303369 7
-0.028929999 1.228243 -5.1393881 7
-0.027650001 1.055405 -5.170013 7
-0.05618 -1.315042 -4.9862509 7
-0.069839001 -1.516839 -5.0356212 7
-0.052258998 -1.354503 -4.6195178 7
-0.057434998 -1.517295 -4.6018348 7
-0.25406799 -4.7623758 -3.9246681 7
-0.076094002 -1.3616461 -4.246819 7
-0.084063001 -1.515633 -4.2385821 7
-0.101087 -1.698941 -4.273562 7
-0.296617 -4.6848359 -3.1390989 7
-0.291033 -4.7530141 -2.936945 7
-0.063989997 -1.368139 -3.937845 7
-0.075465001 -1.519505 -3.943521 7
-0.078883998 -1.6623729 -3.6756051 7
-0.094948001 -1.823866 -3.682776 7
-0.044401001 -1.524668 -2.2169919 7
-0.031415001 -1.380643 -2.2050769 7
-0.042969 -1.4603209 -2.171787 7
-0.024010999 -1.449247 -2.0762141 7
-0.032251999 -1.515702 -2.031363 7
-0.045217998 -1.595945 -1.990423 7
-0.024530999 -1.3095551 -2.1506519 7
-0.026633 -1.359268 -2.1010671 7
-0.023700999 -1.392864 -2.0400159 7
-0.037333 -1.472446 -2.005985 7
-0.027925 -1.304136 -1.982962 7
-0.037344001 -1.366613 -1.9441299 7
