# .PCD v0.7 - Point Cloud Data file format
VERSION 0.7
FIELDS x y z intensity
SIZE 4 4 4 4
TYPE F F F F
COUNT 1 1 1 1
WIDTH 677
HEIGHT 1
VIEWPOINT 0 0 0 1 0 0 0
POINTS 677
DATA ascii
-0.523287 -2.111084 72.675781 7
-0.54993999 -1.961548 73.388672 7
-0.58413702 -1.813477 74.299805 7
-0.548195 -0.59643602 73.419922 7
-0.09753 4.1766362 -67.49707 7
-0.17737401 4.1531978 -69.913086 7
-0.55897701 -5.3326421 66.46875 7
-0.63572502 -5.3236079 68.306641 7
-0.69870901 -5.2807622 69.818359 7
-0.77400798 -5.086792 71.639648 7
-0.539873 -2.2310791 66.291992 7
-0.53547901 -2.0740969 66.198242 7
-0.49099299 3.259644 65.289062 7
-0.029165 4.326416 -58.229492 7
-0.068066001 4.2580571 -59.285156 7
-0.041622002 4.0654302 -58.577148 7
-0.077096999 3.9849851 -59.538086 7
-0.028775999 0.64013702 -58.242188 7
-0.66344798 -5.2198491 63.292969 7
-0.72549599 -5.1838379 64.65625 7
-0.522264 -2.1699221 60.484375 7
-0.49045399 -2.0062261 59.799805 7
-0.44053501 0.47766101 58.820312 7
-0.44461399 0.61474597 58.912109 7
-0.47429299 3.5202639 59.558594 7
-0.43560201 3.6052251 58.708984 7
-0.042052999 4.2016602 -52.931641 7
-0.093294002 4.1661382 -54.19043 7
-0.022543 3.908813 -52.466797 7
-0.080495998 3.8800049 -53.887695 7
-0.10813 3.7940669 -54.568359 7
-0.43353799 0.43542501 53.836914 7
-0.373184 0.546875 52.630859 7
-0.40834001 0.67749 53.336914 7
-0.43335 3.672241 53.817383 7
-0.37777901 3.7163091 52.700195 7
-0.022864999 4.1254878 -47.412109 7
-0.070924997 4.0965581 -48.482422 7
0.0079190005 3.8388669 -46.743164 7
-0.072010003 3.8612061 -48.518555 7
-0.137072 3.728394 -49.97168 7
-0.356754 0.506226 48.71582 7
-0.39459601 0.627563 49.422852 7
-0.42689699 3.634644 49.981445 7
-0.383425 3.6877439 49.168945 7
-0.357214 3.762207 48.675781 7
-0.069261998 4.2122798 -44.536133 7
-0.096515998 4.15271 -45.098633 7
-0.136889 4.1135249 -45.930664 7
-0.074235998 3.8930659 -44.658203 7
-0.101475 3.8292241 -45.220703 7
-0.14614899 3.790894 -46.139648 7
-0.043097999 0.48632801 -44.211914 7
-0.028712999 0.37585399 -43.915039 7
-0.031660002 -0.045531999 -39.869141 7
-0.227661 -3.3526609 -43.404297 7
-0.19082101 -3.405884 -42.709961 7
-0.169365 -3.478394 -42.297852 7
-0.57003999 -5.3907471 48.102539 7
-0.58258098 -5.3044429 48.330078 7
-0.38343999 -2.441772 45.217773 7
-0.40006101 -2.353271 45.509766 7
-0.40983999 -2.2574461 45.68457 7
-0.34245899 0.46325701 44.65918 7
-0.306438 0.55773902 44.043945 7
-0.30408099 0.75915498 44.005859 7
-0.372143 3.687012 45.102539 7
-0.34538299 3.750977 44.640625 7
-0.320667 3.815918 44.211914 7
-0.073030002 4.34729 -40.524414 7
-0.095333003 4.2896729 -40.947266 7
-0.124241 4.2419429 -41.492188 7
-0.14686599 4.1806641 -41.920898 7
-0.179518 4.134644 -42.537109 7
-0.022419 0.735107 -39.711914 7
-0.0034429999 0.63220203 -39.356445 7
-0.032009002 0.150269 -39.880859 7
-0.064929999 -0.045775998 -37.34668 7
-0.02844 -0.13537601 -36.71582 7
-0.052345 -0.22827099 -37.124023 7
-0.036198001 -0.31726101 -36.842773 7
-0.210903 -3.5574951 -39.605469 7
-0.198174 -3.63501 -39.375977 7
-0.185078 -3.710938 -39.140625 7
-0.55114001 -5.380127 44.430664 7
-0.55949998 -5.2945561 44.577148 7
-0.36152601 -2.344116 41.746094 7
-0.39772001 -2.1837161 42.334961 7
-0.30797401 0.70642102 41.032227 7
-0.34933501 3.775269 41.597656 7
-0.300585 3.8898931 40.8125 7
0.43927801 20.672119 21.118164 7
0.436966 20.748413 21.09668 7
0.43715701 20.795044 21.047852 7
-0.083662003 4.3997798 -37.426758 7
-0.10817 4.3538818 -37.855469 7
-0.129282 4.2999272 -38.225586 7
-0.15683401 4.2553711 -38.706055 7
-0.19523001 4.228394 -39.374023 7
-0.013256 0.94519001 -36.375977 7
-0.024576001 0.85961902 -36.570312 7
-0.02029 0.76806599 -36.496094 7
-0.053668998 0.68835402 -37.070312 7
-0.051430002 -0.37268099 -33.808594 7
-0.020447001 -0.44995099 -33.316406 7
-0.033527002 -0.53552198 -33.520508 7
-0.012529 -0.612427 -33.18457 7
-0.25864401 -3.688843 -36.899414 7
-0.24473201 -3.757812 -36.668945 7
-0.206495 -3.8757319 -36.046875 7
-0.53454 -5.307373 40.8125 7
-0.55441099 -5.2523189 41.115234 7
-0.37186199 -2.0827639 38.787109 7
-0.27248999 0.64270002 37.443359 7
-0.252832 0.72241199 37.15625 7
-0.27502799 0.814331 37.481445 7
-0.245813 0.88928199 37.052734 7
-0.34460801 3.827759 38.385742 7
-0.30095899 3.9343259 37.733398 7
-0.28292701 3.9914551 37.463867 7
0.37038401 18.876343 21.103516 7
-0.044156998 4.6270752 -33.477539 7
-0.053943999 4.480835 -33.649414 7
-0.075842001 4.4404302 -34.001953 7
-0.102165 4.4069819 -34.423828 7
-0.12665699 4.368042 -34.817383 7
-0.175915 4.3731689 -35.598633 7
-0.020959999 1.03479 -33.345703 7
-0.034506001 0.87487799 -33.560547 7
-0.060862001 -0.50976598 -31.700195 7
-0.030503999 -0.58020002 -31.248047 7
-0.063486002 -0.66747999 -31.731445 7
-0.027713999 -0.81115699 -31.196289 7
-0.275949 -3.8110349 -34.591797 7
-0.255867 -3.8642581 -34.286133 7
-0.243319 -3.928345 -34.09082 7
-0.240292 -4.0073242 -34.035156 7
-0.25661799 0.67907703 35.013672 7
-0.26189601 0.84021002 35.086914 7
-0.316746 3.8787839 35.703125 7
-0.287788 3.9143071 35.298828 7
-0.27538499 3.974854 35.121094 7
-0.30740699 4.1077881 35.552734 7
0.30937999 17.571899 21.09668 7
-0.057615001 4.5822749 -31.357422 7
-0.077463001 4.544312 -31.657227 7
-0.096524999 4.5032959 -31.945312 7
-0.114405 4.4587402 -32.21582 7
-0.146135 4.4390869 -32.69043 7
-0.103504 4.2780762 -32.074219 7
-0.0080869999 1.267822 -30.860352 7
-0.029955 1.203003 -31.18457 7
0.0023990001 1.109131 -30.708008 7
-0.031511001 1.047363 -31.290039 7
-0.041916002 0.97424299 -31.443359 7
-0.032127 -0.67700201 -28.750977 7
-0.055376001 -0.75634801 -29.063477 7
-0.032768 -0.82031202 -28.751953 7
-0.018299 -0.88586402 -28.552734 7
-0.050549001 -0.97094703 -28.987305 7
-0.030075001 -1.033691 -28.706055 7
-0.055470001 -1.117798 -29.046875 7
-0.246931 -3.8734131 -31.456055 7
-0.27282101 -3.993042 -31.793945 7
-0.251524 -4.0362549 -31.495117 7
-0.235796 -4.0875239 -31.271484 7
-0.222212 -4.1412349 -31.076172 7
-0.22515699 0.69580102 32.248047 7
-0.209084 0.76367199 32.041992 7
-0.228588 0.843018 32.291992 7
-0.219625 0.91406202 32.179688 7
-0.29455 3.874512 32.977539 7
-0.277578 3.922241 32.754883 7
-0.26332101 3.9737549 32.56543 7
-0.24680699 4.0203862 32.347656 7
-0.24894901 4.0975342 32.367188 7
-0.061730999 4.6799321 -28.885742 7
-0.084517002 4.581665 -29.214844 7
-0.099131003 4.5379639 -29.421875 7
-0.146208 4.5566411 -30.067383 7
0.0035019999 1.2375489 -28.283203 7
-0.04109 1.190796 -28.893555 7
-0.073214002 -0.85070801 -27.321289 7
-0.048682999 -0.97595203 -27.001953 7
-0.049026001 -1.177979 -26.994141 7
-0.24141499 -4.257812 -29.104492 7
-0.090111002 4.7636719 -27.181641 7
-0.089722 4.6947021 -27.186523 7
-0.104885 4.6575928 -27.387695 7
-0.122795 4.625 -27.624023 7
-0.14665399 4.6031489 -27.933594 7
-0.16319799 4.5654302 -28.152344 7
-0.022251001 1.568604 -26.618164 7
-0.020094 1.499512 -26.664062 7
-0.018904001 1.3656009 -26.65332 7
-0.040049002 1.311401 -26.924805 7
-0.054335002 1.252319 -27.109375 7
-0.062197 -0.97448701 -25.125977 7
-0.068222001 -1.040161 -25.194336 7
-0.052540001 -1.095459 -25.004883 7
-0.057581 -1.160522 -25.060547 7
-0.073974997 -1.232178 -25.25 7
-0.060761999 -1.287598 -25.089844 7
-0.061845999 -1.351074 -25.098633 7
-0.075691 4.7701421 -24.891602 7
-0.084615998 4.7261958 -25.005859 7
-0.100443 4.6959229 -25.201172 7
-0.112822 4.6577148 -25.355469 7
-0.132586 4.6334229 -25.59668 7
-0.149405 4.6022949 -25.803711 7
-0.12680399 4.4936519 -25.549805 7
-0.010891 1.633667 -24.46875 7
-0.030195 1.585938 -24.700195 7
-0.019929999 1.5168459 -24.581055 7
-0.015566 1.452148 -24.532227 7
-0.035856001 1.40332 -24.774414 7
-0.041866001 1.344849 -24.84668 7
-0.091187 -1.337158 -23.65918 7
-0.078074001 -1.38855 -23.510742 7
-0.083994001 -1.4512939 -23.571289 7
-0.10146 4.858398 -23.358398 7
-0.107372 4.752686 -23.445312 7
-0.116396 4.711792 -23.553711 7
-0.134901 4.6898189 -23.765625 7
-0.149195 4.6586909 -23.930664 7
-0.147661 4.5952148 -23.924805 7
-0.038573999 1.835205 -23.038086 7
-0.027101999 1.710205 -22.918945 7
-0.030352 1.654785 -22.958008 7
-0.049109001 1.435181 -23.175781 7
-0.089259997 -1.360352 -22.009766 7
-0.088779002 -1.415527 -22.000977 7
-0.085491002 -1.46875 -21.962891 7
-0.090678997 -1.527588 -22.011719 7
-0.046227999 1.6680911 -21.53418 7
-0.019286999 1.5400389 -21.263672 7
-0.045313001 1.503662 -21.53418 7
-0.027899001 1.437866 -21.357422 7
-0.017244 1.377075 -21.25 7
-0.026893999 1.329102 -21.352539 7
-0.083770998 -1.327148 -20.543945 7
-0.108576 -1.446655 -20.775391 7
-0.098445997 -1.4925539 -20.672852 7
-0.100262 4.7840581 -20.238281 7
-0.109896 4.7521968 -20.34082 7
-0.123121 4.7275391 -20.477539 7
-0.055514999 1.213989 -20.258789 7
-0.102041 -1.255615 -19.361328 7
-0.081675 -1.292969 -19.171875 7
-0.074726 -1.3375241 -19.105469 7
-0.019401999 0.93078601 -18.603516 7
-0.022675 0.88464397 -18.635742 7
-0.029119 0.83947802 -18.695312 7
-0.022156 0.789307 -18.632812 7
-0.0152 0.73925799 -18.570312 7
-0.0056650001 0.688721 -18.485352 7
-0.0057410002 0.64160198 -18.486328 7
-0.086635999 -1.315552 -18.05957 7
-0.102951 -1.37146 -18.195312 7
-0.104469 -1.465332 -18.200195 7
-0.095078997 -1.505371 -18.115234 7
-0.034315001 -0.017944001 -16.529297 7
-0.032942001 -0.060424998 -16.517578 7
-0.026550001 -0.102783 -16.464844 7
-0.022072 -0.146973 -16.477539 7
-0.028587 -0.189941 -16.530273 7
-0.030081 -0.232544 -16.541016 7
-0.028717 -0.27490199 -16.52832 7
-0.022341 -0.31652799 -16.475586 7
-0.086301997 -1.283569 -16.94043 7
-0.085653 -1.326416 -16.931641 7
-0.083593003 -1.368408 -16.90918 7
-0.109484 -1.4281009 -17.114258 7
-0.098095 -1.4646 -17.018555 7
-0.098880999 -1.5087889 -17.020508 7
-0.096088 -1.550415 -16.993164 7
-0.099094003 4.7634282 -16.473633 7
-0.096973002 4.7165532 -16.46875 7
-0.106318 4.6932368 -16.552734 7
-0.113495 4.664917 -16.620117 7
-0.119255 4.633667 -16.675781 7
-0.13216799 4.6164551 -16.788086 7
-0.14579201 4.5999761 -16.905273 7
-0.132236 4.5297852 -16.810547 7
-0.049940001 -0.78857398 -15.677734 7
-0.090209998 -1.296631 -15.949219 7
-0.089523003 -1.3375241 -15.94043 7
-0.093405001 -1.3807369 -15.96582 7
-0.113939 -1.434692 -16.119141 7
-0.104923 -1.4705811 -16.045898 7
-0.107265 -1.513184 -16.05957 7
-0.103544 -1.552124 -16.027344 7
-0.058433998 -0.97790498 -14.779297 7
-0.068129003 -1.02063 -14.845703 7
-0.075397 -1.062622 -14.896484 7
-0.070666999 -1.098877 -14.858398 7
-0.067511 -1.1357419 -14.833008 7
-0.065985002 -1.173462 -14.818359 7
-0.080494002 -1.219727 -14.919922 7
-0.097388998 -1.267822 -15.039062 7
-0.085442998 -1.299805 -14.948242 7
-0.085511997 -1.338623 -14.945312 7
-0.087174997 -1.378296 -14.953125 7
-0.100281 -1.5419919 -15.033203 7
-0.071309999 -0.97021502 -14.047852 7
-0.073912002 -1.008057 -14.063477 7
-0.082416996 -1.0487061 -14.118164 7
-0.083316997 -1.085815 -14.12207 7
-0.077482 -1.119873 -14.078125 7
-0.074179001 -1.154663 -14.052734 7
-0.072545998 -1.190552 -14.039062 7
-0.092019998 -1.237671 -14.167969 7
-0.093767002 -1.2755131 -14.176758 7
-0.120716 4.7974849 -13.674805 7
-0.099688001 4.7181401 -13.546875 7
-0.096354 4.6756592 -13.536133 7
-0.097216003 4.6419678 -13.552734 7
-0.094714999 4.60144 -13.546875 7
-0.110733 4.5976558 -13.664062 7
-0.117491 4.5753169 -13.71875 7
-0.116682 4.5377202 -13.724609 7
-0.112495 4.4934082 -13.707031 7
-0.101419 -1.215454 -13.445312 7
-0.090084001 -1.314209 -13.360352 7
-0.091022 -1.349854 -13.363281 7
-0.094645999 -1.387207 -13.383789 7
-0.097369999 -1.4237061 -13.397461 7
-0.098315999 -1.4593509 -13.399414 7
-0.102823 -1.497437 -13.425781 7
-0.105555 -1.534302 -13.438477 7
-0.101177 -1.566528 -13.40625 7
-0.108919 4.7357178 -12.775391 7
-0.095654003 4.6748052 -12.704102 7
-0.098330997 4.646729 -12.731445 7
-0.108973 4.634521 -12.808594 7
-0.11165 4.605957 -12.836914 7
-0.113441 4.5758061 -12.859375 7
-0.121437 4.5576172 -12.919922 7
-0.139162 4.5583501 -13.041016 7
-0.14184 4.5290532 -13.067383 7
-0.097217999 -1.289062 -12.701172 7
-0.083388999 -1.347656 -12.608398 7
-0.092756003 -1.386597 -12.662109 7
-0.107706 -1.4293211 -12.750977 7
-0.117996 -1.469238 -12.810547 7
-0.104099 -1.4937741 -12.720703 7
-0.106091 -1.562012 -12.725586 7
-0.084174998 -1.281006 -11.916992 7
-0.089111 -1.315552 -11.942383 7
-0.078417003 -1.34082 -11.876953 7
-0.080439001 -1.373535 -11.883789 7
-0.099119 -1.4482419 -11.987305 7
-0.105106 -1.515503 -12.013672 7
-0.091476001 -1.538208 -11.930664 7
-0.094466999 -1.571655 -11.944336 7
-0.32140401 -4.5205078 -12.628906 7
-0.317514 -4.5804439 -12.584961 7
-0.31374499 -4.6394038 -12.541016 7
-0.31575999 -4.67627 -12.541992 7
-0.31486699 -4.707397 -12.525391 7
-0.33062699 -4.7702641 -12.601562 7
-0.088045001 -1.2861331 -11.336914 7
-0.094231002 -1.3199461 -11.368164 7
-0.089174002 -1.347046 -11.335938 7
-0.081050999 -1.372437 -11.287109 7
-0.086213998 -1.40564 -11.3125 7
-0.0832 -1.433838 -11.291992 7
-0.102682 -1.47644 -11.397461 7
-0.109907 -1.511597 -11.433594 7
-0.097701997 -1.533691 -11.361328 7
-0.09877 -1.564697 -11.363281 7
-0.099854 -1.5955811 -11.365234 7
-0.31621701 -4.4998779 -11.911133 7
-0.32756799 -4.552002 -11.960938 7
-0.32868201 -4.5853271 -11.955078 7
-0.319529 -4.6000981 -11.895508 7
-0.31960499 -4.6315918 -11.884766 7
-0.32172599 -4.6669922 -11.883789 7
-0.318735 -4.6925049 -11.857422 7
-0.31983399 -4.7258301 -11.850586 7
-0.329124 -4.7750239 -11.888672 7
-0.085476004 -1.308228 -10.694336 7
-0.089814998 -1.339355 -10.713867 7
-0.082355 -1.363525 -10.671875 7
-0.081340998 -1.391602 -10.662109 7
-0.080325998 -1.419434 -10.65332 7
-0.085743003 -1.45166 -10.678711 7
-0.096514001 -1.487183 -10.732422 7
-0.103004 -1.520142 -10.762695 7
-0.091256998 -1.541016 -10.696289 7
-0.098833002 -1.5749511 -10.732422 7
-0.32913399 -4.5732422 -11.233398 7
-0.32705101 -4.5993652 -11.211914 7
-0.078505002 -1.302002 -10.12793 7
-0.077451997 -1.328613 -10.118164 7
-0.092042997 -1.364624 -10.189453 7
-0.077551 -1.3831789 -10.111328 7
-0.080968998 -1.41272 -10.125 7
-0.083250001 -1.441406 -10.133789 7
-0.079947002 -1.466675 -10.113281 7
-0.096787997 -1.505005 -10.195312 7
-0.105804 -1.538574 -10.236328 7
-0.094662003 -1.558472 -10.175781 7
-0.093585998 -1.585205 -10.166992 7
-0.098116003 -1.615723 -10.185547 7
-0.097057 -1.642578 -10.176758 7
-0.32164401 -4.6452641 -10.539062 7
-0.32402399 -4.7059331 -10.527344 7
-0.32409999 -4.7342529 -10.515625 7
-0.33539 -4.783813 -10.558594 7
-0.114052 4.780273 -9.3662109 7
-0.110695 4.7478032 -9.3623047 7
-0.099527001 4.6992192 -9.3212891 7
-0.086134002 4.6462402 -9.2685547 7
-0.086149 4.6208501 -9.2792969 7
-0.090627998 4.6043701 -9.3105469 7
-0.090643004 4.5788569 -9.3222656 7
-0.090658002 4.5533452 -9.3330078 7
-0.096248999 4.5388179 -9.3701172 7
-0.100719 4.5222168 -9.4023438 7
-0.108561 4.5118408 -9.4501953 7
-0.1175 4.503418 -9.5029297 7
-0.088359997 -1.303223 -9.6689453 7
-0.095431998 -1.333618 -9.6992188 7
-0.096635997 -1.3605959 -9.7021484 7
-0.086186998 -1.380615 -9.6464844 7
-0.086232997 -1.406738 -9.6445312 7
-0.087453999 -1.4337161 -9.6464844 7
-0.087499999 -1.459839 -9.6425781 7
-0.11097 -1.527832 -9.7490234 7
-0.102846 -1.5487061 -9.7060547 7
-0.102907 -1.575073 -9.7021484 7
-0.092326999 -1.301025 -9.2158203 7
-0.077758998 -1.317627 -9.1455078 7
-0.081459001 -1.344727 -9.1582031 7
-0.094898 -1.37793 -9.2177734 7
-0.085211001 -1.397095 -9.1689453 7
-0.090131998 -1.425293 -9.1884766 7
-0.090177998 -1.450317 -9.1845703 7
-0.090222999 -1.475464 -9.1806641 7
-0.098803997 -1.506104 -9.2167969 7
-0.104937 -1.5354 -9.2421885 7
-0.103771 -1.559814 -9.2324219 7
-0.103809 -1.585083 -9.2285156 7
-0.080092996 -1.307373 -8.6738281 7
-0.082695 -1.332764 -8.6826172 7
-0.090368003 -1.3612061 -8.7128906 7
-0.076410003 -1.376709 -8.6484385 7
-0.079049997 -1.426025 -8.6533203 7
-0.080385 -1.450684 -8.6542969 7
-0.100826 -1.511719 -8.7373047 7
-0.104687 -1.538208 -8.7509766 7
-0.095822997 -1.556519 -8.7080078 7
-0.092054002 -1.577515 -8.6875 7
-0.32395899 -4.6564941 -8.8076172 7
-0.324081 -4.7047119 -8.7861328 7
-0.32160899 -4.723999 -8.7636719 7
-0.32931501 -4.7626948 -8.7841797 7
-0.334501 -4.7967529 -8.7929688 7
-0.090544 -1.282715 -8.3056641 7
-0.091908999 -1.306519 -8.3085938 7
-0.094603002 -1.331055 -8.3164062 7
-0.093336001 -1.353394 -8.3076172 7
-0.101315 -1.381104 -8.3378906 7
-0.098700002 -1.40271 -8.3232422 7
-0.088173002 -1.419189 -8.2744141 7
-0.096159004 -1.447021 -8.3046885 7
-0.096197002 -1.470093 -8.3017578 7
-0.093589999 -1.491333 -8.2880859 7
-0.108204 -1.524048 -8.3457031 7
-0.118837 -1.554443 -8.3876953 7
-0.114908 -1.574829 -8.3662109 7
-0.107014 -1.5925291 -8.3291016 7
-0.32962 -4.684937 -8.3154297 7
-0.331009 -4.7105708 -8.3095703 7
-0.33107001 -4.733521 -8.2988281 7
-0.32981101 -4.7540278 -8.28125 7
-0.33121499 -4.7792969 -8.2753906 7
-0.31263399 -4.4812012 -7.835938 7
-0.318216 -4.5131841 -7.8457031 7
-0.31689799 -4.5324712 -7.8300781 7
-0.32248101 -4.5644531 -7.8398442 7
-0.32531199 -4.5914311 -7.8388672 7
-0.33229101 -4.625977 -7.8544922 7
-0.33510599 -4.6529541 -7.8535161 7
-0.32135999 -4.649292 -7.7900391 7
-0.318661 -4.665894 -7.7695308 7
-0.31872201 -4.6876221 -7.7587891 7
-0.32153499 -4.7146001 -7.757812 7
-0.32298499 -4.7390141 -7.750977 7
-0.32580799 -4.7658691 -7.75 7
-0.32863799 -4.7928472 -7.749023 7
-0.323587 -4.6420898 -7.359375 7
-0.325075 -4.6654048 -7.3525391 7
-0.32226899 -4.6807861 -7.3320308 7
-0.31516099 -4.6879878 -7.295898 7
-0.32095701 -4.7193599 -7.304688 7
-0.32245299 -4.7427979 -7.297852 7
-0.32250601 -4.7634282 -7.2871089 7
-0.32400101 -4.7867432 -7.280273 7
-0.420111 -6.304688 -6.7138672 7
-0.42162099 -6.3273931 -6.703125 7
-0.425991 -6.3570561 -6.702148 7
-0.42894399 -6.3834229 -6.695312 7
-0.423262 -6.3885498 -6.6630859 7
-0.41613799 -6.3900151 -6.625977 7
-0.32300201 -4.4978032 -6.9902339 7
-0.32156801 -4.5150151 -6.9746089 7
-0.31118599 -4.5159912 -6.929688 7
-0.324642 -4.5601811 -6.9638672 7
-0.326199 -4.5826421 -6.9580078 7
-0.31584001 -4.583252 -6.9121089 7
-0.323338 -4.6168208 -6.9267578 7
-0.32637399 -4.6419678 -6.9248052 7
-0.33536699 -4.6784668 -6.9443359 7
-0.323513 -4.6760249 -6.8935552 7
-0.320591 -4.6899409 -6.8720698 7
-0.32661799 -4.7208252 -6.8808589 7
-0.328152 -4.7431641 -6.874023 7
-0.31779301 -4.743042 -6.828125 7
-0.32231501 -4.7711182 -6.8320308 7
-0.322384 -4.790771 -6.820312 7
-0.316053 -4.4954829 -6.5722661 7
-0.316122 -4.5142822 -6.561523 7
-0.31462699 -4.530396 -6.5449219 7
-0.308586 -4.5567632 -6.5048828 7
-0.324047 -4.6038818 -6.5429692 7
-0.32102799 -4.6168208 -6.5214839 7
-0.32114199 -4.6544189 -6.499023 7
-0.318167 -4.6861572 -6.467773 7
-0.31828901 -4.7233891 -6.445312 7
-0.31988299 -4.7449951 -6.438477 7
-0.31840301 -4.7606201 -6.422852 7
-0.30934101 -4.485229 -6.1308589 7
-0.31579399 -4.514648 -6.139648 7
-0.30945599 -4.5209961 -6.109375 7
-0.31590801 -4.550293 -6.117188 7
-0.312767 -4.5623779 -6.0966802 7
-0.31602499 -4.58606 -6.0957031 7
-0.31607801 -4.6038818 -6.0849609 7
-0.31772399 -4.6243901 -6.078125 7
-0.32417101 -4.6541748 -6.0869141 7
-0.321035 -4.665894 -6.0664058 7
-0.31789401 -4.6777339 -6.045898 7
-0.309944 -4.6802979 -6.0117192 7
-0.314812 -4.7067871 -6.0136719 7
-0.31166101 -4.7185059 -5.9931641 7
-0.31652099 -4.7451172 -5.9960942 7
-0.318169 -4.7657471 -5.9902339 7
-0.31823701 -4.7833252 -5.9785161 7
-0.31507099 -4.7946782 -5.9580078 7
-0.114296 4.7965088 -4.7314448 7
-0.110987 4.7749019 -4.733398 7
-0.114281 4.767334 -4.7539058 7
-0.119225 4.7628169 -4.7792969 7
-0.10766 4.7242432 -4.7587891 7
-0.10766 4.7094731 -4.7695308 7
-0.114258 4.708374 -4.7988281 7
-0.107637 4.6800542 -4.7919922 7
-0.087814003 4.565918 -4.7929692 7
-0.079545997 4.534668 -4.780273 7
-0.081200004 4.5231929 -4.7949219 7
-0.319933 -4.8094478 -5.1679692 7
-0.31827 -4.8216548 -5.1513672 7
-0.31831601 -4.8371582 -5.139648 7
-0.326958 -4.8693848 -5.1513672 7
-0.33046699 -4.8917241 -5.1474609 7
-0.33221999 -4.910522 -5.140625 7
-0.335722 -4.9328609 -5.1376948 7
-0.110865 4.581543 -4.5126948 7
-0.107433 4.5465088 -4.5253911 7
-0.10915 4.535645 -4.5400391 7
-0.104008 4.4970698 -4.5488281 7
-0.105701 4.4863281 -4.563477 7
-0.32477999 -4.8295569 5.6006289 7
-0.115423 -1.477247 -9.7527475 7
-0.070450999 -1.407728 -7.829854 7
-0.29336399 -4.712986 -8.8387747 7
-0.37880901 -6.3917861 -8.7122297 7
-0.036215998 -1.35578 -6.3925748 7
-0.267735 -4.7060809 -7.232439 7
-0.053034998 -1.6950819 -5.5634699 7
-0.237556 -4.6640811 -5.8790689 7
-0.091162004 -1.609073 -4.4818182 7
-0.032736 -1.500044 -3.080013 7
-0.067823999 -1.709136 -2.1323669 7
-0.27197999 -4.6032391 -0.89447403 7
-0.276499 -4.7726331 -0.73942798 7
-0.30413699 -4.7510781 0.165663 7
-0.30385399 -4.869853 5.5555482 7
-0.29396099 -4.8130202 1.061814 7
-0.31307501 -4.950048 1.1977791 7
-0.304169 -5.033237 4.8114672 7
-0.29684699 -4.9430261 4.9699321 7
-0.286042 -4.8366628 5.1186891 7
-0.32814199 -4.706634 1.323094 7
-0.32170501 -4.7575259 1.492322 7
-0.32599801 -5.069953 2.6582229 7
-0.33024701 -5.1087551 3.0007789 7
-0.332977 -5.1015158 3.5608871 7
-0.33040899 -4.977777 4.2377672 7
-0.319525 -4.900022 4.3939838 7
-0.315687 -4.8374581 4.552722 7
-0.29887301 -4.49651 1.432001 7
-0.306573 -4.583498 1.573306 7
-0.30874699 -4.6494989 1.725152 7
-0.30715901 -4.6986928 1.883456 7
-0.30355799 -4.7356458 2.044965 7
-0.29251301 -4.7442689 2.2130949 7
-0.28595299 -4.808568 2.6957419 7
-0.29820901 -4.8606181 2.8524401 7
-0.29190499 -4.8506689 3.015897 7
-0.29838499 -4.8728471 3.1771431 7
-0.29567 -4.8591008 3.379626 7
-0.29999399 -4.8605161 3.5420289 7
-0.30228299 -4.8494549 3.704129 7
-0.28024799 -4.498466 1.957062 7
-0.28583401 -4.5590701 2.101511 7
-0.19312701 -3.3689301 2.2570319 7
-0.199258 -3.4174311 2.353565 7
-0.19304401 -3.4367361 2.4606659 7
-0.162058 -3.2451711 2.3087339 7
-0.170719 -3.2965181 2.398185 7
-0.16423599 -3.3140881 2.500155 7
-0.046546999 4.5769072 -8.8519325 7
-0.144389 -1.549423 -12.031167 7
-0.102593 -1.572343 -9.6285496 7
-0.10892 4.5388198 -8.9131021 7
-0.077483997 -1.2955821 -8.1354752 7
-0.081527002 -1.602713 -8.1430273 7
0.00269 1.414345 -7.0390768 7
-0.059241001 -1.600045 -6.994329 7
-0.32448399 -4.6293411 -9.2571955 7
-0.103188 -1.60987 -6.188972 7
-0.391314 -4.6320949 -7.8793459 7
-0.024929 1.245484 -5.5194092 7
-0.023836 1.057085 -5.5503058 7
-0.074842997 -1.3921601 -5.5072298 7
-0.087219998 -1.613466 -5.5538559 7
-0.332477 -4.6622381 -6.3733411 7
-0.01176 1.2671191 -4.9785819 7
-0.01257 1.10539 -5.0277481 7
-0.061747 -1.411658 -5.002789 7
-0.076044999 -1.61852 -5.0524888 7
-0.0083959997 1.593345 -4.4875178 7
-0.0072369999 1.444967 -4.53475 7
-0.005969 1.295485 -4.5755458 7
-0.053475998 -1.431923 -4.602365 7
-0.068196997 -1.624148 -4.6440868 7
-0.090723999 -1.8489881 -4.7271218 7
-0.28489599 -4.7768478 -4.279017 7
-0.035528999 1.444366 -4.1746359 7
-0.033884998 1.309211 -4.2159438 7
-0.093754001 -1.609899 -4.2637472 7
-0.116178 -1.813486 -4.3236098 7
-0.321502 -4.6949048 -3.440419 7
-0.31753999 -4.7860661 -3.241399 7
-0.091682002 -1.627121 -3.997297 7
-0.094114996 -1.757151 -3.9457631 7
-0.261199 -4.7557631 -1.1163779 7
-0.25825101 -4.7559209 -0.91702902 7
-0.25965899 -4.776454 -0.714975 7
-0.043960001 -1.29197 -3.6486311 7
-0.061477002 -1.446923 -3.681906 7
-0.070508003 -1.582242 -3.6673419 7
-0.073201001 -1.528545 -3.180768 7
-0.050066002 -1.309323 -3.050415 7
-0.055202998 -1.404816 -3.016294 7
-0.065311998 -1.514202 -2.9950709 7
-0.090989999 -1.865438 -2.182858 7
-0.068634003 -1.6224689 -2.2352359 7
-0.054850999 -1.627602 -2.142637 7
-0.065652996 -1.707009 -2.0951459 7
-0.074818 -1.780139 -2.040179 7
-0.074643999 -1.820341 -1.966779 7
-0.057305001 -1.613341 -2.0431609 7
-0.047882002 -1.62378 -1.962039 7
