# .PCD v0.7 - Point Cloud Data file format
VERSION 0.7
FIELDS x y z intensity
SIZE 4 4 4 4
TYPE F F F F
COUNT 1 1 1 1
WIDTH 659
HEIGHT 1
VIEWPOINT 0 0 0 1 0 0 0
POINTS 659
DATA ascii
-0.025082 0.80529797 -72.75293 7
-0.57224798 -1.988647 74.03125 7
-0.58242399 -1.823364 74.310547 7
-0.071299002 4.1079102 -66.206055 7
-0.15003601 4.0849609 -68.569336 7
-0.0080260001 0.70959502 -65.431641 7
-0.62110502 -5.2906489 67.945312 7
-0.69563103 -5.2695308 69.730469 7
-0.74113297 -5.1887212 70.828125 7
-0.82793403 -5.173584 72.90625 7
-0.58736998 -2.2653811 67.420898 7
-0.57999998 -2.1035161 67.255859 7
0.0165 4.33606 -56.463867 7
-0.035243999 4.2987061 -57.850586 7
0.031592999 4.0324712 -56.069336 7
-0.030843999 4.008667 -57.741211 7
-0.067547001 3.931885 -58.726562 7
-0.026426001 0.64331102 -57.780273 7
-0.65650201 -5.202148 63.134766 7
-0.70860302 -5.1489258 64.283203 7
-0.77732998 -5.119019 65.795898 7
-0.53085703 -2.3265381 60.699219 7
-0.54377002 -2.196533 60.992188 7
-0.504219 -2.025635 60.137695 7
-0.47108099 -1.863281 59.423828 7
-0.45818901 0.47351101 59.24707 7
-0.47586301 0.61462402 59.637695 7
-0.45036501 3.6203611 59.077148 7
0.013582 4.2053218 -51.25293 7
-0.040624999 4.1820068 -52.575195 7
-0.078281 4.1220698 -53.495117 7
-0.012665 3.875854 -51.90625 7
-0.058010001 3.8262939 -53.012695 7
-0.111286 3.78479 -54.311523 7
-0.475609 0.31994599 54.680664 7
-0.414469 0.559448 53.461914 7
-0.43382099 0.68786597 53.851562 7
-0.406378 3.629761 53.310547 7
-0.104078 4.723999 -48.80957 7
-0.023207 4.210938 -47.052734 7
0.002991 3.9329829 -46.490234 7
-0.037907001 3.774658 -47.399414 7
-0.079186998 3.72644 -48.313477 7
-0.157288 -3.2459719 -46.538086 7
-0.128426 -3.317749 -45.935547 7
-0.38685599 0.50598103 49.307617 7
-0.408968 0.62487799 49.72168 7
-0.35699099 0.72448701 48.754883 7
-0.44604501 3.657104 50.37207 7
-0.40573701 3.7155759 49.617188 7
-0.36857399 3.775269 48.921875 7
-0.059108999 4.2875981 -44.094727 7
-0.068444997 4.1965332 -44.290039 7
-0.092106 4.1307368 -44.779297 7
-0.132708 4.0926509 -45.609375 7
-0.079241 3.888916 -44.530273 7
-0.109795 3.830811 -45.15625 7
-0.14294399 3.77356 -45.835938 7
-0.025341 0.483643 -44.061523 7
-0.019819001 0.375 -43.945312 7
0.017573999 -0.039062001 -38.759766 7
-0.0046290001 -0.13574199 -39.168945 7
0.022623001 -0.22912601 -38.65918 7
-0.22403701 -3.3630371 -43.530273 7
-0.19702899 -3.4304199 -43.014648 7
-0.16597 -3.489136 -42.423828 7
-0.14739799 -3.5644529 -42.06543 7
-0.41734701 -2.3657229 45.802734 7
-0.42162701 -2.2641599 45.883789 7
-0.32239699 0.65759301 44.34082 7
-0.32665399 0.76086402 44.414062 7
-0.39993101 3.723145 45.604492 7
-0.33619899 3.8361821 44.504883 7
-0.33500099 3.9368899 44.476562 7
0.50187701 22.372314 21.082031 7
-0.077477001 4.3287349 -40.34375 7
-0.100267 4.2720952 -40.772461 7
-0.123068 4.2131348 -41.202148 7
-0.15530799 4.1694341 -41.805664 7
-0.014252 0.73461902 -39.367188 7
0.0057390002 0.63195801 -38.995117 7
-0.026533 0.54394501 -39.591797 7
-0.047394 -0.046264999 -37.203125 7
-0.030309999 -0.136719 -36.905273 7
-0.0024089999 -0.224731 -36.417969 7
-0.032292999 -0.318726 -36.932617 7
-0.00066899997 -0.403687 -36.381836 7
-0.20619801 -3.5656741 -39.69043 7
-0.188076 -3.63501 -39.367188 7
-0.381908 -2.359741 42.068359 7
-0.39650899 -2.2762451 42.307617 7
-0.40077201 -2.183105 42.382812 7
-0.30253601 0.79370099 40.966797 7
-0.36182401 3.7905271 41.820312 7
-0.32333899 3.922363 41.196289 7
-0.056540001 4.4128418 -36.731445 7
-0.08563 4.3781738 -37.235352 7
-0.107559 4.3276372 -37.617188 7
-0.139717 4.294189 -38.173828 7
-0.175978 4.2655029 -38.800781 7
-0.19554301 4.2044678 -39.140625 7
0.014765 1.022217 -35.731445 7
0.001333 0.93981898 -35.960938 7
0.010393 0.84765601 -35.805664 7
-0.008835 0.76586902 -36.134766 7
-0.04377 0.68762201 -36.732422 7
-0.029317999 -0.36303699 -33.317383 7
0.00030700001 -0.43945301 -32.849609 7
-0.028472999 -0.52758801 -33.297852 7
-0.0056670001 -0.68518102 -32.932617 7
-0.0039440002 -0.76611298 -32.902344 7
-0.241199 -3.6768799 -36.767578 7
-0.19771001 -3.8765869 -36.048828 7
-0.394068 -2.0978999 39.107422 7
-0.28854799 0.642456 37.695312 7
-0.27207801 0.72363299 37.454102 7
-0.277899 0.81091303 37.539062 7
-0.36492899 3.7667241 38.709961 7
-0.307253 3.941406 37.844727 7
-0.291996 4.0032959 37.615234 7
-0.036013 4.5045171 -33.194336 7
-0.052099001 4.4542241 -33.452148 7
-0.076711997 4.4194341 -33.84668 7
-0.12809899 4.434082 -34.65625 7
-0.153093 4.3951421 -35.055664 7
0.030785 1.171631 -32.394531 7
0.024590001 1.013916 -32.493164 7
-0.021999 0.95349097 -33.224609 7
-0.056026001 -0.51098597 -31.748047 7
-0.030094 -0.58276403 -31.361328 7
-0.014816 -0.65588403 -31.131836 7
-0.017844999 -0.81115699 -31.168945 7
-0.266651 -3.810791 -34.582031 7
-0.25415 -3.875854 -34.386719 7
-0.221231 -3.9906011 -33.879883 7
-0.279266 0.681274 35.341797 7
-0.28068501 0.84240699 35.361328 7
-0.34898901 3.8435061 36.170898 7
-0.32768399 3.8929441 35.87207 7
-0.311436 3.9490969 35.640625 7
-0.291412 3.9981689 35.359375 7
-0.32129899 4.1280522 35.761719 7
-0.042438999 4.6062012 -30.963867 7
-0.059218999 4.563354 -31.217773 7
-0.074809998 4.516602 -31.454102 7
-0.092003003 4.4724121 -31.713867 7
-0.127066 4.4611821 -32.233398 7
-0.14147601 4.4083252 -32.453125 7
-0.003643 1.2648931 -30.672852 7
-0.018866999 1.197021 -30.897461 7
0.0076290001 1.106689 -30.509766 7
-0.019623 1.044922 -31.232422 7
-0.031582002 0.97277802 -31.410156 7
-0.021106999 -0.66747999 -28.494141 7
-0.034983002 -0.74291998 -28.679688 7
-0.035211999 -0.88598597 -28.675781 7
-0.029766001 -0.95483398 -28.597656 7
-0.011497 -1.088135 -28.341797 7
-0.26012 -3.9862061 -31.734375 7
-0.248291 -4.0447998 -31.561523 7
-0.214647 -4.0657959 -31.09375 7
-0.23734701 0.70178199 32.407227 7
-0.261381 0.78295898 32.713867 7
-0.241533 0.92382801 32.459961 7
-0.29196399 3.942627 32.952148 7
-0.25677699 3.9606929 32.49707 7
-0.27029201 4.0568848 32.661133 7
-0.28381699 4.1538091 32.825195 7
-0.051139999 4.6376948 -28.62207 7
-0.064525999 4.5936279 -28.811523 7
-0.097659998 4.5883789 -29.267578 7
-0.119642 4.5588379 -29.572266 7
-0.13913199 4.4484859 -29.854492 7
0.010395 1.297363 -28.048828 7
-0.010414 1.174438 -28.374023 7
-0.004526 1.1005861 -28.294922 7
-0.063291997 -0.85022002 -27.289062 7
-0.027863 -0.970581 -26.829102 7
-0.063179001 -1.053955 -27.276367 7
-0.032318 -1.173462 -26.874023 7
-0.075956002 4.7142329 -26.881836 7
-0.089808002 4.6751709 -27.066406 7
-0.102766 4.6339111 -27.237305 7
-0.124903 4.6097412 -27.525391 7
-0.14611401 4.5826421 -27.801758 7
-0.14895201 4.5185552 -27.847656 7
0.0031069999 1.549438 -26.206055 7
-0.001148 1.490967 -26.515625 7
-0.022224 1.438599 -26.787109 7
-0.0031620001 1.359619 -26.544922 7
-0.026548 1.307373 -26.844727 7
-0.031195 1.24292 -26.90625 7
-0.063923001 -1.041626 -25.224609 7
-0.047768001 -1.09668 -25.029297 7
-0.069155 -1.233521 -25.275391 7
-0.066813998 4.7961431 -24.6875 7
-0.075296 4.751709 -24.795898 7
-0.082291 4.7038569 -24.886719 7
-0.093252003 4.6636958 -25.024414 7
-0.116562 4.6479492 -25.304688 7
-0.134426 4.619873 -25.523438 7
-0.124136 4.535522 -25.413086 7
-0.0040660002 1.627197 -24.310547 7
-0.022953 1.579712 -24.536133 7
-0.0022740001 1.50354 -24.294922 7
-0.008804 1.4468991 -24.373047 7
-0.031129999 1.39978 -24.640625 7
-0.016394001 1.3288569 -24.467773 7
-0.057932001 -1.087036 -23.381836 7
-0.074919 -1.1544189 -23.566406 7
-0.060775999 -1.205933 -23.405273 7
-0.084705003 -1.3375241 -23.662109 7
-0.069518998 -1.387573 -23.489258 7
-0.065398999 -1.443848 -23.44043 7
-0.085010998 -1.515747 -23.652344 7
-0.102697 4.8442378 -23.291992 7
-0.102758 4.785522 -23.303711 7
-0.104414 4.730103 -23.333008 7
-0.113476 4.6898189 -23.44043 7
-0.13365901 4.6711431 -23.669922 7
-0.137419 4.619019 -23.720703 7
-0.110518 4.5063481 -23.438477 7
-0.063258998 -1.2937011 -21.810547 7
-0.084213004 -1.361084 -22.022461 7
-0.076981999 -1.412109 -21.944336 7
-0.070889004 -1.463501 -21.876953 7
-0.022753 1.5905761 -21.212891 7
-0.012083 1.529297 -21.106445 7
-0.024057001 1.483887 -21.232422 7
-0.020679001 1.4326169 -21.222656 7
-0.012854 1.3737791 -21.144531 7
-0.004433 1.315308 -21.060547 7
-0.089432001 4.7982178 -20.064453 7
-0.105137 4.7797852 -20.223633 7
-0.114252 4.695435 -20.331055 7
-0.123314 4.6618652 -20.427734 7
-0.144421 4.6521001 -20.637695 7
-0.115032 4.5415039 -20.370117 7
-0.115101 4.4897461 -20.380859 7
-0.016083 1.24292 -19.820312 7
-0.030005001 1.1999511 -19.956055 7
-0.039089002 1.154053 -20.046875 7
-0.012705 1.089722 -19.793945 7
-0.0043680002 1.035522 -19.714844 7
-0.015276 0.99023402 -19.822266 7
-0.067087002 -1.287964 -19.092773 7
-0.081212997 -1.3449709 -19.216797 7
-0.101725 -1.406494 -19.399414 7
-0.086499996 -1.445923 -19.256836 7
-0.080847003 -1.491089 -19.201172 7
-0.101358 -1.553833 -19.382812 7
-0.022839 0.92919898 -18.569336 7
-0.0094590001 0.87609899 -18.449219 7
-0.0094280001 0.83252001 -18.46875 7
-0.014624 0.78723103 -18.516602 7
-0.016615 0.74047899 -18.536133 7
-0.005165 0.68957502 -18.432617 7
0.001799 0.64038098 -18.370117 7
-0.081215002 -1.315796 -18.060547 7
-0.084663004 -1.363892 -18.086914 7
-0.104343 -1.422363 -18.250977 7
-0.096326999 -1.463745 -18.178711 7
-0.097760998 -1.510864 -18.186523 7
-0.087035999 -1.5500489 -18.09082 7
-0.083231002 -1.28479 -16.958984 7
-0.078296997 -1.325439 -16.915039 7
-0.073370002 -1.365723 -16.871094 7
-0.086328998 -1.417114 -16.97168 7
-0.092857003 -1.464844 -17.020508 7
-0.091500998 -1.5074461 -17.004883 7
-0.084431 -1.5461431 -16.944336 7
-0.087305002 4.7280269 -16.339844 7
-0.093085997 4.6975098 -16.396484 7
-0.100317 4.6700439 -16.462891 7
-0.1061 4.6390381 -16.518555 7
-0.113308 4.6108398 -16.585938 7
-0.13342901 4.6079102 -16.755859 7
-0.135626 4.5689702 -16.783203 7
-0.081395999 -1.294678 -15.922852 7
-0.081479996 -1.335693 -15.918945 7
-0.080030002 -1.3757319 -15.905273 7
-0.102829 -1.431152 -16.074219 7
-0.096078999 -1.468262 -16.019531 7
-0.09691 -1.51001 -16.021484 7
-0.091693997 -1.5476069 -15.977539 7
-0.105408 -1.598389 -16.078125 7
-0.050427999 -0.97644001 -14.756836 7
-0.054492999 -1.016602 -14.785156 7
-0.065766998 -1.060425 -14.863281 7
-0.071442001 -1.10144 -14.901367 7
-0.061900999 -1.135376 -14.829102 7
-0.060375001 -1.172974 -14.81543 7
-0.064439997 -1.213623 -14.84082 7
-0.079735003 -1.260498 -14.947266 7
-0.082197003 -1.3006589 -14.961914 7
-0.077460997 -1.33667 -14.923828 7
-0.077537999 -1.375366 -14.920898 7
-0.083205998 -1.41748 -14.958008 7
-0.104113 -1.469849 -15.104492 7
-0.094563 -1.502563 -15.032227 7
-0.093846999 -1.540894 -15.022461 7
-0.093115002 -1.5793459 -15.013672 7
-0.061581001 -0.96826202 -14.016602 7
-0.063343003 -1.005371 -14.025391 7
-0.064242996 -1.042358 -14.029297 7
-0.082840003 -1.087891 -14.15332 7
-0.072793998 -1.119751 -14.082031 7
-0.068660997 -1.154297 -14.048828 7
-0.065350004 -1.189087 -14.023438 7
-0.072160996 -1.22937 -14.067383 7
-0.087402001 -1.274536 -14.167969 7
-0.084930003 -1.310059 -14.146484 7
-0.080789998 -1.34436 -14.115234 7
-0.082537003 -1.382202 -14.124023 7
-0.086823002 -1.421509 -14.148438 7
-0.106274 -1.470947 -14.277344 7
-0.100431 -1.504272 -14.234375 7
-0.099661 -1.5406491 -14.225586 7
-0.097212002 -1.57605 -14.203125 7
-0.109392 4.7650151 -13.569336 7
-0.089194998 4.6877441 -13.448242 7
-0.087531999 4.6488042 -13.449219 7
-0.087554999 4.6135249 -13.459961 7
-0.087608002 4.578125 -13.470703 7
-0.093543999 4.554565 -13.520508 7
-0.110432 4.5526118 -13.642578 7
-0.109631 4.5150151 -13.646484 7
-0.110508 4.480835 -13.663086 7
-0.081101999 -1.3117681 -13.334961 7
-0.084711 -1.348877 -13.354492 7
-0.084771998 -1.3837889 -13.351562 7
-0.091934003 -1.4230959 -13.394531 7
-0.088449001 -1.456055 -13.367188 7
-0.094719 -1.494995 -13.404297 7
-0.095665 -1.530762 -13.407227 7
-0.098403998 -1.567627 -13.419922 7
-0.32150301 -4.523438 -14.27832 7
-0.32337999 -4.5639648 -14.279297 7
-0.31724 -4.5896001 -14.229492 7
-0.31467599 -4.6218262 -14.202148 7
-0.31209001 -4.6539311 -14.174805 7
-0.30950499 -4.6856689 -14.147461 7
-0.31137499 -4.7258301 -14.146484 7
-0.32213601 -4.7830811 -14.200195 7
-0.107868 4.7593989 -12.732422 7
-0.088395998 4.6856689 -12.623047 7
-0.091964997 4.6595459 -12.65625 7
-0.096436001 4.6350098 -12.694336 7
-0.100897 4.6104741 -12.733398 7
-0.105352 4.5856929 -12.771484 7
-0.108938 4.559082 -12.803711 7
-0.121393 4.5498052 -12.891602 7
-0.132057 4.5366211 -12.96875 7
-0.099319004 -1.292847 -12.743164 7
-0.080798998 -1.31543 -12.625 7
-0.081782997 -1.349365 -12.62793 7
-0.083697997 -1.383667 -12.636719 7
-0.079122998 -1.414185 -12.603516 7
-0.106133 -1.464478 -12.767578 7
-0.094109997 -1.490234 -12.689453 7
-0.092325002 -1.5224611 -12.673828 7
-0.095178999 -1.557739 -12.686523 7
-0.088725999 -1.58667 -12.643555 7
-0.312428 -4.4998779 -13.40918 7
-0.31812501 -4.5452881 -13.430664 7
-0.316324 -4.5770259 -13.40918 7
-0.30616599 -4.5931401 -13.337891 7
-0.30532601 -4.6263428 -13.321289 7
-0.30727199 -4.6647949 -13.321289 7
-0.31015599 -4.704834 -13.327148 7
-0.327021 -4.771729 -13.415039 7
-0.087765001 -1.317261 -11.963867 7
-0.069274999 -1.337891 -11.849609 7
-0.070297003 -1.369751 -11.852539 7
-0.073296003 -1.4030761 -11.866211 7
-0.082135998 -1.440063 -11.914062 7
-0.099779002 -1.4831541 -12.015625 7
-0.092022002 -1.509644 -11.96582 7
-0.085257001 -1.536743 -11.919922 7
-0.088247001 -1.57019 -11.933594 7
-0.308256 -4.5047612 -12.581055 7
-0.31323099 -4.546875 -12.598633 7
-0.30939299 -4.572876 -12.56543 7
-0.30849299 -4.604126 -12.548828 7
-0.30660999 -4.633667 -12.527344 7
-0.30670899 -4.6665039 -12.515625 7
-0.30483201 -4.6958008 -12.494141 7
-0.31665599 -4.7512212 -12.547852 7
-0.081845999 -1.284912 -11.326172 7
-0.081894003 -1.314941 -11.323242 7
-0.091154002 -1.3505861 -11.371094 7
-0.077933997 -1.372925 -11.294922 7
-0.080025002 -1.404175 -11.302734 7
-0.083145 -1.4362791 -11.31543 7
-0.086278997 -1.468384 -11.329102 7
-0.099606 -1.5074461 -11.401367 7
-0.095577002 -1.5350339 -11.374023 7
-0.091558002 -1.562622 -11.34668 7
-0.095701002 -1.5955811 -11.366211 7
-0.313797 -4.7181401 -11.836914 7
-0.31388101 -4.7495122 -11.825195 7
-0.425291 -6.3640141 -11.803711 7
-0.077142999 -1.305542 -10.673828 7
-0.080406003 -1.336182 -10.688477 7
-0.080468997 -1.364746 -10.68457 7
-0.075167 -1.390137 -10.652344 7
-0.076288 -1.419312 -10.655273 7
-0.074189998 -1.446655 -10.639648 7
-0.087112002 -1.483521 -10.705078 7
-0.097875997 -1.5194089 -10.758789 7
-0.089363001 -1.542358 -10.708984 7
-0.089417003 -1.571167 -10.706055 7
-0.31105801 -4.487915 -11.186523 7
-0.314354 -4.523438 -11.191406 7
-0.317734 -4.5889888 -11.186523 7
-0.313499 -4.6108398 -11.15332 7
-0.31357601 -4.6407471 -11.142578 7
-0.31257799 -4.668335 -11.126953 7
-0.31051099 -4.6940918 -11.104492 7
-0.315956 -4.7338872 -11.120117 7
-0.31710801 -4.7657471 -11.114258 7
-0.106709 4.734375 -9.9091797 7
-0.089592002 4.6721191 -9.8349609 7
-0.086402997 4.6387939 -9.8300781 7
-0.085349999 4.6097412 -9.8359385 7
-0.082148001 4.5766602 -9.8310547 7
-0.084337004 4.5541992 -9.8505859 7
-0.086487003 4.5316162 -9.8730469 7
-0.073467001 -1.30127 -10.123047 7
-0.082475998 -1.3338619 -10.165039 7
-0.075801998 -1.357178 -10.12793 7
-0.072506003 -1.3824461 -10.107422 7
-0.077037998 -1.4124759 -10.126953 7
-0.077083997 -1.439941 -10.124023 7
-0.082735002 -1.470825 -10.148438 7
-0.096213996 -1.507202 -10.213867 7
-0.089546002 -1.530273 -10.175781 7
-0.087366 -1.556152 -10.160156 7
-0.091895998 -1.58667 -10.178711 7
-0.095314004 -1.616455 -10.192383 7
-0.103193 -1.649658 -10.228516 7
-0.106718 -1.734741 -10.233398 7
-0.31762099 -4.6131592 -10.545898 7
-0.31543899 -4.6373291 -10.524414 7
-0.31553099 -4.6655269 -10.513672 7
-0.318964 -4.7000728 -10.518555 7
-0.319033 -4.728271 -10.506836 7
-0.32697299 -4.7713618 -10.533203 7
-0.095215 4.710083 -9.2724609 7
-0.087403998 4.6685791 -9.2460938 7
-0.079600997 4.6273189 -9.2216797 7
-0.080723003 4.604248 -9.2373047 7
-0.082987003 4.583252 -9.2587891 7
-0.082193002 -1.3017581 -9.6591797 7
-0.083414003 -1.328735 -9.6611328 7
-0.091628999 -1.359863 -9.6982422 7
-0.081165001 -1.379639 -9.6435547 7
-0.081219003 -1.405884 -9.640625 7
-0.083604999 -1.433594 -9.6484385 7
-0.081317998 -1.45813 -9.6337891 7
-0.093039997 -1.492188 -9.6875 7
-0.104773 -1.526123 -9.7392578 7
-0.101318 -1.550171 -9.7197266 7
-0.095535003 -1.5723881 -9.6875 7
-0.080096997 -1.321045 -9.1748047 7
-0.087503001 -1.3757319 -9.2021484 7
-0.083958 -1.423584 -9.1777344 7
-0.092508003 -1.454224 -9.2148438 7
-0.088914998 -1.477051 -9.1943359 7
-0.104828 -1.537964 -9.2607422 7
-0.101273 -1.585815 -9.2363281 7
-0.073843002 -1.281738 -8.6669922 7
-0.077711001 -1.307861 -8.6816406 7
-0.076475002 -1.331177 -8.6728516 7
-0.086712003 -1.360962 -8.7138672 7
-0.072761998 -1.376587 -8.6494141 7
-0.076673999 -1.426392 -8.6591797 7
-0.076719001 -1.450317 -8.6552734 7
-0.080580004 -1.476685 -8.6699219 7
-0.095888004 -1.5107419 -8.7333984 7
-0.099756002 -1.537231 -8.7470703 7
-0.089625999 -1.554443 -8.6982422 7
-0.089671999 -1.578369 -8.6943359 7
-0.32504699 -4.6376948 -8.8359385 7
-0.32127801 -4.6549072 -8.8095703 7
-0.32008001 -4.6766362 -8.7929688 7
-0.31760201 -4.6960449 -8.7714844 7
-0.31766301 -4.7200928 -8.7597656 7
-0.32028601 -4.749023 -8.7597656 7
-0.325459 -4.782959 -8.7685547 7
-0.086956002 -1.282593 -8.3066406 7
-0.084356003 -1.304077 -8.2929688 7
-0.091022 -1.330933 -8.3173828 7
-0.084555 -1.395996 -8.2792969 7
-0.088565998 -1.421631 -8.2929688 7
-0.088611998 -1.444458 -8.2900391 7
-0.088642001 -1.4675291 -8.2861328 7
-0.09663 -1.495728 -8.3173828 7
-0.32569501 -4.6809082 -8.3115234 7
-0.325748 -4.703979 -8.3017578 7
-0.32715201 -4.7293701 -8.2949219 7
-0.32722101 -4.7523189 -8.2832031 7
-0.32727399 -4.775269 -8.2724609 7
-0.31417799 -4.4871831 -7.8544922 7
-0.31287399 -4.5065918 -7.8388672 7
-0.315689 -4.5334468 -7.8378911 7
-0.31712899 -4.5579829 -7.8320308 7
-0.31996 -4.5848389 -7.8310552 7
-0.32278299 -4.6118159 -7.8310552 7
-0.32700899 -4.6413569 -7.8349609 7
-0.32014999 -4.6505132 -7.7988281 7
-0.320227 -4.6721191 -7.7880859 7
-0.31336999 -4.6810298 -7.750977 7
-0.31343099 -4.7027588 -7.7402339 7
-0.321798 -4.7401118 -7.7587891 7
-0.32462099 -4.7670898 -7.757812 7
-0.321922 -4.7834468 -7.7363281 7
-0.310877 -4.5595698 -7.358398 7
-0.31972501 -4.6585689 -7.3457031 7
-0.31555399 -4.691895 -7.3076172 7
-0.317047 -4.71521 -7.3017578 7
-0.319969 -4.741333 -7.3007808 7
-0.320099 -4.7825928 -7.2773442 7
-0.319038 -4.5136719 -6.9775391 7
-0.320595 -4.5361328 -6.9726558 7
-0.304272 -4.5262451 -6.90625 7
-0.31772599 -4.570312 -6.9414058 7
-0.31035 -4.5765381 -6.905273 7
-0.33124399 -4.634521 -6.9628911 7
-0.32833701 -4.6490479 -6.9423828 7
-0.32094601 -4.6549072 -6.907227 7
-0.32100701 -4.674438 -6.8964839 7
-0.32404301 -4.6998291 -6.8945308 7
-0.31815499 -4.708374 -6.8632808 7
-0.318216 -4.7277832 -6.8525391 7
-0.319765 -4.7503662 -6.8466802 7
-0.32429501 -4.7783198 -6.8496089 7
-0.313936 -4.7779541 -6.804688 7
-0.074254997 4.4735112 -5.561523 7
-0.081928 4.4720459 -5.5957031 7
-0.075796001 4.4432368 -5.5869141 7
-0.086534999 4.4476318 -5.6318359 7
-0.081944004 4.4217529 -5.6279302 7
-0.091158003 4.4229741 -5.6669922 7
-0.103437 4.4299321 -5.7158198 7
-0.101896 4.40979 -5.7207031 7
-0.094237998 4.3781738 -5.7070308 7
-0.091173001 4.3553472 -5.7080078 7
-0.092707001 4.3413091 -5.7236328 7
-0.089654997 4.318481 -5.7236328 7
-0.092721999 4.307251 -5.7441411 7
-0.089670002 4.2844238 -5.7441411 7
-0.089670002 4.267334 -5.7539058 7
-0.085064001 4.2414551 -5.750977 7
-0.310505 -4.5965581 -6.078125 7
-0.318674 -4.6645508 -6.0693359 7
-0.313923 -4.6732178 -6.0439448 7
-0.31397599 -4.6907959 -6.0332031 7
-0.31404501 -4.7084961 -6.0214839 7
-0.314098 -4.7260742 -6.0107422 7
-0.315754 -4.746582 -6.0039058 7
-0.31421301 -4.76123 -5.9873052 7
-0.314266 -4.7788091 -5.976562 7
-0.31271899 -4.7930908 -5.960938 7
-0.30322799 -4.4908452 -5.7148442 7
-0.30328199 -4.50769 -5.704102 7
-0.30831 -4.5335689 -5.7080078 7
-0.303404 -4.5412598 -5.6826172 7
-0.30013299 -4.552002 -5.6621089 7
-0.30351099 -4.5748291 -5.6611328 7
-0.32014799 -4.622314 -5.6982422 7
-0.31025499 -4.620605 -5.6591802 7
-0.313618 -4.6435552 -5.657227 7
-0.31532699 -4.6634521 -5.6513672 7
-0.31872201 -4.6862788 -5.648438 7
-0.310469 -4.6875 -5.6132808 7
-0.31218499 -4.7071528 -5.608398 7
-0.30892801 -4.7175288 -5.5869141 7
-0.31727201 -4.75 -5.5996089 7
-0.31566399 -4.7631841 -5.5839839 7
-0.30743399 -4.763916 -5.5488281 7
-0.309149 -4.7835689 -5.5419922 7
0.043986998 -1.098626 -14.773269 7
-0.156682 -4.6035528 -13.285483 7
-0.063490003 -1.583762 -9.0962286 7
-0.454795 -6.248558 -11.599862 7
-0.057725001 -1.516325 -7.6638088 7
-0.29175699 -4.7083292 -8.8235159 7
0.001273 -1.439736 -6.012043 7
-0.260052 -4.6833978 -7.1678748 7
-0.39170599 -6.3474579 -7.4027801 7
0.019127 -1.3930399 -5.0136018 7
-0.240602 -4.673192 -5.9019141 7
-0.045343999 -1.35339 -4.2036381 7
-0.31109601 -4.673183 -4.0708051 7
-0.29451001 -4.6546931 -3.332413 7
-0.010615 -1.343603 -0.575221 7
-0.024435 -1.507897 -0.59662497 7
-0.041278999 -1.6764359 -0.62198001 7
-0.30925801 -4.954628 5.440536 7
-0.30161601 -4.839613 5.5924258 7
0.0056599998 -1.3244261 -0.35626301 7
-0.0083389999 -1.4795409 -0.378488 7
-0.025505001 -1.638942 -0.405108 7
-0.047412001 -1.804906 -0.44124299 7
-0.30916399 -5.095499 4.6891899 7
-0.295358 -4.9895082 4.8427482 7
-0.28967699 -4.9032588 5.001451 7
-0.30752701 -4.6662359 1.392687 7
-0.31340301 -4.7498441 1.543555 7
-0.31385201 -4.811677 1.704532 7
-0.32124099 -4.8876548 1.860172 7
-0.33360499 -4.9874229 4.24019 7
-0.30836999 -4.866734 4.3841138 7
-0.31338099 -4.8169279 4.590538 7
-0.292739 -4.7540941 2.252568 7
-0.278236 -4.5855789 2.2969141 7
-0.28539899 -4.6374631 2.444499 7
-0.29289699 -4.7175112 2.9060481 7
-0.29385799 -4.7275839 3.06213 7
-0.272894 -4.539073 2.9221029 7
-0.271873 -4.543232 3.07095 7
-0.051077001 4.479063 -8.9915333 7
-0.02029 1.242219 -6.32055 7
-0.25210899 4.5102859 -13.469111 7
-0.122941 -1.349697 -9.9647112 7
-0.39390001 -4.6870279 -13.544199 7
-0.113253 4.4842272 -9.0074692 7
-0.34254 -4.6579008 -10.906471 7
-0.062914997 -1.422864 -7.072062 7
-0.32263601 -4.7087479 -9.199193 7
-0.40705499 -6.3949008 -9.4736433 7
-0.100619 -1.441602 -6.2053528 7
-0.111746 -1.688711 -6.250638 7
-0.38616601 -4.6793208 -7.797698 7
-0.34395301 -4.7298741 -7.3045521 7
-0.46268201 -6.3660908 -7.5714092 7
-0.048441999 1.256741 -5.7406182 7
-0.078138001 -1.447349 -5.5213561 7
-0.100711 -1.701216 -5.6467562 7
-0.025900999 1.262777 -5.1037579 7
-0.065347001 -1.462747 -5.0162449 7
-0.085529 -1.68955 -5.105967 7
-0.014113 1.5761369 -4.5424161 7
-0.016659999 1.4367729 -4.615603 7
-0.017596001 1.290011 -4.672091 7
-0.049749002 -1.310936 -4.6147218 7
-0.057360999 -1.4799269 -4.614975 7
-0.076825999 -1.688702 -4.6854472 7
-0.073159002 -1.321188 -4.2424278 7
-0.082066 -1.476917 -4.241241 7
-0.303996 -4.590271 -3.3894839 7
-0.30885199 -4.7328582 -3.218204 7
-0.065733999 -1.3425339 -3.9597671 7
-0.070363 -1.475178 -3.931154 7
-0.043411002 -1.343145 -3.4440141 7
-0.055316001 -1.475265 -3.443254 7
-0.050615001 -1.559711 -3.3646381 7
-0.053771 -1.320513 -3.202188 7
