# .PCD v0.7 - Point Cloud Data file format
VERSION 0.7
FIELDS x y z intensity
SIZE 4 4 4 4
TYPE F F F F
COUNT 1 1 1 1
WIDTH 776
HEIGHT 1
VIEWPOINT 0 0 0 1 0 0 0
POINTS 776
DATA ascii
0.041198999 4.3067632 -69.475586 7
0.081000999 4.0611572 -68.15918 7
0.030440999 3.989136 -69.833984 7
0.19691101 4.2685552 -57.310547 7
0.157242 4.21106 -58.488281 7
0.196289 3.9902339 -57.336914 7
0.149712 3.940552 -58.717773 7
0.075084999 3.9367681 -60.928711 7
-0.87017399 -5.235352 73.709961 7
0.17980599 4.2313228 -51.574219 7
0.121651 4.2242432 -53.116211 7
0.089497 4.1583252 -53.973633 7
0.14286 3.92395 -52.56543 7
0.11005 3.8564451 -53.438477 7
0.048774999 3.83606 -55.064453 7
-0.81428897 -5.174438 66.445312 7
-0.89415401 -5.1542969 68.196289 7
-0.959755 -5.1027832 69.637695 7
-0.78210098 -2.219727 66.082031 7
-0.77462 -2.0614009 65.929688 7
0.159641 4.109375 -47.130859 7
0.107746 4.0960689 -48.381836 7
0.080132 4.0306401 -49.049805 7
0.140167 3.79895 -47.613281 7
0.1021 3.7507319 -48.532227 7
0.050193999 3.7225339 -49.78418 7
0.108292 0.426025 -50.25 7
-0.0087280003 -3.21106 -47.757812 7
0.051998001 -3.348145 -46.371094 7
-0.89633602 -5.3015141 62.547852 7
-0.92605603 -5.206665 63.155273 7
-0.75105703 -2.2883301 59.933594 7
-0.71452302 -1.986328 59.224609 7
-0.69112802 -1.834473 58.766602 7
-0.65381998 0.337769 58.128906 7
-0.619385 0.599365 57.448242 7
-0.684223 3.4769289 58.791992 7
-0.62451899 3.671509 57.589844 7
0.102959 4.2694092 -43.896484 7
0.078491002 4.2104492 -44.436523 7
0.051865 4.1530762 -45.022461 7
0.016979 4.1088872 -45.790039 7
0.068905003 3.900635 -44.663086 7
0.044964001 3.8339839 -45.191406 7
0.0087169996 3.7861331 -45.987305 7
0.144611 0.58972198 -43.056641 7
0.117374 0.490601 -43.647461 7
0.14345901 0.378784 -43.076172 7
0.106049 0.278198 -43.889648 7
0.163479 0.165894 -42.632812 7
0.13121 -0.052124001 -41.180664 7
-0.098015003 -2.9659419 -45.723633 7
-0.069130003 -3.0383301 -45.116211 7
-0.120522 -3.2202151 -46.165039 7
-0.092502996 -3.2919919 -45.573242 7
-0.047782999 -3.33606 -44.638672 7
-0.025947999 -3.4111331 -44.174805 7
-0.0028230001 -3.4876709 -43.757812 7
-0.62552297 0.43762201 53.675781 7
-0.53412998 0.54333502 51.978516 7
-0.57352102 0.67272902 52.713867 7
-0.61457801 3.649292 53.457031 7
-0.558815 3.697876 52.416016 7
0.546242 24.986084 21.079102 7
0.54612702 25.037109 21.024414 7
0.54483801 25.106812 20.981445 7
0.54535699 25.148315 20.917969 7
0.54856902 25.148193 20.823242 7
0.044922002 4.254272 -41.544922 7
0.017284 4.205811 -42.107422 7
-0.012974 4.1595459 -42.722656 7
0.085097998 0.46301299 -42.15625 7
0.104156 0.25415 -41.75293 7
0.076355003 0.153809 -42.327148 7
0.10828 0.049438 -41.660156 7
0.090611003 -0.128418 -37.054688 7
0.111744 -0.217529 -36.661133 7
0.115189 -0.32543901 -37.695312 7
-0.086575001 -3.496948 -41.25 7
-0.066009998 -3.565063 -40.850586 7
-0.049782 -3.63855 -40.533203 7
-0.046576999 -3.7320559 -40.460938 7
-0.475384 0.59667999 46.889648 7
-0.491943 0.70874 47.173828 7
-0.46851701 0.81030297 46.775391 7
-0.54347199 3.7119141 48.009766 7
-0.50743902 3.7723391 47.388672 7
-0.47890899 3.8404541 46.896484 7
0.47653201 23.043335 21.102539 7
0.47705099 23.085571 21.043945 7
0.47725701 23.131958 20.989258 7
0.479103 23.155762 20.916992 7
0.47732899 23.229004 20.883789 7
0.061836001 4.4111328 -37.466797 7
0.038589001 4.3658452 -37.901367 7
0.015656 4.3179932 -38.331055 7
-0.001575 4.256958 -38.654297 7
-0.039742 4.2341309 -39.361328 7
0.122559 0.95336902 -36.486328 7
0.107815 0.869385 -36.757812 7
0.117828 0.775024 -36.572266 7
0.087852001 0.69482398 -37.125 7
0.046443999 -0.221558 -35.839844 7
0.085358001 -0.39086899 -35.154297 7
0.075447001 -0.47961399 -35.322266 7
0.104156 -0.55896002 -34.819336 7
-0.124489 -3.6551509 -38.53125 7
-0.085854001 -3.7794189 -37.837891 7
-0.54242301 -2.3010249 44.551758 7
-0.54814899 -2.203613 44.649414 7
-0.457573 0.55090302 43.37207 7
-0.46014801 0.75060999 43.416016 7
-0.502644 3.801147 44.019531 7
-0.44826499 3.9224851 43.144531 7
0.41230801 21.427856 21.083008 7
0.41284901 21.469849 21.02832 7
0.41482499 21.494751 20.958008 7
0.41251799 21.571411 20.93457 7
0.412716 21.617432 20.882812 7
0.413975 21.650513 20.820312 7
0.076007999 4.4707031 -34.206055 7
0.053943999 4.4318848 -34.588867 7
0.035659999 4.3835449 -34.90625 7
0.0050349999 4.3582759 -35.432617 7
-0.028682999 4.3364258 -36.012695 7
-0.053828999 4.2957759 -36.446289 7
0.123497 1.129639 -33.572266 7
0.074176997 0.816284 -34.411133 7
0.060059 -0.50231898 -31.651367 7
0.086777002 -0.65100098 -31.229492 7
0.068653002 -0.73486298 -31.507812 7
0.091011003 -0.804443 -31.15625 7
-0.148785 -3.7329099 -35.523438 7
-0.13650499 -3.799927 -35.316406 7
-0.123844 -3.865356 -35.103516 7
-0.124561 -4.039062 -35.09082 7
-0.477074 -2.3475339 40.239258 7
-0.499695 -2.27478 40.577148 7
-0.536964 -2.118408 41.134766 7
-0.40679899 0.858643 39.378906 7
-0.484909 3.8540039 40.426758 7
-0.44773099 3.8918459 39.875977 7
-0.42129099 3.9432371 39.483398 7
-0.421505 4.0340581 39.479492 7
0.046565998 4.7087402 -31.623047 7
0.053936001 4.6141362 -31.517578 7
0.039618999 4.56604 -31.75 7
0.001667 4.4862061 -32.356445 7
-0.023871999 4.4571528 -32.759766 7
-0.01725 4.362793 -32.666016 7
0.089469999 1.209229 -31.219727 7
0.113274 1.118896 -30.848633 7
0.085837997 1.055908 -31.276367 7
0.093956001 0.97460902 -31.151367 7
0.029681999 -0.64648402 -30.664062 7
0.058986999 -0.712524 -30.225586 7
0.039597001 -0.79467797 -30.508789 7
0.041420002 -0.86950701 -30.477539 7
0.064438 -0.93481398 -30.131836 7
-0.18905599 -3.8800049 -33.65625 7
-0.16960099 -3.9304199 -33.355469 7
-0.157986 -3.9927981 -33.172852 7
-0.68964398 -5.3478999 40.420898 7
-0.70272398 -5.279541 40.614258 7
-0.38938501 0.71704102 36.818359 7
-0.41172799 0.80798298 37.125 7
-0.38567001 0.88366699 36.767578 7
-0.467098 3.8531489 37.773438 7
-0.442375 3.902832 37.427734 7
-0.421864 3.9572749 37.139648 7
-0.40686801 4.0189209 36.926758 7
-0.44058999 4.1568599 37.381836 7
0.042908002 4.6317139 -29.515625 7
0.033619002 4.5776372 -29.65918 7
0.016739 4.539062 -29.914062 7
-0.0049399999 4.5090332 -30.236328 7
-0.032581002 4.4897461 -30.645508 7
-0.041878 4.4320068 -30.790039 7
0.094443999 1.344727 -29.005859 7
0.099822998 1.197021 -28.930664 7
0.078487001 1.136353 -29.241211 7
0.053966999 1.075928 -29.600586 7
0.056271002 1.0144041 -30.304688 7
0.034519002 -0.85217297 -27.533203 7
0.064552002 -0.97570801 -27.120117 7
0.041939002 -1.054565 -27.421875 7
0.054370999 -1.116333 -27.249023 7
0.055126 -1.184082 -27.235352 7
-0.65379298 -5.333252 37.164062 7
-0.357494 0.81262201 33.915039 7
-0.337273 0.882568 33.65625 7
-0.400013 3.8822019 34.318359 7
-0.37889901 3.927979 34.041992 7
-0.36599001 3.985352 33.870117 7
0.030117 4.7232671 -27.310547 7
0.014496 4.6888428 -27.52832 7
-0.002846 4.6566162 -27.769531 7
-0.015873 4.6143799 -27.955078 7
-0.040123001 4.594604 -28.288086 7
-0.056614 4.557251 -28.518555 7
0.095875002 1.512329 -26.729492 7
0.093944997 1.3798831 -26.758789 7
0.057461001 1.2674561 -27.256836 7
0.003296 -0.96154797 -26.572266 7
0.026825 -1.016724 -26.267578 7
0.032145999 -1.079712 -26.195312 7
0.0088160001 -1.157349 -26.489258 7
0.025970001 -1.213745 -26.265625 7
0.025367999 -1.2794189 -26.267578 7
0.0078769997 4.780396 -25.652344 7
0.0059509999 4.7199712 -25.686523 7
-0.010281 4.690186 -25.899414 7
-0.020068999 4.6456299 -26.030273 7
-0.040447 4.6226811 -26.295898 7
-0.058067001 4.592773 -26.525391 7
-0.058159001 4.5264888 -26.536133 7
0.069339998 1.5567631 -25.19043 7
0.052134998 1.5057369 -25.40918 7
0.054522999 1.460083 -25.949219 7
0.059852999 1.391724 -25.882812 7
0.042961001 1.337402 -26.101562 7
0.013996 -1.0712889 -24.423828 7
0.0084840003 -1.135254 -24.485352 7
0.018519999 -1.251953 -24.357422 7
0.001732 -1.32312 -24.551758 7
0.013874 -1.3768311 -24.402344 7
0.015209 -1.437134 -24.381836 7
0.0052109999 4.803833 -23.679688 7
-0.0033 4.7625728 -23.788086 7
-0.012821 4.723022 -23.908203 7
-0.024323 4.6871338 -24.050781 7
-0.040295001 4.6599121 -24.245117 7
-0.057751 4.6347661 -24.458008 7
-0.047432002 4.5522461 -24.347656 7
0.064873002 1.685303 -23.344727 7
0.040824998 1.585449 -23.631836 7
0.064606003 1.508911 -23.356445 7
0.057551999 1.454834 -23.441406 7
0.042045999 1.405884 -23.625977 7
0.058346 1.336182 -23.435547 7
0.0030439999 -1.29126 -22.799805 7
-0.0092580002 -1.4136961 -22.927734 7
-0.0072750002 -1.4699709 -22.900391 7
-0.019989001 -1.536499 -23.037109 7
0.045837 1.588745 -21.916992 7
0.045745999 1.533325 -21.920898 7
0.040339999 1.481567 -21.982422 7
0.047164999 1.421509 -21.910156 7
0.050278001 1.364014 -21.87793 7
0.047522999 1.310303 -21.911133 7
-0.0094910003 -1.321533 -21.347656 7
-0.016987 -1.434082 -21.416992 7
-0.018787 -1.489502 -21.430664 7
-0.012516 4.8109131 -20.580078 7
-0.01939 4.7731929 -20.660156 7
-0.021164 4.7243652 -20.688477 7
-0.024948001 -1.301025 -20.116211 7
-0.069038004 4.7900391 -19.758789 7
-0.071525998 4.744873 -19.791992 7
-0.077629 4.7069092 -19.859375 7
-0.084918998 4.6712651 -19.938477 7
-0.055424001 4.5604248 -19.671875 7
-0.048248 4.4959722 -19.613281 7
0.043044999 0.58007801 -17.90332 7
0.046813998 0.53320301 -17.869141 7
0.044174001 0.48791501 -17.893555 7
0.043449 0.442139 -17.900391 7
0.048537999 0.395264 -17.854492 7
0.053592999 0.34863299 -17.808594 7
-0.031094 -1.2906491 -17.695312 7
-0.031849001 -1.336182 -17.698242 7
-0.031948 -1.38147 -17.695312 7
-0.053566001 -1.440552 -17.876953 7
-0.044707999 -1.481567 -17.808594 7
-0.040104002 -1.5238039 -17.763672 7
-0.047584999 -1.5743411 -17.824219 7
-0.044357002 4.77356 -17.013672 7
-0.039650001 4.719604 -16.986328 7
-0.052607998 4.7030029 -17.104492 7
-0.052662 4.6590581 -17.115234 7
-0.056109998 4.6220698 -17.155273 7
-0.066359997 4.5985112 -17.25 7
-0.060291 4.5419922 -17.210938 7
-0.054249 4.4855962 -17.169922 7
0.027644999 0.200073 -17.256836 7
0.034949999 0.15527301 -17.193359 7
0.030815 0.111572 -17.227539 7
0.032088999 0.067261003 -17.216797 7
0.030663 0.023071 -17.228516 7
-0.030739 -1.301392 -16.59082 7
-0.032257002 -1.3449709 -16.598633 7
-0.028778 -1.385132 -16.566406 7
-0.053135 -1.443481 -16.759766 7
-0.043956999 -1.480225 -16.680664 7
-0.044757999 -1.523682 -16.682617 7
-0.039856002 -1.562988 -16.639648 7
-0.25403199 -4.5349121 -17.879883 7
-0.24986599 -4.5726318 -17.834961 7
-0.242836 -4.6047359 -17.767578 7
-0.243668 -4.6514888 -17.762695 7
-0.25307101 -4.7147222 -17.825195 7
-0.26248899 -4.778564 -17.886719 7
-0.066569999 4.7554932 -16.083008 7
-0.060885999 4.7019038 -16.049805 7
-0.063846998 4.6246338 -16.094727 7
-0.068218 4.592041 -16.138672 7
-0.081200004 4.5762939 -16.250977 7
-0.064006999 4.4998779 -16.126953 7
-0.014912 -0.66027802 -15.510742 7
-0.014233 -0.700073 -15.503906 7
-0.0090260003 -0.73828101 -15.460938 7
-0.0045850002 -0.77661097 -15.424805 7
-0.0046620001 -0.81664997 -15.422852 7
-0.0092770001 -0.858154 -15.455078 7
-0.015377 -0.900635 -15.5 7
-0.014713 -0.94030797 -15.492188 7
-0.036591001 -1.312866 -15.629883 7
-0.038185 -1.354004 -15.637695 7
-0.036761999 -1.393555 -15.624023 7
-0.060245998 -1.448975 -15.798828 7
-0.052055001 -1.484131 -15.731445 7
-0.052131999 -1.524658 -15.727539 7
-0.050712999 -1.564209 -15.712891 7
-0.27256 -4.5323491 -16.894531 7
-0.264355 -4.5600591 -16.822266 7
-0.25993699 -4.5948491 -16.777344 7
-0.25854099 -4.6350098 -16.754883 7
-0.260921 -4.682251 -16.760742 7
-0.26936001 -4.7415771 -16.811523 7
-0.27704599 -4.799438 -16.855469 7
-0.026683999 -0.96862799 -14.635742 7
-0.028355001 -1.007324 -14.645508 7
-0.021248 -1.0419919 -14.591797 7
-0.015738999 -1.077026 -14.546875 7
-0.019005001 -1.116699 -14.569336 7
-0.030254001 -1.160278 -14.647461 7
-0.034327999 -1.200439 -14.672852 7
-0.030422 -1.2362061 -14.641602 7
-0.028114 -1.2730711 -14.620117 7
-0.034573 -1.314697 -14.664062 7
-0.035464998 -1.353271 -14.666016 7
-0.035533998 -1.391479 -14.664062 7
-0.270412 -4.5214839 -15.799805 7
-0.26412201 -4.550293 -15.744141 7
-0.26103199 -4.5849609 -15.710938 7
-0.26032999 -4.6239009 -15.694336 7
-0.25724801 -4.6583252 -15.661133 7
-0.25896499 -4.7019038 -15.661133 7
-0.27107999 -4.765625 -15.733398 7
-0.030563001 -1.281738 -13.818359 7
-0.044101998 -1.325684 -13.907227 7
-0.04166 -1.360352 -13.886719 7
-0.045093998 -1.3988039 -13.907227 7
-0.040123001 -1.4317631 -13.869141 7
-0.046939999 -1.47229 -13.911133 7
-0.054981001 -1.515137 -13.969727 7
-0.056728002 -1.55249 -13.978516 7
-0.050937999 -1.584717 -13.93457 7
-0.26942399 -4.5212402 -14.856445 7
-0.274582 -4.5692139 -14.878906 7
-0.267097 -4.5936279 -14.819336 7
-0.26554099 -4.6287842 -14.795898 7
-0.26396599 -4.66394 -14.774414 7
-0.262371 -4.6992192 -14.75293 7
-0.268379 -4.7489009 -14.779297 7
-0.070666999 4.7784419 -13.228516 7
-0.05632 4.7132568 -13.147461 7
-0.047915999 4.6610112 -13.102539 7
-0.051314998 4.6335449 -13.135742 7
-0.056449998 4.6094971 -13.178711 7
-0.053947002 4.5695801 -13.172852 7
-0.060745001 4.5484619 -13.228516 7
-0.068393998 4.5289311 -13.289062 7
-0.081123002 4.519165 -13.381836 7
-0.044555999 -1.293457 -13.138672 7
-0.042854 -1.326782 -13.124023 7
-0.047355998 -1.363892 -13.150391 7
-0.047447 -1.398438 -13.145508 7
-0.061664999 -1.442139 -13.235352 7
-0.057308 -1.473755 -13.202148 7
-0.055606999 -1.507324 -13.1875 7
-0.059230998 -1.544189 -13.207031 7
-0.058414001 -1.578369 -13.198242 7
-0.27442899 -4.5214839 -14.006836 7
-0.28073901 -4.5695801 -14.035156 7
-0.27818301 -4.6009521 -14.007812 7
-0.272984 -4.627563 -13.962891 7
-0.27129 -4.660645 -13.941406 7
-0.269611 -4.693604 -13.918945 7
-0.27416599 -4.7382808 -13.93457 7
-0.28578201 -4.7971191 -13.996094 7
-0.083201997 4.7974849 -12.49707 7
-0.077908002 4.7531738 -12.475586 7
-0.064606003 4.6922612 -12.405273 7
-0.061081 4.651978 -12.394531 7
-0.064673997 4.6265869 -12.426758 7
-0.065598004 4.595459 -12.443359 7
-0.066528 4.5643311 -12.458984 7
-0.075436004 4.5491939 -12.526367 7
-0.086154997 4.5374761 -12.601562 7
-0.086200997 4.5041499 -12.612305 7
-0.057041001 -1.305176 -12.520508 7
-0.046921 -1.332031 -12.453125 7
-0.040516 -1.36084 -12.40918 7
-0.045219 -1.396484 -12.435547 7
-0.036952998 -1.423828 -12.379883 7
-0.059257999 -1.471191 -12.515625 7
-0.055633999 -1.501587 -12.488281 7
-0.060341001 -1.537598 -12.513672 7
-0.058548 -1.5693361 -12.499023 7
-0.27129701 -4.5070801 -13.1875 7
-0.265816 -4.5313721 -13.143555 7
-0.28356901 -4.598877 -13.237305 7
-0.274387 -4.6160889 -13.171875 7
-0.27353999 -4.6489258 -13.155273 7
-0.26434299 -4.6655269 -13.087891 7
-0.27002299 -4.7105708 -13.111328 7
-0.27848399 -4.7611079 -13.148438 7
-0.045811001 -1.295288 -11.749023 7
-0.049759001 -1.3288569 -11.769531 7
-0.036189999 -1.351685 -11.685547 7
-0.039196 -1.384521 -11.699219 7
-0.038288001 -1.414917 -11.689453 7
-0.052005999 -1.454834 -11.766602 7
-0.059852999 -1.4912111 -11.810547 7
-0.052134998 -1.517212 -11.759766 7
-0.052204002 -1.548218 -11.755859 7
-0.053242002 -1.580322 -11.758789 7
-0.055259999 -1.612793 -11.766602 7
-0.27255201 -4.513916 -12.394531 7
-0.28145999 -4.5627441 -12.433594 7
-0.27372 -4.5811772 -12.378906 7
-0.27088201 -4.6080322 -12.351562 7
-0.27294201 -4.6444092 -12.350586 7
-0.27010301 -4.6715088 -12.324219 7
-0.271164 -4.7059331 -12.317383 7
-0.276169 -4.7476811 -12.333008 7
-0.04874 -1.298218 -11.168945 7
-0.050838001 -1.329224 -11.176758 7
-0.054981001 -1.36145 -11.197266 7
-0.043841999 -1.384277 -11.129883 7
-0.044925999 -1.414673 -11.132812 7
-0.046023998 -1.445068 -11.134766 7
-0.057262 -1.48291 -11.199219 7
-0.070556998 -1.521606 -11.270508 7
-0.058398999 -1.543213 -11.198242 7
-0.058467999 -1.572998 -11.194336 7
-0.05962 -1.633423 -11.192383 7
-0.27751899 -4.5065918 -11.736328 7
-0.28168499 -4.5452881 -11.749023 7
-0.288921 -4.5896001 -11.776367 7
-0.28799799 -4.619019 -11.759766 7
-0.28196001 -4.6386719 -11.714844 7
-0.28307301 -4.6716309 -11.708984 7
-0.28110501 -4.69873 -11.6875 7
-0.27915999 -4.7258301 -11.666016 7
-0.2854 -4.7686772 -11.686523 7
-0.046951 -1.290405 -10.541992 7
-0.047012001 -1.3187259 -10.539062 7
-0.053477999 -1.35083 -10.570312 7
-0.043915 -1.373413 -10.516602 7
-0.043990999 -1.401611 -10.512695 7
-0.045120001 -1.43042 -10.514648 7
-0.046241999 -1.459473 -10.517578 7
-0.056995001 -1.494629 -10.571289 7
-0.066699997 -1.529663 -10.619141 7
-0.059292 -1.552856 -10.574219 7
-0.060421001 -1.5819089 -10.576172 7
-0.276169 -4.4910889 -11.018555 7
-0.28483599 -4.5361328 -11.050781 7
-0.28609499 -4.5969238 -11.033203 7
-0.281876 -4.6185298 -11.000977 7
-0.281975 -4.6478271 -10.989258 7
-0.28421 -4.6811519 -10.989258 7
-0.28428599 -4.7106929 -10.978516 7
-0.28439301 -4.7398682 -10.966797 7
-0.40056199 -6.3891602 -10.878906 7
-0.076610997 4.7696528 -9.6796885 7
-0.076626003 4.7432861 -9.6914062 7
-0.059464 4.6810298 -9.6171885 7
-0.048779 4.6325679 -9.5742188 7
-0.052021001 4.6130371 -9.6015615 7
-0.050967999 4.5844731 -9.6074219 7
-0.048861999 4.527832 -9.6171885 7
-0.052113 4.507812 -9.6445312 7
-0.057507001 4.49231 -9.6826172 7
-0.074715003 4.5001221 -9.7792969 7
-0.041579999 -1.285522 -9.9902344 7
-0.044983 -1.314575 -10.003906 7
-0.052841 -1.346069 -10.041016 7
-0.047332998 -1.369751 -10.009766 7
-0.044043999 -1.394775 -9.9892578 7
-0.048560999 -1.424683 -10.008789 7
-0.047508001 -1.450928 -10 7
-0.056496002 -1.483887 -10.041016 7
-0.067722 -1.518555 -10.094727 7
-0.061092 -1.5411381 -10.057617 7
-0.060031999 -1.567505 -10.047852 7
-0.062321 -1.596313 -10.055664 7
-0.287292 -4.5108638 -10.454102 7
-0.29072601 -4.545166 -10.459961 7
-0.296417 -4.5836182 -10.476562 7
-0.296509 -4.6118159 -10.464844 7
-0.29098499 -4.6295171 -10.426758 7
-0.28884101 -4.6531978 -10.405273 7
-0.29117599 -4.6854248 -10.405273 7
-0.29126 -4.7133789 -10.393555 7
-0.292465 -4.7435298 -10.387695 7
-0.298141 -4.782227 -10.40332 7
-0.40577301 -6.3712158 -10.230469 7
-0.40586501 -6.3986821 -10.21582 7
-0.077923 4.791748 -9.1035156 7
-0.073478997 4.7572021 -9.0927734 7
-0.071258999 4.7276611 -9.09375 7
-0.057827 4.674561 -9.0419922 7
-0.052242 4.638062 -9.0253906 7
-0.054508001 4.6177979 -9.0478516 7
-0.055645 4.5952148 -9.0644531 7
-0.056782 4.5723882 -9.0800781 7
-0.052340999 4.5383301 -9.0693359 7
-0.056843001 4.5224609 -9.1015615 7
-0.059101 4.5019531 -9.1230469 7
-0.071448997 4.5014648 -9.1923828 7
-0.074836999 4.4829102 -9.2197266 7
-0.054664999 -1.288208 -9.5507812 7
-0.054726001 -1.313965 -9.5478516 7
-0.058272999 -1.342041 -9.5615234 7
-0.062983997 -1.37085 -9.5810547 7
-0.050239999 -1.388916 -9.515625 7
-0.053794999 -1.416748 -9.5292969 7
-0.055008002 -1.443604 -9.53125 7
-0.049247999 -1.4655761 -9.5 7
-0.071438 -1.5062259 -9.6035156 7
-0.079659 -1.537842 -9.6396484 7
-0.073879004 -1.560059 -9.6083984 7
-0.068118997 -1.582031 -9.5761719 7
-0.072848998 -1.6112061 -9.5947266 7
-0.068255998 -1.633911 -9.5673828 7
-0.41264001 -6.3980708 -9.5908203 7
-0.049942002 -1.305908 -9.0595703 7
-0.059707999 -1.3363039 -9.1015615 7
-0.060966 -1.362061 -9.1054688 7
-0.057441998 -1.409546 -9.0810547 7
-0.062424 -1.46228 -9.0966797 7
-0.069812998 -1.5168459 -9.1230469 7
-0.069866002 -1.541626 -9.1201172 7
-0.069920003 -1.56665 -9.1162109 7
-0.40278599 -6.3509521 -8.9384766 7
-0.39800301 -6.3632808 -8.9033203 7
-0.39930701 -6.3908691 -8.8935547 7
-0.046016999 -1.2911381 -8.5625 7
-0.053692002 -1.3193361 -8.5927734 7
-0.053738002 -1.3430181 -8.5908203 7
-0.061409 -1.37146 -8.6210938 7
-0.046642002 -1.386475 -8.5546885 7
-0.047970001 -1.410767 -8.5566406 7
-0.050563999 -1.436157 -8.5654297 7
-0.051883999 -1.4605711 -8.5673828 7
-0.057018001 -1.487427 -8.5859385 7
-0.069762997 -1.519653 -8.6386719 7
-0.076153003 -1.547852 -8.6630859 7
-0.064804003 -1.5637209 -8.6083984 7
-0.062316999 -1.5855711 -8.59375 7
-0.29480401 -4.5897222 -8.7373047 7
-0.29998401 -4.6231689 -8.7460938 7
-0.30006 -4.6470952 -8.7353516 7
-0.29503301 -4.661499 -8.7041016 7
-0.291309 -4.6782231 -8.6767578 7
-0.29137799 -4.7020259 -8.6650391 7
-0.29018399 -4.7236328 -8.6494141 7
-0.29282001 -4.7521968 -8.6474609 7
-0.297993 -4.7858891 -8.6572266 7
-0.058811001 -1.291504 -8.2070312 7
-0.062820002 -1.316772 -8.2216797 7
-0.065521002 -1.340942 -8.2285156 7
-0.065567002 -1.363892 -8.2265615 7
-0.076187 -1.392944 -8.2675781 7
-0.060389999 -1.406128 -8.1972656 7
-0.064415 -1.4312741 -8.2099609 7
-0.064467996 -1.454102 -8.2070312 7
-0.063202001 -1.476074 -8.1972656 7
-0.076453999 -1.507568 -8.25 7
-0.083095998 -1.534912 -8.2753906 7
-0.087108999 -1.560425 -8.2880859 7
-0.077927001 -1.5769041 -8.2451172 7
-0.077979997 -1.599854 -8.2412109 7
-0.080681004 -1.624512 -8.2490234 7
-0.080719002 -1.6474611 -8.2451172 7
-0.086062998 -1.67395 -8.2626953 7
-0.095363997 -1.703979 -8.2988281 7
-0.099380001 -1.72998 -8.3115234 7
-0.29826 -4.5003662 -8.2939453 7
-0.29832801 -4.523315 -8.2832031 7
-0.30105999 -4.551147 -8.2822266 7
-0.30113599 -4.5739751 -8.2714844 7
-0.30518001 -4.604248 -8.2763672 7
-0.305264 -4.6270752 -8.2646484 7
-0.31063801 -4.6600342 -8.2744141 7
-0.305401 -4.6730962 -8.2431641 7
-0.30150199 -4.6882319 -8.2167969 7
-0.301586 -4.71106 -8.2060547 7
-0.30165499 -4.7337651 -8.1943359 7
-0.30438599 -4.7617192 -8.1933594 7
-0.30313501 -4.7816162 -8.1767578 7
-0.40913001 -6.423584 -7.6972661 7
-0.41053399 -6.4483638 -7.686523 7
-0.12299 6.4633789 -6.0996089 7
-0.121677 6.441772 -6.109375 7
-0.120342 6.4202881 -6.1210942 7
-0.121677 6.4060059 -6.140625 7
-0.29130599 -4.6890869 -7.6669922 7
-0.29138201 -4.7105708 -7.65625 7
-0.292831 -4.7347412 -7.6494141 7
-0.298439 -4.766602 -7.6582031 7
-0.29988101 -4.790894 -7.6523442 7
-0.286686 -4.4804692 -7.3144531 7
-0.286823 -4.521606 -7.2929692 7
-0.28839499 -4.5654302 -7.2763672 7
-0.292824 -4.6143799 -7.2695308 7
-0.297279 -4.6634521 -7.2617192 7
-0.29169101 -4.6937261 -7.219727 7
-0.29183599 -4.7344971 -7.1972661 7
-0.299133 -4.78894 -7.2001948 7
-0.29579201 -4.4969478 -6.90625 7
-0.29139301 -4.5085449 -6.8808589 7
-0.28552601 -4.517334 -6.8505859 7
-0.29747799 -4.5587158 -6.8798828 7
-0.297546 -4.5783691 -6.8691411 7
-0.29464701 -4.5922852 -6.8476558 7
-0.29471201 -4.611938 -6.8369141 7
-0.30370301 -4.6479492 -6.8554692 7
-0.30527499 -4.6704102 -6.8496089 7
-0.29640999 -4.6732178 -6.8085942 7
-0.296482 -4.6925049 -6.797852 7
-0.30249 -4.7232671 -6.8056641 7
-0.299591 -4.737061 -6.7851558 7
-0.29668799 -4.7506099 -6.7636719 7
-0.29377401 -4.7642822 -6.7431641 7
-0.29682499 -4.7894292 -6.742188 7
-0.290806 -4.679565 -6.3847661 7
-0.29240799 -4.7009282 -6.3789058 7
-0.289417 -4.713623 -6.3574219 7
-0.292568 -4.737793 -6.3554692 7
-0.29571199 -4.762207 -6.3544922 7
-0.28961599 -4.7685552 -6.3232422 7
-0.288147 -4.783813 -6.3076172 7
-0.289211 -4.4916992 -6.0732422 7
-0.28130299 -4.494751 -6.0371089 7
-0.287754 -4.5241699 -6.045898 7
-0.28782299 -4.541748 -6.0351558 7
-0.28948599 -4.5623779 -6.0292969 7
-0.291134 -4.5830078 -6.0244141 7
-0.28643 -4.5915532 -5.9980469 7
-0.28809401 -4.612061 -5.992188 7
-0.299328 -4.6503911 -6.014648 7
-0.30258599 -4.6740718 -6.0136719 7
-0.29626101 -4.679688 -5.9824219 7
-0.294743 -4.6939702 -5.9667969 7
-0.29480401 -4.7115479 -5.9560552 7
-0.29168701 -4.7227778 -5.9345698 7
-0.29174 -4.7402339 -5.9238281 7
-0.29180101 -4.7575679 -5.9130859 7
-0.29826701 -4.7871089 -5.9199219 7
-0.29967499 -4.7501221 -4.7841802 7
-0.29974401 -4.764771 -4.7724609 7
-0.306896 -4.7930908 -4.7792969 7
-0.41180399 -6.4671631 -3.516602 7
-0.41007999 -6.4742432 -3.4980471 7
-0.41193399 -6.490479 -3.4863279 7
-0.41023999 -6.497314 -3.4658201 7
-0.41741899 -6.5267329 -3.464844 7
-0.41748801 -6.5384521 -3.4501951 7
-0.422894 -6.563477 -3.4443359 7
-0.41939899 -6.5657959 -3.421875 7
-0.41590101 -6.5683589 -3.398438 7
-0.41953301 -6.588623 -3.390625 7
-0.41603899 -6.5909419 -3.367188 7
-0.421444 -6.6157231 -3.3623049 7
-0.42863801 -6.6451421 -3.359375 7
-0.43226999 -6.6655269 -3.3505859 7
-0.437695 -6.6904302 -3.34375 7
-0.43774799 -6.7017822 -3.329102 7
0.043481 -1.286172 -14.700709 7
-0.098438002 -1.733955 -9.4676237 7
-0.045271002 -1.62169 -7.5003119 7
-0.44678301 -6.2998509 -9.5705786 7
-0.018092999 -1.545539 -6.1693091 7
0.011818 -1.481956 -5.05516 7
-0.23621599 -4.748065 -5.812799 7
-0.044643998 -1.430318 -4.181797 7
-0.316122 -4.7246628 -4.7922831 7
-0.292528 -4.6904402 -3.9165399 7
-0.41089201 -6.4757481 -3.316756 7
-0.025864 -1.628581 -1.157086 7
-0.052033 -1.829185 -1.222055 7
-0.083080001 -1.777751 -0.94850099 7
-0.304506 -4.8101439 0.248448 7
-0.021667 -1.38719 -0.61053801 7
-0.029606 -1.55024 -0.60736501 7
-0.050872002 -1.722685 -0.64742899 7
-0.079666004 -1.90556 -0.70722502 7
-0.010297 -1.367276 -0.40848401 7
-0.021282 -1.523404 -0.41751301 7
-0.041526001 -1.686877 -0.45310301 7
-0.055741999 -1.849308 -0.45923001 7
-0.28577399 -4.7469292 0.99430603 7
-0.29945901 -4.5122671 1.134426 7
-0.30719101 -4.6111112 1.275825 7
-0.31657401 -4.709229 1.419372 7
-0.30456299 -4.739996 1.5951 7
-0.322254 -4.8429642 4.5997772 7
-0.29225501 -4.511961 1.516371 7
-0.29750401 -4.7332888 2.9440019 7
-0.304057 -4.7581172 3.100075 7
-0.30098599 -4.748796 3.2576311 7
-0.307282 -4.7605438 3.4154191 7
-0.273743 -4.5437622 2.9590709 7
-0.282379 -4.5736299 3.1069591 7
-0.28106299 -4.5696502 3.256784 7
-0.289451 -4.5870562 3.4073031 7
0.032336999 4.55863 -9.777379 7
0.0087829996 1.125499 -5.2147822 7
-0.0085540004 -1.073784 -14.791183 7
-0.239553 4.6615672 -16.297573 7
-0.163607 -1.361366 -12.393539 7
-0.422308 -4.6035218 -16.681463 7
-0.19884101 4.547853 -12.458062 7
-0.103724 -1.3955081 -9.6666822 7
-0.35951999 -4.6289878 -13.013684 7
-0.067590997 -1.416907 -7.9873848 7
-0.32135999 -4.6405091 -10.613809 7
-0.042814001 -1.429045 -6.8350658 7
-0.290355 -4.6018829 -8.8308926 7
-0.25702301 -4.7268691 -8.3382702 7
-0.011723 1.243288 -5.8865638 7
-0.017007999 1.053481 -5.9791789 7
-0.081384003 -1.444396 -6.0211482 7
-0.32495901 -4.6870742 -7.1184478 7
-0.002512 1.276742 -5.2975292 7
-0.0032949999 1.101601 -5.346549 7
-0.067359 -1.464244 -5.4218969 7
-0.31088001 -4.6525998 -6.1477399 7
-0.29310301 -4.7704172 -5.8619809 7
0.0085880002 1.290792 -4.7925582 7
-0.045201 -1.287287 -4.9053879 7
-0.050646 -1.462307 -4.8961082 7
-0.063358001 -1.662174 -4.931828 7
-0.033112999 -1.30427 -4.4910321 7
-0.039087001 -1.463906 -4.4805532 7
-0.27853 -4.618618 -4.3873639 7
-0.27462199 -4.749568 -4.190567 7
-0.058656 -1.317683 -4.1469941 7
-0.066610999 -1.467369 -4.140388 7
-0.048331998 -1.327567 -3.85532 7
-0.071935996 -1.628563 -3.866158 7
-0.051748998 -1.875349 -1.273101 7
-0.054706998 -1.895308 -1.194822 7
-0.052983999 -1.894913 -1.115451 7
-0.055918999 -1.908278 -1.035127 7
-0.058816999 -1.918159 -0.95363897 7
-0.049481001 -1.879817 -0.87773103 7
-0.047862999 -1.86646 -0.799366 7
-0.049314 -1.724251 -1.262844 7
-0.046037 -1.721222 -1.190426 7
-0.04778 -1.732114 -1.118107 7
-0.054478999 -1.756797 -1.04389 7
-0.062779002 -1.783819 -0.96697599 7
-0.043102 -1.7130769 -0.901586 7
-0.049789999 -1.7284009 -0.82492203 7
-0.039735999 -1.6294169 -1.25656 7
-0.051977001 -1.67662 -1.189146 7
-0.048698999 -1.670635 -1.119056 7
-0.047178 -1.667421 -1.0491821 7
-0.049059998 -1.672359 -0.97836202 7
-0.040754002 -1.641185 -0.91186398 7
-0.039278001 -1.629365 -0.84347898 7
