# .PCD v0.7 - Point Cloud Data file format
VERSION 0.7
FIELDS x y z intensity
SIZE 4 4 4 4
TYPE F F F F
COUNT 1 1 1 1
WIDTH 812
HEIGHT 1
VIEWPOINT 0 0 0 1 0 0 0
POINTS 812
DATA ascii
0.16514599 4.3537598 -73.225586 7
0.188278 4.128418 -72.371094 7
0.30683899 0.79052699 -73.105469 7
0.238434 4.0562739 -62.731445 7
0.195923 3.9888921 -64.135742 7
0.24662 4.289917 -55.761719 7
0.26104701 3.987915 -55.34375 7
0.21939801 3.798218 -56.583008 7
0.221542 4.1364751 -50.325195 7
0.18866 4.0804439 -51.198242 7
0.25235 3.829102 -49.522461 7
0.19958501 3.809082 -50.919922 7
0.16492499 3.749146 -51.838867 7
0.222168 0.43774399 -50.399414 7
0.100906 -3.2753911 -50.644531 7
-1.030556 -5.2128911 71.194336 7
-1.095322 -5.1496582 72.618164 7
-1.168404 -5.0921631 74.223633 7
-0.91275001 -2.1573491 68.928711 7
-0.91621399 -1.999634 69.014648 7
0.234276 4.1737061 -45.276367 7
0.19062801 4.153564 -46.329102 7
0.16275799 4.096436 -47.003906 7
0.131981 4.041748 -47.748047 7
0.181381 3.8302 -46.567383 7
0.15667699 3.7618411 -47.166016 7
0.224922 -0.044188999 -41.242188 7
0.061439998 -2.9074709 -46.621094 7
0.093979001 -2.974731 -45.873047 7
0.043113999 -3.161499 -47.008789 7
0.070220999 -3.234375 -46.383789 7
0.094756998 -3.3083501 -45.814453 7
0.141762 -3.3430181 -44.739258 7
-0.93758398 -5.2219238 63.399414 7
-1.010139 -5.1933589 64.857422 7
-1.070053 -5.137939 66.064453 7
-0.83573902 -2.49231 61.62207 7
-0.884727 -2.387939 62.608398 7
-0.78309602 -2.1687009 60.591797 7
-0.75923198 0.63476598 60.249023 7
-0.830872 3.5111079 61.724609 7
-0.76023901 3.5688479 60.30957 7
0.15595201 4.2593989 -42.629883 7
0.13438401 4.19873 -43.105469 7
0.104797 4.151855 -43.756836 7
0.078139998 4.0961909 -44.341797 7
0.048804998 4.0428472 -44.987305 7
0.061356001 3.799561 -44.727539 7
0.181114 0.57604998 -42.216797 7
0.195694 0.469116 -41.895508 7
0.16684 0.37170401 -42.522461 7
0.17846701 0.26574701 -42.264648 7
0.213699 0.15918 -41.493164 7
0.18270101 0.058228001 -42.166016 7
0.17603301 -0.050903 -40.59375 7
0.21471401 -0.14758299 -39.780273 7
-0.027679 -3.331177 -44.583984 7
0.0065919999 -3.3864751 -43.858398 7
0.018127 -3.474731 -43.605469 7
0.058577999 -3.514282 -42.751953 7
-0.68914801 0.57409698 54.854492 7
-0.80473298 3.632935 56.99707 7
-0.73106402 3.672241 55.623047 7
-0.69002497 3.7475591 54.856445 7
0.121376 4.2935791 -39.954102 7
0.10215 4.2340088 -40.348633 7
0.075072996 4.1885991 -40.900391 7
0.037857 4.1600342 -41.65332 7
0.0090410002 4.112061 -42.240234 7
0.209778 0.73327601 -39.915039 7
0.185059 0.54418898 -40.426758 7
0.142242 0.251831 -41.313477 7
0.168327 0.14880399 -40.763672 7
0.200287 0.047851998 -40.091797 7
0.17662001 -0.408447 -36.816406 7
0.16262101 -0.50244099 -37.080078 7
-0.006943 -3.5935061 -40.025391 7
0.011932 -3.6594241 -39.655273 7
0.024643 -3.734375 -39.401367 7
-0.58933997 0.50964397 48.831055 7
-0.60110497 0.62475598 49.03418 7
-0.58107001 0.73242199 48.693359 7
-0.651779 3.6291499 49.869141 7
-0.61743897 3.698853 49.277344 7
-0.58035302 3.762207 48.638672 7
0.139053 4.5118408 -35.950195 7
0.116089 4.4727778 -36.37793 7
0.092193998 4.4333501 -36.825195 7
0.071762003 4.3847661 -37.207031 7
0.050689999 4.3356929 -37.600586 7
0.016609 4.3105469 -38.231445 7
0.13353001 0.76623499 -36.251953 7
0.150612 -0.380981 -34.264648 7
0.169434 -0.46105999 -33.929688 7
0.14759099 -0.55090302 -34.308594 7
0.165077 -0.62988299 -33.99707 7
-0.045418002 -3.7358401 -37.395508 7
-0.015427 -3.8662109 -36.84668 7
-0.62821198 -2.369873 45.916992 7
-0.629875 -2.2658689 45.951172 7
-0.57315803 0.678711 45.206055 7
-0.53064698 0.77050799 44.53125 7
-0.59928101 3.7280271 45.561523 7
-0.56086701 3.779907 44.947266 7
-0.53974903 3.8536379 44.606445 7
0.39598101 21.77063 21.116211 7
0.400085 21.769409 21.021484 7
0.400978 21.807007 20.962891 7
0.401535 21.848999 20.907227 7
0.402794 21.881836 20.842773 7
0.120575 4.536499 -33.369141 7
0.104324 4.4888921 -33.651367 7
0.083282001 4.4498291 -34.015625 7
0.052269001 4.4299321 -34.548828 7
0.031212 4.387207 -34.913086 7
0.085701004 4.191895 -34 7
0.17765 1.177734 -32.624023 7
0.17121901 1.019287 -32.734375 7
0.15184 0.94738799 -33.063477 7
0.135216 0.872437 -33.34668 7
0.107735 -0.64660603 -30.879883 7
0.137978 -0.71276897 -30.404297 7
0.107491 -0.799927 -30.875977 7
-0.082428001 -3.8182371 -34.666992 7
-0.56600201 -2.3280029 41.550781 7
-0.59421498 -2.2558589 41.969727 7
-0.61804998 -2.178345 42.325195 7
-0.49800101 0.79736298 40.694336 7
-0.56761903 3.782227 41.647461 7
-0.50396699 3.88147 40.705078 7
-0.49740601 3.965332 40.602539 7
0.10276 4.6582031 -30.722656 7
0.101173 4.5849609 -30.756836 7
0.086121 4.5411382 -30.999023 7
0.070304997 4.4975591 -31.25293 7
0.053017002 4.4560552 -31.52832 7
0.024863999 4.4354248 -31.974609 7
0.061035 4.282959 -31.422852 7
0.134048 1.259644 -30.470703 7
0.164093 1.1630861 -30.030273 7
0.14451601 1.098877 -30.335938 7
0.119331 1.036011 -30.730469 7
0.097473003 -0.70361298 -29.837891 7
0.112518 -0.77197301 -29.608398 7
0.134216 -0.83642602 -29.27832 7
0.105186 -0.921875 -29.708984 7
0.125717 -0.98571801 -29.397461 7
0.13335399 -1.054688 -29.27832 7
-0.541565 -2.3430181 38.75293 7
-0.56099701 -2.270752 39.025391 7
-0.49389601 0.57141101 38.250977 7
-0.46530199 0.65173298 37.859375 7
-0.46751401 0.82519501 37.889648 7
-0.54202998 3.784302 38.813477 7
-0.520226 3.8422849 38.507812 7
-0.49506399 3.8937991 38.15625 7
-0.474976 3.9512939 37.875 7
-0.50443298 4.0827641 38.270508 7
0.076622002 4.6981201 -28.958984 7
0.072921999 4.6339111 -29.021484 7
0.055222001 4.599731 -29.285156 7
0.037932999 4.563477 -29.543945 7
0.018654 4.5299072 -29.833984 7
0.006966 4.4797359 -30.011719 7
0.135681 1.2442631 -28.385742 7
0.116745 1.184204 -28.662109 7
0.119453 1.11145 -28.624023 7
0.135185 0.98303199 -29.316406 7
0.081688002 -0.969482 -26.871094 7
0.101059 -1.027222 -26.605469 7
0.074127004 -1.10791 -26.96582 7
0.083976999 -1.1698 -26.828125 7
0.097717002 -1.228516 -26.637695 7
-0.429703 0.67858899 34.823242 7
-0.41126999 0.75244099 34.586914 7
-0.43351701 0.838135 34.870117 7
-0.419678 0.91284198 34.694336 7
-0.49958801 3.8692629 35.599609 7
-0.47618899 3.9160161 35.294922 7
-0.454155 3.963623 35.006836 7
-0.44350401 4.0271001 34.863281 7
-0.47477001 4.1555181 35.254883 7
0.206825 17.133301 20.794922 7
0.205193 17.19458 20.772461 7
0.206688 17.228882 20.71875 7
0.072738998 4.693481 -26.711914 7
0.057564002 4.6599121 -26.923828 7
0.043662999 4.6225591 -27.120117 7
0.027176 4.5896001 -27.350586 7
0.001633 4.574585 -27.701172 7
-0.010544 4.530396 -27.875 7
0.120308 1.494141 -26.358398 7
0.124107 1.425415 -26.308594 7
0.127472 1.3573 -26.264648 7
0.109634 1.3026119 -26.507812 7
0.104782 1.23938 -26.575195 7
0.063850001 -1.00415 -25.932617 7
0.077751003 -1.0617681 -25.749023 7
0.090744004 -1.119019 -25.577148 7
0.061638001 -1.199463 -25.949219 7
0.071006998 -1.258545 -25.822266 7
0.083976999 -1.314697 -25.649414 7
-0.40778399 0.70361298 32.492188 7
-0.38769501 0.77136201 32.25293 7
-0.42600301 0.85717797 32.710938 7
-0.39569899 0.92040998 32.34668 7
-0.47646299 3.89856 33.163086 7
-0.459793 3.949219 32.956055 7
-0.43292201 3.9831541 32.62793 7
-0.419182 4.0362549 32.457031 7
-0.412247 4.0991211 32.367188 7
0.050322998 4.7452388 -25.073242 7
0.043327 4.6975098 -25.170898 7
0.030785 4.6612549 -25.337891 7
0.00064799999 4.6621089 -25.72168 7
-0.01606 4.6325679 -25.939453 7
0.113808 1.58313 -24.609375 7
0.097075999 1.533447 -24.823242 7
0.106697 1.464233 -24.704102 7
0.119385 1.423218 -25.259766 7
0.105736 1.3687741 -25.439453 7
0.090255998 1.314941 -25.640625 7
0.054543 -1.176636 -24.054688 7
0.079147004 -1.2819819 -23.751953 7
0.063781999 -1.411377 -23.926758 7
0.068512 -1.467896 -23.864258 7
-0.76790601 -7.3686519 33.427734 7
-0.789841 -7.34729 33.682617 7
-0.82266998 -7.2739258 34.076172 7
0.015732 4.7775879 -23.541992 7
0.011673 4.7270508 -23.598633 7
-0.0072860001 4.708252 -23.828125 7
-0.019264 4.6737061 -23.976562 7
-0.0034640001 4.579834 -23.804688 7
0.096832 1.717041 -22.93457 7
0.092766002 1.6624759 -22.984375 7
0.098595001 1.54187 -22.922852 7
0.096511997 1.4855959 -22.950195 7
0.094710998 1.368408 -22.991211 7
0.041359 -1.217285 -22.486328 7
0.054161001 -1.3223881 -22.334961 7
0.085837997 1.556152 -21.464844 7
0.078231998 1.452515 -21.553711 7
0.084380999 1.2850339 -21.492188 7
0.024719 4.7775879 -20.182617 7
0.017837999 4.741333 -20.261719 7
0.0086899996 4.7093511 -20.363281 7
-0.001007 4.6783452 -20.472656 7
0.066413999 1.420532 -20.182617 7
0.061211001 1.372559 -20.238281 7
0.088363998 1.2531739 -19.964844 7
0.088294998 1.202271 -19.967773 7
0.071716003 1.160645 -20.139648 7
0.083030999 1.103394 -20.026367 7
0.091491997 1.048218 -19.941406 7
0.099372998 0.993774 -19.862305 7
0.0049970001 -1.237793 -19.914062 7
0.010384 -1.485962 -19.838867 7
0.075026996 0.89477497 -18.833008 7
0.076172002 0.846313 -18.822266 7
0.073601 0.75097698 -18.849609 7
0.024894999 -1.290894 -18.40332 7
0.029846 -1.334717 -18.353516 7
0.011871 -1.440186 -18.508789 7
0.014946 -1.4851069 -18.476562 7
0.012939 -1.533569 -18.491211 7
-0.18706501 -4.5697021 -19.831055 7
-0.18656901 -4.6187739 -19.814453 7
0.075568996 0.34545901 -17.588867 7
0.082314 0.29675299 -17.538086 7
0.083534002 0.25134301 -17.527344 7
0.080902003 0.20678701 -17.550781 7
0.080817997 0.16149899 -17.550781 7
0.085891999 0.116333 -17.503906 7
0.092903003 0.071044996 -17.44043 7
0.092178002 0.026366999 -17.446289 7
0.0078739999 -1.316528 -17.423828 7
0.0097890003 -1.359863 -17.40332 7
-0.004402 -1.413452 -17.522461 7
-0.013908 -1.4646 -17.598633 7
-0.0039440002 -1.502563 -17.508789 7
-0.0020290001 -1.5461431 -17.488281 7
0.0039059999 -1.5863039 -17.431641 7
-0.013741 4.7486572 -16.740234 7
-0.019912999 4.7186279 -16.801758 7
-0.028793 4.6940918 -16.884766 7
-0.03019 4.6534419 -16.908203 7
-0.041800998 4.6340332 -17.014648 7
-0.059502002 4.6264648 -17.171875 7
-0.040550001 4.543457 -17.024414 7
0.00054199999 -1.286865 -16.397461 7
0.0097049996 -1.323364 -16.319336 7
0.0089039998 -1.365845 -16.321289 7
0.0081019998 -1.408325 -16.325195 7
-0.016899001 -1.466797 -16.523438 7
-0.0077439998 -1.50293 -16.445312 7
-0.0057140002 -1.543823 -16.423828 7
-0.0036849999 -1.584473 -16.402344 7
-0.222885 -4.4866939 -17.680664 7
-0.224426 -4.5345459 -17.681641 7
-0.215988 -4.563477 -17.603516 7
-0.21255501 -4.601685 -17.564453 7
-0.20768701 -4.6368408 -17.513672 7
-0.210678 -4.6872559 -17.525391 7
-0.220085 -4.7504878 -17.587891 7
0.022797 -0.96643102 -15.254883 7
0.015205 -1.009521 -15.311523 7
0.015106 -1.04895 -15.308594 7
0.018776 -1.086426 -15.277344 7
0.020187 -1.125366 -15.262695 7
0.0073170001 -1.171753 -15.358398 7
-0.010269 -1.301147 -15.484375 7
0.001678 -1.33374 -15.387695 7
-0.00293 -1.376343 -15.419922 7
-0.0037690001 -1.416748 -15.421875 7
-0.023429999 -1.4694819 -15.569336 7
-0.012245 -1.501953 -15.479492 7
-0.014603 -1.543457 -15.492188 7
-0.014694 -1.583618 -15.488281 7
-0.232559 -4.5534668 -16.618164 7
-0.225128 -4.5819092 -16.550781 7
-0.221466 -4.617188 -16.511719 7
-0.221588 -4.6595459 -16.500977 7
-0.22624999 -4.7106929 -16.523438 7
-0.23768599 -4.7756348 -16.59668 7
0.015167 -1.139648 -14.367188 7
0.013481 -1.177979 -14.375977 7
-0.229744 -4.494873 -15.541992 7
-0.23624399 -4.5469971 -15.576172 7
-0.233978 -4.5826421 -15.548828 7
-0.226891 -4.6090088 -15.488281 7
-0.22381601 -4.6429439 -15.455078 7
-0.220741 -4.6766362 -15.420898 7
-0.228462 -4.7325439 -15.46582 7
-0.236588 -4.7883301 -15.509766 7
-0.019661 4.7351069 -13.705078 7
-0.015671 4.6905522 -13.688477 7
-0.014107 4.651123 -13.688477 7
-0.010925 4.608521 -13.676758 7
-0.013374 4.5775151 -13.704102 7
-0.0053249998 -1.306152 -13.685547 7
-0.0070799999 -1.342651 -13.694336 7
-0.0071720001 -1.37854 -13.69043 7
-0.012268 -1.417603 -13.722656 7
-0.016548 -1.456055 -13.74707 7
-0.016624 -1.491943 -13.744141 7
-0.021744 -1.53125 -13.774414 7
-0.025177 -1.569702 -13.794922 7
-0.019409001 -1.60144 -13.750977 7
-0.232666 -4.5003662 -14.638672 7
-0.24034099 -4.5524902 -14.677734 7
-0.240456 -4.5905762 -14.666992 7
-0.23551901 -4.619019 -14.62207 7
-0.23561101 -4.6569819 -14.612305 7
-0.232361 -4.6882319 -14.579102 7
-0.241745 -4.7441411 -14.62793 7
-0.047531001 4.7957759 -13.046875 7
-0.025581 4.714355 -12.916016 7
-0.023910999 4.6766362 -12.916016 7
-0.026497001 4.6478271 -12.944336 7
-0.031601001 4.6242681 -12.987305 7
-0.032485999 4.5919189 -13.003906 7
-0.033371001 4.5593262 -13.020508 7
-0.046082001 4.5509028 -13.113281 7
-0.057960998 4.5402832 -13.202148 7
-0.050384998 4.4901118 -13.163086 7
-0.027275 -1.286743 -13.067383 7
-0.018539 -1.315918 -13.006836 7
-0.013329 -1.34668 -12.96875 7
-0.014297 -1.3812259 -12.97168 7
-0.011734 -1.4136961 -12.950195 7
-0.029441999 -1.459229 -13.0625 7
-0.031288002 -1.494507 -13.070312 7
-0.025192 -1.52478 -13.026367 7
-0.027046001 -1.559937 -13.03418 7
-0.023598 -1.591553 -13.007812 7
-0.235733 -4.4936519 -13.785156 7
-0.246452 -4.5493159 -13.839844 7
-0.250595 -4.5941162 -13.857422 7
-0.243645 -4.6168208 -13.801758 7
-0.23844101 -4.6427002 -13.757812 7
-0.239418 -4.6802979 -13.75293 7
-0.238655 -4.714478 -13.735352 7
-0.24759699 -4.7675781 -13.779297 7
-0.058052 4.774292 -12.323242 7
-0.054535002 4.7340088 -12.3125 7
-0.058127999 4.7088618 -12.344727 7
-0.063499004 4.6872559 -12.388672 7
-0.064423002 4.6563721 -12.405273 7
-0.064444996 4.623291 -12.416992 7
-0.067169003 4.5959468 -12.443359 7
-0.066298999 4.5611572 -12.449219 7
-0.068108 4.5318599 -12.470703 7
-0.02581 -1.289185 -12.357422 7
-0.019409001 -1.317871 -12.314453 7
-0.013008 -1.346558 -12.271484 7
-0.016785 -1.3812259 -12.291016 7
-0.012238 -1.410645 -12.258789 7
-0.016014 -1.44519 -12.27832 7
-0.045692001 -1.497803 -12.459961 7
-0.028206 -1.518433 -12.345703 7
-0.024574 -1.548218 -12.319336 7
-0.026512001 -1.582275 -12.327148 7
-0.234474 -4.4814448 -12.986328 7
-0.25407401 -4.5518799 -13.092773 7
-0.25044301 -4.5794678 -13.060547 7
-0.242203 -4.5976558 -13 7
-0.24044 -4.6282959 -12.977539 7
-0.23777001 -4.6569819 -12.949219 7
-0.23971599 -4.694458 -12.949219 7
-0.237968 -4.7249761 -12.926758 7
-0.25664499 -4.7952881 -13.026367 7
-0.019196 -1.313599 -11.624023 7
-0.015373 -1.342163 -11.598633 7
-0.010597 -1.369995 -11.566406 7
-0.012611 -1.401733 -11.574219 7
-0.012665 -1.4326169 -11.571289 7
-0.028305 -1.4736331 -11.660156 7
-0.037147999 -1.510498 -11.708008 7
-0.02166 -1.530762 -11.612305 7
-0.023674 -1.562866 -11.619141 7
-0.025719 -1.595215 -11.626953 7
-0.24696399 -4.5068359 -12.267578 7
-0.25292999 -4.5500488 -12.290039 7
-0.25206 -4.580688 -12.273438 7
-0.248238 -4.6055908 -12.241211 7
-0.246399 -4.6341548 -12.21875 7
-0.246498 -4.6665039 -12.207031 7
-0.24758901 -4.700562 -12.201172 7
-0.247673 -4.7327881 -12.19043 7
-0.25655401 -4.782227 -12.229492 7
-0.017227 -1.282593 -11.024414 7
-0.024413999 -1.3162839 -11.061523 7
-0.027542001 -1.347778 -11.075195 7
-0.020500001 -1.372803 -11.03125 7
-0.017532 -1.400391 -11.010742 7
-0.020638 -1.431519 -11.024414 7
-0.018677 -1.459839 -11.009766 7
-0.033989001 -1.49939 -11.092773 7
-0.046271998 -1.537354 -11.158203 7
-0.032120001 -1.557129 -11.073242 7
-0.033211 -1.587402 -11.075195 7
-0.25214401 -4.4979248 -11.615234 7
-0.26039901 -4.5440669 -11.649414 7
-0.26152799 -4.5770259 -11.644531 7
-0.26265001 -4.6097412 -11.638672 7
-0.259682 -4.634644 -11.611328 7
-0.25875899 -4.6635742 -11.59375 7
-0.25884199 -4.694458 -11.583008 7
-0.256897 -4.7210689 -11.561523 7
-0.25803399 -4.7539058 -11.554688 7
-0.26527399 -4.7984619 -11.583008 7
-0.017632 -1.3043211 -10.412109 7
-0.019828999 -1.333374 -10.420898 7
-0.015648 -1.358765 -10.394531 7
-0.016776999 -1.387329 -10.397461 7
-0.015778 -1.414551 -10.387695 7
-0.019043 -1.444702 -10.401367 7
-0.03624 -1.512085 -10.486328 7
-0.042725001 -1.544556 -10.516602 7
-0.031044001 -1.564575 -10.450195 7
-0.037528999 -1.597168 -10.480469 7
-0.25576001 -4.634521 -10.871094 7
-0.258095 -4.6966548 -10.860352 7
-0.259247 -4.7277832 -10.854492 7
-0.061035 4.786377 -9.5742188 7
-0.055686999 4.7489009 -9.5585938 7
-0.040672 4.6911621 -9.4960938 7
-0.032104 4.6469731 -9.4648438 7
-0.028907999 4.614502 -9.4589844 7
-0.028914999 4.5883789 -9.4707031 7
-0.02681 4.558228 -9.4707031 7
-0.028984001 4.5366211 -9.4912109 7
-0.031151 4.5152588 -9.5126953 7
-0.038695998 4.504395 -9.5605469 7
-0.049461 4.5 -9.625 7
-0.056992002 4.488647 -9.6738281 7
-0.022376999 -1.3031009 -9.9130859 7
-0.024658 -1.331421 -9.921875 7
-0.030296 -1.361328 -9.9462891 7
-0.022568 -1.383423 -9.9033203 7
-0.021507001 -1.4094239 -9.8945312 7
-0.026039001 -1.439209 -9.9140615 7
-0.0261 -1.46582 -9.9101562 7
-0.040656999 -1.502686 -9.9814453 7
-0.044075001 -1.531616 -9.9941406 7
-0.038559001 -1.55481 -9.9619141 7
-0.040848002 -1.583252 -9.9697266 7
-0.26135999 -4.4976811 -10.34082 7
-0.264801 -4.5319819 -10.34668 7
-0.26712799 -4.5639648 -10.345703 7
-0.27504 -4.6063228 -10.373047 7
-0.26955399 -4.6236572 -10.333984 7
-0.264038 -4.6407471 -10.296875 7
-0.26638001 -4.672852 -10.296875 7
-0.2687 -4.704834 -10.295898 7
-0.26878399 -4.7325439 -10.285156 7
-0.27222401 -4.7667241 -10.290039 7
-0.037041001 4.653564 -8.9257812 7
-0.033684 4.6217041 -8.921875 7
-0.033707 4.597168 -8.9316406 7
-0.034859002 4.574707 -8.9482422 7
-0.026993001 -1.300293 -9.4384766 7
-0.031707998 -1.328735 -9.4580078 7
-0.036415 -1.3573 -9.4775391 7
-0.035316002 -1.382324 -9.46875 7
-0.028403999 -1.403687 -9.4316406 7
-0.033126999 -1.432129 -9.4501953 7
-0.034355 -1.45874 -9.4521484 7
-0.032097001 -1.482788 -9.4384766 7
-0.048439 -1.519531 -9.5146484 7
-0.055481002 -1.550171 -9.5449219 7
-0.046241999 -1.569702 -9.4951172 7
-0.046294998 -1.595337 -9.4921885 7
-0.389709 -6.4005132 -9.4804688 7
-0.382797 -6.4086909 -9.4365234 7
-0.38172099 -6.431396 -9.4160156 7
-0.37948599 -6.4511719 -9.3916016 7
-0.39244801 -6.5092769 -9.4296885 7
-0.39372301 -6.5378418 -9.4189453 7
-0.40786001 -6.5991211 -9.4628906 7
-0.41850299 -6.6517329 -9.4912109 7
-0.41510001 -6.6685791 -9.4609385 7
-0.42104301 -6.7093511 -9.4697266 7
-0.025947999 -1.293457 -8.96875 7
-0.042975999 -1.328247 -9.0449219 7
-0.03334 -1.3469239 -8.9970703 7
-0.040688001 -1.376099 -9.0273438 7
-0.037094001 -1.39856 -9.0068359 7
-0.040801998 -1.425537 -9.0214844 7
-0.046921 -1.454102 -9.0458984 7
-0.043358002 -1.47644 -9.0244141 7
-0.043419 -1.500977 -9.0205078 7
-0.056816 -1.5350339 -9.0800781 7
-0.049614001 -1.554688 -9.0410156 7
-0.048470002 -1.578735 -9.0322266 7
-0.38547501 -6.4118652 -8.8222656 7
-0.39166999 -6.4512939 -8.8320312 7
-0.39176899 -6.4755859 -8.8164062 7
-0.38576499 -6.484375 -8.7763672 7
-0.38830599 -6.514648 -8.7705078 7
-0.406708 -6.5852051 -8.828125 7
-0.41900599 -6.6405029 -8.8603516 7
-0.40933999 -6.6398931 -8.8066406 7
-0.41309401 -6.6733398 -8.8046885 7
-0.41442099 -6.7006841 -8.7939453 7
-0.41208601 -6.7185059 -8.7685547 7
-0.026718 -1.282349 -8.4990234 7
-0.029312 -1.307251 -8.5068359 7
-0.031906001 -1.332397 -8.515625 7
-0.031966999 -1.355835 -8.5117188 7
-0.038345002 -1.3831789 -8.5380859 7
-0.027008001 -1.399536 -8.4824219 7
-0.029602 -1.424438 -8.4912109 7
-0.032196 -1.449585 -8.4990234 7
-0.030982999 -1.472046 -8.4902344 7
-0.041182999 -1.502441 -8.5322266 7
-0.047568999 -1.530273 -8.5566406 7
-0.057769999 -1.560913 -8.5976562 7
-0.042640999 -1.573975 -8.5263672 7
-0.040160999 -1.5955811 -8.5117188 7
-0.26501501 -4.5638428 -8.6210938 7
-0.27162901 -4.6468511 -8.6142578 7
-0.26663199 -4.6610112 -8.5820312 7
-0.26798999 -4.6868901 -8.5751953 7
-0.266808 -4.708252 -8.5585938 7
-0.27197301 -4.7415771 -8.5683594 7
-0.27078199 -4.7626948 -8.5527344 7
-0.030678 -1.299561 -8.1025391 7
-0.030739 -1.322021 -8.0996094 7
-0.037392002 -1.348511 -8.1240234 7
-0.049309 -1.378418 -8.171875 7
-0.042769998 -1.3968509 -8.140625 7
-0.037551999 -1.416016 -8.1152344 7
-0.038940001 -1.439575 -8.1162109 7
-0.045593001 -1.466309 -8.140625 7
-0.042998999 -1.487183 -8.1269531 7
-0.054939002 -1.5177 -8.1738281 7
-0.060272001 -1.544067 -8.1923828 7
-0.066924997 -1.571167 -8.2167969 7
-0.055107001 -1.5855711 -8.1621094 7
-0.27676401 -4.489502 -8.2148438 7
-0.27552 -4.5097661 -8.1992188 7
-0.28091401 -4.5423579 -8.2089844 7
-0.27700001 -4.5577388 -8.1826172 7
-0.281059 -4.587769 -8.1875 7
-0.28773499 -4.6228032 -8.2021484 7
-0.28914601 -4.6480708 -8.1962891 7
-0.287918 -4.6680908 -8.1796885 7
-0.28269199 -4.6807861 -8.1484385 7
-0.28410301 -4.7059331 -8.1425781 7
-0.28550699 -4.7310791 -8.1357422 7
-0.284271 -4.7510991 -8.1201172 7
-0.28303501 -4.7712402 -8.1035156 7
-0.28576699 -4.7988281 -8.1025391 7
-0.26724201 -4.5 -7.670898 7
-0.27144599 -4.5291748 -7.6757808 7
-0.27153799 -4.5507808 -7.6650391 7
-0.27159101 -4.572144 -7.655273 7
-0.27442899 -4.5987549 -7.6542969 7
-0.27589399 -4.6225591 -7.6474609 7
-0.28286001 -4.657104 -7.6621089 7
-0.27880099 -4.6707759 -7.6357422 7
-0.27197999 -4.6789551 -7.5996089 7
-0.27344501 -4.7028809 -7.59375 7
-0.27629101 -4.7296138 -7.592773 7
-0.27221701 -4.7427979 -7.5664058 7
-0.27782401 -4.7747798 -7.5751948 7
-0.27513099 -4.7905269 -7.5537109 7
-0.384285 -6.4031978 -7.0205078 7
-0.38298801 -6.4196782 -7.000977 7
-0.38861099 -6.4533691 -7.0039058 7
-0.38317099 -6.4593511 -6.969727 7
-0.38324699 -6.4790039 -6.9550781 7
-0.38610101 -6.505981 -6.9482422 7
-0.388962 -6.5327148 -6.9414058 7
-0.39734599 -6.5736079 -6.953125 7
-0.416794 -6.6428218 -6.999023 7
-0.41825899 -6.6661382 -6.9882808 7
-0.415665 -6.6986079 -6.9482422 7
-0.26834899 -4.4926758 -7.2412109 7
-0.271263 -4.5184331 -7.2402339 7
-0.271339 -4.5388179 -7.2294922 7
-0.27713001 -4.5699458 -7.2392578 7
-0.27721399 -4.5904541 -7.2275391 7
-0.27442199 -4.6053472 -7.2070308 7
-0.28022 -4.6364751 -7.2158198 7
-0.28459901 -4.6650391 -7.2207031 7
-0.281822 -4.6799321 -7.1992192 7
-0.27758801 -4.6922612 -7.1738281 7
-0.274811 -4.7070308 -7.1523442 7
-0.27774799 -4.7327881 -7.1503911 7
-0.27781701 -4.7528081 -7.139648 7
-0.28218099 -4.7816162 -7.1435552 7
-0.27783999 -4.7384028 -6.704102 7
-0.27941099 -4.760498 -6.6962891 7
-0.28690299 -4.7939448 -6.7099609 7
-0.27230099 -4.4844971 -6.438477 7
-0.27698499 -4.511353 -6.4423828 7
-0.27243799 -4.5214839 -6.4160161 7
-0.27559701 -4.5456538 -6.4160161 7
-0.275673 -4.5640869 -6.405273 7
-0.27419999 -4.579834 -6.3886719 7
-0.268112 -4.586792 -6.359375 7
-0.28202799 -4.631104 -6.391602 7
-0.285164 -4.6551509 -6.390625 7
-0.283714 -4.6706538 -6.3730469 7
-0.27919 -4.6804199 -6.3476558 7
-0.27771801 -4.6958008 -6.3320308 7
-0.27777901 -4.7139888 -6.3212891 7
-0.27785501 -4.7322998 -6.3095698 7
-0.27944899 -4.75354 -6.3037109 7
-0.278 -4.7686772 -6.2871089 7
-0.27652699 -4.7840581 -6.2714839 7
-0.39048001 -6.4177251 -4.9892578 7
-0.38893899 -6.428833 -4.969727 7
-0.38582599 -6.4359131 -4.9472661 7
-0.39230299 -6.467041 -4.9482422 7
-0.38597101 -6.4658198 -4.9169922 7
-0.390854 -6.493042 -4.9130859 7
-0.39572901 -6.52002 -4.9091802 7
-0.392609 -6.5267329 -4.8867192 7
-0.399086 -6.558105 -4.8867192 7
-0.40077201 -6.5769038 -4.874023 7
-0.40725699 -6.6081538 -4.874023 7
-0.41053799 -6.631104 -4.8662109 7
-0.41542801 -6.6582031 -4.8613281 7
-0.41392499 -6.6688228 -4.8408198 7
-0.4188 -6.6960449 -4.8369141 7
-0.393677 -6.4455571 -4.4638672 7
-0.39375299 -6.4593511 -4.4482422 7
-0.39216599 -6.4689941 -4.4287109 7
-0.39555401 -6.4912109 -4.421875 7
-0.39563 -6.5050049 -4.40625 7
-0.395706 -6.5187988 -4.390625 7
-0.409058 -6.56604 -4.405273 7
-0.407478 -6.575562 -4.3867192 7
-0.40591401 -6.5849609 -4.3662109 7
-0.41097301 -6.6112061 -4.3613281 7
-0.421013 -6.6503911 -4.3681641 7
-0.42275199 -6.6682129 -4.3554692 7
-0.42116499 -6.6777339 -4.3369141 7
-0.42622399 -6.703979 -4.3320308 7
-0.40029901 -6.414917 -4.03125 7
-0.39867401 -6.4234619 -4.0126948 7
-0.393585 -6.4233398 -3.9863279 7
-0.39021301 -6.4277339 -3.9628911 7
-0.39544699 -6.453125 -3.9589839 7
-0.38862601 -6.4486079 -3.929688 7
-0.39559901 -6.4785161 -3.9277339 7
-0.39566001 -6.4910889 -3.9130859 7
-0.39573699 -6.5036621 -3.8974609 7
-0.39926901 -6.5249019 -3.8886721 7
-0.39933801 -6.5374761 -3.8730471 7
-0.39769 -6.5455322 -3.8535161 7
-0.28679699 -4.685791 -4.7949219 7
-0.29402199 -4.7285161 -4.7910161 7
-0.28698 -4.7296138 -4.7617192 7
-0.29237401 -4.7545171 -4.764648 7
-0.28889501 -4.762207 -4.7441411 7
-0.29251099 -4.7835689 -4.742188 7
-0.28901699 -4.7911382 -4.7207031 7
-0.408577 -6.4741211 -3.500977 7
-0.410431 -6.4902339 -3.4892581 7
-0.40873 -6.497437 -3.4707029 7
-0.407013 -6.504395 -3.4511721 7
-0.40709701 -6.5158691 -3.436523 7
-0.39646101 -6.5003662 -3.3994141 7
-0.40010801 -6.5206299 -3.390625 7
-0.39839199 -6.5275879 -3.3730471 7
-0.39846 -6.5388179 -3.3574221 7
-0.39852899 -6.5500488 -3.3417971 7
-0.40573099 -6.5793462 -3.3388669 7
-0.407585 -6.5952148 -3.3261721 7
-0.405891 -6.6018071 -3.3076169 7
-0.41128501 -6.6264648 -3.3027339 7
-0.41848001 -6.6558838 -3.2998049 7
-0.423897 -6.680542 -3.292969 7
-0.43288401 -6.7146001 -3.292969 7
-0.32350701 -4.9264808 5.2967291 7
0.096674003 -1.446563 -13.601357 7
0.090016998 -1.375461 -10.892302 7
-0.0019650001 -1.7024339 -7.013896 7
0.016352 -1.621299 -5.8179669 7
-0.27254999 -4.514287 -7.393868 7
0.020998999 -1.562518 -4.9544058 7
-0.029273 -1.49992 -4.0529971 7
-0.0033859999 -1.452861 -3.354315 7
-0.29294601 -4.7608361 -3.869292 7
-0.401795 -6.4400721 -3.273808 7
-0.27436301 -4.7217469 -3.1341181 7
-0.26591501 -4.7036328 -2.5334859 7
-0.013149 -1.537781 -1.603301 7
-0.28162801 -4.7103128 -0.841748 7
-0.30737099 -4.7006049 0.075081997 7
-0.011667 -1.423085 -0.56432998 7
-0.025455 -1.587635 -0.58207899 7
0.00019399999 -1.4010791 -0.36260399 7
-0.013807 -1.55718 -0.381349 7
-0.32164899 -4.9038849 5.2543268 7
-0.318878 -4.8108468 5.4131889 7
-0.314915 -4.7045121 1.42171 7
-0.32062799 -4.7864919 1.574451 7
-0.32742301 -4.8438458 4.645606 7
-0.292371 -4.512279 1.516214 7
-0.30363101 -4.713026 1.965845 7
-0.29983801 -4.746079 2.127629 7
-0.28220201 -4.5271349 2.0297379 7
-0.28754401 -4.5842199 2.1756949 7
0.017099001 4.5308728 -12.969983 7
-0.248404 4.7202158 -16.488087 7
-0.092788003 -1.368628 -9.5027332 7
-0.350618 -4.5789499 -12.885495 7
-0.055376001 -1.384349 -7.8303919 7
-0.25684199 -4.6431952 -9.6941948 7
0.017893 1.246796 -6.866528 7
-0.031968001 -1.3984621 -6.7135062 7
-0.052751999 -1.7031111 -6.8953152 7
-0.246978 -4.6610131 -8.2381916 7
-0.211303 -4.7315979 -7.7278161 7
-0.012872 1.246291 -5.8979921 7
-0.014185 1.047299 -5.9508729 7
-0.072314002 -1.420374 -5.9402189 7
-0.089028999 -1.674399 -6.0353971 7
-0.27774501 -4.661139 -6.5991411 7
0.00055900001 1.2683361 -5.2702532 7
-0.000803 1.0957251 -5.3241949 7
-0.05672 -1.434925 -5.3364611 7
-0.065586001 -1.640568 -5.353116 7
0.013313 1.2773989 -4.7548141 7
-0.042050999 -1.437886 -4.8336291 7
-0.054770999 -1.635108 -4.870326 7
-0.070244998 -1.848073 -4.9175811 7
-0.261608 -4.7351618 -4.7751431 7
-0.376082 -6.4588161 -4.1375828 7
0.025284 1.546419 -4.2222638 7
0.019090001 1.432627 -4.3204069 7
0.018936999 1.295939 -4.3712859 7
-0.032986999 -1.446156 -4.4402299 7
-0.243378 -4.584928 -4.0180898 7
-0.25007999 -4.7710071 -3.863162 7
-0.012664 -1.287869 -4.0799742 7
-0.021737 -1.439787 -4.08496 7
-0.01777 -1.552781 -4.0059538 7
-0.29626101 -4.7091088 -3.0914249 7
-0.288849 -4.763752 -2.8842521 7
-0.03954 -1.4183151 -3.757822 7
-0.039142001 -1.52891 -3.7002599 7
-0.2748 -4.711174 -1.811602 7
-0.27358401 -4.7514539 -1.615362 7
-0.022394 -1.389781 -3.468075 7
-0.025171001 -1.4978991 -3.426219 7
-0.042254999 -1.651926 -3.4444771 7
-0.039643999 -1.742492 -3.3679171 7
-0.013051 -1.378034 -3.243943 7
-0.015995 -1.4772969 -3.20192 7
-0.033089999 -1.621897 -3.214216 7
-0.0027960001 -1.440166 -1.83313 7
-0.0095560001 -1.492638 -1.782741 7
-0.026063001 -1.574899 -1.740869 7
-0.022844 -1.592049 -1.6723419 7
-5.7000001e-05 -1.312292 -1.913095 7
-0.0089170001 -1.372043 -1.872546 7
-0.0074700001 -1.400256 -1.814001 7
-0.025719 -1.431846 -1.756498 7
-0.025979999 -1.460379 -1.697589 7
-0.020971 -1.470576 -1.632197 7
-0.0087820003 -1.305693 -1.768863 7
-0.018278999 -1.360384 -1.726153 7
-0.018663 -1.3877439 -1.670277 7
-0.019016 -1.41278 -1.613116 7
-0.0041339998 -1.299739 -1.6372941 7
