# .PCD v0.7 - Point Cloud Data file format
VERSION 0.7
FIELDS x y z intensity
SIZE 4 4 4 4
TYPE F F F F
COUNT 1 1 1 1
WIDTH 1271
HEIGHT 1
VIEWPOINT 0 0 0 1 0 0 0
POINTS 1271
DATA ascii
2.802788 -1.089722 -13.619141 7
0.119186 -1.422485 -69.024414 7
0.15131401 -1.5643311 -67.916016 7
0.071700998 5.5141602 -69.817383 7
0.101593 5.2689209 -68.814453 7
0.071335003 5.1759028 -69.84375 7
0.171021 1.702271 -66.509766 7
0.0081249997 -1.491943 -64.723633 7
0.090857998 -1.585693 -62.199219 7
0.123901 -1.70874 -61.182617 7
0.078316003 -1.897949 -62.552734 7
0.080940001 5.0474849 -61.827148 7
0.022449 5.0333252 -63.594727 7
0.055144999 -1.7049561 -56.182617 7
0.088619001 -1.81958 -55.387695 7
0.15163399 -1.895142 -53.669922 7
-0.73075098 -3.210083 70.765625 7
-0.73908198 -0.91076702 71.115234 7
0.165852 5.0986328 -52.722656 7
0.090446003 5.155396 -54.756836 7
0.163616 4.8460689 -52.798828 7
0.112949 4.8355708 -54.168945 7
0.057709001 4.8287349 -55.661133 7
0.170258 1.486084 -52.713867 7
0.168579 1.3586431 -52.756836 7
0.023884 -1.949707 -51.609375 7
0.062977001 -2.0375979 -50.641602 7
0.028155999 -2.1960449 -51.483398 7
0.046516001 -2.3015139 -51.022461 7
-0.70093501 -0.221802 64.365234 7
0.115093 4.9768071 -48.864258 7
0.041992001 5.028564 -50.652344 7
0.109585 4.75 -49.015625 7
0.003792 4.7399902 -51.607422 7
-0.015182 -2.006958 -47.063477 7
0.028622 -2.0797119 -46.088867 7
0.051231001 -2.1690669 -45.581055 7
0.016857 -2.449707 -46.672852 7
0.118977 4.9378662 -44.055664 7
0.079567 4.9216309 -44.93457 7
0.049125999 4.881104 -45.615234 7
0.122314 4.6055908 -44.007812 7
0.071308002 4.6088872 -45.142578 7
0.038490001 4.5678711 -45.875977 7
-0.00016 4.535645 -46.736328 7
0.111282 1.1494139 -44.382812 7
-0.033996999 -2.1031489 -44.0625 7
0.0025790001 -2.1741941 -43.303711 7
0.036015 -2.244873 -42.608398 7
0.064911 -2.3173831 -42.007812 7
0.021046 -2.4703369 -42.895508 7
0.040527001 -2.551636 -42.486328 7
-0.548733 -0.178101 52.185547 7
-0.52316302 0.062011998 51.716797 7
0.088852003 4.8232422 -41.110352 7
0.061314002 4.7841802 -41.680664 7
0.030041 4.7504878 -42.325195 7
-0.0098040001 4.7324219 -43.145508 7
0.070721 4.456665 -41.516602 7
0.026005 4.4465332 -42.433594 7
-0.015003 4.4248052 -43.276367 7
-0.032715 -2.3087161 -40.007812 7
-0.003819 -2.3751221 -39.458984 7
0.01194 -2.454102 -39.15625 7
-0.037369002 -2.607666 -40.066406 7
-0.015667001 -2.679199 -39.651367 7
0.025745001 -2.7241211 -38.869141 7
0.040562 -2.8000491 -38.583008 7
0.058205001 -2.870605 -38.243164 7
-0.486954 -2.972168 46.941406 7
-0.50596201 -2.8848879 47.275391 7
-0.52121401 -2.792114 47.543945 7
-0.45258299 0.16271999 46.464844 7
0.042507 4.780273 -38.205078 7
0.023922 4.72644 -38.55957 7
0.0065919999 4.6685791 -38.889648 7
-0.026402 4.6419678 -39.510742 7
0.017986 4.4533691 -38.696289 7
0.0047229999 4.384644 -38.950195 7
0.132393 1.139282 -36.724609 7
0.129967 0.95898402 -36.770508 7
0.13803101 0.86474597 -36.621094 7
0.15580399 0.76782203 -36.290039 7
0.136856 0.684448 -36.641602 7
0.15462101 0.58898902 -36.30957 7
-0.021118 -2.746948 -36.541992 7
-0.025374999 -2.8422849 -36.605469 7
0.002415 -2.9836431 -36.108398 7
0.007305 -3.0654299 -36.013672 7
-0.44547701 -2.816406 43.038086 7
-0.47578001 -2.6494141 43.535156 7
-0.433025 0.051757999 42.948242 7
-0.406708 0.14880399 42.532227 7
-0.43456599 0.24890099 42.977539 7
0.010551 4.9180908 -35.637695 7
-0.052822001 4.789185 -36.750977 7
0.126148 1.390259 -33.880859 7
0.105637 0.726318 -34.240234 7
0.12968101 0.63427699 -33.827148 7
0.104309 0.47241199 -34.261719 7
0.142891 0.37792999 -33.865234 7
-0.036899999 -2.949585 -33.584961 7
-0.046314001 -3.0450439 -33.722656 7
-0.034283001 -3.1109619 -33.523438 7
-0.012642 -3.162354 -33.171875 7
-0.37072 -2.78894 38.703125 7
-0.39734301 -2.7290039 39.100586 7
-0.40799299 -2.6505129 39.264648 7
-0.44779199 -2.600342 39.852539 7
-0.368725 0.13562 38.796875 7
-0.35023499 0.222656 38.527344 7
-0.374035 0.31347701 38.87793 7
-0.000237 5.02002 -32.657227 7
0.001896 4.934082 -32.633789 7
-0.014099 4.8887939 -32.893555 7
-0.036380999 4.855835 -33.25293 7
-0.060874999 4.8258061 -33.646484 7
-0.088817999 4.7990718 -34.091797 7
0.113411 1.437378 -31.138672 7
0.103222 1.289062 -31.301758 7
0.075324997 1.2275389 -31.742188 7
0.071152002 0.51928699 -31.813477 7
0.096996002 0.43505901 -31.40625 7
0.079372004 0.28149399 -31.681641 7
0.105995 0.20043901 -31.262695 7
0.119606 0.121948 -31.045898 7
0.108517 -0.036010999 -29.322266 7
-0.084755003 -3.1296389 -31.944336 7
-0.075816996 -3.1956789 -31.802734 7
-0.060947001 -3.2524409 -31.574219 7
-0.049217001 -3.312988 -31.391602 7
-0.058093999 -3.4039309 -31.512695 7
-0.36044699 -2.8552251 36.256836 7
-0.37351599 -2.7871089 36.443359 7
-0.37170801 -2.702148 36.426758 7
-0.342152 0.37304699 36.144531 7
-0.34627199 0.456177 36.201172 7
-0.34571499 0.53857398 36.194336 7
-0.345577 0.62097198 36.193359 7
-0.010517 4.9375 -30.525391 7
-0.024448 4.8924561 -30.739258 7
-0.042328 4.8548579 -31.010742 7
-0.061007999 4.817749 -31.293945 7
-0.093154997 4.8078609 -31.773438 7
0.092262 1.502808 -29.299805 7
0.077105999 1.440186 -29.524414 7
0.085349999 1.361328 -29.40625 7
0.056705002 1.305542 -29.829102 7
0.054310001 0.336548 -30.132812 7
0.073909998 0.25952101 -29.841797 7
0.102985 0.182861 -29.40918 7
0.066128001 0.111816 -29.953125 7
0.087715 0.037108999 -29.632812 7
0.099045001 -0.02771 -26.919922 7
0.076649003 -0.096069001 -27.222656 7
0.080440998 -0.163818 -27.169922 7
0.098778002 -0.229614 -26.917969 7
0.085414998 -0.29882801 -27.098633 7
-0.093349002 -3.271729 -29.523438 7
-0.096073002 -3.3487549 -29.549805 7
-0.083374001 -3.4029541 -29.368164 7
-0.074127004 -3.4611821 -29.231445 7
-0.31164899 0.568726 33.352539 7
-0.30972701 0.64379901 33.328125 7
0.017643001 5.0664058 -27.669922 7
0.017147001 4.998291 -27.6875 7
0.00082800002 4.9659419 -27.918945 7
-0.014206 4.9299321 -28.130859 7
-0.037792001 4.9116211 -28.459961 7
-0.061377998 4.8920898 -28.789062 7
-0.068291001 4.835083 -28.892578 7
0.103214 1.652344 -26.84375 7
0.086429998 1.5979 -27.074219 7
0.086773001 1.529907 -27.072266 7
0.098682001 1.453735 -26.912109 7
0.076339997 1.4013669 -27.21875 7
0.088261001 1.325684 -27.058594 7
0.069618002 0.108521 -27.321289 7
0.077266999 0.039917 -27.216797 7
0.069606997 -0.03125 -25.621094 7
0.055309001 -0.095946997 -25.801758 7
0.075759999 -0.158813 -25.539062 7
0.080223002 -0.222168 -25.480469 7
0.055858999 -0.28918499 -25.788086 7
0.077689998 -0.349731 -25.507812 7
0.078948997 -0.41332999 -25.490234 7
-0.11578 -3.3586431 -27.708984 7
-0.121441 -3.435791 -27.769531 7
-0.107841 -3.4842529 -27.587891 7
-0.091941997 -3.5279541 -27.375977 7
-0.087029003 -3.5880129 -27.304688 7
-0.0099830003 5.0488281 -26.030273 7
-0.013256 4.9908452 -26.082031 7
-0.02293 4.947144 -26.213867 7
-0.036247 4.9108891 -26.392578 7
-0.056476999 4.888916 -26.657227 7
-0.070262998 4.851685 -26.841797 7
0.085602 1.4925539 -25.18457 7
0.061618999 1.447876 -25.694336 7
0.065436997 -0.326538 -23.728516 7
0.086491004 -0.382202 -23.475586 7
0.082455002 -0.44189501 -23.522461 7
0.060173001 -0.50610399 -23.783203 7
0.076816998 -0.56140101 -23.583984 7
0.082111001 -0.61901897 -23.518555 7
-0.113403 -3.561157 -25.535156 7
-0.106632 -3.614136 -25.445312 7
-0.092952996 -3.655396 -25.275391 7
-0.086658001 -3.7081299 -25.191406 7
-0.076935001 -3.7546389 -25.067383 7
-0.021149 5.0788569 -24.128906 7
-0.014297 5.002563 -24.060547 7
-0.024219999 4.9638672 -24.186523 7
-0.033146001 4.922852 -24.300781 7
-0.049957 4.89856 -24.506836 7
-0.071709 4.8839111 -24.772461 7
0.080650002 1.742188 -23.321289 7
0.086456001 1.620239 -23.259766 7
0.080963001 1.565552 -23.327148 7
0.059032001 -0.36108401 -22.126953 7
0.045226999 -0.41955599 -22.27832 7
0.057247002 -0.4729 -22.143555 7
0.068210997 -0.52587903 -22.018555 7
0.054939002 -0.58508301 -22.164062 7
-0.094481997 -3.5327151 -23.504883 7
-0.105175 -3.608521 -23.613281 7
-0.11536 -3.6837161 -23.712891 7
-0.110203 -3.7346189 -23.646484 7
-0.100296 -3.777344 -23.52832 7
-0.098830998 -3.83374 -23.501953 7
-0.034439001 5.0557861 -22.518555 7
-0.040817 5.013062 -22.598633 7
-0.048252001 4.9725342 -22.69043 7
-0.056751002 4.9337158 -22.792969 7
-0.074211001 4.914185 -22.993164 7
-0.085883997 4.881104 -23.130859 7
0.049605999 1.873901 -22.005859 7
0.066978 1.803467 -21.818359 7
0.057395998 1.756104 -21.926758 7
0.066855997 1.692993 -21.827148 7
0.067863002 1.636963 -21.819336 7
0.049022999 -0.54223597 -20.525391 7
0.047756001 -0.599365 -20.692383 7
0.059489999 -0.64990199 -20.585938 7
0.04755 -0.70593297 -20.707031 7
0.040690999 -0.76074201 -20.776367 7
0.049038 -0.809937 -20.685547 7
0.053454999 -0.86047399 -20.637695 7
0.037563 -0.91943401 -20.798828 7
-0.119835 -3.729614 -22.088867 7
-0.121078 -3.7871089 -22.091797 7
-0.104942 -3.870605 -21.905273 7
-0.101112 -3.9190669 -21.856445 7
-0.105766 -3.9819341 -21.892578 7
-0.120583 -4.0631099 -22.033203 7
-0.042670999 5.0661621 -20.980469 7
-0.04834 5.0256348 -21.050781 7
-0.055725001 4.9885249 -21.135742 7
-0.065342002 4.9560552 -21.245117 7
-0.086825997 4.9489751 -21.47168 7
-0.091370001 4.9042969 -21.529297 7
-0.073383003 4.8112788 -21.358398 7
0.061549999 1.898438 -20.354492 7
0.055294 1.852173 -20.421875 7
0.042252 1.811157 -20.55957 7
0.065334 1.7401119 -20.325195 7
0.057948999 1.694092 -20.405273 7
0.045464002 1.651733 -20.537109 7
0.028132999 -0.66918898 -19.563477 7
0.026234001 -0.71935999 -19.580078 7
0.037448999 -0.81445301 -19.464844 7
0.013374 -0.87353498 -19.696289 7
0.015068 -0.922607 -19.676758 7
0.031665999 -1.014526 -19.508789 7
-0.13919801 -3.9017329 -20.792969 7
-0.136917 -3.9501951 -20.759766 7
-0.12740301 -3.986084 -20.658203 7
-0.122734 -4.0299072 -20.602539 7
-0.121666 -4.079834 -20.581055 7
-0.055321001 5.09021 -19.679688 7
-0.065552004 5.0629878 -19.789062 7
-0.074593 5.0327148 -19.885742 7
-0.081225999 4.99646 -19.959961 7
-0.098057002 4.9824219 -20.130859 7
-0.11068 4.9584961 -20.261719 7
-0.096951 4.8774409 -20.141602 7
0.035301 1.9050291 -19.286133 7
0.023841999 1.865723 -19.400391 7
0.042392999 1.800537 -19.224609 7
0.038136002 1.755127 -19.269531 7
0.027283 1.714355 -19.37793 7
0.033241 1.6604 -19.324219 7
0.041584 1.6044919 -19.248047 7
0.0087390002 -0.815063 -18.286133 7
-0.128521 -3.8408201 -19.296875 7
-0.151031 -3.92749 -19.488281 7
-0.147949 -3.9715581 -19.451172 7
-0.136528 -4.0010991 -19.337891 7
-0.13152701 -4.0411382 -19.282227 7
-0.12717099 -4.0822749 -19.232422 7
-0.129215 -4.1343989 -19.239258 7
-0.057842001 5.1118159 -18.323242 7
-0.062344 5.0751948 -18.374023 7
-0.070037998 5.0450439 -18.454102 7
-0.079025 5.0178218 -18.543945 7
-0.088004999 4.9901118 -18.634766 7
-0.105267 4.9798579 -18.799805 7
-0.114246 4.9510498 -18.890625 7
-0.094498001 4.8605962 -18.726562 7
0.015853999 1.8974611 -18.179688 7
0.04073 1.829712 -17.957031 7
0.029812001 1.792725 -18.061523 7
0.018897999 1.755127 -18.164062 7
0.02396 1.704712 -18.121094 7
0.027752001 1.655273 -18.09082 7
0.034724999 1.6036381 -18.029297 7
-0.15004 -4.1706538 -18.210938 7
-0.1488 -4.2146001 -18.19043 7
-0.095367 5.087646 -17.482422 7
-0.099441998 5.0516362 -17.52832 7
-0.102852 5.0141602 -17.568359 7
-0.115047 4.9954829 -17.680664 7
-0.124531 4.9703369 -17.771484 7
-0.118488 4.9117432 -17.732422 7
-0.096915998 4.8205571 -17.564453 7
-0.005413 -0.903687 -16.365234 7
0.0058749998 -0.98242199 -16.268555 7
0.0093689999 -1.022705 -16.237305 7
-0.15638401 -4.1611328 -17.09082 7
-0.15507101 -4.202271 -17.068359 7
-0.148708 -4.2342529 -17.007812 7
-0.150967 -4.2818599 -17.014648 7
-0.163288 -4.3478999 -17.100586 7
-0.168419 -4.4012451 -17.129883 7
-0.177147 -4.4613042 -17.1875 7
0.015453 1.897095 -16.004883 7
0.015377 1.8143311 -16.012695 7
0.015316 1.772705 -16.016602 7
0.020306 1.727417 -15.981445 7
0.020977 1.685547 -15.979492 7
0.018062999 1.6463619 -16.006836 7
0.020168001 1.603271 -15.993164 7
-0.003021 -1.011108 -15.354492 7
-0.174992 -4.170166 -16.158203 7
-0.170536 -4.2033691 -16.114258 7
-0.16682801 -4.2382808 -16.076172 7
-0.16846099 -4.282227 -16.077148 7
-0.17767 -4.3404541 -16.134766 7
-0.183853 -4.3930659 -16.169922 7
-0.186996 -4.4403081 -16.180664 7
0.0084340004 1.91626 -15.080078 7
0.003849 1.880859 -15.120117 7
0.0045659998 1.840942 -15.119141 7
0.011345 1.796021 -15.070312 7
0.012802 1.7557369 -15.0625 7
0.016548 1.713379 -15.038086 7
0.014236 1.676025 -15.058594 7
0.0043299999 1.644165 -15.137695 7
-4.6000001e-05 -1.065796 -14.398438 7
-0.18394101 -4.1898189 -15.191406 7
-0.17760099 -4.2176509 -15.135742 7
-0.17528901 -4.2523189 -15.109375 7
-0.172977 -4.2871089 -15.083008 7
-0.17227601 -4.3244629 -15.066406 7
-0.180401 -4.37854 -15.112305 7
-0.193344 -4.4416499 -15.191406 7
-0.080971003 5.074585 -14.135742 7
-0.086617 5.013062 -14.198242 7
-0.090659998 4.9473882 -14.25 7
-0.109104 4.949707 -14.388672 7
-0.102772 4.8234859 -14.378906 7
0.024254 1.576172 -14.074219 7
0.030575 1.497925 -14.035156 7
0.018517001 1.46936 -14.125 7
0.016883999 1.433472 -14.140625 7
0.027264001 1.389648 -14.069336 7
0.034435 1.348389 -14.020508 7
-0.016807999 -0.98376501 -13.719727 7
-0.01268 -1.017578 -13.6875 7
-0.0043029999 -1.049194 -13.62793 7
-0.0018579999 -1.083618 -13.608398 7
-0.017937001 -1.127319 -13.71582 7
-0.025604 -1.167236 -13.764648 7
-0.018936001 -1.1993411 -13.714844 7
-0.019012 -1.235229 -13.711914 7
-0.012337 -1.267212 -13.664062 7
-0.192425 -4.1791992 -14.360352 7
-0.18829 -4.2089839 -14.323242 7
-0.185856 -4.2416992 -14.295898 7
-0.18594 -4.2789311 -14.286133 7
-0.184338 -4.3128662 -14.265625 7
-0.186131 -4.3530269 -14.265625 7
-0.193829 -4.4041748 -14.305664 7
-0.195614 -4.4445801 -14.305664 7
0.028881 1.248901 -13.279297 7
0.016201001 1.220947 -13.369141 7
0.027927 1.1444089 -13.293945 7
0.037136 1.0699461 -13.234375 7
0.039593 0.99902302 -13.22168 7
0.031109 0.96789598 -13.283203 7
-0.0083659999 -0.96435499 -12.904297 7
-0.024375999 -1.005493 -13.005859 7
-0.0076029999 -1.03186 -12.893555 7
-0.007679 -1.065552 -12.891602 7
-0.0024300001 -1.09668 -12.853516 7
-0.016678 -1.137817 -12.943359 7
-0.033592001 -1.1806639 -13.049805 7
-0.018578 -1.206787 -12.950195 7
-0.018654 -1.240723 -12.946289 7
-0.016953001 -1.27356 -12.931641 7
-0.203472 -4.2003169 -13.582031 7
-0.20267899 -4.2342529 -13.56543 7
-0.19655199 -4.2585449 -13.516602 7
-0.193974 -4.289062 -13.490234 7
-0.191387 -4.319458 -13.462891 7
-0.192371 -4.3560791 -13.458984 7
-0.199581 -4.404541 -13.492188 7
-0.205891 -4.4512939 -13.520508 7
0.032554999 0.951904 -12.530273 7
0.028988 0.92040998 -12.556641 7
0.022739001 0.88952601 -12.599609 7
0.03064 0.81982398 -12.550781 7
0.035912 0.78466803 -12.517578 7
0.045639001 0.74804699 -12.456055 7
0.048271 0.71423298 -12.44043 7
0.037581999 0.68469203 -12.511719 7
-0.012936 -0.98498499 -12.24707 7
-0.012058 -1.016968 -12.239258 7
-0.0056269998 -1.046021 -12.197266 7
-0.0094109997 -1.0799561 -12.216797 7
-0.000179 -1.107666 -12.157227 7
0.0016139999 -1.138672 -12.141602 7
-0.019833 -1.182373 -12.272461 7
-0.014324 -1.211548 -12.235352 7
-0.021819999 -1.247925 -12.27832 7
-0.013531 -1.2755131 -12.222656 7
-0.197285 -4.1894531 -12.770508 7
-0.195499 -4.219727 -12.75 7
-0.20119099 -4.263062 -12.771484 7
-0.193829 -4.2832031 -12.716797 7
-0.19484299 -4.3183589 -12.712891 7
-0.194004 -4.3499761 -12.696289 7
-0.184761 -4.3662109 -12.630859 7
-0.192307 -4.4130859 -12.665039 7
-0.203587 -4.4674072 -12.720703 7
0.034690998 0.62060499 -11.993164 7
0.029045001 0.59033197 -12.029297 7
0.037354 0.55639601 -11.978516 7
0.041946001 0.52355999 -11.951172 7
0.053950999 0.48913601 -11.876953 7
0.054821 0.457764 -11.87207 7
0.056614 0.42590299 -11.861328 7
0.035209998 0.39831501 -11.995117 7
0.041648999 0.36584499 -11.955078 7
0.043465 0.33374 -11.945312 7
-0.001789 -1.0531009 -11.495117 7
-0.004803 -1.0849611 -11.508789 7
-0.0058400002 -1.116089 -11.512695 7
-0.198433 -4.1759028 -12.017578 7
-0.20047 -4.21106 -12.018555 7
-0.20644 -4.253418 -12.041016 7
-0.20161401 -4.2763672 -12.003906 7
-0.195824 -4.2974849 -11.960938 7
-0.194923 -4.3273931 -11.945312 7
-0.194023 -4.3572998 -11.929688 7
-0.19802099 -4.395874 -11.941406 7
-0.2006 -4.4299321 -11.941406 7
-0.208515 -4.4760742 -11.975586 7
-0.118591 5.0917969 -11.164062 7
-0.110794 5.0446782 -11.132812 7
-0.092266001 4.9742432 -11.042969 7
-0.087390997 4.934082 -11.02832 7
-0.090342999 4.910645 -11.055664 7
-0.092303999 4.8851318 -11.077148 7
-0.093281001 4.8575439 -11.094727 7
-0.094279997 4.829834 -11.112305 7
-0.105038 4.8226318 -11.181641 7
-0.119675 4.8232422 -11.276367 7
0.045451999 0.318726 -11.149414 7
0.050297 0.288086 -11.120117 7
0.053196002 0.25781199 -11.104492 7
0.055110998 0.22778299 -11.091797 7
0.048229001 0.19873001 -11.132812 7
0.038417999 0.16955601 -11.191406 7
0.039356001 0.13952599 -11.185547 7
0.046177 0.109253 -11.146484 7
0.047107998 0.079346001 -11.140625 7
0.050983001 0.049072001 -11.118164 7
0.048016001 0.019409001 -11.134766 7
0.040684 -0.012207 -10.732422 7
0.038586002 -0.041016001 -10.744141 7
0.029331001 -0.069945998 -10.793945 7
0.0252 -0.098876998 -10.817383 7
0.029231999 -0.127808 -10.793945 7
0.033245001 -0.156372 -10.770508 7
0.036274001 -0.184692 -10.75293 7
0.039271999 -0.213257 -10.735352 7
0.035122 -0.242432 -10.757812 7
0.033039 -0.27136201 -10.768555 7
0.026854999 -0.30114701 -10.802734 7
-0.20184299 -4.1743159 -11.375 7
-0.20500199 -4.2098389 -11.381836 7
-0.212254 -4.2528081 -11.40918 7
-0.212337 -4.2832031 -11.399414 7
-0.21240599 -4.313477 -11.389648 7
-0.208397 -4.3363042 -11.357422 7
-0.205406 -4.3607178 -11.331055 7
-0.20548999 -4.3908691 -11.319336 7
-0.20661201 -4.422852 -11.314453 7
-0.20463599 -4.4490972 -11.292969 7
-0.084918998 0.72644001 13.862305 7
-0.084881 0.75585902 13.860352 7
-0.084826998 0.78539997 13.859375 7
-0.087917 0.81591803 13.874023 7
-0.087863997 0.845581 13.87207 7
-0.087817997 0.875 13.870117 7
-0.088817999 0.90490699 13.874023 7
-0.088757001 0.93457001 13.871094 7
-0.126251 5.1088872 -10.544922 7
-0.121162 5.0693359 -10.530273 7
-0.115044 5.0273442 -10.509766 7
-0.102818 4.9724121 -10.458008 7
-0.094654001 4.9263921 -10.427734 7
-0.096713997 4.9025879 -10.450195 7
-0.101826 4.8852539 -10.488281 7
-0.100826 4.8547359 -10.493164 7
-0.102886 4.830688 -10.515625 7
-0.105953 4.8087158 -10.542969 7
-0.119217 4.8078609 -10.625 7
0.030758001 -0.33972201 -10.18457 7
0.028339 -0.36840799 -10.201172 7
0.020779001 -0.39733899 -10.239258 7
0.021748001 -0.45214799 -10.231445 7
0.028111 -0.47827101 -10.196289 7
0.028065 -0.50573701 -10.195312 7
0.022662999 -0.53442401 -10.222656 7
0.021519 -0.56225598 -10.226562 7
-0.011391 -0.96105999 -10.373047 7
-0.011459 -0.98889202 -10.371094 7
-0.012589 -1.017212 -10.373047 7
-0.015858 -1.046509 -10.388672 7
-0.014839 -1.073975 -10.379883 7
-0.0084840003 -1.0986331 -10.342773 7
-0.010681 -1.127441 -10.352539 7
-0.01181 -1.155884 -10.354492 7
-0.015083 -1.185425 -10.369141 7
-0.026928 -1.219849 -10.429688 7
-0.029118 -1.249023 -10.439453 7
-0.021679001 -1.272583 -10.395508 7
-0.196739 -4.1650391 -10.664062 7
-0.200058 -4.1992192 -10.669922 7
-0.206581 -4.2391362 -10.692383 7
-0.209885 -4.2736821 -10.699219 7
-0.215828 -4.3105469 -10.71582 7
-0.210526 -4.3295898 -10.678711 7
-0.20845 -4.3543701 -10.658203 7
-0.20959499 -4.3847661 -10.652344 7
-0.20751999 -4.4091802 -10.631836 7
-0.210831 -4.4437261 -10.636719 7
-0.20768 -4.466187 -10.610352 7
-0.083920002 0.663818 13.268555 7
-0.073959 0.68896502 13.214844 7
-0.075024001 0.71728498 13.219727 7
-0.074978001 0.74511701 13.217773 7
-0.077114001 0.77380401 13.227539 7
-0.07378 0.800659 13.208008 7
-0.074818 0.82897902 13.211914 7
-0.078037001 0.88622999 13.225586 7
-0.076877996 0.913818 13.217773 7
-0.077930003 0.94213903 13.220703 7
0.022128999 -0.32678199 -9.7285156 7
0.016483 -0.35424799 -9.7568359 7
0.014187 -0.38110399 -9.7666016 7
0.015263 -0.40722701 -9.7597656 7
0.0085070003 -0.434937 -9.7939453 7
0.015156 -0.46008301 -9.7578115 7
0.018452 -0.48571801 -9.7392578 7
0.021755001 -0.51110798 -9.7216797 7
0.022816001 -0.53710902 -9.7138672 7
0.021648001 -0.563721 -9.7177734 7
0.013775 -0.59228498 -9.7568359 7
0.001419 -0.62207001 -9.8173828 7
-0.017189 -0.974976 -9.8847656 7
-0.014984 -1.0007319 -9.8720703 7
-0.016174 -1.027832 -9.8740234 7
-0.019577 -1.056152 -9.8896484 7
-0.01516 -1.080566 -9.8642578 7
-0.01075 -1.10498 -9.8378906 7
-0.0096819997 -1.130981 -9.8300781 7
-0.014206 -1.159912 -9.8505859 7
-0.016502 -1.187744 -9.8583984 7
-0.028866 -1.221069 -9.9189453 7
-0.023383999 -1.271606 -9.8837891 7
-0.026821001 -1.300171 -9.8974609 7
-0.025753001 -1.326172 -9.8876953 7
-0.024692999 -1.352173 -9.8798828 7
-0.204163 -4.184814 -10.103516 7
-0.20310999 -4.2102051 -10.088867 7
-0.205437 -4.241333 -10.089844 7
-0.208878 -4.2745361 -10.095703 7
-0.216812 -4.315918 -10.123047 7
-0.20903 -4.3288569 -10.075195 7
-0.20462 -4.3478999 -10.042969 7
-0.20468099 -4.3748779 -10.033203 7
-0.208138 -4.407959 -10.038086 7
-0.207092 -4.433228 -10.022461 7
-0.20941199 -4.464355 -10.022461 7
-0.006302 -0.64807099 -9.3691406 7
0.001816 -0.67102098 -9.3261719 7
0.0076100002 -0.69458002 -9.296875 7
0.0086939996 -0.71935999 -9.2880859 7
0.009815 -0.74426299 -9.28125 7
0.001602 -0.772461 -9.3183594 7
-0.011307 -0.80261201 -9.3798828 7
-0.014854 -0.829346 -9.3955078 7
-0.0078959996 -0.85217297 -9.3583984 7
-0.003273 -0.875732 -9.3339844 7
-0.002167 -0.90051299 -9.3261719 7
-0.001053 -0.92553699 -9.3183594 7
-0.0069269999 -0.95349097 -9.3447266 7
-0.017509 -0.98352098 -9.3935547 7
-0.022209 -1.01123 -9.4150391 7
-0.02462 -1.037964 -9.4228516 7
-0.021164 -1.0617681 -9.4033203 7
-0.029377 -1.091309 -9.4414062 7
-0.015427 -1.109985 -9.3701172 7
-0.018990001 -1.137207 -9.3837891 7
-0.022552 -1.164673 -9.3984385 7
-0.021423001 -1.189575 -9.390625 7
-0.021484001 -1.215088 -9.3867188 7
-0.044895001 -1.253662 -9.4990234 7
-0.034442998 -1.27356 -9.4433594 7
-0.076851003 -1.825195 12.09668 7
-0.082828999 -1.804443 12.130859 7
-0.085193999 -1.781006 12.145508 7
-0.081569999 -1.752808 12.132812 7
-0.083903998 -1.7038569 12.15332 7
-0.080279998 -1.675781 12.139648 7
-0.07666 -1.647705 12.126953 7
-0.076622002 -1.622314 12.129883 7
-0.01757 -0.99108899 -8.9345703 7
-0.017632 -1.015625 -8.9326172 7
-0.010376 -1.036621 -8.8964844 7
-0.023871999 -1.091797 -8.953125 7
-0.021545 -1.139526 -8.9365234 7
-0.024063 -1.189697 -8.9423828 7
-0.026558001 -1.2155761 -8.9511719 7
-0.024185 -1.238647 -8.9365234 7
-0.031693 -1.340942 -8.9580078 7
-0.031784002 -1.3898931 -8.9521484 7
-0.30880699 -6.1064448 -8.5546885 7
-0.312576 -6.1390381 -8.5546885 7
-0.30409199 -6.141479 -8.5048828 7
-0.31281999 -6.2095952 -8.5097656 7
-0.31901601 -6.2481689 -8.5195312 7
-0.32154101 -6.277832 -8.5146484 7
-0.33759701 -6.3649902 -8.546875 7
-0.33645999 -6.3852539 -8.5263672 7
0.0017509999 -0.96105999 -8.3837891 7
0.0029559999 -0.98376501 -8.375 7
-0.0034449999 -1.009766 -8.4003906 7
-0.011116 -1.036499 -8.4326172 7
-0.020073 -1.063965 -8.4697266 7
-0.020119 -1.087402 -8.4677734 7
-0.01252 -1.107056 -8.4316406 7
-0.0074959998 -1.127563 -8.40625 7
-0.0075420002 -1.150757 -8.4023438 7
-0.0076029999 -1.17395 -8.3994141 7
-0.010197 -1.198608 -8.4082031 7
-0.017867999 -1.225952 -8.4394531 7
-0.026817 -1.254272 -8.4755859 7
-0.20802701 -4.418335 -8.3730469 7
-0.208096 -4.4415278 -8.3632812 7
-0.210712 -4.4693599 -8.3623047 7
-0.31105801 -6.0820308 -7.9589839 7
-0.30857801 -6.098022 -7.9355469 7
-0.30226499 -6.1043701 -7.8974609 7
-0.30234101 -6.1264648 -7.882812 7
-0.297306 -6.1357422 -7.8486328 7
-0.296101 -6.1541748 -7.829102 7
-0.30512199 -6.1986079 -7.8486328 7
-0.30774701 -6.2268071 -7.84375 7
-0.31294999 -6.261353 -7.8466802 7
-0.31430799 -6.286499 -7.8369141 7
-0.324608 -6.3343511 -7.860352 7
-0.325966 -6.3592529 -7.8505859 7
-0.329887 -6.3908691 -7.8486328 7
-0.083958 -1.864136 11.206055 7
-0.085658997 4.7840581 -7.5585942 7
-0.084415004 4.7601318 -7.563477 7
-0.084399998 4.73877 -7.5751948 7
-0.085689999 4.7199712 -7.5917969 7
-0.088229999 4.7037349 -7.6132808 7
-0.094589002 4.695312 -7.6494141 7
-0.022864999 -0.97717297 -8.0859385 7
-0.022902999 -0.99963403 -8.0839844 7
-0.011051 -1.016479 -8.0302734 7
-0.0071220002 -1.036865 -8.0117188 7
-0.011127 -1.061035 -8.0253906 7
-0.012516 -1.084106 -8.0283203 7
-0.02314 -1.111694 -8.0712891 7
-0.025826 -1.135376 -8.0800781 7
-0.021919001 -1.155762 -8.0605469 7
-0.021965001 -1.1781009 -8.0576172 7
-0.020683 -1.199829 -8.0498047 7
-0.023383999 -1.223511 -8.0566406 7
-0.023429999 -1.24585 -8.0537109 7
-0.023499001 -1.268311 -8.0498047 7
-0.211239 -4.2668462 -7.9794922 7
-0.219273 -4.3032231 -8 7
-0.214046 -4.315918 -7.96875 7
-0.22208001 -4.352417 -7.9902339 7
-0.223469 -4.3769531 -7.984375 7
-0.227501 -4.4064941 -7.9902339 7
-0.222256 -4.4189448 -7.9589839 7
-0.217014 -4.4312739 -7.9287109 7
-0.21709099 -4.4534912 -7.9169922 7
-0.217167 -4.4753418 -7.90625 7
-0.081371002 -1.8988039 10.783203 7
-0.085406996 -1.880005 10.804688 7
-0.097542003 -1.867676 10.858398 7
-0.088062003 -1.837646 10.825195 7
-0.082622997 -1.811035 10.805664 7
-0.077183001 -1.7844239 10.788086 7
-0.073123999 -1.759155 10.776367 7
-0.073092997 -1.736938 10.780273 7
-0.068995997 -1.71167 10.766602 7
-0.082500003 -1.699707 10.827148 7
-0.075703003 -1.672241 10.802734 7
-0.077037998 -1.651001 10.8125 7
-0.072956003 -1.625977 10.799805 7
-0.071575001 -1.602661 10.797852 7
-0.105865 4.7949219 -7.1787109 7
-0.103218 4.7689209 -7.179688 7
-0.101913 4.745728 -7.1855469 7
-0.101906 4.7252202 -7.1972661 7
-0.109848 4.7209468 -7.2382808 7
-0.1138 4.7084961 -7.264648 7
-0.123062 4.706543 -7.3105469 7
-0.12439 4.6885991 -7.3261719 7
-0.115128 4.6489258 -7.3027339 7
-0.111176 4.6201172 -7.2988281 7
-0.113815 4.6047359 -7.3193359 7
-0.111183 4.5786128 -7.320312 7
-0.111183 4.5578609 -7.3310552 7
-0.109863 4.5343022 -7.3369141 7
-0.109871 4.5134282 -7.3486328 7
-0.107231 4.4873052 -7.3476558 7
-0.074313998 -1.9000241 10.352539 7
-0.070079997 -1.875366 10.34082 7
-0.072865002 -1.856445 10.356445 7
-0.085499004 -1.8455811 10.411133 7
-0.081263997 -1.820923 10.398438 7
-0.081242003 -1.799683 10.402344 7
-0.068562001 -1.768311 10.357422 7
-0.061496999 -1.741699 10.333008 7
-0.064289004 -1.722778 10.347656 7
-0.057232 -1.696167 10.324219 7
-0.060031999 -1.677246 10.34082 7
-0.068447001 -1.662231 10.37793 7
-0.068432003 -1.640991 10.381836 7
-0.068393998 -1.619629 10.385742 7
-0.068226002 -1.904907 9.9775391 7
-0.066745996 -1.883301 9.9765615 7
-0.065265998 -1.861816 9.9755859 7
-0.073986001 -1.848755 10.012695 7
-0.078335002 -1.8319089 10.03418 7
-0.069560997 -1.804443 10.004883 7
-0.062252 -1.778442 9.9814453 7
-0.054942999 -1.752319 9.9580078 7
-0.052005999 -1.729736 9.9501953 7
-0.051991001 -1.709595 9.9550781 7
-0.054873999 -1.69165 9.9697266 7
-0.056315999 -1.672363 9.9804688 7
-0.063579999 -1.6574709 10.011719 7
-0.056278002 -1.631714 9.9882812 7
-0.051883999 -1.608276 9.9755859 7
-0.213039 -4.205811 -6.7001948 7
-0.213093 -4.224731 -6.6914058 7
-0.219097 -4.2546391 -6.7011719 7
-0.225117 -4.2841802 -6.710938 7
-0.219219 -4.2929692 -6.6806641 7
-0.21928801 -4.3118901 -6.6699219 7
-0.226795 -4.3443599 -6.6855469 7
-0.22685599 -4.3634028 -6.6748052 7
-0.220966 -4.3719478 -6.6445308 7
-0.22698601 -4.4017329 -6.6542969 7
-0.225559 -4.4178472 -6.6386719 7
-0.231571 -4.447876 -6.6474609 7
-0.225674 -4.4559331 -6.617188 7
-0.221264 -4.4667969 -6.5917969 7
-0.073025003 -1.912964 9.6445312 7
-0.065434001 -1.887085 9.6210938 7
-0.063908003 -1.866333 9.6201172 7
-0.071445003 -1.853027 9.6523438 7
-0.072948001 -1.834717 9.6621094 7
-0.071406998 -1.814087 9.6611328 7
-0.066845 -1.790894 9.6484385 7
-0.060772002 -1.766479 9.6308594 7
-0.057728 -1.744751 9.6240234 7
-0.057712998 -1.725464 9.6279297 7
-0.050120998 -1.700073 9.6044922 7
-0.057673998 -1.6862791 9.6367188 7
-0.054614998 -1.664551 9.6289062 7
-0.060649998 -1.6494139 9.6552734 7
-0.054561999 -1.6257319 9.6367188 7
-0.059092999 -1.609497 9.6572266 7
-0.068301998 -1.916626 9.3212891 7
-0.058894999 -1.8898931 9.2929688 7
-0.066707999 -1.877808 9.3251953 7
-0.071377002 -1.862793 9.3457031 7
-0.066669002 -1.840454 9.3339844 7
-0.071338996 -1.825317 9.3544922 7
-0.072887003 -1.807739 9.3652344 7
-0.066607997 -1.783936 9.3466797 7
-0.063450001 -1.762695 9.3398438 7
-0.050921999 -1.734253 9.2998047 7
-0.047770999 -1.713135 9.2929688 7
-0.055569001 -1.700317 9.3242188 7
-0.055546001 -1.681641 9.328125 7
-0.055537999 -1.662842 9.3330078 7
-0.055514999 -1.644165 9.3369141 7
-0.058628 -1.627563 9.3525391 7
-0.055477001 -1.606567 9.3457031 7
-0.222656 -4.4825439 -5.797852 7
-0.22110701 -4.496582 -5.782227 7
-0.22277801 -4.516479 -5.7763672 7
-0.068363003 -1.9136961 8.9970703 7
-0.058598001 -1.887573 8.9677734 7
-0.060206998 -1.871094 8.9775391 7
-0.060192 -1.853271 8.9824219 7
-0.058543999 -1.8338619 8.9804688 7
-0.061771002 -1.8187259 8.9970703 7
-0.066624001 -1.804443 9.0175781 7
-0.064967997 -1.785156 9.015625 7
-0.056850001 -1.7607419 8.9931641 7
-0.050342999 -1.737793 8.9755859 7
-0.050312001 -1.719849 8.9794922 7
-0.042171001 -1.695801 8.9560547 7
-0.043788999 -1.679077 8.9658203 7
-0.042133 -1.660156 8.9638672 7
-0.042118002 -1.642212 8.9677734 7
-0.050213002 -1.630127 8.9990234 7
-0.051814999 -1.613403 9.0078115 7
-0.32927299 -6.137207 -4.4628911 7
-0.32932699 -6.151123 -4.4492192 7
-0.33272901 -6.1730962 -4.4414058 7
-0.33610901 -6.1950679 -4.4345698 7
-0.33451501 -6.204834 -4.4160161 7
-0.33123401 -6.2103271 -4.3935552 7
-0.33629999 -6.2363281 -4.390625 7
-0.33303499 -6.2416992 -4.3681641 7
-0.32144201 -6.226562 -4.327148 7
-0.318169 -6.231812 -4.304688 7
-0.31991601 -6.2492681 -4.2919922 7
-0.316643 -6.2545171 -4.2705078 7
-0.32336 -6.2844238 -4.2705078 7
-0.32341799 -6.2979741 -4.2558589 7
-0.33347699 -6.3365479 -4.2626948 7
-0.33186001 -6.3457031 -4.2441411 7
-0.32692301 -6.346436 -4.217773 7
-0.32200599 -6.347168 -4.1914058 7
-0.079575002 -1.919312 8.7236328 7
-0.064419001 -1.889282 8.6806641 7
-0.067757003 -1.874878 8.6953115 7
-0.069435 -1.859253 8.7050781 7
-0.069426998 -1.841797 8.7109385 7
-0.061000999 -1.817627 8.6875 7
-0.071075 -1.808594 8.7246094 7
-0.071052998 -1.79126 8.7285156 7
-0.067672998 -1.77124 8.7216797 7
-0.065978996 -1.752563 8.7216797 7
-0.054187998 -1.726318 8.6875 7
-0.060894001 -1.714111 8.7128906 7
-0.0592 -1.695557 8.7119141 7
-0.052464001 -1.67334 8.6943359 7
-0.055805001 -1.658569 8.7089844 7
-0.059154999 -1.643677 8.7246094 7
-0.055759002 -1.623901 8.7167969 7
-0.064158998 -1.6125489 8.7480469 7
-0.054359 0.96740699 8.84375 7
-0.054320998 0.98498499 8.8408203 7
-0.044204999 0.99804699 8.8066406 7
-0.04586 1.016235 8.8085938 7
-0.044151001 1.032959 8.8017578 7
-0.044112999 1.050415 8.7988281 7
-0.044075001 1.067993 8.796875 7
-0.039012998 1.08313 8.7773438 7
-0.045685001 1.10376 8.7958984 7
-0.047325 1.121948 8.7988281 7
-0.038897999 1.135254 8.7695312 7
-0.052292001 1.159668 8.8095703 7
-0.050567999 1.17627 8.8017578 7
-0.053916998 1.195801 8.8115234 7
-0.052193001 1.212158 8.8027344 7
-0.050491001 1.2286381 8.7939453 7
-0.060532 1.2518311 8.8251953 7
-0.067207001 1.273315 8.84375 7
-0.143906 4.233521 7.9941411 7
-0.137154 4.236938 7.9648442 7
-0.130417 4.2402339 7.9355469 7
-0.12700699 4.2493901 7.9160161 7
-0.120289 4.2524409 7.8876948 7
-0.128593 4.2830811 7.9003911 7
-0.128548 4.298584 7.889648 7
-0.12515999 4.3076172 7.8710942 7
-0.12677 4.3259282 7.8652339 7
-0.126724 4.341064 7.8544922 7
-0.12167 4.3470459 7.8310552 7
-0.124962 4.3685298 7.8300781 7
-0.12992901 4.393311 7.8339839 7
-0.134903 4.4178472 7.8369141 7
-0.154926 4.471436 7.8808589 7
-0.227562 -4.4815669 -5.0585942 7
-0.224159 -4.490479 -5.039062 7
-0.229385 -4.5153809 -5.0419922 7
-0.226006 -4.5239258 -5.0214839 7
-0.22777601 -4.54248 -5.015625 7
-0.227844 -4.5576172 -5.0039058 7
-0.227882 -4.5727539 -4.9931641 7
-0.23138399 -4.5943599 -4.9912109 7
-0.226273 -4.599731 -4.967773 7
-0.234924 -4.630981 -4.9785161 7
-0.24013899 -4.6561279 -4.9814448 7
-0.236755 -4.6645508 -4.9619141 7
-0.250568 -4.7061772 -4.985352 7
-0.245464 -4.7114258 -4.960938 7
-0.247234 -4.7296138 -4.954102 7
-0.245564 -4.741333 -4.9394531 7
-0.250797 -4.7662349 -4.9404302 7
-0.25428399 -4.7880859 -4.938477 7
-0.25089601 -4.7963872 -4.9179692 7
-0.32785401 -6.0866699 -4.0400391 7
-0.33307999 -6.112061 -4.0371089 7
-0.32969299 -6.1165771 -4.014648 7
-0.32803699 -6.1251221 -3.996094 7
-0.329815 -6.1420898 -3.985352 7
-0.32986099 -6.1547852 -3.9716799 7
-0.33337799 -6.1757808 -3.9638669 7
-0.33343899 -6.1885991 -3.949219 7
-0.34038201 -6.2182622 -3.949219 7
-0.333561 -6.2138672 -3.9199221 7
-0.33706301 -6.2348628 -3.9121089 7
-0.33539999 -6.2431641 -3.8935549 7
-0.33028001 -6.2429199 -3.8681641 7
-0.32862899 -6.250977 -3.8496089 7
-0.078804001 -1.9144289 8.4355469 7
-0.071814999 -1.89209 8.4179688 7
-0.070068002 -1.874146 8.4169922 7
-0.071792997 -1.858887 8.4267578 7
-0.073509 -1.843506 8.4365234 7
-0.064796001 -1.8199461 8.4140615 7
-0.082184002 -1.817261 8.4726562 7
-0.073463 -1.793579 8.4501953 7
-0.075188003 -1.77832 8.4589844 7
-0.069954 -1.757568 8.4472656 7
-0.062964998 -1.735474 8.4306641 7
-0.059482999 -1.716187 8.4238281 7
-0.059459999 -1.699463 8.4277344 7
-0.054211002 -1.679199 8.4150391 7
-0.059429001 -1.666382 8.4355469 7
-0.055927001 -1.647095 8.4296885 7
-0.062881 -1.63562 8.4541016 7
-0.073288001 -1.626465 8.4902344 7
-0.068053998 -1.605957 8.4785156 7
-0.04586 0.96203601 8.5380859 7
-0.044098001 0.978149 8.5302734 7
-0.051024999 0.99804699 8.5507812 7
-0.035351001 1.007935 8.5 7
-0.038798999 1.0263669 8.5087891 7
-0.037014 1.042236 8.5 7
-0.037005998 1.059082 8.4980469 7
-0.043915 1.079102 8.5166016 7
-0.045609001 1.096802 8.5195312 7
-0.040375002 1.11084 8.5009766 7
-0.040337 1.127686 8.4980469 7
-0.040298 1.144531 8.4951172 7
-0.050696999 1.166626 8.5253906 7
-0.043701001 1.17981 8.5 7
-0.041946001 1.195557 8.4921885 7
-0.041908 1.212402 8.4892578 7
-0.047088999 1.232056 8.5039062 7
-0.055748001 1.253662 8.5273438 7
-0.052230999 1.268555 8.5136719 7
-0.14411899 4.1672359 7.6933589 7
-0.145813 4.1851811 7.688477 7
-0.14402799 4.197021 7.672852 7
-0.145714 4.2147222 7.6679692 7
-0.152584 4.242065 7.6757808 7
-0.152538 4.2568359 7.6650391 7
-0.14037301 4.2496338 7.625 7
-0.131676 4.2484131 7.5917969 7
-0.13163 4.262939 7.5820308 7
-0.12983701 4.274292 7.5664058 7
-0.126335 4.2824712 7.547852 7
-0.128014 4.3000488 7.5419922 7
-0.131439 4.3210449 7.5410161 7
-0.127937 4.329102 7.5214839 7
-0.131348 4.3500981 7.5205078 7
-0.12609901 4.3547359 7.4960942 7
-0.12952401 4.3756099 7.4951172 7
-0.129463 4.3900151 7.484375 7
-0.13807701 4.4206538 7.4970698 7
-0.144951 4.4483638 7.5029302 7
-0.14837299 4.4693599 7.5019531 7
-0.244923 -4.4959722 -4.7626948 7
-0.244984 -4.510376 -4.750977 7
-0.23970801 -4.5150151 -4.7275391 7
-0.23619799 -4.5228271 -4.7070308 7
-0.236259 -4.537354 -4.6972661 7
-0.236305 -4.5517578 -4.686523 7
-0.236366 -4.5661621 -4.6748052 7
-0.236412 -4.5805659 -4.664062 7
-0.241791 -4.6048579 -4.6669922 7
-0.234734 -4.6057129 -4.6376948 7
-0.240135 -4.6300049 -4.639648 7
-0.23841099 -4.6409912 -4.624023 7
-0.24201199 -4.6621089 -4.6220698 7
-0.24385101 -4.679688 -4.6152339 7
-0.254574 -4.714478 -4.6308589 7
-0.249302 -4.7183838 -4.6054692 7
-0.249355 -4.732666 -4.594727 7
-0.245846 -4.7398682 -4.5742192 7
-0.24945401 -4.7611079 -4.5722661 7
-0.254848 -4.785645 -4.5742192 7
-0.24955399 -4.789185 -4.5498052 7
-0.081511997 -1.9119869 8.1738281 7
-0.077918999 -1.893066 8.1679688 7
-0.085091002 -1.882935 8.1933594 7
-0.077881001 -1.860962 8.1767578 7
-0.081467003 -1.8479 8.1914062 7
-0.081450999 -1.831787 8.1962891 7
-0.076035 -1.811401 8.1835938 7
-0.088615 -1.805298 8.2255859 7
-0.076003999 -1.7794189 8.1923828 7
-0.092182003 -1.775879 8.2460938 7
-0.072365001 -1.744385 8.1894531 7
-0.070564002 -1.726807 8.1884766 7
-0.063339002 -1.705444 8.1708984 7
-0.065117002 -1.690918 8.1796885 7
-0.065109 -1.674805 8.1845703 7
-0.065094002 -1.658813 8.1884766 7
-0.065071002 -1.6427 8.1923828 7
-0.068664998 -1.62915 8.2070312 7
-0.068649001 -1.613037 8.2128906 7
-0.074036002 -1.600708 8.2324219 7
-0.045775998 0.97607398 8.2763672 7
-0.040344 0.98999 8.2568359 7
-0.038520999 1.005493 8.25 7
-0.052878998 1.028198 8.2910156 7
-0.040268 1.0386961 8.2509766 7
-0.045623999 1.057495 8.2646484 7
-0.038406 1.070068 8.2392578 7
-0.041969001 1.0880131 8.2480469 7
-0.036529999 1.10144 8.2294922 7
-0.043701001 1.121338 8.2490234 7
-0.040077001 1.1357419 8.2353516 7
-0.043632999 1.153564 8.2431641 7
-0.047187999 1.171631 8.2509766 7
-0.050758 1.189819 8.2597656 7
-0.045325998 1.203125 8.2412109 7
-0.047095999 1.220215 8.2431641 7
-0.050666999 1.238403 8.2519531 7
-0.048836 1.253662 8.2441406 7
-0.050606001 1.270752 8.2460938 7
-0.145706 4.177002 7.3662109 7
-0.152813 4.2038569 7.375 7
-0.15456 4.2210689 7.3691411 7
-0.147346 4.222168 7.3408198 7
-0.143723 4.2297359 7.3212891 7
-0.15980101 4.2730708 7.3525391 7
-0.15795501 4.283813 7.3378911 7
-0.152523 4.2880859 7.313477 7
-0.143539 4.285522 7.28125 7
-0.13632999 4.2860112 7.2539058 7
-0.130913 4.2897949 7.2304692 7
-0.134453 4.3103032 7.2294922 7
-0.134415 4.3240972 7.219727 7
-0.134361 4.3378911 7.2099609 7
-0.13969401 4.3615718 7.2119141 7
-0.13785601 4.3719478 7.1982422 7
-0.134224 4.3789058 7.1787109 7
-0.132401 4.3887939 7.164062 7
-0.13415501 4.4058838 7.1582031 7
-0.13050801 4.4127202 7.1386719 7
-0.134041 4.433105 7.1367192 7
-0.146534 4.4707031 7.15625 7
-0.104553 4.7827148 -3.941406 7
-0.101006 4.7624512 -3.9443359 7
-0.093918003 4.7348628 -3.9394529 7
-0.093910001 4.722168 -3.9501951 7
-0.095679998 4.7128911 -3.9658201 7
-0.100975 4.71106 -3.9902339 7
-0.099197 4.694458 -3.996094 7
-0.095673002 4.6741939 -3.9980471 7
-0.097434998 4.6650391 -4.0126948 7
-0.09742 4.651978 -4.0244141 7
-0.095642 4.6352539 -4.03125 7
-0.097404003 4.625977 -4.046875 7
-0.100937 4.6201172 -4.0654302 7
-0.113323 4.6318359 -4.1064448 7
-0.123928 4.6401372 -4.1425781 7
-0.109756 4.5985112 -4.1201172 7
-0.104446 4.5744629 -4.1181641 7
-0.102676 4.5577388 -4.124023 7
-0.102669 4.5444341 -4.1357422 7
-0.102654 4.5311279 -4.1464839 7
-0.092032999 4.4968262 -4.1308589 7
-0.098843999 0.783961 14.01869 7
-0.122526 -1.730266 11.999163 7
-0.081326999 -1.7706749 10.812882 7
-0.066280998 -1.8371921 10.035257 7
-0.090498999 -1.832201 9.2369347 7
-0.091243997 -1.614049 9.3096619 7
-0.076305002 -1.8712389 8.7177944 7
-0.067336001 -1.653494 8.7324734 7
-0.14127199 4.3198519 7.596664 7
-0.130601 4.4176888 7.377934 7
-0.064497001 -1.721561 8.3455563 7
-0.061742999 1.120001 8.5196123 7
-0.058692999 -1.770061 7.9832268 7
-0.042355001 1.023823 8.1369314 7
-0.056949999 1.218351 8.1740398 7
-0.075516999 1.110895 7.8110142 7
-0.079489 1.274527 7.7834058 7
0.095593996 -1.0945621 -13.778769 7
-0.085340001 -4.2884688 -15.59044 7
-0.081592001 -4.3669438 -12.192508 7
-0.21383201 -4.39362 -9.6996889 7
0.010977 -1.483766 -6.9408998 7
-0.199863 -4.4419708 -7.9507871 7
0.036382001 -1.424843 -5.6796422 7
-0.175319 -4.4332161 -6.4557829 7
-0.069656998 -1.881729 12.052758 7
0.055698998 -1.379017 -4.6989379 7
-0.008568 -1.3415999 -3.9362149 7
-0.249191 -4.4590979 -4.4259038 7
-0.36213499 -6.2662902 -3.9361069 7
-0.071719997 -1.696225 10.195102 7
0.010583 -1.3115 -3.2889709 7
-0.014441 -1.595368 -3.3965199 7
-0.22946601 -4.7041392 -3.418258 7
-0.065617003 -1.911273 9.6272535 7
-0.03853 -1.630335 9.527956 7
0.015636001 -1.289317 -2.816298 7
0.010053 -1.5425169 -2.7982571 7
-0.216498 -4.6676641 -2.747643 7
-0.037255999 -1.8322099 9.0676031 7
-0.094145998 -1.7800519 8.709712 7
-0.25664699 -4.5752091 -1.630923 7
-0.074088 -1.7255 8.3234863 7
-0.071139 -1.8846 8.0012598 7
-0.04473 -1.670471 7.9325252 7
0.0089140004 -1.406372 -1.2734179 7
0.002329 -1.596282 -1.263163 7
-0.22311001 -4.6132679 -0.56999302 7
-0.233721 -4.788908 -0.43426999 7
-0.343582 -6.4083891 1.998569 7
-0.34021699 -6.431973 2.2306709 7
-0.333902 -6.4344072 2.4641819 7
0.019353 -1.382809 -1.006803 7
0.0077470001 -1.564443 -1.020432 7
-0.014977 -1.360443 -0.76497698 7
-0.020016 -1.528381 -0.75140798 7
-0.0057970001 -1.342052 -0.55662203 7
-0.010692 -1.501284 -0.544011 7
0.0046089999 -1.324749 -0.36015201 7
-0.001652 -1.476462 -0.353946 7
-0.26027301 -4.6408248 1.729471 7
-0.26565 -4.7100968 1.879864 7
-0.25500301 -4.6345501 2.243536 7
-0.25453499 -4.6664429 2.398186 7
-0.246599 -4.6699839 2.5578671 7
-0.25138801 -4.7051811 2.7107511 7
-0.246831 -4.7063222 2.868232 7
-0.242167 -4.7009492 3.024863 7
-0.246576 -4.716783 3.1798949 7
-0.245295 -4.709404 3.3354759 7
-0.24575201 -4.7011919 3.4907141 7
-0.24608999 -4.6865749 3.6454439 7
-0.248138 -4.6710172 3.800235 7
-0.240606 -4.5024171 2.4358749 7
-0.23609599 -4.5155449 2.5865691 7
-0.242799 -4.5550461 2.732172 7
-0.236127 -4.5500469 2.883893 7
-0.23312899 -4.5497441 3.0336239 7
-0.235708 -4.5598011 3.1824081 7
-0.236213 -4.557982 3.3315411 7
-0.240446 -4.5611358 3.481173 7
-0.227429 -4.5085731 3.625838 7
-0.22757301 -4.4884329 3.7723291 7
-0.075489998 4.602756 -4.1226678 7
-0.120482 4.7042379 -2.957041 7
-0.1453 4.5447998 -3.2996819 7
-0.17655 4.2864938 7.9421721 7
-0.060242001 1.130993 8.6261597 7
-0.16856501 4.2601738 7.5129161 7
-0.16394299 4.4031029 7.3326669 7
-0.038121 1.121379 8.2307606 7
-0.149524 4.1976261 7.0864468 7
-0.028743999 1.113912 7.9336958 7
-0.140119 5.0529642 -18.205509 7
0.020191001 1.543945 -13.907992 7
0.064381003 0.90627098 -12.66562 7
-0.059422001 -0.049449001 -10.565172 7
-0.028811 -0.41813499 -10.011099 7
-0.31956699 -4.218256 -14.853616 7
-0.13619199 4.9056849 -11.159518 7
-0.020609999 -0.96070701 -8.4434042 7
-0.051066998 -1.347718 -8.8678942 7
-0.22002099 -4.383019 -10.850675 7
-0.023870001 -1.100727 -7.4529572 7
-0.018717 -1.352425 -7.3490958 7
-0.206973 -4.410985 -9.0683346 7
-0.091168001 4.706583 -7.1483202 7
-0.0077140001 -1.1611201 -6.4717321 7
-0.0085479999 -1.3887531 -6.4400582 7
-0.045212999 -1.396996 -5.6866388 7
-0.031838998 -1.408902 -5.1244769 7
-0.077193998 4.6551499 -3.0734169 7
-0.089483 4.6430321 -3.30023 7
-0.103087 4.6303549 -3.5347099 7
-0.00089299999 -1.357155 -4.5224419 7
-0.016613999 -1.551918 -4.5832772 7
-0.221431 -4.5146251 -4.5321331 7
0.0066269999 -1.363389 -4.1661091 7
-0.002419 -1.5219949 -4.172545 7
-0.017774001 -1.3615021 -3.853075 7
-0.033874001 -1.526599 -3.8885119 7
-0.212367 -4.645196 -1.753832 7
-0.015651001 -1.377813 -3.621501 7
-0.024024 -1.509783 -3.6096661 7
-0.0084830001 -1.374386 -3.3889799 7
-0.016399 -1.495348 -3.3713629 7
-0.0062560001 -1.2905509 -3.2521911 7
-0.017984999 -1.360314 -2.8439119 7
-0.030484 -1.47076 -2.8316989 7
-0.031479001 -1.54698 -2.7758999 7
-0.014248 -1.338272 -2.712939 7
-0.017825 -1.433228 -2.6562719 7
-0.020261999 -1.506477 -2.6058021 7
-0.022175999 -1.574664 -1.236603 7
-0.018916 -1.570545 -1.1705379 7
-0.019112 -1.574896 -1.104619 7
-0.021029999 -1.582106 -1.037962 7
-0.017819 -1.569809 -0.97256798 7
-0.012948 -1.5493701 -0.90887803 7
-0.016597001 -1.553822 -0.84104502 7
-0.01901 -1.508162 -1.232828 7
-0.017519999 -1.509562 -1.169607 7
-0.02314 -1.530648 -1.105701 7
-0.012804 -1.4989361 -1.043788 7
-0.013156 -1.498163 -0.98056698 7
-0.011738 -1.489182 -0.91811198 7
-0.0068290001 -1.4666899 -0.85832602 7
-0.00164 -1.403141 -1.2271 7
-0.00023200001 -1.404408 -1.168281 7
-0.0024939999 -1.4143291 -1.109138 7
-0.001083 -1.41065 -1.050029 7
-0.001544 -1.410156 -0.99050403 7
0.0052709999 -1.3851759 -0.93435103 7
0.0083849998 -1.369004 -0.87778199 7
-0.013333 -1.343524 -1.2234401 7
-0.0099769998 -1.33912 -1.167071 7
-0.0066800001 -1.332495 -1.111202 7
-0.0053349999 -1.329042 -1.055513 7
-0.017591 -1.3617001 -0.99555099 7
-0.0046399999 -1.320737 -0.94402599 7
-0.0052939998 -1.315863 -0.88795102 7
-0.0065580001 -1.288988 -1.112344 7
-0.0039289999 -1.280017 -1.004829 7
