# .PCD v0.7 - Point Cloud Data file format
VERSION 0.7
FIELDS x y z intensity
SIZE 4 4 4 4
TYPE F F F F
COUNT 1 1 1 1
WIDTH 829
HEIGHT 1
VIEWPOINT 0 0 0 1 0 0 0
POINTS 829
DATA ascii
0.2155 0.79089397 -73.481445 7
0.13465901 4.2122798 -67.982422 7
0.187508 3.942749 -66.193359 7
0.14415 3.8640139 -67.661133 7
0.223602 4.1567378 -57.753906 7
0.19382501 4.0770259 -58.658203 7
0.223198 3.875854 -57.774414 7
0.197853 3.783447 -58.541992 7
0.214844 0.48803699 -58.101562 7
-0.89261597 -0.60595697 74.709961 7
0.25568399 4.144897 -50.514648 7
0.203346 4.130127 -51.929688 7
0.16441301 4.0819092 -52.982422 7
0.219414 3.844727 -51.504883 7
0.18135799 3.790771 -52.535156 7
0.140053 3.737915 -53.654297 7
0.21894801 0.44616699 -51.512695 7
0.087265 -2.9711909 -49.661133 7
0.03067 -3.2993159 -51.012695 7
-0.926117 -5.0543208 69.000977 7
-1.0035321 -5.0161128 70.699219 7
-1.082787 -4.9727778 72.4375 7
-0.82309699 -2.09729 66.987305 7
-0.87651801 -1.97644 68.161133 7
-0.807365 0.24340799 66.78125 7
-0.76110798 0.39208999 65.774414 7
0.180016 4.019897 -47.474609 7
0.203491 3.8577881 -46.90625 7
0.167336 3.69397 -47.799805 7
0.128006 3.6463621 -48.765625 7
0.021538001 -3.004272 -46.333984 7
0.05204 -3.0732419 -45.649414 7
0.000504 -3.2614751 -46.773438 7
0.026787 -3.3344729 -46.182617 7
0.066840999 -3.382935 -45.288086 7
0.096023999 -3.4450679 -44.632812 7
-0.92349201 -5.2106929 63.21875 7
-0.96903199 -5.1385498 64.140625 7
-1.045341 -5.111084 65.674805 7
-0.81723797 -2.4842529 61.328125 7
-0.77078998 -2.3061521 60.411133 7
-0.776474 -2.1706541 60.533203 7
-0.71335602 -1.987305 59.282227 7
-0.720016 0.48486301 59.513672 7
-0.73268902 0.625 59.768555 7
-0.75164801 3.56604 60.163086 7
-0.687828 3.6251221 58.881836 7
0.156929 4.2199712 -43.387695 7
0.12072 4.1868901 -44.194336 7
0.100571 4.118042 -44.647461 7
0.073302999 4.0609131 -45.256836 7
0.067351997 3.960815 -45.394531 7
0.084037997 3.819092 -45.03125 7
0.062820002 3.7459719 -45.505859 7
0.202446 0.47448701 -42.445312 7
0.17482001 0.37548801 -43.054688 7
0.164253 -0.051270001 -39.917969 7
0.144623 -0.150635 -40.314453 7
0.179123 -0.245239 -39.606445 7
-0.055038001 -3.408936 -44.15625 7
-0.042038001 -3.496094 -43.878906 7
-0.0049359999 -3.5430911 -43.113281 7
0.023864999 -3.60022 -42.515625 7
-0.72294599 0.073729999 55.483398 7
-0.68278497 0.45202601 54.744141 7
-0.65808898 0.57360798 54.287109 7
-0.67739898 0.70349097 54.648438 7
-0.60083002 0.80786097 53.225586 7
-0.73171997 3.6777339 55.623047 7
-0.67284399 3.7297361 54.523438 7
-0.62054402 3.7852781 53.546875 7
0.092887998 4.217896 -41.185547 7
0.062514998 4.176147 -41.8125 7
0.030990999 4.1337891 -42.462891 7
0.00030499999 4.086792 -43.095703 7
0.16404 0.73205602 -39.94043 7
0.14501999 0.64001501 -40.328125 7
0.151154 0.53955102 -40.200195 7
0.110939 0.449707 -41.019531 7
0.155708 0.34167501 -40.102539 7
0.136673 0.24560501 -40.489258 7
0.108482 0.14843801 -41.063477 7
0.137794 0.046997 -40.460938 7
0.15496799 -0.31579599 -36.451172 7
0.128159 -0.410889 -36.946289 7
-0.56260699 0.61486799 48.379883 7
-0.556297 0.72448701 48.273438 7
-0.54997998 0.83374 48.166016 7
-0.60001397 3.793823 48.975586 7
-0.564026 3.8564451 48.357422 7
-0.52426898 3.9107671 47.671875 7
0.481186 23.367798 20.540039 7
0.109436 4.3666992 -37.081055 7
0.083359003 4.3287349 -37.573242 7
0.061942998 4.2791748 -37.977539 7
0.041496001 4.2255859 -38.365234 7
0.0072940001 4.1968989 -39.009766 7
-0.015991 4.1445308 -39.449219 7
0.163635 0.94397002 -36.208008 7
0.150002 0.86035198 -36.460938 7
0.158646 0.76709002 -36.299805 7
0.13750499 0.684448 -36.693359 7
0.105385 0.60327101 -37.291016 7
0.139679 -0.459961 -33.791992 7
0.119675 -0.63281202 -34.12793 7
0.13517 -0.71142602 -33.857422 7
-0.59913599 -2.2462161 45.500977 7
-0.58389997 3.815918 45.30957 7
-0.54591399 3.8664551 44.701172 7
-0.49285901 3.8920901 43.853516 7
0.41639701 21.767822 20.561523 7
0.419083 21.782471 20.483398 7
0.095383003 4.481812 -34.295898 7
0.075172 4.3535161 -34.658203 7
0.048301999 4.3217769 -35.126953 7
0.018715 4.293457 -35.642578 7
0.0030139999 4.2358398 -35.919922 7
0.13555101 1.050781 -33.780273 7
0.151245 0.87670898 -33.509766 7
0.117851 0.80676299 -34.084961 7
0.087791003 -0.58227497 -31.564453 7
0.1073 -0.654419 -31.251953 7
0.127556 -0.72485399 -30.929688 7
0.098511003 -0.81298798 -31.384766 7
0.123169 -0.88671899 -31.100586 7
-0.54201502 -2.3127439 41.240234 7
-0.59171301 -2.16272 41.981445 7
-0.45035601 0.68920898 40.018555 7
-0.47174799 0.78710902 40.332031 7
-0.446098 0.87085003 39.955078 7
-0.54793501 3.759644 41.362305 7
-0.52468902 3.8217771 41.016602 7
-0.49630001 3.8747561 40.59375 7
-0.460724 3.915283 40.068359 7
0.079758003 4.6877441 -31.493164 7
0.092941001 4.5804439 -31.295898 7
0.077316001 4.5361328 -31.548828 7
0.064292997 4.485352 -31.762695 7
0.044624001 4.447021 -32.080078 7
0.016052 4.4256592 -32.536133 7
0.021492001 4.3338618 -32.458984 7
0.151283 1.336426 -30.59082 7
0.13414 1.271118 -30.863281 7
0.119949 1.202637 -31.086914 7
0.149078 1.109497 -30.62793 7
0.117859 1.049194 -31.12207 7
0.118111 0.97167999 -31.117188 7
0.076447003 -0.77331501 -29.662109 7
0.088234 -0.84216303 -29.484375 7
0.098159999 -1.056152 -29.324219 7
0.105972 -1.124634 -29.206055 7
-0.440781 0.73535198 37.529297 7
-0.447319 0.908813 37.619141 7
-0.50549299 3.9119871 38.290039 7
-0.48203301 3.9647219 37.961914 7
-0.45900699 4.016602 37.638672 7
-0.45166799 4.091187 37.53125 7
0.28771999 18.588745 20.630859 7
0.28997001 18.61377 20.56543 7
0.29055801 18.655029 20.517578 7
0.289078 18.716553 20.490234 7
0.033707 4.7736821 -29.953125 7
0.067978002 4.624146 -29.459961 7
0.065117002 4.5567632 -29.510742 7
0.046852 4.521606 -29.787109 7
0.011871 4.444458 -30.318359 7
-0.007584 4.407959 -30.611328 7
0.104088 1.2780761 -29.173828 7
0.133286 1.188354 -28.744141 7
0.111778 1.128418 -29.061523 7
0.088698998 1.067627 -29.40332 7
0.113274 0.97644001 -29.154297 7
0.081626996 -0.97949201 -27.144531 7
0.093947999 -1.041016 -26.973633 7
0.062546 -1.125122 -27.396484 7
0.079575002 -1.184082 -27.160156 7
0.086304002 -1.247803 -27.064453 7
-0.41074401 0.67175299 34.602539 7
-0.39236501 0.744995 34.366211 7
-0.41780901 0.83142102 34.691406 7
-0.39532501 0.90234399 34.40332 7
-0.47662401 3.8400879 35.30957 7
-0.470566 3.9117429 35.224609 7
-0.44037601 3.946655 34.833984 7
-0.41793099 3.991699 34.540039 7
-0.42690301 4.0844731 34.647461 7
0.065665998 4.6904302 -27.117188 7
0.050629001 4.655273 -27.329102 7
0.036469001 4.617188 -27.530273 7
0.018874999 4.5855708 -27.777344 7
-0.0034099999 4.5623779 -28.089844 7
-0.021004001 4.5283198 -28.336914 7
0.109779 1.5819089 -26.791992 7
0.120796 1.5068361 -26.644531 7
0.104019 1.45166 -26.875 7
0.124451 1.370728 -26.599609 7
0.110222 1.312988 -26.793945 7
0.087439999 1.259766 -27.105469 7
0.048728999 -1.319092 -25.749023 7
0.061012 -1.375488 -25.588867 7
-0.377197 0.77148402 32.130859 7
-0.38134 0.91870099 32.178711 7
-0.44229099 3.9250491 32.737305 7
-0.42713201 3.9761961 32.548828 7
-0.40271801 4.0124512 32.250977 7
-0.38994601 4.0654302 32.089844 7
-0.397118 4.1500239 32.167969 7
0.040848002 4.7496338 -25.472656 7
0.037108999 4.6938481 -25.529297 7
0.024216 4.6574712 -25.700195 7
0.010887 4.6212158 -25.87793 7
-0.0061110002 4.592041 -26.101562 7
-0.026772 4.5689702 -26.371094 7
-0.021819999 4.4926758 -26.319336 7
0.094710998 1.550781 -25.097656 7
0.079490997 1.498535 -25.291992 7
0.099799998 1.415771 -25.151367 7
0.084587 1.362671 -25.34668 7
0.073044002 1.306396 -25.495117 7
0.052749999 -1.281738 -23.759766 7
0.048186999 -1.344116 -23.808594 7
0.042068001 -1.4675291 -23.87207 7
0.037514001 -1.5305181 -23.920898 7
0.011131 4.771606 -23.835938 7
0.0095899999 4.7148442 -23.864258 7
0.0055769999 4.6630859 -23.921875 7
-0.01368 4.6434331 -24.15625 7
-0.028038001 4.6123052 -24.333008 7
-0.018257 4.5307622 -24.229492 7
0.089461997 1.678345 -23.248047 7
0.088875003 1.619995 -23.257812 7
0.070541002 1.574829 -23.477539 7
0.090682998 1.5012209 -23.242188 7
0.089103997 1.443604 -23.263672 7
0.074699 1.394531 -23.43457 7
0.084472999 1.329102 -23.321289 7
0.033890001 -1.3193361 -22.294922 7
-0.16887701 -4.4250488 -24.123047 7
-0.165802 -4.4794922 -24.078125 7
-0.155853 -4.5202641 -23.958008 7
-0.15384699 -4.5761719 -23.924805 7
-0.157692 -4.6437988 -23.954102 7
0.064727999 1.585693 -21.878906 7
0.074142002 1.523315 -21.77832 7
0.083045997 1.462036 -21.682617 7
0.058143999 1.4237061 -21.959961 7
0.076018997 1.356567 -21.765625 7
0.085968003 1.29541 -21.65625 7
0.022041 -1.293213 -20.881836 7
0.022522001 -1.3455811 -20.873047 7
-0.0052800002 -1.41626 -21.154297 7
0.0099109998 -1.459473 -20.995117 7
0.012077 -1.510986 -20.96875 7
0.001244 -1.571655 -21.075195 7
-0.175842 -4.4899902 -22.480469 7
-0.169724 -4.5344238 -22.40625 7
-0.167564 -4.5864258 -22.37207 7
-0.17617799 -4.6595459 -22.448242 7
-0.18819401 -4.739502 -22.555664 7
0.01712 4.7811279 -20.439453 7
0.011444 4.7414551 -20.508789 7
0.0029450001 4.70752 -20.605469 7
-0.0072479998 4.6767578 -20.71875 7
-0.022499001 4.65625 -20.884766 7
-0.031585999 4.6219478 -20.986328 7
-0.0091249999 4.5223389 -20.768555 7
0.074065998 1.269897 -20.280273 7
0.080757 1.214478 -20.212891 7
0.072777003 1.167358 -20.296875 7
0.068747997 1.117798 -20.34082 7
0.077705003 1.061523 -20.25 7
0.088356003 1.004761 -20.142578 7
0.0091399997 -1.3223881 -19.664062 7
0.001236 -1.377075 -19.735352 7
-0.0055470001 -1.481567 -19.792969 7
-0.00022099999 -1.528198 -19.737305 7
-0.212273 -4.500977 -21.352539 7
-0.198532 -4.528564 -21.210938 7
-0.195641 -4.576416 -21.169922 7
-0.19454201 -4.6273189 -21.147461 7
-0.21512599 -4.7209468 -21.330078 7
-0.223068 -4.7902832 -21.393555 7
0.061050002 0.90832502 -19.104492 7
0.067566 0.85668898 -19.042969 7
0.068695001 0.80761701 -19.033203 7
0.063216999 0.76098597 -19.086914 7
0.071854003 0.70520002 -19.119141 7
0.078383997 0.65466303 -19.056641 7
0.0076290001 -1.28833 -18.379883 7
0.010765 -1.333252 -18.347656 7
0.0093989996 -1.380859 -18.356445 7
-0.018204 -1.4456789 -18.602539 7
-0.0029219999 -1.4825439 -18.459961 7
-0.001732 -1.528564 -18.444336 7
-0.01461 -1.584717 -18.556641 7
-0.218933 -4.4884028 -19.960938 7
-0.211334 -4.5244141 -19.881836 7
-0.208855 -4.5699458 -19.848633 7
-0.205116 -4.6126709 -19.803711 7
-0.214203 -4.6804199 -19.87207 7
-0.22777601 -4.7574458 -19.980469 7
0.067672998 0.301514 -17.788086 7
0.074615002 0.255005 -17.723633 7
0.075828999 0.209106 -17.712891 7
0.071921997 0.16406199 -17.748047 7
0.074409001 0.118164 -17.725586 7
0.078818999 0.072509997 -17.685547 7
0.083847001 0.027100001 -17.637695 7
0.051619999 -0.150879 -16.959961 7
0.052811 -0.237427 -16.945312 7
0.052726999 -0.280884 -16.944336 7
-0.0098799998 -1.315308 -17.422852 7
-0.0079269996 -1.358521 -17.402344 7
0.00081599999 -1.3974611 -17.325195 7
-0.037186 -1.466797 -17.646484 7
-0.021011 -1.500854 -17.50293 7
-0.018386999 -1.5437011 -17.475586 7
-0.015083 -1.585815 -17.443359 7
-0.237083 -4.5107422 -18.873047 7
-0.234474 -4.5534668 -18.838867 7
-0.222343 -4.578125 -18.726562 7
-0.221779 -4.6245122 -18.709961 7
-0.22187001 -4.6721191 -18.699219 7
-0.234879 -4.7449951 -18.794922 7
-0.036926001 4.7880859 -17.061523 7
-0.014046 4.69519 -16.880859 7
-0.024878999 4.6743159 -16.982422 7
-0.030998001 4.6434331 -17.043945 7
-0.036446001 4.6104741 -17.099609 7
-0.044585999 4.583252 -17.177734 7
-0.067574002 4.5856929 -17.381836 7
-0.048041999 4.5013428 -17.228516 7
0.026985001 -0.64038098 -16.09082 7
0.031936999 -0.68029797 -16.047852 7
0.035454001 -0.72033697 -16.016602 7
0.023201 -0.76599097 -16.114258 7
0.023773 -0.84851098 -16.105469 7
0.032303002 -0.88647503 -16.032227 7
0.030098001 -0.92858899 -16.047852 7
-0.012817 -1.283325 -16.369141 7
-0.012184 -1.325073 -16.359375 7
-0.0072249998 -1.363892 -16.316406 7
-0.001572 -1.4021 -16.265625 7
-0.028191 -1.461426 -16.477539 7
-0.022606 -1.542114 -16.422852 7
-0.016205 -1.579712 -16.368164 7
-0.239838 -4.52771 -17.670898 7
-0.233574 -4.605835 -17.597656 7
-0.22792099 -4.639648 -17.541992 7
-0.225136 -4.6787109 -17.507812 7
-0.233154 -4.7390141 -17.557617 7
0.001938 -0.967529 -15.296875 7
0.0094600003 -1.00354 -15.237305 7
0.0078739999 -1.043579 -15.246094 7
-0.001305 -1.0875241 -15.3125 7
-0.005928 -1.129395 -15.344727 7
-0.002197 -1.16687 -15.313477 7
1.5e-05 -1.205444 -15.292969 7
-0.0046160002 -1.247437 -15.325195 7
-0.240585 -4.492065 -16.572266 7
-0.252846 -4.557251 -16.652344 7
-0.245331 -4.5855708 -16.583984 7
-0.240105 -4.618042 -16.53418 7
-0.238663 -4.6574712 -16.511719 7
-0.24028 -4.7027588 -16.511719 7
-0.24646001 -4.7570801 -16.545898 7
-0.015457 -1.109131 -14.487305 7
-0.012306 -1.144897 -14.461914 7
-0.014984 -1.296387 -14.466797 7
-0.023071 -1.338745 -14.522461 7
-0.013512 -1.370483 -14.450195 7
-0.011963 -1.4069819 -14.43457 7
-0.033707 -1.45874 -14.586914 7
-0.032196 -1.495361 -14.570312 7
-0.033050999 -1.533569 -14.573242 7
-0.24572 -4.4932861 -15.553711 7
-0.24984001 -4.5406489 -15.569336 7
-0.243477 -4.5689702 -15.514648 7
-0.24277499 -4.6072998 -15.49707 7
-0.23813599 -4.677856 -15.442383 7
-0.239822 -4.7209468 -15.442383 7
-0.245537 -4.7718511 -15.469727 7
-0.048751999 4.78894 -13.996094 7
-0.028008001 4.7080078 -13.862305 7
-0.023232 4.661499 -13.84082 7
-0.023262 4.6251221 -13.851562 7
-0.021713 4.5855708 -13.850586 7
-0.027344 4.560791 -13.900391 7
-0.037804 4.5087891 -13.995117 7
-0.028580001 -1.238525 -13.762695 7
-0.019416999 -1.30481 -13.693359 7
-0.022926001 -1.378296 -13.708984 7
-0.028976001 -1.453613 -13.742188 7
-0.031569999 -1.4912111 -13.756836 7
-0.032478001 -1.5274661 -13.758789 7
-0.25860599 -4.5566411 -14.709961 7
-0.249466 -4.6152339 -14.62793 7
-0.24794801 -4.6877441 -14.59375 7
-0.247177 -4.723999 -14.578125 7
-0.258255 -4.7833252 -14.638672 7
-0.025382999 4.6717529 -13.005859 7
-0.032173 4.617065 -13.071289 7
-0.034729 4.587769 -13.098633 7
-0.036446001 4.5566411 -13.120117 7
-0.061744999 4.5385742 -13.307617 7
-0.040305998 -1.319214 -13.06543 7
-0.029701 -1.346802 -12.993164 7
-0.022667 -1.376465 -12.943359 7
-0.02626 -1.41272 -12.963867 7
-0.023674 -1.4449461 -12.942383 7
-0.043274 -1.4918211 -13.06543 7
-0.037994001 -1.5224611 -13.02832 7
-0.036277998 -1.55542 -13.012695 7
-0.037223998 -1.590088 -13.015625 7
-0.25423399 -4.5 -13.822266 7
-0.257866 -4.54248 -13.833984 7
-0.26596099 -4.5935059 -13.873047 7
-0.258919 -4.6162109 -13.817383 7
-0.253654 -4.6420898 -13.774414 7
-0.25373799 -4.677856 -13.762695 7
-0.25470001 -4.7154541 -13.757812 7
-0.25923899 -4.7600098 -13.773438 7
-0.019585 -1.309448 -12.246094 7
-0.031761002 -1.348999 -12.316406 7
-0.020653 -1.374512 -12.245117 7
-0.021629 -1.407227 -12.24707 7
-0.022621 -1.440063 -12.25 7
-0.022675 -1.4725339 -12.246094 7
-0.041351002 -1.5174561 -12.358398 7
-0.033966001 -1.5448 -12.307617 7
-0.039618999 -1.5812989 -12.339844 7
-0.26139101 -4.5393071 -13.070312 7
-0.269867 -4.5891109 -13.109375 7
-0.259666 -4.604248 -13.038086 7
-0.25975001 -4.6383061 -13.026367 7
-0.25797299 -4.6688228 -13.003906 7
-0.25056499 -4.6885991 -12.950195 7
-0.26185599 -4.7441411 -13.003906 7
-0.25633201 -4.767334 -12.959961 7
-0.026077 -1.309204 -11.602539 7
-0.031029001 -1.342896 -11.626953 7
-0.023254 -1.368896 -11.578125 7
-0.020393001 -1.397583 -11.557617 7
-0.023360999 -1.430298 -11.572266 7
-0.024413999 -1.461548 -11.573242 7
-0.040114999 -1.502808 -11.662109 7
-0.043106001 -1.535767 -11.675781 7
-0.035339002 -1.561157 -11.625977 7
-0.037354 -1.593506 -11.633789 7
-0.25835401 -4.5024409 -12.273438 7
-0.266289 -4.549438 -12.306641 7
-0.26832601 -4.5855708 -12.305664 7
-0.26348901 -4.6087651 -12.268555 7
-0.26355699 -4.6411128 -12.256836 7
-0.263641 -4.6734619 -12.246094 7
-0.262741 -4.7037349 -12.229492 7
-0.25987199 -4.7302251 -12.201172 7
-0.26679999 -4.7758789 -12.228516 7
-0.027176 -1.309937 -11.021484 7
-0.032356001 -1.342407 -11.046875 7
-0.041618001 -1.377441 -11.094727 7
-0.027350999 -1.397949 -11.011719 7
-0.032515999 -1.4306639 -11.036133 7
-0.030517999 -1.458618 -11.021484 7
-0.030586001 -1.488037 -11.018555 7
-0.046989001 -1.528564 -11.106445 7
-0.051155001 -1.561157 -11.125 7
-0.03994 -1.582642 -11.058594 7
-0.260544 -4.4898682 -11.611328 7
-0.26882201 -4.5357671 -11.643555 7
-0.27607 -4.5800781 -11.670898 7
-0.27614599 -4.6109619 -11.660156 7
-0.27520001 -4.639771 -11.643555 7
-0.272194 -4.664917 -11.617188 7
-0.27227801 -4.6956792 -11.604492 7
-0.27132401 -4.7244868 -11.588867 7
-0.26831099 -4.749146 -11.561523 7
-0.27249101 -4.7879639 -11.571289 7
-0.046691999 4.6895752 -10.237305 7
-0.031410001 4.6298828 -10.167969 7
-0.031440999 4.6021729 -10.178711 7
-0.035521999 4.5831299 -10.211914 7
-0.035553001 4.5554199 -10.22168 7
-0.035560999 4.52771 -10.232422 7
-0.026954999 -1.32959 -10.40918 7
-0.034515001 -1.362061 -10.446289 7
-0.023819 -1.383423 -10.385742 7
-0.02816 -1.414062 -10.405273 7
-0.028236 -1.442139 -10.401367 7
-0.02935 -1.470825 -10.404297 7
-0.050934002 -1.54126 -10.510742 7
-0.046691999 -1.566528 -10.484375 7
-0.043517999 -1.592285 -10.462891 7
-0.045715 -1.6218261 -10.470703 7
-0.047913 -1.651611 -10.478516 7
-0.061965998 -1.718384 -10.544922 7
-0.062035002 -1.746582 -10.540039 7
-0.26997399 -4.7249761 -10.865234 7
-0.27436101 -4.7624512 -10.875977 7
-0.39122 -6.4047852 -10.787109 7
-0.39353901 -6.467773 -10.766602 7
-0.393639 -6.49646 -10.75 7
-0.402336 -6.5471191 -10.775391 7
-0.41319299 -6.603271 -10.80957 7
-0.41865501 -6.645874 -10.820312 7
-0.42090601 -6.6801758 -10.813477 7
-0.420982 -6.7093511 -10.797852 7
-0.058495 4.7498779 -9.6191406 7
-0.041367002 4.6873779 -9.5458984 7
-0.033920001 4.6455078 -9.5205078 7
-0.031784002 4.6151118 -9.5195312 7
-0.029655 4.5843511 -9.5205078 7
-0.031822 4.5628662 -9.5419922 7
-0.033996999 4.5150151 -9.5732422 7
-0.043655001 4.5084229 -9.6318359 7
-0.060782999 4.489624 -9.7392578 7
-0.031784002 -1.328003 -9.9160156 7
-0.031929001 -1.408325 -9.90625 7
-0.034224998 -1.436401 -9.9140615 7
-0.034263998 -1.463257 -9.9111328 7
-0.26673901 -4.4868159 -10.330078 7
-0.27691701 -4.5332031 -10.367188 7
-0.27923599 -4.565063 -10.367188 7
-0.28378299 -4.60144 -10.37793 7
-0.28611001 -4.6335449 -10.376953 7
-0.27830499 -4.646606 -10.329102 7
-0.275002 -4.6678472 -10.302734 7
-0.27843499 -4.7020259 -10.306641 7
-0.28299701 -4.7382808 -10.317383 7
-0.28531599 -4.7701421 -10.316406 7
-0.390488 -6.425293 -10.088867 7
-0.39168501 -6.4554439 -10.079102 7
-0.39739999 -6.496582 -10.087891 7
-0.406479 -6.5466309 -10.113281 7
-0.42117301 -6.6109619 -10.162109 7
-0.421249 -6.6383061 -10.146484 7
-0.42583501 -6.677124 -10.150391 7
-0.42366001 -6.69873 -10.125 7
-0.05632 4.78894 -9.0146484 7
-0.061896998 4.7758789 -9.0527344 7
-0.056334998 4.7391362 -9.0380859 7
-0.053001001 4.7072749 -9.0332031 7
-0.059714999 4.696167 -9.0761719 7
-0.045226999 4.6409912 -9.0185547 7
-0.039650001 4.6046138 -9.0039062 7
-0.036316 4.5726318 -8.9980469 7
-0.037445001 4.5501709 -9.0146484 7
-0.037445001 4.525269 -9.0253906 7
-0.039696001 4.5048828 -9.046875 7
-0.045311 4.4914551 -9.0820312 7
-0.054244999 4.4841309 -9.1357422 7
-0.041985001 -1.301514 -9.4726562 7
-0.045517001 -1.32959 -9.4873047 7
-0.044411 -1.3544919 -9.4775391 7
-0.051468 -1.384644 -9.5087891 7
-0.043343 -1.4050291 -9.4658203 7
-0.041030999 -1.4293211 -9.4511719 7
-0.044601001 -1.457153 -9.4638672 7
-0.044654999 -1.48291 -9.4609385 7
-0.055222001 -1.515747 -9.5087891 7
-0.070464998 -1.552124 -9.578125 7
-0.065842003 -1.574829 -9.5527344 7
-0.057700999 -1.594849 -9.5087891 7
-0.39962801 -6.4007568 -9.4960938 7
-0.40088701 -6.429565 -9.4853516 7
-0.40448001 -6.4639888 -9.4853516 7
-0.396332 -6.4692378 -9.4355469 7
-0.39640799 -6.494751 -9.4199219 7
-0.414116 -6.5649409 -9.4775391 7
-0.428276 -6.6263428 -9.5205078 7
-0.42834499 -6.6522222 -9.5048828 7
-0.42607901 -6.6721191 -9.4794922 7
-0.430832 -6.7097168 -9.484375 7
-0.035209998 -1.292358 -8.9794922 7
-0.041343998 -1.320312 -9.0048828 7
-0.042603001 -1.345703 -9.0078115 7
-0.042663999 -1.370361 -9.0039062 7
-0.048797999 -1.398682 -9.0283203 7
-0.043968 -1.420288 -9.0029297 7
-0.045242 -1.4456789 -9.0048828 7
-0.050163001 -1.4736331 -9.0244141 7
-0.050186001 -1.4981689 -9.0214844 7
-0.056327999 -1.526978 -9.0458984 7
-0.070992 -1.56189 -9.1103516 7
-0.062514998 -1.580811 -9.0664062 7
-0.293686 -4.7910161 -9.1992188 7
-0.40876001 -6.4000239 -8.9257812 7
-0.40638 -6.418457 -8.9013672 7
-0.40033701 -6.4276118 -8.8613281 7
-0.40039799 -6.4516602 -8.8457031 7
-0.40536499 -6.4884028 -8.8505859 7
-0.39810899 -6.494019 -8.8066406 7
-0.403061 -6.5305181 -8.8095703 7
-0.40191701 -6.5515141 -8.7890615 7
-0.41545901 -6.6097412 -8.8261719 7
-0.42288199 -6.65271 -8.8388672 7
-0.42050201 -6.6706538 -8.8134766 7
-0.423035 -6.7011719 -8.8076172 7
-0.025543001 -1.298462 -8.4628906 7
-0.029410999 -1.324219 -8.4765615 7
-0.034538001 -1.3505861 -8.4951172 7
-0.03968 -1.377197 -8.515625 7
-0.037186 -1.3988039 -8.5 7
-0.033401001 -1.419922 -8.4804688 7
-0.038550999 -1.446411 -8.4990234 7
-0.039864 -1.470703 -8.5009766 7
-0.042435002 -1.495972 -8.5097656 7
-0.053939998 -1.5271 -8.5566406 7
-0.060364 -1.554932 -8.5810547 7
-0.05658 -1.575928 -8.5605469 7
-0.047722001 -1.5930181 -8.5166016 7
-0.27168301 -4.5345459 -8.6367188 7
-0.2845 -4.5820308 -8.6777344 7
-0.28584301 -4.6081538 -8.671875 7
-0.294846 -4.6488042 -8.6982422 7
-0.28486601 -4.6542969 -8.6445312 7
-0.27982301 -4.668457 -8.6123047 7
-0.27605399 -4.6846919 -8.5859385 7
-0.27739701 -4.7106929 -8.5800781 7
-0.27745801 -4.734375 -8.5693359 7
-0.28135699 -4.7652588 -8.5732422 7
-0.283966 -4.7939448 -8.5722656 7
-0.38763401 -6.4039311 -8.1582031 7
-0.390266 -6.4328609 -8.1523438 7
-0.39032701 -6.4555659 -8.1376953 7
-0.391693 -6.4812012 -8.1259766 7
-0.39431801 -6.5102539 -8.1201172 7
-0.39821601 -6.542603 -8.1191406 7
-0.40212199 -6.5748291 -8.1181641 7
-0.41114801 -6.6199951 -8.1357422 7
-0.41761801 -6.658936 -8.1425781 7
-0.41768599 -6.681519 -8.1279297 7
-0.420311 -6.7106929 -8.1210938 7
-0.048271 -1.280884 -8.15625 7
-0.048317 -1.303589 -8.1533203 7
-0.053658001 -1.329102 -8.1728516 7
-0.052375998 -1.351074 -8.1640615 7
-0.057709001 -1.376953 -8.1835938 7
-0.06041 -1.401123 -8.1904297 7
-0.048531 -1.41626 -8.1367188 7
-0.048560999 -1.4387209 -8.1337891 7
-0.049934 -1.462158 -8.1357422 7
-0.052627999 -1.48645 -8.1445312 7
-0.056641001 -1.511719 -8.1572266 7
-0.068604 -1.542358 -8.2041016 7
-0.073959 -1.568848 -8.2216797 7
-0.068709999 -1.587769 -8.1953115 7
-0.28172299 -4.4824219 -8.2148438 7
-0.28708601 -4.5150151 -8.2255859 7
-0.291107 -4.5447998 -8.2304688 7
-0.29252601 -4.57019 -8.2236328 7
-0.29126 -4.59021 -8.2060547 7
-0.29264101 -4.615479 -8.2011719 7
-0.29934701 -4.6505132 -8.2158203 7
-0.29808801 -4.670898 -8.2001953 7
-0.29547101 -4.688477 -8.1787109 7
-0.29023001 -4.7010498 -8.1464844 7
-0.29161099 -4.7260742 -8.140625 7
-0.29433399 -4.7537842 -8.1396484 7
-0.29573101 -4.7788091 -8.1337891 7
-0.293129 -4.7962651 -8.1113281 7
-0.410164 -6.4136958 -7.7001948 7
-0.39956701 -6.408813 -7.6474609 7
-0.400978 -6.4334722 -7.6357422 7
-0.402374 -6.458252 -7.625 7
-0.40245101 -6.4794922 -7.610352 7
-0.402504 -6.500854 -7.5957031 7
-0.40656999 -6.532104 -7.592773 7
-0.410629 -6.5635991 -7.5908198 7
-0.41867101 -6.60498 -7.6044922 7
-0.42008999 -6.6296391 -7.592773 7
-0.430794 -6.6781011 -7.6142578 7
-0.43219799 -6.7027588 -7.6025391 7
-0.272964 -4.4951172 -7.6777339 7
-0.28288999 -4.5987549 -7.6699219 7
-0.285721 -4.6254878 -7.6689448 7
-0.287148 -4.649292 -7.6621089 7
-0.285835 -4.668335 -7.6464839 7
-0.2845 -4.6871338 -7.6308589 7
-0.279037 -4.6976318 -7.5986328 7
-0.28461501 -4.7296138 -7.608398 7
-0.28468299 -4.750854 -7.5966802 7
-0.280579 -4.7640381 -7.5712891 7
-0.286194 -4.796021 -7.578125 7
-0.39829999 -6.4006348 -7.0722661 7
-0.39422601 -6.4101558 -7.0429692 7
-0.39014399 -6.4197998 -7.014648 7
-0.39575201 -6.4536128 -7.0175781 7
-0.39581299 -6.4733891 -7.000977 7
-0.39173099 -6.4827881 -6.9726558 7
-0.39594999 -6.513062 -6.969727 7
-0.39186901 -6.5223389 -6.9414058 7
-0.403 -6.57019 -6.9619141 7
-0.41554999 -6.6218262 -6.9863281 7
-0.42394301 -6.6627202 -6.9980469 7
-0.42952701 -6.6968989 -7 7
-0.042174999 4.471313 -6.5869141 7
-0.042160001 4.452271 -6.5976558 7
-0.039421 4.4277339 -6.5976558 7
-0.057296999 4.4439702 -6.672852 7
-0.060051002 4.4299321 -6.6933589 7
-0.057303999 4.4051509 -6.6943359 7
-0.061439998 4.3937988 -6.719727 7
-0.058701001 4.3692632 -6.71875 7
-0.27613801 -4.4927979 -7.2558589 7
-0.27763399 -4.5157471 -7.25 7
-0.28054801 -4.541626 -7.25 7
-0.283485 -4.5673828 -7.249023 7
-0.284973 -4.5905762 -7.242188 7
-0.28504199 -4.611084 -7.2314448 7
-0.28939101 -4.6394038 -7.235352 7
-0.29088601 -4.6625981 -7.2304692 7
-0.28952 -4.6800542 -7.2128911 7
-0.283829 -4.6895752 -7.1826172 7
-0.28530899 -4.712769 -7.1767578 7
-0.283943 -4.730103 -7.1601558 7
-0.28685799 -4.755981 -7.1591802 7
-0.29122201 -4.7844238 -7.1621089 7
-0.28842199 -4.7991939 -7.140625 7
-0.080054998 4.7792969 -5.749023 7
-0.075622998 4.7529302 -5.7451172 7
-0.050423 4.5637212 -5.7519531 7
-0.292 -4.6737061 -6.3925781 7
-0.295151 -4.697998 -6.390625 7
-0.28750601 -4.7016602 -6.3554692 7
-0.289078 -4.7228999 -6.3496089 7
-0.29068801 -4.7442632 -6.342773 7
-0.29073301 -4.7624512 -6.3320308 7
-0.28923801 -4.777832 -6.3164058 7
-0.29084 -4.7990718 -6.3095698 7
-0.052925002 4.487061 -5.445312 7
-0.299263 -4.7431641 -4.7929692 7
-0.295746 -4.7510991 -4.773438 7
-0.30113199 -4.7757568 -4.7753911 7
-0.295845 -4.7801509 -4.750977 7
-0.304856 -4.865417 5.1737919 7
-0.304564 -4.8026199 5.3733482 7
-0.182716 -4.6855888 -13.664433 7
-0.0107 -1.555467 -8.4712849 7
0.0254 -1.476931 -6.7891321 7
-0.29825199 -4.7271528 -8.885191 7
-0.28155899 -4.7468972 -7.3486109 7
0.055070002 -1.379258 -4.7043481 7
0.030679001 -1.723958 -4.8255601 7
-0.039204001 -1.6565059 -4.0876808 7
-0.059597999 -1.905582 -3.6227379 7
-0.30783799 -4.66397 -4.0523291 7
-0.25152299 -4.549758 -2.556766 7
-0.25426701 -4.7787099 -2.3871889 7
-0.040950999 -1.691574 -1.994325 7
-0.313288 -4.7379489 -1.854434 7
-0.29737201 -4.8612418 -1.190922 7
-0.26415101 -4.564527 -0.51984501 7
-0.27902201 -4.749989 -0.39780501 7
-0.30656499 -4.7581291 0.15983699 7
-0.36358801 -5.109364 5.939496 7
-0.29129699 -4.7744789 0.64236802 7
-0.33252299 -4.9557762 5.607183 7
-0.32949299 -4.8480792 5.7675738 7
-0.280343 -4.596447 0.76490498 7
-0.271534 -4.662128 0.939744 7
-0.31592599 -4.9267049 5.162951 7
-0.31823999 -4.852149 5.3309841 7
-0.29234701 -4.605814 1.375725 7
-0.299678 -4.6943159 1.5220031 7
-0.29630199 -4.7459459 1.68541 7
-0.29278201 -4.7904282 1.850106 7
-0.352395 -5.0924149 4.0413251 7
-0.353394 -4.948493 4.590807 7
-0.35104999 -4.8826289 4.752872 7
-0.281948 -4.5740709 1.756781 7
-0.28362101 -4.6314621 1.908373 7
-0.291592 -4.7758369 2.372746 7
-0.30303299 -4.8596539 2.6883259 7
-0.315052 -4.9111981 2.8472631 7
-0.31603599 -4.8956308 3.6683071 7
-0.310646 -4.8567371 3.828517 7
-0.31619999 -4.844039 3.9926291 7
-0.32163 -4.82443 4.156743 7
-0.27950099 -4.5803571 2.25806 7
-0.28640601 -4.6330051 2.4054899 7
-0.28753299 -4.6633029 2.558697 7
-0.035716999 -0.83226901 -15.580855 7
0.000184 -1.335807 -14.530895 7
-0.082496002 -1.391796 -10.924705 7
-0.36287901 -4.6080308 -15.580122 7
-0.045247 -1.413203 -8.7709265 7
-0.31527799 -4.6257448 -12.309258 7
-0.113521 4.5752721 -8.9754076 7
-0.023573 -1.432449 -7.4006562 7
-0.29407799 -4.6814609 -10.212002 7
-0.040911 4.4722662 -6.4953642 7
0.033323001 1.320425 -6.648345 7
-0.016593 -1.46963 -6.518384 7
-0.27349901 -4.6673632 -8.5824213 7
-0.240135 -4.775301 -8.0906982 7
-0.059606001 -1.486169 -5.802166 7
-0.0089649996 1.561321 -5.2791181 7
-0.0024029999 1.364494 -5.2732291 7
-0.035234999 -1.2898279 -5.1873178 7
-0.050326001 -1.505474 -5.2594352 7
0.0078170002 1.214977 -4.8212428 7
0.014718 1.042096 -4.805995 7
-0.027533 -1.3197891 -4.7523808 7
-0.039547998 -1.509138 -4.7890921 7
-0.062504001 -1.740608 -4.8951411 7
-0.024442 -1.351583 -4.408947 7
-0.038284 -1.532861 -4.447978 7
-0.048735999 -1.709034 -4.4567399 7
-0.25379401 -4.688858 -4.0151091 7
-0.013953 1.505559 -3.9902921 7
-0.013075 1.379441 -4.0389009 7
-0.074219003 -1.682332 -4.0944519 7
-0.096350998 -1.883553 -4.1472611 7
-0.27872801 -4.7467308 -2.766314 7
-0.059064999 -1.6468019 -3.770503 7
-0.066168003 -1.783859 -3.7406859 7
-0.25616199 -4.5660748 -1.8891881 7
-0.26125601 -4.6493731 -1.7039829 7
-0.26804999 -4.8006949 -1.1160131 7
-0.053474002 -1.636812 -3.5269389 7
-0.058079999 -1.918213 -2.212867 7
-0.051348999 -1.673813 -2.195296 7
-0.055096999 -1.744795 -2.1163831 7
-0.063557997 -1.8179539 -2.059417 7
-0.070459999 -1.884155 -1.995677 7
-0.045534 -1.6314549 -2.0759809 7
-0.042211998 -1.662421 -2.003516 7
-0.043466002 -1.705623 -1.937174 7
