# .PCD v0.7 - Point Cloud Data file format
VERSION 0.7
FIELDS x y z intensity
SIZE 4 4 4 4
TYPE F F F F
COUNT 1 1 1 1
WIDTH 786
HEIGHT 1
VIEWPOINT 0 0 0 1 0 0 0
POINTS 786
DATA ascii
0.28992501 3.8692629 -62.026367 7
0.237442 3.8212891 -63.789062 7
0.16438299 3.803833 -66.239258 7
0.27728301 4.1557622 -55.566406 7
0.22872899 4.122314 -57.024414 7
0.193413 4.0551758 -58.083984 7
0.236504 3.8287351 -56.796875 7
0.214066 3.732666 -57.47168 7
0.22216 0.48449701 -58.347656 7
0.079940997 -3.184082 -55.548828 7
0.25997901 4.1141362 -49.946289 7
0.212036 4.0913091 -51.233398 7
0.18698099 4.0162349 -51.908203 7
0.23741101 3.7911379 -50.563477 7
0.195786 3.7458501 -51.681641 7
0.143883 3.7141111 -53.074219 7
0.0082400003 -2.855957 -51.958008 7
0.064377002 -3.0280759 -50.560547 7
0.101624 -3.095459 -49.636719 7
0.045403 -3.302979 -51.000977 7
0.096969999 -3.344238 -49.725586 7
0.122063 -3.423218 -49.100586 7
-0.97779101 -5.1391602 70.191406 7
-1.0491641 -5.0887451 71.760742 7
-1.138458 -5.0584722 73.720703 7
0.188446 4.0996089 -46.869141 7
0.15708201 3.9304199 -47.638672 7
0.207909 3.7180181 -46.411133 7
0.17238601 3.6689451 -47.27832 7
0.145523 3.6004641 -47.933594 7
0.215248 -0.033447001 -41.832031 7
0.033844002 -3.010864 -46.369141 7
0.060752999 -3.084717 -45.761719 7
0.009048 -3.273926 -46.898438 7
0.037811 -3.3431399 -46.248047 7
0.067612 -3.4077151 -45.575195 7
0.103752 -3.4586179 -44.761719 7
0.117004 -3.5449221 -44.457031 7
-0.90460199 -5.1787109 62.879883 7
-0.97058898 -5.1409912 64.210938 7
-1.023964 -5.0769038 65.289062 7
-1.095474 -5.035522 66.729492 7
-0.84281898 -2.360718 61.894531 7
-0.80635101 -2.190918 61.174805 7
-0.89181501 -2.1079099 62.893555 7
-0.777435 0.498169 60.717773 7
-0.78684199 0.64086902 60.910156 7
-0.784576 3.6038821 60.857422 7
-0.72607398 3.671387 59.683594 7
0.152069 4.212646 -43.168945 7
0.13018 4.1505132 -43.65625 7
0.099030003 4.1044922 -44.347656 7
0.066826001 4.057373 -45.0625 7
0.075516 3.82019 -44.882812 7
0.060775999 3.7359619 -45.212891 7
0.189171 0.59057599 -42.425781 7
0.20626099 0.482544 -42.046875 7
0.174492 0.38537601 -42.744141 7
0.170074 0.28076199 -42.838867 7
0.202049 0.17285199 -42.130859 7
0.18009201 0.070435002 -42.610352 7
0.169838 -0.055542 -40.016602 7
0.15064199 -0.154907 -40.408203 7
0.18635599 -0.249512 -39.670898 7
-0.044693001 -3.415894 -44.198242 7
-0.032623 -3.504395 -43.9375 7
0.001167 -3.556396 -43.235352 7
0.025826 -3.6204829 -42.720703 7
-1.092155 -5.1071782 62.03125 7
-0.71260798 0.574341 55.375977 7
-0.76148999 3.7093511 56.259766 7
-0.70236999 3.762573 55.155273 7
0.117584 4.2512212 -40.380859 7
0.085860997 4.215332 -41.03125 7
0.063049003 4.1590581 -41.500977 7
0.024712 4.130127 -42.285156 7
0.0036160001 4.0654302 -42.719727 7
0.162361 0.53515601 -40.182617 7
0.123833 0.445068 -40.973633 7
0.138954 0.043212999 -40.654297 7
0.159088 -0.32421899 -36.573242 7
0.12973 -0.41638201 -37.111328 7
0.153641 -0.50158697 -36.660156 7
0.172241 -0.58630401 -36.307617 7
-0.59681702 0.62597698 49.003906 7
-0.56694001 0.73083502 48.494141 7
-0.58042097 0.84655797 48.726562 7
-0.62770802 3.826416 49.507812 7
-0.58322102 3.8782959 48.741211 7
-0.56157702 3.959595 48.365234 7
0.14212801 4.3718262 -36.225586 7
0.114029 4.341064 -36.75293 7
0.089706004 4.3000488 -37.210938 7
0.068832003 4.25 -37.603516 7
0.036621001 4.2203369 -38.207031 7
0.01133 4.174561 -38.681641 7
0.168045 0.94665498 -35.890625 7
0.15654001 0.86303699 -36.103516 7
0.173103 0.76757801 -35.794922 7
0.14712501 0.68786597 -36.277344 7
0.12839501 -0.46826199 -34.149414 7
0.147888 -0.54724097 -33.80957 7
0.121735 -0.63854998 -34.256836 7
0.138191 -0.71704102 -33.967773 7
-0.608688 -2.3573 45.671875 7
-0.60777998 -2.2518311 45.664062 7
-0.62053698 -2.1569819 45.875 7
-0.51978302 0.662476 44.416016 7
-0.531578 0.87023902 44.605469 7
-0.61207598 3.744385 45.8125 7
-0.57265502 3.795532 45.182617 7
-0.54021502 3.85376 44.661133 7
-0.51510602 3.920166 44.255859 7
0.413376 22.126587 20.328125 7
0.41357401 22.171387 20.275391 7
0.41235399 22.233643 20.238281 7
0.114799 4.424561 -33.754883 7
0.097321004 4.3774409 -34.060547 7
0.081528001 4.325439 -34.336914 7
0.047706999 4.3085942 -34.921875 7
0.15874501 1.042725 -33.177734 7
0.17703199 0.95165998 -32.864258 7
0.135841 0.80505401 -33.569336 7
0.099616997 -0.644409 -31.199219 7
0.12704501 -0.71240199 -30.766602 7
0.14181501 -0.783081 -30.529297 7
0.133072 -0.89282203 -31.095703 7
-0.75054902 -5.3206792 43.989258 7
-0.761208 -5.2391362 44.157227 7
-0.558456 -2.325439 41.49707 7
-0.59130102 -2.161011 41.993164 7
-0.47300699 0.69799799 40.374023 7
-0.50351 0.79919398 40.822266 7
-0.46751401 0.88085902 40.294922 7
-0.545982 3.847168 41.365234 7
-0.51522797 3.8977051 40.910156 7
-0.49160799 3.956665 40.556641 7
0.110733 4.6036382 -30.831055 7
0.103218 4.5432129 -30.957031 7
0.084564 4.505981 -31.257812 7
0.065528996 4.4682622 -31.563477 7
0.039452001 4.4438481 -31.978516 7
0.020804999 4.4022222 -32.280273 7
0.143608 1.267578 -30.540039 7
0.162811 1.180298 -30.238281 7
0.15006299 1.112061 -30.44043 7
0.123924 1.049561 -30.851562 7
0.142021 0.96435499 -30.568359 7
0.087837003 -0.77526897 -29.615234 7
0.091689996 -0.84704602 -29.554688 7
0.114212 -1.127808 -29.207031 7
-0.47005501 0.65014601 37.963867 7
-0.44435099 0.81542999 37.611328 7
-0.47261801 0.91101098 38 7
-0.52872503 3.8531489 38.654297 7
-0.50317401 3.9044189 38.296875 7
-0.475777 4.0380859 37.90625 7
0.079329997 4.5849609 -29.134766 7
0.064934 4.5428472 -29.354492 7
0.056099001 4.4881592 -29.491211 7
0.031387001 4.4659419 -29.860352 7
0.010239 4.4344478 -30.177734 7
0.11367 1.274292 -28.874023 7
0.14222001 1.185547 -28.457031 7
0.119827 1.126587 -28.787109 7
0.106567 1.0617681 -28.980469 7
0.074005 -0.97070301 -27.114258 7
0.094977997 -1.02832 -26.827148 7
0.105644 -1.089722 -26.678711 7
0.074515998 -1.1737061 -27.094727 7
0.087334 -1.233887 -26.917969 7
0.099693 -1.293335 -26.745117 7
-0.43783599 0.68102998 34.963867 7
-0.41992199 0.75537097 34.734375 7
-0.44623601 0.84277302 35.069336 7
-0.42423201 0.91491699 34.789062 7
-0.49739799 3.865967 35.601562 7
-0.48358199 3.9267581 35.416992 7
-0.46159399 3.9744871 35.128906 7
-0.44053599 4.0224609 34.854492 7
-0.44812 4.113647 34.942383 7
0.079787999 4.7131348 -26.78125 7
0.068565004 4.6706538 -26.941406 7
0.050476 4.6424561 -27.195312 7
0.040084999 4.596313 -27.344727 7
0.023285 4.563354 -27.580078 7
-0.0046689999 4.5522461 -27.96582 7
0.121902 1.572998 -26.493164 7
0.12439 1.505005 -26.462891 7
0.113976 1.445923 -26.605469 7
0.132347 1.366943 -26.358398 7
0.114639 1.312134 -26.600586 7
0.102928 1.252563 -26.760742 7
0.070548996 -1.376587 -25.55957 7
-0.420151 0.70446801 32.668945 7
-0.39523301 0.77111799 32.369141 7
-0.403732 0.92089802 32.469727 7
-0.384186 0.98718297 32.235352 7
-0.45072901 3.8592529 32.874023 7
-0.458359 3.945435 32.958008 7
-0.442215 3.9959719 32.757812 7
-0.4188 4.0340581 32.470703 7
-0.405563 4.0869141 32.304688 7
0.046730001 4.7871089 -25.261719 7
0.049849998 4.7166748 -25.233398 7
0.037384 4.6802979 -25.398438 7
0.030425999 4.6313481 -25.496094 7
0.01474 4.6003418 -25.704102 7
-0.011978 4.5915532 -26.047852 7
-0.015732 4.533936 -26.104492 7
0.099411003 1.547852 -24.915039 7
0.08963 1.492188 -25.040039 7
0.105759 1.410645 -25.163086 7
0.092018001 1.359009 -25.335938 7
0.080054998 1.3031009 -25.490234 7
0.037315 -1.237793 -24.030273 7
0.059898 -1.284302 -23.759766 7
0.061774999 -1.342651 -23.733398 7
0.033119 -1.420898 -24.066406 7
0.048294 -1.470703 -23.883789 7
0.052147001 -1.527832 -23.833984 7
-0.130211 -4.4243159 -25.623047 7
-0.124405 -4.4768071 -25.542969 7
-0.120064 -4.5319819 -25.480469 7
0.0039670002 4.7749019 -23.810547 7
-0.0050130002 4.734375 -23.925781 7
-0.007553 4.6793208 -23.96582 7
-0.01255 4.6295171 -24.03418 7
-0.01265 4.5689702 -24.043945 7
0.099297002 1.612305 -23.029297 7
0.081398003 1.567505 -23.242188 7
0.090209998 1.502563 -23.141602 7
0.099036999 1.437866 -23.040039 7
0.093491003 1.383423 -23.107422 7
0.090430997 1.3269041 -23.145508 7
0.031166 -1.27124 -22.40332 7
0.040047001 -1.322021 -22.301758 7
-0.16167399 -4.4882808 -24.117188 7
-0.150162 -4.526123 -23.981445 7
-0.14708699 -4.5799561 -23.935547 7
-0.14825401 -4.6420898 -23.936523 7
-0.167923 -4.7414551 -24.136719 7
0.083199002 1.5723881 -21.581055 7
0.070395999 1.526855 -21.723633 7
0.087256998 1.4599611 -21.541016 7
0.093001999 1.401489 -21.479492 7
0.072258003 1.360352 -21.709961 7
0.083832003 1.2980959 -21.585938 7
0.027450999 -1.296265 -20.894531 7
0.035843 -1.34375 -20.804688 7
0.0047530001 -1.4161381 -21.120117 7
0.013123 -1.463745 -21.029297 7
0.015861999 -1.515137 -20.998047 7
0.0078889998 -1.57373 -21.075195 7
-0.172104 -4.499146 -22.519531 7
-0.163727 -4.539185 -22.422852 7
-0.159309 -4.586792 -22.367188 7
-0.171295 -4.666626 -22.475586 7
-0.18211401 -4.7446289 -22.573242 7
0.016318999 4.7719731 -20.364258 7
0.014565 4.723999 -20.393555 7
0.0094149997 4.6829829 -20.455078 7
0.00086999999 4.6490479 -20.551758 7
-0.021202 4.6430659 -20.785156 7
-0.02523 4.5986328 -20.834961 7
-0.001579 4.4968262 -20.606445 7
0.085701004 1.162109 -20.079102 7
0.096396998 1.105347 -19.97168 7
0.086127996 1.05957 -20.079102 7
0.082099997 1.010498 -20.12207 7
0.015686 -1.323975 -19.65918 7
0.023398999 -1.368896 -19.579102 7
-0.0096359998 -1.440063 -19.895508 7
0.001091 -1.483276 -19.788086 7
0.0046080002 -1.530884 -19.75 7
-0.000275 -1.584473 -19.791992 7
-0.201599 -4.4929199 -21.306641 7
-0.19868501 -4.5410161 -21.267578 7
-0.19098701 -4.5795898 -21.182617 7
-0.19229899 -4.6352539 -21.181641 7
-0.20742001 -4.7182622 -21.313477 7
-0.211128 -4.7791748 -21.335938 7
0.069137998 0.70361298 -19.201172 7
0.082359001 -0.012939 -17.584961 7
0.085487001 -0.058104999 -17.555664 7
0.089256003 -0.102905 -17.519531 7
0.089827999 -0.147949 -17.513672 7
0.085899003 -0.193481 -17.548828 7
0.082626 -0.239014 -17.578125 7
0.011757 -1.291382 -18.398438 7
0.014877 -1.336548 -18.366211 7
0.021194 -1.379272 -18.305664 7
-0.0076219998 -1.444702 -18.563477 7
0.002541 -1.484985 -18.467773 7
0.005653 -1.529785 -18.433594 7
0.00174 -1.5793459 -18.464844 7
-0.21111301 -4.4885249 -19.955078 7
-0.20864899 -4.5343022 -19.920898 7
-0.20169801 -4.571167 -19.848633 7
-0.200516 -4.618896 -19.826172 7
-0.19995899 -4.6678472 -19.80957 7
-0.214798 -4.747314 -19.928711 7
0.012474 4.7203369 -17.711914 7
0.0073239999 4.6859131 -17.768555 7
0.0079349997 4.6387939 -17.774414 7
0.003395 4.602417 -17.824219 7
0.068770997 0.30554199 -17.711914 7
0.066771999 0.260254 -17.729492 7
0.069908001 0.214478 -17.701172 7
0.074317999 0.168579 -17.661133 7
0.080658004 0.122803 -17.602539 7
0.086341999 0.077271 -17.550781 7
0.083068997 0.032226998 -17.580078 7
0.058357 -0.326538 -16.94043 7
0.064177997 -0.49853501 -16.882812 7
0.064125001 -0.54174799 -16.881836 7
0.057312001 -0.58679199 -16.938477 7
-0.0078739999 -1.319092 -17.454102 7
-0.00052599999 -1.359131 -17.385742 7
0.0034709999 -1.400879 -17.348633 7
-0.010796 -1.454712 -17.466797 7
-0.021004001 -1.5062259 -17.549805 7
-0.014984 -1.546753 -17.494141 7
-0.012344 -1.5896 -17.467773 7
-0.238548 -4.5239258 -18.929688 7
-0.22782101 -4.5515141 -18.828125 7
-0.222496 -4.5892329 -18.771484 7
-0.2192 -4.6303711 -18.732422 7
-0.217262 -4.6740718 -18.705078 7
-0.23565701 -4.7574458 -18.845703 7
-0.23101 -4.7961431 -18.793945 7
-0.015259 4.731812 -16.816406 7
-0.013954 4.6855469 -16.816406 7
-0.020081 4.6549072 -16.878906 7
-0.023514001 4.6185298 -16.916992 7
-0.032341 4.5930181 -17.001953 7
-0.049323998 4.5838618 -17.154297 7
-0.052756999 4.5467529 -17.192383 7
0.026412999 -0.64428699 -16.138672 7
0.030617001 -0.68420398 -16.100586 7
0.035590999 -0.72387701 -16.058594 7
0.031883001 -0.80786097 -16.083984 7
0.025374999 -0.85192901 -16.133789 7
0.027465999 -0.892456 -16.114258 7
0.032416999 -0.93164098 -16.071289 7
-0.0082170004 -1.327759 -16.37207 7
-0.001854 -1.365845 -16.317383 7
-0.0027079999 -1.450073 -16.31543 7
-0.023521001 -1.5062259 -16.481445 7
-0.015724 -1.542847 -16.413086 7
-0.015076 -1.5843509 -16.402344 7
-0.236549 -4.4871831 -17.699219 7
-0.23529799 -4.5748291 -17.666016 7
-0.228935 -4.6075439 -17.604492 7
-0.226852 -4.648438 -17.577148 7
-0.221939 -4.6834722 -17.525391 7
-0.229202 -4.7424321 -17.571289 7
-0.00067099999 -0.97277802 -15.355469 7
0.0045699999 -1.01001 -15.313477 7
0.010574 -1.046509 -15.264648 7
0.010521 -1.085938 -15.261719 7
-0.002411 -1.13208 -15.356445 7
-0.005508 -1.173218 -15.376953 7
0.00046499999 -1.209595 -15.327148 7
0.0034479999 -1.247314 -15.301758 7
-0.237808 -4.4967041 -16.59082 7
-0.243973 -4.5506592 -16.624023 7
-0.24025699 -4.58606 -16.585938 7
-0.23503099 -4.6185298 -16.536133 7
-0.235893 -4.662231 -16.530273 7
-0.235954 -4.7047119 -16.519531 7
-0.242119 -4.7590332 -16.552734 7
-2.3000001e-05 -1.0682369 -14.415039 7
-0.010498 -1.110718 -14.487305 7
-0.010544 -1.148315 -14.484375 7
-0.005051 -1.220337 -14.439453 7
-0.000359 -1.292358 -14.398438 7
-0.0092320004 -1.335205 -14.458984 7
-0.013306 -1.375122 -14.483398 7
-0.011749 -1.411621 -14.469727 7
-0.015822999 -1.45166 -14.494141 7
-0.026351999 -1.53418 -14.5625 7
-0.242294 -4.49646 -15.566406 7
-0.24559 -4.5427251 -15.578125 7
-0.240944 -4.61377 -15.521484 7
-0.236206 -4.6444092 -15.477539 7
-0.23628201 -4.6844478 -15.46582 7
-0.23557299 -4.7227778 -15.448242 7
-0.251724 -4.794189 -15.549805 7
-0.020737 4.7208252 -13.755859 7
-0.015175 4.6726069 -13.727539 7
-0.020812999 4.648315 -13.77832 7
-0.024055 4.619019 -13.810547 7
-0.024932999 4.5480962 -13.836914 7
-0.032180998 4.5264888 -13.898438 7
-0.045837 4.5177002 -14.003906 7
-0.015633 -1.3067631 -13.699219 7
-0.017433001 -1.379272 -13.704102 7
-0.017471001 -1.414795 -13.701172 7
-0.03019 -1.4588619 -13.783203 7
-0.029472001 -1.530151 -13.769531 7
-0.24974801 -4.5488281 -14.683594 7
-0.24906901 -4.6234131 -14.65625 7
-0.243233 -4.6500239 -14.605469 7
-0.244156 -4.6895752 -14.600586 7
-0.257011 -4.789917 -14.661133 7
-0.049293999 4.783936 -13.097656 7
-0.035027001 4.6844478 -13.026367 7
-0.027481001 4.6341548 -12.987305 7
-0.030052001 4.605103 -13.013672 7
-0.037712 4.5518799 -13.084961 7
-0.054634001 4.5167241 -13.217773 7
-0.028418999 -1.316406 -13.019531 7
-0.032906 -1.353394 -13.045898 7
-0.020546 -1.379517 -12.961914 7
-0.02327 -1.415283 -12.975586 7
-0.016235 -1.44458 -12.925781 7
-0.031357002 -1.488647 -13.020508 7
-0.042045999 -1.529907 -13.085938 7
-0.033241 -1.558105 -13.024414 7
-0.034164 -1.592896 -13.027344 7
-0.03067 -1.62439 -13 7
-0.047577001 -1.670898 -13.104492 7
-0.045844998 -1.703979 -13.089844 7
-0.24855 -4.498291 -13.817383 7
-0.257507 -4.5509028 -13.863281 7
-0.26024601 -4.5919189 -13.869141 7
-0.25766799 -4.6230469 -13.841797 7
-0.249763 -4.6437988 -13.779297 7
-0.249832 -4.679565 -13.768555 7
-0.25168601 -4.7189941 -13.768555 7
-0.25087699 -4.7530522 -13.751953 7
-0.254509 -4.795898 -13.762695 7
-0.032042999 -1.320435 -12.349609 7
-0.021872999 -1.3469239 -12.28418 7
-0.017281 -1.376343 -12.251953 7
-0.022902999 -1.412231 -12.283203 7
-0.016449001 -1.440308 -12.239258 7
-0.0072019999 -1.466309 -12.177734 7
-0.039786998 -1.5205081 -12.375977 7
-0.034271002 -1.549316 -12.337891 7
-0.026877999 -1.576538 -12.288086 7
-0.247803 -4.5218511 -13.015625 7
-0.25627899 -4.5716548 -13.053711 7
-0.25542399 -4.6040039 -13.037109 7
-0.25362399 -4.634521 -13.015625 7
-0.25369999 -4.6688228 -13.004883 7
-0.24539199 -4.686523 -12.944336 7
-0.24453001 -4.71875 -12.927734 7
-0.260452 -4.7836909 -13.009766 7
-0.021744 -1.310547 -11.603516 7
-0.026672 -1.344116 -11.62793 7
-0.020858999 -1.371338 -11.589844 7
-0.015053 -1.398315 -11.552734 7
-0.019005001 -1.431396 -11.571289 7
-0.022003001 -1.464111 -11.584961 7
-0.037666 -1.505371 -11.674805 7
-0.038704 -1.5369869 -11.675781 7
-0.030921999 -1.562256 -11.62793 7
-0.032928001 -1.594604 -11.635742 7
-0.25794199 -4.509521 -12.294922 7
-0.25701901 -4.5400391 -12.279297 7
-0.26298499 -4.5834961 -12.300781 7
-0.265991 -4.6213379 -12.306641 7
-0.26116201 -4.6445308 -12.268555 7
-0.258293 -4.6712651 -12.241211 7
-0.26229101 -4.710938 -12.250977 7
-0.25845301 -4.7355962 -12.21875 7
-0.26341999 -4.7773442 -12.234375 7
-0.027054001 -1.283936 -11.047852 7
-0.021988001 -1.310425 -11.016602 7
-0.032242 -1.345947 -11.071289 7
-0.034340002 -1.3768311 -11.080078 7
-0.027229 -1.401733 -11.035156 7
-0.024223 -1.429199 -11.014648 7
-0.028365999 -1.461182 -11.033203 7
-0.027389999 -1.489624 -11.023438 7
-0.041733 -1.529053 -11.101562 7
-0.051994 -1.5656739 -11.154297 7
-0.036736 -1.584473 -11.06543 7
-0.041885 -1.6175539 -11.09082 7
-0.040916 -1.64624 -11.081055 7
-0.040955 -1.675781 -11.077148 7
-0.059395 -1.719238 -11.174805 7
-0.060470998 -1.749878 -11.176758 7
-0.259453 -4.4951172 -11.62793 7
-0.26464799 -4.535645 -11.644531 7
-0.26882899 -4.5739751 -11.654297 7
-0.27607 -4.6184082 -11.681641 7
-0.273056 -4.6435552 -11.655273 7
-0.26903501 -4.6663818 -11.62207 7
-0.26911199 -4.6972661 -11.611328 7
-0.26815 -4.7260742 -11.594727 7
-0.26617399 -4.752686 -11.572266 7
-0.26931801 -4.7896729 -11.578125 7
-0.059363998 4.7655029 -10.25 7
-0.048331998 4.4914551 -10.289062 7
-0.057549 4.4819341 -10.347656 7
-0.024878999 -1.304077 -10.423828 7
-0.028137 -1.334106 -10.438477 7
-0.035689998 -1.366699 -10.474609 7
-0.023941001 -1.387329 -10.40918 7
-0.023987001 -1.415161 -10.405273 7
-0.028313 -1.445801 -10.424805 7
-0.028357999 -1.473877 -10.421875 7
-0.043419 -1.511963 -10.499023 7
-0.05204 -1.546021 -10.540039 7
-0.038155001 -1.564453 -10.461914 7
-0.043563999 -1.596313 -10.487305 7
-0.264236 -4.5187988 -10.9375 7
-0.271828 -4.5620122 -10.963867 7
-0.271889 -4.591187 -10.953125 7
-0.275177 -4.6265869 -10.958008 7
-0.26664701 -4.6394038 -10.904297 7
-0.26673901 -4.668335 -10.891602 7
-0.26786 -4.699585 -10.886719 7
-0.271164 -4.7349849 -10.891602 7
-0.27231601 -4.7658691 -10.885742 7
-0.056334998 4.7912598 -9.5576172 7
-0.054214001 4.760498 -9.5585938 7
-0.057441998 4.7410889 -9.5849609 7
-0.033904999 4.6654048 -9.4794922 7
-0.029633 4.6303711 -9.4697266 7
-0.026420999 4.5976558 -9.4648438 7
-0.028595001 4.5761719 -9.4863281 7
-0.028603001 4.5501709 -9.4970703 7
-0.029694 4.5262451 -9.5136719 7
-0.031845 4.5045171 -9.5341797 7
-0.0383 4.4914551 -9.5771484 7
-0.055466 4.4996338 -9.671875 7
-0.026703 -1.3017581 -9.9140615 7
-0.030106001 -1.330444 -9.9277344 7
-0.035744 -1.3605959 -9.953125 7
-0.040268 -1.390259 -9.9726562 7
-0.031349 -1.411499 -9.9228516 7
-0.031403001 -1.4382319 -9.9189453 7
-0.037032999 -1.468628 -9.9443359 7
-0.035964999 -1.494629 -9.9355469 7
-0.04496 -1.527588 -9.9775391 7
-0.056182999 -1.562378 -10.03125 7
-0.046172999 -1.582153 -9.9755859 7
-0.267342 -4.4945068 -10.351562 7
-0.27300999 -4.5327148 -10.367188 7
-0.27532199 -4.5646968 -10.367188 7
-0.27988401 -4.6008301 -10.37793 7
-0.28668201 -4.6412349 -10.398438 7
-0.27889299 -4.6544189 -10.350586 7
-0.27671799 -4.677856 -10.329102 7
-0.27230099 -4.697021 -10.296875 7
-0.27685499 -4.7332759 -10.306641 7
-0.27467301 -4.7567139 -10.285156 7
-0.28034201 -4.795166 -10.300781 7
-0.035576001 -1.301514 -9.4628906 7
-0.039108001 -1.329102 -9.4765615 7
-0.043830998 -1.357788 -9.4960938 7
-0.048546001 -1.386475 -9.515625 7
-0.043922 -1.40918 -9.4882812 7
-0.040459 -1.4326169 -9.46875 7
-0.044013999 -1.460693 -9.4814453 7
-0.041724999 -1.484619 -9.4667969 7
-0.042931002 -1.51123 -9.4697266 7
-0.060501002 -1.54895 -9.5507812 7
-0.060547002 -1.574829 -9.546875 7
-0.057082999 -1.598145 -9.5273438 7
-0.059471 -1.625854 -9.5341797 7
-0.058327001 -1.650635 -9.5244141 7
-0.052536 -1.672119 -9.4921885 7
-0.066611998 -1.708374 -9.5556641 7
-0.073654003 -1.739868 -9.5859385 7
-0.076026998 -1.7674561 -9.59375 7
-0.38948801 -6.4094238 -9.4560547 7
-0.39073199 -6.4379878 -9.4462891 7
-0.3908 -6.4637451 -9.4316406 7
-0.38618499 -6.477417 -9.3964844 7
-0.39917001 -6.535522 -9.4345703 7
-0.410965 -6.5909419 -9.4677734 7
-0.42043301 -6.6403809 -9.4912109 7
-0.42402601 -6.675293 -9.4902344 7
-0.42762801 -6.710083 -9.4892578 7
-0.044884 -1.301025 -9.0419922 7
-0.037627999 -1.321411 -9.0048828 7
-0.037673999 -1.346069 -9.0019531 7
-0.036483999 -1.369751 -8.9931641 7
-0.048705999 -1.4021 -9.0458984 7
-0.048737001 -1.426636 -9.0429688 7
-0.052437 -1.453735 -9.0566406 7
-0.046386998 -1.4744869 -9.0244141 7
-0.054276001 -1.5037839 -9.0546885 7
-0.050652001 -1.526001 -9.0351562 7
-0.064087003 -1.560059 -9.09375 7
-0.064139999 -1.584839 -9.0908203 7
-0.39514199 -6.4217529 -8.8574219 7
-0.39888799 -6.4550781 -8.8564453 7
-0.39285299 -6.4639888 -8.8164062 7
-0.394135 -6.4912109 -8.8076172 7
-0.39664501 -6.521606 -8.8017578 7
-0.40406799 -6.564209 -8.8144531 7
-0.41269699 -6.6101069 -8.8320312 7
-0.410339 -6.6279302 -8.8056641 7
-0.41774699 -6.670898 -8.8193359 7
-0.41781601 -6.6950679 -8.8027344 7
-0.41789201 -6.7192378 -8.7871094 7
-0.27052301 -4.5621338 -8.6376953 7
-0.28334799 -4.6097412 -8.6787109 7
-0.28086099 -4.6286621 -8.65625 7
-0.28473699 -4.659668 -8.6611328 7
-0.27969399 -4.6737061 -8.6298828 7
-0.27721399 -4.692627 -8.6083984 7
-0.27473399 -4.71106 -8.5859385 7
-0.27735099 -4.7397461 -8.5849609 7
-0.277412 -4.7633061 -8.5732422 7
-0.277473 -4.7867432 -8.5625 7
-0.379852 -6.41394 -8.1298828 7
-0.381203 -6.4396968 -8.1201172 7
-0.386383 -6.4750981 -8.1230469 7
-0.386444 -6.497437 -8.1083984 7
-0.38651299 -6.52002 -8.0927734 7
-0.39170101 -6.5554199 -8.0957031 7
-0.39942899 -6.5974121 -8.1083984 7
-0.409729 -6.6461182 -8.1298828 7
-0.41235399 -6.6751709 -8.1240234 7
-0.412422 -6.6977539 -8.1074219 7
-0.044594001 -1.281738 -8.15625 7
-0.045952 -1.304932 -8.1591797 7
-0.048629999 -1.329224 -8.1669922 7
-0.053947002 -1.355103 -8.1865234 7
-0.053986002 -1.377808 -8.1835938 7
-0.063285999 -1.406006 -8.2197266 7
-0.047462001 -1.4187011 -8.1484385 7
-0.046172999 -1.440552 -8.140625 7
-0.048850998 -1.4646 -8.1474609 7
-0.051537 -1.489136 -8.1552734 7
-0.048935 -1.509766 -8.140625 7
-0.067482002 -1.5450439 -8.2158203 7
-0.072838001 -1.5712889 -8.2333984 7
-0.067580998 -1.590332 -8.2070312 7
-0.27789301 -4.4804692 -8.2158203 7
-0.284592 -4.5153809 -8.2304688 7
-0.28066301 -4.5306401 -8.2050781 7
-0.28736901 -4.5656738 -8.2197266 7
-0.287422 -4.5883789 -8.2089844 7
-0.28879499 -4.6135249 -8.203125 7
-0.29550201 -4.64856 -8.2177734 7
-0.29689801 -4.6739502 -8.2109385 7
-0.29031399 -4.68396 -8.1757812 7
-0.29035899 -4.706665 -8.1640615 7
-0.287781 -4.7241211 -8.1425781 7
-0.28783399 -4.7467041 -8.1308594 7
-0.29054999 -4.774292 -8.1308594 7
-0.29061899 -4.7966309 -8.1181641 7
-0.39965799 -6.415771 -7.6621089 7
-0.398399 -6.4338379 -7.6425781 7
-0.398476 -6.4552002 -7.6279302 7
-0.39854401 -6.476562 -7.6123052 7
-0.40126801 -6.5045171 -7.6054692 7
-0.401344 -6.5257568 -7.5908198 7
-0.40142801 -6.546875 -7.5742192 7
-0.41078201 -6.5916748 -7.5908198 7
-0.41883099 -6.6333008 -7.6035161 7
-0.42554501 -6.6716309 -7.610352 7
-0.425621 -6.6928711 -7.59375 7
-0.273384 -4.543457 -7.670898 7
-0.276207 -4.57019 -7.670898 7
-0.277641 -4.5941162 -7.6660161 7
-0.283234 -4.625854 -7.6748052 7
-0.28329501 -4.6472168 -7.6630859 7
-0.287476 -4.6766362 -7.6679692 7
-0.290306 -4.7032471 -7.6660161 7
-0.27932 -4.7034912 -7.6152339 7
-0.27522999 -4.7169189 -7.5878911 7
-0.279434 -4.7460942 -7.5917969 7
-0.279488 -4.767334 -7.5810552 7
-0.278175 -4.7857671 -7.5644531 7
-0.044174001 4.470459 -6.5742192 7
-0.045570001 4.454102 -6.5898442 7
-0.046936002 4.4377441 -6.6054692 7
-0.049697999 4.4239502 -6.625977 7
-0.057976 4.4211431 -6.6669922 7
-0.062111001 4.4099121 -6.6923828 7
-0.057999 4.3823242 -6.6875 7
-0.057999 4.3631592 -6.6982422 7
-0.055259999 4.3382568 -6.6982422 7
-0.053886 4.3162842 -6.704102 7
-0.051146999 4.291626 -6.702148 7
-0.048409 4.2670898 -6.702148 7
-0.282188 -4.6226811 -6.3955078 7
-0.283775 -4.644165 -6.390625 7
-0.286919 -4.6682129 -6.3886719 7
-0.28389001 -4.6807861 -6.367188 7
-0.28240201 -4.696167 -6.351562 7
-0.27937299 -4.7086182 -6.3310552 7
-0.27942699 -4.7269292 -6.320312 7
-0.28563699 -4.7570801 -6.328125 7
-0.28106701 -4.7663569 -6.3017578 7
-0.28421 -4.7905269 -6.3007808 7
-0.29397601 -4.7366939 -4.7900391 7
-0.29579899 -4.7547612 -4.7832031 7
-0.29585299 -4.7692871 -4.7714839 7
-0.29946899 -4.7906489 -4.7675781 7
0.053716 -1.09786 -14.585784 7
-0.15484899 -4.5977769 -13.258803 7
-0.037804 -1.569995 -8.7921534 7
-0.29324201 -4.6178761 -10.561446 7
0.002688 -1.487695 -7.0281191 7
-0.26652399 -4.6351891 -8.583869 7
0.029023999 -1.427964 -5.7493019 7
-0.050462998 -1.663489 -4.1687641 7
-0.25339901 -4.555131 -2.565609 7
-0.031743001 -1.4700249 -1.996784 7
-0.31530899 -4.7437539 -1.862407 7
-0.29848999 -4.6903081 -1.371304 7
-0.27995801 -4.6260591 -0.92087299 7
-0.275042 -4.7682838 -0.73480397 7
-0.25820401 -4.5475922 -0.50183201 7
-0.26889101 -4.7199922 -0.36847001 7
-0.299885 -4.7387319 0.17586701 7
-0.28622299 -4.5492048 0.33126 7
-0.28607199 -4.6572518 0.49049199 7
-0.29363599 -4.781384 0.63757402 7
-0.26931599 -4.6742668 1.340809 7
-0.30198601 -4.7009411 1.518892 7
-0.34699801 -5.0671401 4.0807338 7
-0.35222501 -5.043633 4.2543068 7
-0.35548499 -5.0073318 4.4258022 7
-0.33357 -4.8901181 4.570785 7
-0.34192401 -4.856163 4.7425261 7
-0.31438801 -4.861155 3.870662 7
-0.319879 -4.8465819 4.0350752 7
-0.32340899 -4.8197312 4.19806 7
-0.31092301 -4.736424 2.5853479 7
-0.30615401 -4.7424512 2.7449141 7
-0.306319 -4.7649879 3.2182319 7
-0.30679199 -4.7613411 3.375973 7
-0.291711 -4.5597992 2.6163311 7
-0.28864199 -4.570231 2.7677131 7
-0.28464001 -4.5803332 3.2193041 7
-0.28898701 -4.587853 3.3696809 7
-0.28138301 -4.555944 3.518101 7
0.055723 4.5874519 -9.3596592 7
-0.036501002 -0.98537803 -15.600928 7
0.017098 4.5699878 -13.637079 7
-0.34561199 -4.6651611 -15.247708 7
-0.061958998 4.4960241 -9.8577671 7
-0.092917003 -1.633742 -9.4724188 7
-0.30598 -4.6917119 -12.141451 7
-0.064103 -1.623421 -7.9075971 7
-0.28265101 -4.710238 -10.038128 7
0.031337999 1.2678879 -6.6842618 7
-0.037425 -1.592993 -6.7382112 7
-0.27098 -4.7349992 -8.5175695 7
-0.371445 -6.5026622 -8.9173555 7
-0.0032520001 1.270448 -5.7915192 7
-0.015306 1.100564 -5.9527831 7
0.014265 1.273315 -5.1374912 7
0.0066570002 1.121611 -5.2475562 7
-0.030921999 -1.367618 -4.765131 7
-0.037678 -1.542431 -4.7619319 7
0.027170001 1.473386 -4.2366219 7
0.035018001 1.282299 -4.2435379 7
-0.023272 -1.383162 -4.3887429 7
-0.02988 -1.542115 -4.3789868 7
-0.045889001 -1.735134 -4.4227028 7
-0.243339 -4.6560779 -3.928566 7
-0.076846004 -1.690546 -4.1088042 7
-0.27300799 -4.7101741 -2.7539041 7
-0.27237201 -4.7940559 -2.561306 7
-0.038479999 -1.358888 -3.778415 7
-0.050717998 -1.507174 -3.7877691 7
-0.26626599 -4.6301389 -1.899489 7
-0.26949701 -4.7022009 -1.7102211 7
-0.276216 -4.7895889 -1.5179909 7
-0.27130201 -4.7939391 -1.316898 7
-0.038757 -1.384364 -3.5726531 7
-0.043480001 -1.502232 -3.5402989 7
-0.035776 -1.47465 -2.228837 7
-0.013986 -1.456004 -2.124404 7
-0.032299001 -1.556856 -2.0997069 7
-0.011477 -1.302047 -2.189183 7
-0.017889 -1.3657759 -2.1491899 7
-0.021041 -1.419066 -2.099443 7
-0.020948 -1.460948 -2.041142 7
-0.006488 -1.456073 -1.956583 7
-0.004218 -1.307372 -2.0447121 7
-0.0092350002 -1.361344 -2.000056 7
-0.0042730002 -1.384505 -1.935887 7
-0.00019200001 -1.285768 -1.952811 7
