# .PCD v0.7 - Point Cloud Data file format
VERSION 0.7
FIELDS x y z intensity
SIZE 4 4 4 4
TYPE F F F F
COUNT 1 1 1 1
WIDTH 708
HEIGHT 1
VIEWPOINT 0 0 0 1 0 0 0
POINTS 708
DATA ascii
0.23232301 4.1689448 -72.868164 7
0.23732799 3.927979 -72.856445 7
0.37513 3.8721919 -59.851562 7
0.30532101 3.8699951 -62.22168 7
0.258591 3.8109131 -63.808594 7
0.173096 -3.2393799 -59.167969 7
0.299171 4.1451421 -55.492188 7
0.26213101 4.088501 -56.617188 7
0.310013 3.717041 -55.175781 7
0.27505499 3.6490481 -56.235352 7
0.20670301 3.6374509 -58.306641 7
0.124992 -2.9624021 -53.995117 7
0.151344 -3.0539551 -53.274414 7
0.111816 -3.244873 -54.325195 7
0.26911199 3.999512 -50.163086 7
0.240623 3.9343259 -50.9375 7
0.29342699 3.7062991 -49.516602 7
0.256897 3.654175 -50.503906 7
0.216904 3.60376 -51.586914 7
0.096602999 -2.96228 -49.490234 7
0.123764 -3.04248 -48.818359 7
0.16582499 -3.0965581 -47.783203 7
0.109062 -3.3031011 -49.152344 7
0.145844 -3.3618159 -48.245117 7
-1.0986331 -4.9997559 72.869141 7
-1.1654429 -4.9289551 74.338867 7
-0.91597003 -2.001343 69.108398 7
-0.984299 -1.881592 70.609375 7
-0.97255701 -1.711182 70.362305 7
-0.91513801 -0.07959 69.19043 7
0.231544 4.0404048 -46.217773 7
0.202766 3.984741 -46.926758 7
0.24649 3.7841799 -45.862305 7
0.221046 3.719727 -46.490234 7
0.198456 3.647095 -47.046875 7
0.143181 3.630127 -48.402344 7
0.27602401 0.38110399 -45.294922 7
0.27672601 0.15978999 -45.273438 7
0.227844 -0.038573999 -41.870117 7
0.240868 -0.14038099 -41.576172 7
0.266296 -0.23938 -41.008789 7
0.0073620002 -3.3708501 -46.68457 7
0.046340998 -3.4219971 -45.8125 7
0.072921999 -3.489502 -45.21582 7
-0.93317401 -5.0831299 63.491211 7
-1.012642 -5.0620122 65.088867 7
-1.060463 -4.9847412 66.057617 7
-1.141937 -4.953125 67.696289 7
-0.893471 -2.1105959 62.945312 7
-0.93128997 -1.988892 63.708984 7
-0.83840197 3.6651609 61.950195 7
-0.77024102 3.723022 60.582031 7
0.187271 4.1624761 -42.711914 7
0.15873 4.115356 -43.351562 7
0.144356 4.0369868 -43.674805 7
0.103157 4.0091548 -44.592773 7
0.24683399 0.47119099 -41.462891 7
0.220047 0.37451199 -42.055664 7
0.198257 0.27417001 -42.535156 7
0.200211 0.1698 -42.488281 7
0.233528 0.064208999 -41.746094 7
0.154976 -0.053833 -40.131836 7
0.189766 -0.149414 -39.417969 7
0.18365499 -0.24682599 -39.541992 7
0.228348 -0.430664 -38.621094 7
-1.088333 -4.9599609 61.990234 7
-1.140739 -4.8937988 62.974609 7
-0.75687402 0.71521002 56.175781 7
-0.79090101 0.85485798 56.810547 7
-0.83021498 3.7966311 57.508789 7
-0.772614 3.854614 56.433594 7
0.157066 4.1955571 -39.866211 7
0.126137 4.159668 -40.504883 7
0.102074 4.1072998 -41.00293 7
0.070839003 4.0664058 -41.647461 7
0.037338 4.026855 -42.337891 7
0.16865499 0.63049299 -39.864258 7
0.200302 0.524414 -39.216797 7
0.158989 0.437134 -40.05957 7
0.148941 -0.33081099 -36.630859 7
0.18000799 -0.40258801 -36.016602 7
0.17518599 -0.492432 -36.102539 7
0.195473 -0.575073 -35.72168 7
-0.637779 0.749268 49.71582 7
-0.65297699 0.86840802 49.977539 7
-0.62519097 0.97082502 49.508789 7
-0.68283802 3.7858889 50.4375 7
-0.64582801 3.8519289 49.798828 7
0.197716 4.4489751 -35.407227 7
0.184494 4.3901372 -35.660156 7
0.15437301 4.3665771 -36.229492 7
0.104446 4.2900391 -37.172852 7
0.068374999 4.270874 -37.851562 7
0.044495001 4.2244868 -38.302734 7
0.223244 1.009521 -35.088867 7
0.195564 0.935669 -35.606445 7
0.217049 0.83850098 -35.204102 7
0.190277 0.76147503 -35.703125 7
0.15150499 -0.45959499 -33.62207 7
0.162613 -0.53942901 -33.426758 7
0.159668 -0.70507801 -33.469727 7
-0.583794 0.67968798 45.420898 7
-0.607162 0.79089397 45.793945 7
-0.57796502 0.88659698 45.329102 7
-0.65417498 3.8017581 46.46582 7
-0.61471599 3.8543701 45.833984 7
-0.590698 3.925781 45.447266 7
-0.606659 4.0537109 45.693359 7
0.151169 4.532227 -33.313477 7
0.147995 4.4562988 -33.375977 7
0.128593 4.414917 -33.716797 7
0.113586 4.362793 -33.983398 7
0.083687 4.340332 -34.50293 7
0.074424997 4.273315 -34.669922 7
0.21331801 1.177979 -32.431641 7
0.167381 0.87585402 -33.224609 7
0.14280701 -0.71472198 -30.679688 7
0.14267699 -0.79089397 -30.677734 7
0.170357 -0.878784 -30.417969 7
0.138512 -0.95861799 -30.893555 7
0.161026 -1.0238039 -30.535156 7
-0.62491602 -2.1887209 42.498047 7
-0.64112902 -2.103394 42.742188 7
-0.53361499 0.71350098 41.273438 7
-0.50678301 0.799927 40.879883 7
-0.52854902 0.900635 41.199219 7
-0.63191199 3.8713379 42.619141 7
-0.59637499 3.9190669 42.092773 7
-0.55365002 3.954102 41.460938 7
-0.53002203 4.0144038 41.108398 7
0.332306 20.781738 20.138672 7
0.13497201 4.5687261 -30.614258 7
0.126755 4.510376 -30.75293 7
0.110428 4.46875 -31.017578 7
0.088898003 4.4371338 -31.363281 7
0.065163001 4.4083252 -31.745117 7
0.051414002 4.3574219 -31.969727 7
0.17652901 1.247681 -30.179688 7
0.188614 1.165527 -29.990234 7
0.184525 1.095703 -30.056641 7
0.16185001 1.032349 -30.415039 7
0.15285499 0.96093798 -30.557617 7
0.142616 -0.96460003 -28.708984 7
0.111496 -1.123901 -29.15918 7
0.139954 -1.179565 -28.735352 7
-0.52790099 0.66589397 38.751953 7
-0.50485998 0.74792498 38.435547 7
-0.53046399 0.93237299 38.787109 7
-0.573502 3.9177251 39.259766 7
-0.54327399 3.9637451 38.836914 7
-0.51898199 4.016479 38.496094 7
-0.54253399 4.1403809 38.8125 7
0.27673301 19.419678 20.117188 7
0.276932 19.463867 20.071289 7
0.069572002 4.7714839 -29.40332 7
0.103836 4.6218262 -28.913086 7
0.090317003 4.5788569 -29.120117 7
0.078772999 4.5310059 -29.298828 7
0.061287001 4.4946289 -29.564453 7
0.031952001 4.4820561 -30.001953 7
0.16968501 1.24292 -28.193359 7
0.14780401 1.185059 -28.516602 7
0.130676 1.1231689 -28.770508 7
0.12650301 -1.153564 -26.506836 7
0.109573 -1.296753 -26.729492 7
0.113686 -1.38208 -26.845703 7
-0.48850301 0.69397002 35.621094 7
-0.46740001 0.76892102 35.350586 7
-0.475021 0.85192901 35.448242 7
-0.47264099 0.93164098 35.416992 7
-0.44652599 1.002441 35.083984 7
-0.544662 3.9351809 36.197266 7
-0.51722002 3.977417 35.84082 7
-0.501122 4.0350342 35.62793 7
-0.47775999 4.0804439 35.322266 7
0.100815 4.6827388 -26.617188 7
0.090919003 4.6378169 -26.760742 7
0.075447001 4.6044922 -26.979492 7
0.064704999 4.559937 -27.133789 7
0.047538999 4.5281978 -27.375 7
0.021423001 4.513916 -27.738281 7
0.033279002 4.420166 -27.585938 7
0.146606 1.5562741 -26.275391 7
0.149078 1.488403 -26.244141 7
0.13142399 1.435059 -26.485352 7
0.155258 1.352783 -26.161133 7
0.14019801 1.296631 -26.369141 7
0.119553 1.243042 -26.651367 7
0.100853 -1.2886961 -25.119141 7
0.091895998 -1.4831541 -25.219727 7
-0.45715299 0.94116199 33.106445 7
-0.51825702 3.959229 33.674805 7
-0.501122 4.010376 33.461914 7
-0.47525001 4.0471191 33.146484 7
-0.454254 4.0898442 32.887695 7
-0.44925699 4.1569819 32.819336 7
0.14992499 16.400635 20.154297 7
0.14771301 16.464355 20.137695 7
0.148834 16.500854 20.089844 7
0.152344 16.517578 20.020508 7
0.15203901 16.565552 19.985352 7
0.151245 16.61731 19.955078 7
0.070602 4.6871338 -25.080078 7
0.059096999 4.6491699 -25.235352 7
0.047150001 4.6113281 -25.396484 7
0.031975001 4.5795898 -25.59668 7
0.014076 4.5526118 -25.832031 7
0.0057600001 4.5048828 -25.947266 7
0.125084 1.594849 -24.692383 7
0.124069 1.533447 -24.707031 7
0.107056 1.483521 -24.926758 7
0.123711 1.390381 -24.87793 7
0.084282003 -1.323486 -23.416992 7
0.053078 -1.402832 -23.78125 7
0.066771999 -1.512085 -23.610352 7
0.071617 -1.567505 -23.547852 7
-0.101982 -4.4838872 -25.219727 7
-0.097626001 -4.5379639 -25.158203 7
-0.102798 -4.6734619 -25.192383 7
0.050659001 -1.311035 -22.142578 7
0.059578001 -1.361084 -22.041016 7
0.060539 -1.4156491 -22.024414 7
0.037735 -1.486816 -22.272461 7
0.046112001 -1.536743 -22.175781 7
0.044449002 -1.593628 -22.188477 7
-0.123283 -4.5805659 -23.624023 7
-0.120735 -4.6343989 -23.584961 7
-0.122955 -4.697876 -23.59668 7
0.048110999 4.7124019 -21.673828 7
0.047516 4.6586909 -21.689453 7
0.109695 1.392944 -21.371094 7
0.118065 1.333252 -21.282227 7
0.094169997 1.2392581 -21.549805 7
0.041182999 -1.284058 -20.719727 7
0.047882002 -1.332031 -20.645508 7
0.056853998 -1.3781739 -20.549805 7
0.031349 -1.447144 -20.807617 7
0.035797 -1.49646 -20.756836 7
0.041405 -1.5448 -20.696289 7
0.044716001 -1.594604 -20.657227 7
-0.15334301 -4.5084229 -22.28418 7
-0.144379 -4.5466309 -22.180664 7
-0.138809 -4.591187 -22.113281 7
-0.13607 -4.6412349 -22.074219 7
-0.14974999 -4.7241211 -22.199219 7
0.010681 4.797729 -20.486328 7
0.0095210001 4.7479248 -20.508789 7
0.008316 4.6983638 -20.53125 7
0.0060120001 4.6507568 -20.56543 7
0.0025790001 4.6055908 -20.610352 7
-0.007034 4.5731201 -20.719727 7
0.11396 0.94384801 -19.859375 7
0.111046 0.89428699 -19.891602 7
0.105347 0.84582502 -19.952148 7
0.111465 0.79260302 -19.888672 7
0.120964 0.74035603 -19.790039 7
0.125954 0.68810999 -19.739258 7
0.032187998 -1.309814 -19.470703 7
0.040543001 -1.354004 -19.386719 7
0.046478 -1.39917 -19.325195 7
0.014557 -1.469604 -19.629883 7
0.025299 -1.511719 -19.520508 7
0.028244 -1.559082 -19.488281 7
-0.181557 -4.500977 -21.088867 7
-0.17865799 -4.5482178 -21.048828 7
-0.171509 -4.5872798 -20.969727 7
-0.166786 -4.6307368 -20.912109 7
-0.164474 -4.6787109 -20.878906 7
-0.179619 -4.7615972 -21.009766 7
0.081375003 0.60400403 -19.051758 7
0.083099 0.55517602 -19.035156 7
0.089073002 0.50549299 -18.978516 7
0.089599997 0.45715299 -18.973633 7
0.096755996 0.40771499 -18.90332 7
0.106918 0.35791001 -18.806641 7
0.085297003 -0.015503 -17.604492 7
0.090980999 -0.060669001 -17.551758 7
0.094100997 -0.105469 -17.522461 7
0.095940001 -0.15051299 -17.504883 7
0.099059999 -0.19531199 -17.474609 7
0.093231 -0.24084499 -17.526367 7
0.094429001 -0.28576699 -17.513672 7
0.031723 -1.322266 -18.191406 7
0.034843002 -1.3668211 -18.15918 7
0.040543001 -1.409302 -18.103516 7
0.011055 -1.475342 -18.367188 7
0.021865999 -1.5144041 -18.265625 7
0.021796999 -1.560913 -18.261719 7
-0.18918601 -4.4880371 -19.726562 7
-0.189255 -4.5379639 -19.716797 7
-0.18230399 -4.5742192 -19.641602 7
-0.17726099 -4.6138921 -19.584961 7
-0.17158499 -4.6522222 -19.523438 7
-0.17937499 -4.7169189 -19.580078 7
-0.192902 -4.7938228 -19.689453 7
0.022003001 4.7113042 -17.675781 7
0.021973001 4.665894 -17.6875 7
0.012352 4.6407471 -17.783203 7
0.0072019999 4.605835 -17.838867 7
0.0020600001 4.5706792 -17.895508 7
-0.01329 4.556519 -18.041016 7
-0.002502 4.487793 -17.956055 7
0.00103 -1.310303 -17.358398 7
0.015129 -1.3898931 -17.231445 7
0.023193 -1.428467 -17.158203 7
-0.0032810001 -1.490356 -17.379883 7
-0.0060350001 -1.536743 -17.400391 7
0.0020369999 -1.575317 -17.327148 7
-0.213661 -4.5186772 -18.701172 7
-0.20229299 -4.5914311 -18.582031 7
-0.017723 4.7923579 -16.870117 7
-0.018440001 4.7501221 -16.887695 7
-0.011742 4.6921391 -16.842773 7
-0.020592 4.6236572 -16.9375 7
-0.026039001 4.591064 -16.993164 7
-0.041595001 4.579102 -17.133789 7
-0.026802 4.5045171 -17.020508 7
0.034690998 -0.76342797 -16.048828 7
0.033904999 -0.80480999 -16.052734 7
0.035294 -0.845581 -16.039062 7
0.038010001 -0.96789598 -16.009766 7
0.030769 -1.0124511 -16.06543 7
0.034309 -1.0517581 -16.03418 7
0.040702999 -1.089722 -15.979492 7
0.039963 -1.1312259 -15.983398 7
0.031998001 -1.176514 -16.043945 7
0.021179 -1.223999 -16.12793 7
0.015381 -1.268677 -16.171875 7
0.0081479996 -1.314575 -16.226562 7
0.018851999 -1.3494869 -16.135742 7
0.015900001 -1.3927 -16.154297 7
0.016586 -1.433838 -16.145508 7
-0.00502 -1.489868 -16.316406 7
0.0056989999 -1.52417 -16.225586 7
0.0027620001 -1.567871 -16.245117 7
-0.213432 -4.52771 -17.488281 7
-0.211334 -4.5683589 -17.461914 7
-0.204971 -4.6003418 -17.398438 7
-0.200729 -4.6365972 -17.354492 7
-0.196495 -4.6723628 -17.308594 7
-0.202332 -4.7279048 -17.34375 7
0.025390999 -0.99768102 -15.142578 7
0.018486001 -1.0400389 -15.191406 7
0.010864 -1.0830081 -15.24707 7
0.010048 -1.122681 -15.250977 7
0.022148 -1.15564 -15.155273 7
0.024367999 -1.193359 -15.135742 7
0.021271 -1.234131 -15.155273 7
0.0022509999 -1.284546 -15.297852 7
0.0082700001 -1.320312 -15.24707 7
0.011246 -1.357788 -15.22168 7
0.0089109996 -1.398438 -15.235352 7
0.0065839998 -1.439209 -15.249023 7
-0.00030499999 -1.483276 -15.297852 7
-0.014 -1.532227 -15.399414 7
-0.0087510003 -1.568115 -15.354492 7
-0.21521001 -4.5334468 -16.398438 7
-0.219833 -4.584229 -16.420898 7
-0.21994001 -4.6263428 -16.40918 7
-0.213928 -4.6564941 -16.353516 7
-0.210945 -4.6925049 -16.321289 7
-0.21179999 -4.7358398 -16.314453 7
-0.21720099 -4.788208 -16.341797 7
0.011673 -1.2824709 -14.304688 7
0.010818 -1.3199461 -14.306641 7
0.0083619999 -1.3586431 -14.321289 7
0.0058980002 -1.397339 -14.334961 7
0.001053 -1.4375 -14.366211 7
0.001793 -1.474243 -14.357422 7
-0.0078959996 -1.518311 -14.422852 7
-0.0071410001 -1.5550539 -14.413086 7
-0.011238 -1.595215 -14.4375 7
-0.216667 -4.6417241 -15.330078 7
-0.21595 -4.679565 -15.3125 7
-0.213608 -4.714355 -15.285156 7
-0.220108 -4.766479 -15.318359 7
-0.034171999 4.7955322 -13.863281 7
-0.013412 4.7146001 -13.730469 7
-0.0038680001 4.6580811 -13.674805 7
-0.0046919999 4.6239009 -13.691406 7
-0.010345 4.5993652 -13.741211 7
-0.013573 4.5698242 -13.774414 7
-0.017593 4.5418701 -13.8125 7
-0.024817999 4.5205078 -13.87207 7
-0.036858 4.5083008 -13.966797 7
-0.005959 -1.298218 -13.626953 7
-0.0034789999 -1.332275 -13.607422 7
0.0040739998 -1.362915 -13.552734 7
0.003181 -1.3988039 -13.554688 7
0.00057999999 -1.435791 -13.568359 7
-0.018874999 -1.484131 -13.697266 7
-0.013855 -1.516479 -13.65918 7
-0.012215 -1.550781 -13.644531 7
-0.014801 -1.588257 -13.657227 7
-0.221268 -4.5288091 -14.487305 7
-0.230675 -4.5838618 -14.536133 7
-0.224815 -4.6101069 -14.486328 7
-0.222343 -4.6428218 -14.458984 7
-0.221558 -4.6787109 -14.443359 7
-0.21994001 -4.712769 -14.420898 7
-0.22763801 -4.7652588 -14.459961 7
-0.039473999 4.7722168 -13.054688 7
-0.040352002 4.739502 -13.071289 7
-0.039519999 4.703125 -13.077148 7
-0.036201 4.661499 -13.06543 7
-0.04126 4.6374512 -13.110352 7
-0.046333 4.6132808 -13.154297 7
-0.039650001 4.5646968 -13.121094 7
-0.03968 4.5301509 -13.131836 7
-0.045593001 4.5073242 -13.180664 7
-0.0099719996 -1.3031009 -12.897461 7
-0.016235 -1.340454 -12.93457 7
-0.002968 -1.365967 -12.845703 7
-0.0039059999 -1.400269 -12.847656 7
-0.001282 -1.432129 -12.827148 7
-0.009323 -1.471069 -12.875977 7
-0.028907999 -1.518188 -12.998047 7
-0.016563 -1.577148 -12.911133 7
-0.22547901 -4.4871831 -13.666992 7
-0.236214 -4.5427251 -13.722656 7
-0.241631 -4.588501 -13.745117 7
-0.228432 -4.6343989 -13.640625 7
-0.228554 -4.7053218 -13.618164 7
-0.23219299 -4.7479248 -13.628906 7
-0.22795101 -4.514771 -12.892578 7
-0.246666 -4.5837402 -12.992188 7
-0.248611 -4.6212158 -12.991211 7
-0.23935699 -4.6374512 -12.925781 7
-0.232887 -4.6585689 -12.876953 7
-0.23948701 -4.7049561 -12.90332 7
-0.236748 -4.733398 -12.875977 7
-0.230286 -4.7541499 -12.827148 7
-0.0056079999 -1.298584 -11.509766 7
-0.0076069999 -1.3302 -11.517578 7
-0.013527 -1.36438 -11.548828 7
-0.01162 -1.3937989 -11.53418 7
-0.004799 -1.4198 -11.491211 7
-0.0077900002 -1.452148 -11.504883 7
-0.0058590001 -1.481323 -11.490234 7
-0.020599 -1.521973 -11.571289 7
-0.027488999 -1.557251 -11.608398 7
-0.018738 -1.581665 -11.551758 7
-0.232933 -4.4919429 -12.151367 7
-0.23890699 -4.5350342 -12.172852 7
-0.248749 -4.5854492 -12.217773 7
-0.24489599 -4.6101069 -12.18457 7
-0.24398801 -4.6403809 -12.167969 7
-0.241127 -4.666748 -12.140625 7
-0.24412499 -4.7042241 -12.146484 7
-0.245171 -4.7382808 -12.139648 7
-0.24131 -4.7625728 -12.107422 7
-0.0099560004 -1.301025 -10.952148 7
-0.01001 -1.330322 -10.949219 7
-0.021300999 -1.366455 -11.008789 7
-0.017258 -1.392944 -10.982422 7
-0.010132 -1.417725 -10.939453 7
-0.0091930004 -1.475342 -10.926758 7
-0.035873 -1.55188 -11.067383 7
-0.024673 -1.573486 -11.001953 7
-0.24336199 -4.4929199 -11.540039 7
-0.25475299 -4.5751948 -11.577148 7
-0.25789601 -4.6115718 -11.583008 7
-0.255981 -4.6689448 -11.549805 7
-0.25501999 -4.6975098 -11.533203 7
-0.25610399 -4.72998 -11.52832 7
-0.25104499 -4.7506099 -11.489258 7
-0.250092 -4.7789311 -11.472656 7
-0.046555001 4.7736821 -10.183594 7
-0.044539999 4.7414551 -10.18457 7
-0.029259 4.681519 -10.114258 7
-0.018074 4.6304932 -10.067383 7
-0.018097 4.6029048 -10.078125 7
-0.022186 4.5838618 -10.110352 7
-0.024254 4.5606689 -10.130859 7
-0.025284 4.5351558 -10.146484 7
-0.027336 4.5117192 -10.167969 7
-0.032448001 4.4943848 -10.207031 7
-0.047768001 4.497437 -10.297852 7
-0.012016 -1.294556 -10.360352 7
-0.013107 -1.322998 -10.363281 7
-0.015312 -1.3519289 -10.371094 7
-0.021782 -1.3837889 -10.402344 7
-0.012161 -1.405273 -10.348633 7
-0.012207 -1.433105 -10.344727 7
-0.015472 -1.4630131 -10.358398 7
-0.018723 -1.492798 -10.37207 7
-0.031654 -1.529541 -10.436523 7
-0.040282998 -1.563599 -10.478516 7
-0.028526001 -1.58313 -10.412109 7
-0.24492601 -4.4803472 -10.847656 7
-0.248215 -4.5151372 -10.853516 7
-0.24934401 -4.5462651 -10.848633 7
-0.25692701 -4.5892329 -10.875977 7
-0.25807199 -4.6202388 -10.871094 7
-0.25705001 -4.6472168 -10.854492 7
-0.250664 -4.6636958 -10.810547 7
-0.253952 -4.698853 -10.814453 7
-0.25723299 -4.7337651 -10.820312 7
-0.25408199 -4.7564702 -10.791992 7
-0.259514 -4.7957759 -10.80957 7
-0.050941002 4.7868652 -9.5390615 7
-0.048813 4.7562261 -9.5400391 7
-0.048804998 4.72998 -9.5517578 7
-0.046707001 4.6993408 -9.5507812 7
-0.032814 4.644043 -9.4921885 7
-0.018921001 4.5888672 -9.4355469 7
-0.018944001 4.5629878 -9.4462891 7
-0.022179 4.5437012 -9.4726562 7
-0.018982001 4.51123 -9.4667969 7
-0.022202 4.4918208 -9.4941406 7
-0.027557001 4.476562 -9.53125 7
-0.044684999 4.4847412 -9.6279297 7
-0.039131001 -1.5480959 -9.9501953 7
-0.044776998 -1.5788569 -9.9746094 7
-0.035858002 -1.599243 -9.9257812 7
-0.256439 -4.6912842 -10.21875 7
-0.25648499 -4.71875 -10.208984 7
-0.25992599 -4.752686 -10.212891 7
-0.26223001 -4.7844238 -10.211914 7
-0.36848399 -6.4042969 -10.008789 7
-0.367432 -6.4282231 -9.9882812 7
-0.36748499 -6.4553218 -9.9726562 7
-0.369827 -6.4876709 -9.9667969 7
-0.37326801 -6.5231929 -9.9667969 7
-0.39019799 -6.5931401 -10.025391 7
-0.400383 -6.6461182 -10.053711 7
-0.40380901 -6.6818848 -10.053711 7
-0.40389299 -6.7088618 -10.037109 7
-0.024635 -1.2930911 -9.4160156 7
-0.019997001 -1.315796 -9.3896484 7
-0.023552001 -1.343384 -9.4042969 7
-0.031769 -1.374023 -9.4404297 7
-0.036483999 -1.4024661 -9.4599609 7
-0.033004999 -1.425781 -9.4394531 7
-0.028365999 -1.448364 -9.4140615 7
-0.028403999 -1.473877 -9.4101562 7
-0.029617 -1.500122 -9.4121094 7
-0.033165 -1.527954 -9.4248047 7
-0.048409 -1.564209 -9.4951172 7
-0.053116001 -1.593262 -9.5146484 7
-0.38255301 -6.4168701 -9.4267578 7
-0.379089 -6.4335942 -9.3964844 7
-0.38151601 -6.4649658 -9.390625 7
-0.38159201 -6.490479 -9.3759766 7
-0.378113 -6.506958 -9.3457031 7
-0.377029 -6.5294189 -9.3242188 7
-0.38060799 -6.5637212 -9.3242188 7
-0.392418 -6.6191411 -9.3574219 7
-0.39833799 -6.659668 -9.3662109 7
-0.40427399 -6.7001948 -9.3740234 7
-0.26212299 -4.7587891 -9.0810547 7
-0.38042399 -6.4085689 -8.796875 7
-0.375595 -6.4204102 -8.7626953 7
-0.375664 -6.444458 -8.7470703 7
-0.38304099 -6.4868159 -8.7607422 7
-0.37824199 -6.4984131 -8.7265615 7
-0.37585399 -6.5161128 -8.7011719 7
-0.379601 -6.5491939 -8.6992188 7
-0.38700101 -6.5919189 -8.7119141 7
-0.40052 -6.650269 -8.75 7
-0.400581 -6.6743159 -8.734375 7
-0.40432 -6.70752 -8.7324219 7
-0.25327301 -4.5280762 -8.578125 7
-0.253326 -4.5517578 -8.5673828 7
-0.262321 -4.5919189 -8.59375 7
-0.26364899 -4.6177979 -8.5878906 7
-0.26753199 -4.6488042 -8.5917969 7
-0.27011099 -4.677124 -8.5917969 7
-0.26253501 -4.6860352 -8.5488281 7
-0.25845301 -4.7023931 -8.5214844 7
-0.255943 -4.7208252 -8.5009766 7
-0.25856799 -4.749146 -8.4990234 7
-0.26244399 -4.7800288 -8.5039062 7
-0.27386501 -4.7020259 -6.719727 7
-0.272423 -4.7183838 -6.704102 7
-0.269501 -4.731812 -6.6826172 7
-0.27848801 -4.768188 -6.7011719 7
-0.27109501 -4.7728271 -6.6650391 7
-0.26965299 -4.7888179 -6.6494141 7
-0.067809999 4.771606 -5.6806641 7
-0.070777997 4.7607422 -5.7011719 7
-0.075232998 4.7530522 -5.726562 7
-0.075218 4.7358398 -5.7373052 7
-0.070785999 4.7093511 -5.735352 7
-0.067818001 4.6861572 -5.7363281 7
-0.067809999 4.6690669 -5.7470698 7
-0.051529001 4.5498052 -5.75 7
-0.045616001 4.5206299 -5.7412109 7
-0.045616001 4.50354 -5.7519531 7
-0.044128001 4.4832759 -5.757812 7
-0.26326799 -4.4959722 -6.407227 7
-0.26023099 -4.508667 -6.3867192 7
-0.263374 -4.5327148 -6.3847661 7
-0.26650199 -4.5568848 -6.3837891 7
-0.260391 -4.5637212 -6.3535161 7
-0.26968399 -4.5991211 -6.3710942 7
-0.263565 -4.605957 -6.3408198 7
-0.272865 -4.641602 -6.358398 7
-0.27599299 -4.665771 -6.3574219 7
-0.27911401 -4.6898189 -6.3554692 7
-0.27915999 -4.7080078 -6.344727 7
-0.269981 -4.7086182 -6.304688 7
-0.27001199 -4.726685 -6.2939448 7
-0.271606 -4.7479248 -6.2871089 7
-0.26857799 -4.7601318 -6.266602 7
-0.27172101 -4.7840581 -6.264648 7
-0.27021 -4.7990718 -6.2480469 7
-0.069847003 4.5375981 -5.467773 7
-0.066765003 4.5148931 -5.469727 7
-0.063712999 4.492188 -5.4707031 7
-0.39373001 -6.4550781 -4.4755859 7
-0.397118 -6.4771729 -4.467773 7
-0.38885501 -6.4699712 -4.4335942 7
-0.38891599 -6.4837651 -4.4179692 7
-0.38565099 -6.4890141 -4.3945308 7
-0.394012 -6.5236821 -4.398438 7
-0.39073899 -6.5290532 -4.375977 7
-0.39411899 -6.5510249 -4.367188 7
-0.397499 -6.572998 -4.359375 7
-0.40087101 -6.5953369 -4.3505859 7
-0.40258801 -6.612915 -4.3388672 7
-0.40432 -6.6306152 -4.3261719 7
-0.40602899 -6.648315 -4.3144531 7
-0.407745 -6.6661382 -4.3017578 7
-0.41777799 -6.7050781 -4.3076172 7
-0.41783899 -6.7186279 -4.2919922 7
-0.39473 -6.4103999 -4.032227 7
-0.396492 -6.4274902 -4.0214839 7
-0.39482901 -6.4359131 -4.0029302 7
-0.39489001 -6.4486079 -3.9873049 7
-0.394943 -6.4611821 -3.9707029 7
-0.391541 -6.46521 -3.9472661 7
-0.38642901 -6.4647222 -3.920898 7
-0.384758 -6.473022 -3.9033201 7
-0.386536 -6.4897461 -3.891602 7
-0.386581 -6.5023189 -3.875977 7
-0.38663501 -6.514648 -3.860352 7
-0.38668799 -6.526978 -3.844727 7
-0.28999299 -4.744019 -4.782227 7
-0.284706 -4.7484131 -4.7587891 7
-0.28474399 -4.762939 -4.7470698 7
-0.28123501 -4.7703862 -4.7255859 7
-0.28482801 -4.791748 -4.7246089 7
0.087713003 -1.273823 -13.852229 7
-0.113851 -4.6220388 -12.568482 7
-0.27033201 -4.6850071 -10.238614 7
-0.010714 -1.601559 -7.1377878 7
-0.25739899 -4.7226052 -8.4309998 7
0.030315001 -1.4732161 -4.8964219 7
-0.038791001 -1.428 -4.139329 7
-0.071300998 -1.754253 -4.2984691 7
-0.31272799 -4.7149682 -4.7712221 7
-0.417173 -6.5511022 -4.1620131 7
-0.025074 -1.39231 -3.515137 7
-0.0051099998 -1.459311 -1.329157 7
-0.039034002 -1.7146651 -0.60268801 7
-0.023055 -1.674897 -0.386168 7
-0.044635002 -1.840461 -0.419471 7
-0.0058599999 4.6145511 -13.356999 7
-0.026071999 -1.113588 -15.296666 7
-0.001011 4.6101618 -14.167477 7
-0.077836998 4.5302448 -10.154046 7
-0.28325 -4.670732 -11.782501 7
-0.064544998 -1.408789 -7.9482422 7
-0.055089001 -1.666345 -7.7797408 7
-0.26173899 -4.674736 -9.7522001 7
-0.33819801 -6.4325109 -10.092865 7
0.023364 1.231504 -6.7964768 7
-0.035220001 -1.407632 -6.7499561 7
-0.035780001 -1.647177 -6.7067928 7
-0.217971 -4.7783198 -7.7927198 7
-0.007156 1.231351 -5.841136 7
-0.012897 1.044476 -5.9379458 7
-0.29175401 -4.7491741 -6.7019639 7
0.0086730001 1.2461309 -5.1982079 7
0.008657 1.073424 -5.2393379 7
0.020711999 1.256427 -4.695714 7
0.021438999 1.102738 -4.7322559 7
-0.037310001 -1.734143 -4.6856251 7
-0.26166499 -4.7355361 -4.7754288 7
-0.35409001 -6.4080982 -3.8731699 7
-0.057712 4.366385 -2.2908859 7
-0.011875 -1.384724 -4.300673 7
-0.015985001 -1.532547 -4.274456 7
-0.027148001 -1.705525 -4.2871432 7
0.00023400001 -1.374661 -3.95243 7
-0.0051270002 -1.512033 -3.931138 7
-0.018598 -1.353946 -3.4629869 7
-0.026363 -1.476614 -3.4459231 7
-0.012073 -1.3524179 -3.2527089 7
-0.021427 -1.471246 -3.2393091 7
-0.015126 -1.464371 -1.596459 7
-0.013299 -1.479925 -1.534243 7
-0.0094790002 -1.490853 -1.454801 7
-0.0042079999 -1.489491 -1.39007 7
-0.01973 -1.552008 -1.333673 7
-0.0093839997 -1.395524 -1.575384 7
-0.0076210001 -1.410351 -1.516095 7
-0.013029 -1.444397 -1.460921 7
-0.0076640001 -1.4434299 -1.3980089 7
-0.016356001 -1.485976 -1.325745 7
0.0052240002 -1.30585 -1.54807 7
-0.000485 -1.341031 -1.498041 7
0.004958 -1.341813 -1.438892 7
-0.00071499997 -1.372812 -1.385814 7
0.00099099998 -1.379818 -1.327906 7
0.0057600001 -1.3079751 -1.374619 7
0.0093649998 -1.309011 -1.318741 7
