# .PCD v0.7 - Point Cloud Data file format
VERSION 0.7
FIELDS x y z intensity
SIZE 4 4 4 4
TYPE F F F F
COUNT 1 1 1 1
WIDTH 666
HEIGHT 1
VIEWPOINT 0 0 0 1 0 0 0
POINTS 666
DATA ascii
0.247757 3.9211431 -72.353516 7
0.217476 3.804565 -73.509766 7
0.371216 4.0175781 -59.763672 7
0.28271499 4.0609131 -62.759766 7
0.33795199 3.7944341 -60.892578 7
0.290039 3.7407229 -62.513672 7
0.36041999 0.38159201 -60.069336 7
0.195007 -3.3487549 -58.520508 7
0.31088299 4.1055908 -54.946289 7
0.275841 4.0456538 -56.006836 7
0.22451 4.013916 -57.557617 7
0.28435501 3.7550049 -55.756836 7
0.25489801 3.6750491 -56.647461 7
0.110764 -2.985229 -54.395508 7
0.154686 -3.051147 -53.202148 7
0.186462 -3.130127 -52.335938 7
0.135414 -3.340332 -53.695312 7
0.16329999 -3.4233401 -52.93457 7
0.29280901 4.0628662 -49.362305 7
0.25081599 4.0294189 -50.499023 7
0.223557 3.960815 -51.237305 7
0.271088 3.742676 -49.962891 7
0.244881 3.6707759 -50.675781 7
0.171211 3.5526121 -52.666992 7
0.072273001 -2.9992681 -50.100586 7
0.120537 -3.049561 -48.914062 7
0.162323 -3.104248 -47.884766 7
0.107246 -3.308594 -49.213867 7
0.128181 -3.3935549 -48.692383 7
-1.041008 -4.913208 71.59082 7
-1.125526 -4.871582 73.446289 7
-0.940063 -1.857422 69.621094 7
-0.93261701 -1.691772 69.467773 7
0.236237 4.0196528 -45.969727 7
0.211197 3.957031 -46.585938 7
0.18949901 3.8848879 -47.119141 7
0.22953001 3.6937261 -46.148438 7
0.204018 3.627075 -46.776367 7
0.163651 3.5839839 -47.764648 7
0.27314001 0.269409 -45.380859 7
0.27275801 0.158691 -45.387695 7
0.23294801 -0.038695998 -41.644531 7
0.21346299 -0.142334 -42.071289 7
0.244507 -0.241699 -41.379883 7
-0.96253997 -4.9832759 64.068359 7
-1.03405 -4.9448242 65.507812 7
-1.0938801 -4.8823242 66.71582 7
-1.183853 -4.857666 68.524414 7
-0.90969801 -2.1231689 63.248047 7
-0.90219098 -1.972046 63.107422 7
-0.96105999 -1.860718 64.291992 7
-0.87620503 0.51147503 62.688477 7
-0.83457899 0.79126 61.860352 7
-0.86077899 3.692261 62.369141 7
-0.81128699 3.7745359 61.374023 7
0.20548999 4.1169429 -42.19043 7
0.16847201 4.0878911 -43.016602 7
0.144867 4.028687 -43.543945 7
0.122849 3.9641111 -44.038086 7
0.086585999 3.9237061 -44.844727 7
0.254013 0.56945801 -41.196289 7
0.21922299 0.47656199 -41.963867 7
0.231216 0.371216 -41.694336 7
0.196678 0.27343801 -42.456055 7
0.203758 0.064575002 -42.292969 7
0.173981 -0.15185501 -39.754883 7
0.216187 -0.24426299 -38.889648 7
0.221687 -0.43347201 -38.770508 7
-1.115883 -5.002686 62.478516 7
0.153053 4.2928472 -39.84082 7
0.142349 4.2165532 -40.067383 7
0.112785 4.1773682 -40.675781 7
0.076653004 4.1481929 -41.418945 7
0.045357 4.1062012 -42.063477 7
0.182053 0.62524402 -39.604492 7
0.20309401 0.522461 -39.172852 7
0.169525 0.433716 -39.857422 7
0.19972201 0.330933 -39.239258 7
0.161652 -0.318115 -36.371094 7
0.194763 -0.40075701 -35.75 7
0.201561 -0.48706099 -35.621094 7
0.189217 -0.578125 -35.848633 7
0.20918299 -0.65954602 -35.47168 7
-0.66725898 0.63903803 50.203125 7
-0.63395703 0.74597198 49.633789 7
-0.647789 0.86462402 49.87207 7
-0.71220398 3.827759 50.902344 7
-0.67176801 3.890137 50.206055 7
-0.63237 3.9508059 49.526367 7
0.465523 24.359375 19.864258 7
0.17977101 4.393188 -35.658203 7
0.16246 4.3417969 -35.988281 7
0.134781 4.3110352 -36.508789 7
0.115585 4.260376 -36.873047 7
0.088867001 4.2228999 -37.37793 7
0.050857998 4.2054439 -38.089844 7
0.230278 1.003662 -34.876953 7
0.20629901 0.92834502 -35.322266 7
0.22155 0.83471698 -35.037109 7
0.199753 0.756226 -35.443359 7
0.16321599 0.680664 -36.123047 7
0.15105399 -0.54357898 -33.634766 7
0.175301 -0.70080602 -33.210938 7
0.188004 -0.85888702 -32.984375 7
-0.60378999 0.68554699 45.71875 7
-0.58063501 0.78784198 45.342773 7
-0.602539 0.89904797 45.691406 7
-0.69147497 3.854248 47.025391 7
-0.640625 3.8924561 46.210938 7
-0.61219001 3.9586179 45.754883 7
-0.58447999 4.0238042 45.308594 7
0.40299201 22.747559 19.863281 7
0.15361001 4.4368901 -33.198242 7
0.13555101 4.393188 -33.516602 7
0.116447 4.3500981 -33.852539 7
0.091247998 4.3179932 -34.291016 7
0.069778003 4.2764888 -34.666016 7
0.20693199 1.1793211 -32.46875 7
0.203751 1.1005861 -32.524414 7
0.199432 0.94103998 -32.599609 7
0.172112 0.871948 -33.070312 7
0.131752 -0.79406703 -30.786133 7
0.150536 -0.862427 -30.485352 7
0.140221 -0.95874 -30.873047 7
0.15569299 -1.0271 -30.625 7
0.17374399 -1.0930181 -30.335938 7
-0.60758197 -2.1759031 42.229492 7
-0.638161 -2.102051 42.682617 7
-0.65640998 -2.016968 42.958008 7
-0.56564301 0.71984899 41.727539 7
-0.51969099 0.80188 41.054688 7
-0.56338501 0.91039997 41.695312 7
-0.51423597 0.98791498 40.974609 7
-0.621117 3.8587649 42.432617 7
-0.61420399 3.946533 42.325195 7
-0.57823902 3.991699 41.791992 7
-0.54268599 4.03479 41.264648 7
-0.55487102 4.1479492 41.435547 7
0.127892 4.500977 -30.663086 7
0.115623 4.4509282 -30.865234 7
0.101845 4.4030762 -31.088867 7
0.079567 4.3719478 -31.448242 7
0.054680001 4.3442378 -31.845703 7
0.059036002 4.2562261 -31.787109 7
0.18806501 1.240967 -29.938477 7
0.166069 1.179199 -30.28418 7
0.190796 1.090332 -29.896484 7
0.164352 1.029053 -30.3125 7
0.14608 0.96227998 -30.600586 7
0.13893899 -0.96728498 -28.769531 7
0.138855 -1.038574 -28.768555 7
0.139824 -1.180542 -28.743164 7
-0.52096599 0.75634801 38.632812 7
-0.50046498 0.838135 38.351562 7
-0.523682 0.933716 38.669922 7
-0.58577698 3.846802 39.407227 7
-0.58480799 3.9355471 39.386719 7
-0.55753303 3.986084 39.004883 7
-0.53958899 4.0487061 38.751953 7
-0.52336103 4.112793 38.521484 7
0.092041001 4.6413569 -29.019531 7
0.097496003 4.5568848 -28.949219 7
0.078437999 4.5253911 -29.238281 7
0.04583 4.447021 -29.733398 7
0.025947999 4.4133301 -30.033203 7
0.063446 4.263062 -29.493164 7
0.172813 1.23877 -28.09082 7
0.155663 1.178589 -28.344727 7
0.132935 1.1201169 -28.679688 7
0.152657 1.03833 -28.390625 7
0.095673002 -1.102051 -26.880859 7
0.125488 -1.218872 -26.466797 7
0.095337003 -1.303833 -26.873047 7
0.107651 -1.363037 -26.699219 7
-0.081528001 -4.2626948 -29.176758 7
-0.069603004 -4.3120122 -29.004883 7
-0.059852999 -4.3647461 -28.861328 7
-0.048354998 -4.4134521 -28.695312 7
-0.48773199 0.93530297 35.597656 7
-0.54693598 3.9399409 36.203125 7
-0.53995502 4.0123291 36.107422 7
-0.51294702 4.0540771 35.754883 7
-0.49276701 4.1048579 35.490234 7
0.085091002 4.7111821 -26.769531 7
0.095275998 4.62146 -26.642578 7
0.079391003 4.589355 -26.867188 7
0.068199001 4.5457759 -27.02832 7
0.051453002 4.5134282 -27.262695 7
0.029572001 4.4907231 -27.567383 7
0.015404 4.4506841 -27.769531 7
0.130836 1.567627 -26.435547 7
0.15429699 1.484253 -26.117188 7
0.140076 1.428589 -26.314453 7
0.15109301 1.3555911 -26.170898 7
0.145836 1.293335 -26.243164 7
0.094237998 -1.2937011 -25.208984 7
0.099212997 -1.353394 -25.142578 7
0.075263999 -1.432373 -25.442383 7
0.092139997 -1.4836431 -25.22168 7
0.089309998 -1.5487061 -25.25293 7
-0.078270003 -4.5109859 -27.017578 7
-0.078362003 -4.5780029 -27.006836 7
-0.462502 0.720581 33.152344 7
-0.46325701 0.871216 33.160156 7
-0.45198101 0.942505 33.024414 7
-0.51738697 3.8824461 33.647461 7
-0.51968402 3.9625239 33.667969 7
-0.49865699 4.00769 33.410156 7
-0.47718 4.0510249 33.145508 7
-0.458588 4.0975342 32.916016 7
0.150452 16.660522 19.917969 7
0.151573 16.696533 19.869141 7
0.071213 4.7425542 -25.008789 7
0.063362002 4.6967769 -25.117188 7
0.050919 4.6607671 -25.28418 7
0.039886001 4.6209722 -25.433594 7
0.024254 4.5899658 -25.639648 7
0.000374 4.575562 -25.950195 7
0.13646699 1.58374 -24.501953 7
0.105652 1.5448 -24.896484 7
0.12939499 1.465332 -24.595703 7
0.127289 1.394653 -24.826172 7
0.117607 1.338745 -24.953125 7
-0.102806 -4.4857178 -25.234375 7
-0.097961001 -4.5388179 -25.166016 7
-0.105087 -4.6785889 -25.224609 7
0.114677 1.544312 -22.897461 7
0.113106 1.487427 -22.918945 7
0.108566 1.4326169 -22.973633 7
0.116875 1.368896 -22.87793 7
0.124199 1.306396 -22.793945 7
0.060920998 -1.305176 -22.03418 7
0.064452998 -1.413452 -21.987305 7
0.040596001 -1.485352 -22.245117 7
0.051628001 -1.533203 -22.120117 7
0.038864002 -1.598145 -22.255859 7
-0.119377 -4.5732422 -23.586914 7
-0.114708 -4.6228032 -23.525391 7
0.041671999 4.7757568 -21.6875 7
0.043708999 4.716187 -21.675781 7
0.041556999 4.665771 -21.709961 7
0.107178 1.338623 -21.366211 7
0.047522999 -1.332642 -20.655273 7
0.05703 -1.37854 -20.552734 7
0.059792001 -1.428345 -20.519531 7
0.029778 -1.501099 -20.824219 7
0.046654001 -1.541382 -20.646484 7
0.047699001 -1.592651 -20.630859 7
-0.14754499 -4.4970698 -22.229492 7
-0.151581 -4.560791 -22.259766 7
-0.13924401 -4.592041 -22.12207 7
-0.135353 -4.639771 -22.071289 7
-0.134331 -4.6929932 -22.048828 7
-0.15876 -4.7983398 -22.28418 7
0.005692 4.7506099 -20.506836 7
-0.0050659999 4.7215581 -20.625977 7
-0.0079190005 4.6749272 -20.666992 7
-0.010788 4.6282959 -20.706055 7
-0.0085979998 4.5709229 -20.693359 7
0.107712 0.94714397 -19.892578 7
0.113838 0.89379901 -19.829102 7
0.108673 0.84533697 -19.882812 7
0.106354 0.79540998 -19.90918 7
0.113037 0.74218798 -19.839844 7
0.120308 0.68920898 -19.766602 7
0.028244 -1.312744 -19.514648 7
0.044388 -1.352051 -19.354492 7
0.046119999 -1.39978 -19.333984 7
0.028038001 -1.46106 -19.504883 7
0.024360999 -1.513062 -19.536133 7
0.030884 -1.5576169 -19.467773 7
-0.17472801 -4.4880371 -21.02832 7
-0.17842899 -4.547852 -21.050781 7
-0.17428599 -4.592773 -21.000977 7
-0.16776299 -4.63269 -20.925781 7
-0.16122399 -4.6723628 -20.852539 7
-0.176376 -4.755249 -20.984375 7
0.102341 0.31018099 -18.857422 7
0.109474 0.261475 -18.787109 7
0.113632 0.213379 -18.748047 7
0.115974 0.165527 -18.724609 7
0.115303 0.118042 -18.730469 7
0.111038 0.070556998 -18.771484 7
0.103188 0.022949001 -18.847656 7
0.021667 -1.328613 -18.287109 7
0.038857002 -1.3642581 -18.12793 7
0.040718 -1.409058 -18.105469 7
0.025299 -1.465698 -18.243164 7
0.018211 -1.516968 -18.302734 7
0.025177 -1.558594 -18.235352 7
0.028313 -1.6025389 -18.203125 7
-0.185913 -4.53125 -19.69043 7
-0.183441 -4.5761719 -19.65625 7
-0.174545 -4.608398 -19.566406 7
-0.17271399 -4.6541748 -19.538086 7
-0.17153201 -4.7011719 -19.515625 7
-0.18315899 -4.7739258 -19.606445 7
0.022766 4.6585689 -17.644531 7
0.0048520002 4.6513672 -17.814453 7
0.001625 4.6121831 -17.852539 7
-0.0067599998 4.5375981 -17.948242 7
-0.012543 4.5031738 -18.009766 7
0.01622 -1.301514 -17.234375 7
0.017502001 -1.344604 -17.219727 7
0.023552001 -1.384766 -17.165039 7
0.028229 -1.425537 -17.120117 7
-0.005692 -1.49231 -17.40625 7
0.004402 -1.529785 -17.316406 7
0.011795 -1.568481 -17.249023 7
-0.20455199 -4.5015869 -18.629883 7
-0.208023 -4.5552979 -18.648438 7
-0.19328301 -4.6210942 -18.500977 7
-0.189293 -4.6601558 -18.456055 7
-0.195503 -4.7191162 -18.494141 7
-0.207809 -4.7905269 -18.583984 7
-0.033661 4.645874 -17.013672 7
-0.036392 4.6075439 -17.046875 7
-0.041168001 4.5732422 -17.09668 7
-0.043915 4.534668 -17.129883 7
0.034118999 -0.84619099 -16.054688 7
0.035507001 -0.88671899 -16.041016 7
0.036171 -0.92761201 -16.033203 7
0.042571999 -0.96606398 -15.978516 7
0.047522999 -1.004639 -15.93457 7
0.034568999 -1.05188 -16.037109 7
0.02877 -1.095947 -16.080078 7
0.035179 -1.1337889 -16.026367 7
0.043007001 -1.1706541 -15.959961 7
0.040801998 -1.2130131 -15.974609 7
0.027100001 -1.261963 -16.081055 7
0.0098339999 -1.3137209 -16.21875 7
0.019081 -1.349365 -16.137695 7
0.019043 -1.390869 -16.134766 7
0.021133 -1.4306639 -16.113281 7
-0.0047610002 -1.489746 -16.319336 7
0.0066760001 -1.52356 -16.223633 7
0.0051799999 -1.566162 -16.231445 7
-0.20458201 -4.5106201 -17.422852 7
-0.21472199 -4.5744629 -17.492188 7
-0.204742 -4.599731 -17.402344 7
-0.201241 -4.637085 -17.362305 7
-0.197716 -4.674438 -17.324219 7
-0.19779199 -4.7185059 -17.311523 7
-0.206505 -4.7800288 -17.368164 7
0.0070949998 -1.281738 -15.265625 7
0.006271 -1.321655 -15.267578 7
0.013008 -1.395996 -15.209961 7
0.011429 -1.436157 -15.217773 7
-0.00544 -1.565918 -15.333984 7
-0.21580499 -4.5760498 -16.394531 7
-0.221191 -4.62854 -16.423828 7
-0.209869 -4.648315 -16.328125 7
-0.20774101 -4.7276611 -16.290039 7
-0.216171 -4.7861328 -16.339844 7
-0.013832 4.7183838 -14.676758 7
-0.001747 4.6541748 -14.598633 7
-0.001785 4.6160889 -14.608398 7
0.001205 4.5714111 -14.597656 7
-0.0041200002 4.544189 -14.648438 7
0.00312 -1.287354 -14.370117 7
0.014305 -1.317749 -14.286133 7
0.01104 -1.356934 -14.306641 7
0.011002 -1.394043 -14.303711 7
0.0077360002 -1.433228 -14.323242 7
-0.0043640002 -1.478516 -14.405273 7
-0.000397 -1.513062 -14.374023 7
-0.002876 -1.55188 -14.385742 7
-0.006935 -1.592041 -14.412109 7
-0.211372 -4.512939 -15.332031 7
-0.2211 -4.5706792 -15.387695 7
-0.22036 -4.6087651 -15.37207 7
-0.21400499 -4.6358638 -15.316406 7
-0.211678 -4.670898 -15.288086 7
-0.210136 -4.7070308 -15.266602 7
-0.21102101 -4.7480469 -15.260742 7
-0.037703998 4.7980962 -13.860352 7
-0.032935999 4.7514648 -13.838867 7
-0.010551 4.6673579 -13.695312 7
-0.0073930002 4.6245122 -13.683594 7
-0.0090180002 4.5917969 -13.706055 7
-0.016257999 4.5708008 -13.765625 7
-0.0187 4.5394292 -13.792969 7
-0.022713 4.5114751 -13.832031 7
-0.033950999 4.4979248 -13.919922 7
0.0062179998 -1.29126 -13.549805 7
-0.0065000001 -1.334229 -13.633789 7
0.00019799999 -1.365356 -13.583984 7
0.00605 -1.396973 -13.540039 7
0.0034789999 -1.43396 -13.554688 7
-0.0024870001 -1.473267 -13.59082 7
-0.017731 -1.519043 -13.691406 7
-0.0084990002 -1.548218 -13.624023 7
-0.01107 -1.5855711 -13.637695 7
-0.215042 -4.516602 -14.450195 7
-0.22187001 -4.566772 -14.484375 7
-0.22787499 -4.6157231 -14.511719 7
-0.219467 -4.6369629 -14.446289 7
-0.22039799 -4.6759028 -14.44043 7
-0.21962699 -4.711792 -14.423828 7
-0.220551 -4.7507319 -14.416992 7
0.0045389999 -1.294189 -12.808594 7
-0.0079269996 -1.335327 -12.885742 7
-0.0061869998 -1.367798 -12.87207 7
0.002625 -1.395874 -12.810547 7
-0.00097699999 -1.4317631 -12.830078 7
0.002533 -1.462891 -12.803711 7
-0.019699 -1.5118411 -12.944336 7
-0.019753 -1.545532 -12.94043 7
-0.01004 -1.5723881 -12.874023 7
-0.22341201 -4.4825439 -13.660156 7
-0.22971299 -4.5297852 -13.686523 7
-0.238693 -4.582397 -13.731445 7
-0.23696899 -4.6147461 -13.709961 7
-0.229927 -4.6365972 -13.654297 7
-0.22643299 -4.6652832 -13.621094 7
-0.228287 -4.7042241 -13.620117 7
-0.22836301 -4.739624 -13.609375 7
-0.231102 -4.780273 -13.614258 7
0.00103 -1.362305 -12.143555 7
0.00093099999 -1.426147 -12.136719 7
-0.00103 -1.491333 -12.141602 7
-0.242493 -4.541626 -12.983398 7
-0.228569 -4.5491939 -12.889648 7
-0.242622 -4.6094971 -12.960938 7
-0.236168 -4.6307368 -12.912109 7
-0.230629 -4.6539311 -12.868164 7
-0.235367 -4.6965332 -12.883789 7
-0.238235 -4.7358398 -12.888672 7
-0.23458099 -4.762085 -12.856445 7
-0.23557299 -4.797729 -12.850586 7
-0.0022740001 -1.296509 -11.496094 7
-0.0042570001 -1.328125 -11.503906 7
-0.006271 -1.359619 -11.511719 7
-0.014153 -1.395264 -11.554688 7
-0.002449 -1.418213 -11.482422 7
-0.0024949999 -1.448608 -11.479492 7
-0.004501 -1.480225 -11.487305 7
-0.0074919998 -1.512695 -11.5 7
-0.021233 -1.552856 -11.576172 7
-0.022263 -1.583984 -11.578125 7
-0.230621 -4.4868159 -12.142578 7
-0.237526 -4.5316162 -12.171875 7
-0.24250001 -4.572876 -12.1875 7
-0.245506 -4.6107178 -12.193359 7
-0.25047299 -4.6522222 -12.209961 7
-0.241707 -4.6672359 -12.150391 7
-0.24375901 -4.703125 -12.148438 7
-0.24381299 -4.7349849 -12.137695 7
-0.24290501 -4.7648931 -12.121094 7
-0.24394999 -4.7988281 -12.114258 7
-0.0095290001 -1.300781 -10.955078 7
-0.009567 -1.329834 -10.952148 7
-0.009598 -1.359009 -10.949219 7
-0.015784999 -1.391968 -10.980469 7
-0.0066149998 -1.415405 -10.924805 7
-0.0097270003 -1.446411 -10.939453 7
-0.010788 -1.4761961 -10.941406 7
-0.009819 -1.504639 -10.931641 7
-0.034393001 -1.550781 -11.06543 7
-0.02832 -1.575928 -11.027344 7
-0.24845099 -4.6842041 -11.503906 7
-0.24853501 -4.7147222 -11.491211 7
-0.251663 -4.750977 -11.49707 7
-0.24968 -4.7774658 -11.473633 7
-0.048988 4.7741699 -10.175781 7
-0.047981001 4.7443848 -10.181641 7
-0.042908002 4.705811 -10.166016 7
-0.023529001 4.6374512 -10.075195 7
-0.017441001 4.597168 -10.053711 7
-0.021523001 4.5782471 -10.085938 7
-0.024597 4.5571289 -10.112305 7
-0.027672 4.5357671 -10.139648 7
-0.027687 4.5081792 -10.150391 7
-0.030777 4.4865718 -10.176758 7
-0.013702 -1.295288 -10.375 7
-0.013733 -1.32312 -10.37207 7
-0.010559 -1.348755 -10.351562 7
-0.022407999 -1.384033 -10.411133 7
-0.020279 -1.4104 -10.396484 7
-0.011742 -1.4326169 -10.348633 7
-0.011787 -1.460205 -10.344727 7
-0.017189 -1.4918211 -10.370117 7
-0.024757 -1.52478 -10.405273 7
-0.034453999 -1.5593261 -10.453125 7
-0.031265002 -1.585083 -10.432617 7
-0.24240901 -4.5036621 -10.829102 7
-0.24569701 -4.5385742 -10.834961 7
-0.25113699 -4.5773931 -10.850586 7
-0.252258 -4.608521 -10.845703 7
-0.25879699 -4.6496582 -10.867188 7
-0.25453201 -4.6704102 -10.833984 7
-0.25245699 -4.6949458 -10.8125 7
-0.25253299 -4.723877 -10.800781 7
-0.252579 -4.752686 -10.790039 7
-0.25373101 -4.7835689 -10.78418 7
-0.36228201 -6.4211431 -10.635742 7
-0.35804 -6.4388428 -10.599609 7
-0.36459401 -6.483398 -10.615234 7
-0.36682099 -6.517334 -10.610352 7
-0.37766999 -6.5732422 -10.644531 7
-0.39067799 -6.6351318 -10.689453 7
-0.39397401 -6.671875 -10.688477 7
-0.39405099 -6.700439 -10.672852 7
-0.039558001 4.4702148 -9.5810547 7
-0.034355 -1.677979 -9.9101562 7
-0.25661501 -4.6903081 -10.22168 7
-0.25779 -4.7199712 -10.21582 7
-0.25898001 -4.7495122 -10.209961 7
-0.25903299 -4.776978 -10.199219 7
-0.373817 -6.4136958 -10.029297 7
-0.36601999 -6.4206538 -9.9785156 7
-0.362701 -6.4390869 -9.9492188 7
-0.36727899 -6.4771729 -9.953125 7
-0.36735499 -6.5040278 -9.9375 7
-0.37304699 -6.5452881 -9.9482422 7
-0.385506 -6.6037598 -9.9863281 7
-0.39231101 -6.6480708 -10.000977 7
-0.396889 -6.686523 -10.005859 7
-0.399216 -6.7192378 -9.9990234 7
-0.017113 -1.28833 -9.3837891 7
-0.022987001 -1.317261 -9.4101562 7
-0.024193 -1.343384 -9.4130859 7
-0.024231 -1.369019 -9.4101562 7
-0.028945999 -1.397339 -9.4287109 7
-0.032485999 -1.425171 -9.4423828 7
-0.025528001 -1.446045 -9.4052734 7
-0.025543001 -1.47168 -9.4023438 7
-0.030266 -1.500244 -9.4208984 7
-0.020966001 -1.519287 -9.3701172 7
-0.038527999 -1.557007 -9.453125 7
-0.052597001 -1.5925291 -9.5175781 7
-0.267441 -4.7667241 -9.1044922 7
-0.262611 -4.7818599 -9.0722656 7
-0.245667 -4.5124512 -8.5498047 7
-0.255943 -4.5550542 -8.5800781 7
-0.253456 -4.57373 -8.5595703 7
-0.258614 -4.606812 -8.5693359 7
-0.25614199 -4.6252441 -8.5458984 7
-0.267654 -4.6707759 -8.5820312 7
-0.26389301 -4.6868901 -8.5556641 7
-0.257568 -4.6981201 -8.5185547 7
-0.25379899 -4.7141109 -8.4921885 7
-0.25386801 -4.7374272 -8.4814453 7
-0.25776699 -4.7680659 -8.4853516 7
-0.26036099 -4.7963872 -8.484375 7
-0.382828 -6.4119868 -7.5869141 7
-0.38553599 -6.4399409 -7.5810552 7
-0.376297 -6.4376221 -7.5332031 7
-0.37902799 -6.465332 -7.5263672 7
-0.37511399 -6.4761958 -7.4980469 7
-0.379181 -6.5073242 -7.4951172 7
-0.37923399 -6.5281978 -7.4804692 7
-0.37929499 -6.5491939 -7.4648442 7
-0.38600901 -6.5871582 -7.4726558 7
-0.39804101 -6.6387939 -7.4970698 7
-0.394135 -6.6494141 -7.46875 7
-0.40217599 -6.69104 -7.4794922 7
-0.26265699 -4.4992681 -7.6582031 7
-0.26687601 -4.5283198 -7.6621089 7
-0.265549 -4.5471191 -7.6464839 7
-0.26143599 -4.5605469 -7.6210942 7
-0.26564801 -4.5896001 -7.625 7
-0.26846299 -4.6160889 -7.624023 7
-0.26714301 -4.6347661 -7.608398 7
-0.26856199 -4.6586909 -7.6025391 7
-0.27555099 -4.6931152 -7.6162109 7
-0.270073 -4.7038569 -7.5849609 7
-0.26182601 -4.7087402 -7.5439448 7
-0.260483 -4.7272949 -7.5273442 7
-0.26055899 -4.748291 -7.515625 7
-0.264763 -4.7773442 -7.5195308 7
-0.044326998 4.4530029 -6.570312 7
-0.045692001 4.436646 -6.585938 7
-0.044334002 4.4147949 -6.5917969 7
-0.052581999 4.4118652 -6.6318359 7
-0.055344 4.3978271 -6.6523442 7
-0.060844 4.3892822 -6.6826172 7
-0.058098 4.364502 -6.6826172 7
-0.056731999 4.3425288 -6.6875 7
-0.052604999 4.315063 -6.6826172 7
-0.049865998 4.2904048 -6.6835942 7
-0.048508 4.2684331 -6.6875 7
-0.047127001 4.24646 -6.6933589 7
-0.049881 4.2320561 -6.7138672 7
-0.047150001 4.2076421 -6.7128911 7
-0.25872001 -4.4849849 -6.3935552 7
-0.261917 -4.5273442 -6.3818359 7
-0.257355 -4.5369868 -6.3564448 7
-0.268181 -4.575439 -6.3798828 7
-0.265167 -4.5881348 -6.358398 7
-0.26828799 -4.6121831 -6.358398 7
-0.27141601 -4.6361079 -6.3564448 7
-0.269936 -4.6516109 -6.3408198 7
-0.277679 -4.6845698 -6.3544922 7
-0.27619901 -4.6998291 -6.3369141 7
-0.27934301 -4.7237549 -6.3349609 7
-0.274773 -4.7330322 -6.3095698 7
-0.273285 -4.7484131 -6.2939448 7
-0.271797 -4.7634282 -6.2773442 7
-0.27492499 -4.787354 -6.2753911 7
-0.394081 -6.4510498 -4.4785161 7
-0.39746901 -6.4733891 -4.469727 7
-0.394196 -6.4787598 -4.4472661 7
-0.38427699 -6.4674072 -4.4082031 7
-0.37767801 -6.4642329 -4.3789058 7
-0.38106501 -6.4862061 -4.3701172 7
-0.38610801 -6.5124512 -4.3662109 7
-0.391159 -6.5385742 -4.3623052 7
-0.38956499 -6.547852 -4.342773 7
-0.38628399 -6.552856 -4.3183589 7
-0.384682 -6.5621338 -4.2998052 7
-0.386406 -6.579834 -4.2871089 7
-0.38478899 -6.5887451 -4.2685552 7
-0.39317301 -6.6235352 -4.2714839 7
-0.40818799 -6.6755371 -4.289062 7
-0.41657999 -6.7103271 -4.2900391 7
-0.40831 -6.702148 -4.2568359 7
-0.27546701 -4.6556401 -4.7939448 7
-0.26308399 -4.646606 -4.7519531 7
-0.282684 -4.6982422 -4.789062 7
-0.28449199 -4.7163091 -4.7841802 7
-0.28810099 -4.7376709 -4.78125 7
-0.282814 -4.7419429 -4.7558589 7
-0.28109699 -4.7529302 -4.7392578 7
-0.28114301 -4.7672119 -4.7275391 7
-0.28118899 -4.7817378 -4.7167969 7
0.066954002 -1.384553 -11.259064 7
-0.418744 -6.3908 -11.04131 7
-0.022880999 -1.716879 -7.232636 7
0.0061130002 -1.62764 -5.9143548 7
-0.037723001 -1.5039001 -4.1141591 7
-0.30218601 -4.7617879 -4.654026 7
-0.045377001 -1.75394 -3.5674319 7
-0.291531 -4.7566772 -3.861372 7
-0.270603 -4.7106562 -3.1149769 7
-0.01117 4.6339049 -13.446515 7
-0.016573001 -1.237973 -15.018707 7
-0.154709 -4.6313968 -18.799885 7
-0.010489 4.556488 -14.45705 7
-0.075652003 -1.680185 -10.772752 7
-0.29352099 -4.652071 -14.279506 7
-0.084618002 4.4841499 -10.29985 7
-0.04651 -1.659364 -8.7565708 7
-0.027378 -1.644213 -7.4136329 7
-0.25733599 -4.742075 -9.6623135 7
-0.37983301 -6.436357 -10.718672 7
-0.052615002 4.4453068 -6.6950712 7
-0.015437 -1.637063 -6.467752 7
-0.054579999 -1.619074 -5.717648 7
-0.082765996 -1.912711 -5.9030762 7
-0.45166501 -6.4402261 -7.3794999 7
0.012392 1.193217 -5.1759129 7
0.0099309999 1.027196 -5.2371821 7
-0.31197399 -4.7171831 -6.1117988 7
-0.067491002 4.4585438 -3.2149911 7
-0.075107999 4.4018998 -3.417299 7
0.020659 1.218717 -4.707262 7
0.024878001 1.0563819 -4.7141132 7
-0.0095870001 -1.3780659 -4.2855492 7
-0.020872001 -1.5481499 -4.3062158 7
-0.254866 -4.6593862 -4.0645862 7
-0.25221801 -4.7852941 -3.8712721 7
-0.0076239998 -1.397952 -3.999825 7
-0.017227 -1.551034 -4.0027461 7
-0.28760999 -4.65552 -3.0693901 7
-0.059944 -1.7065049 -3.7431729 7
