# .PCD v0.7 - Point Cloud Data file format
VERSION 0.7
FIELDS x y z intensity
SIZE 4 4 4 4
TYPE F F F F
COUNT 1 1 1 1
WIDTH 644
HEIGHT 1
VIEWPOINT 0 0 0 1 0 0 0
POINTS 644
DATA ascii
0.277679 3.846313 -71.345703 7
0.36679801 3.905273 -60.05957 7
0.36228201 3.621582 -60.21875 7
0.287949 3.6164551 -62.738281 7
0.231544 3.5666499 -64.65332 7
0.353531 0.25146499 -60.456055 7
0.19081099 -3.0892329 -58.708984 7
0.229195 -3.1690669 -57.539062 7
0.27388799 3.934814 -56.185547 7
0.242027 3.861084 -57.152344 7
0.28880301 3.631958 -55.743164 7
0.25498199 3.5583501 -56.766602 7
0.183083 3.547241 -58.941406 7
0.104317 -3.0106201 -54.600586 7
0.144081 -3.082886 -53.517578 7
0.185829 -3.146729 -52.382812 7
0.131935 -3.362061 -53.817383 7
0.247261 3.9337161 -50.693359 7
0.223083 3.8570559 -51.350586 7
0.27314001 3.63623 -50.005859 7
0.239426 3.5758059 -50.918945 7
0.191414 3.536377 -52.216797 7
0.069756001 -3.1395259 -50.180664 7
0.119423 -3.1846919 -48.958008 7
-1.033783 -4.7310791 71.332031 7
-1.121384 -4.6899409 73.251953 7
-0.92662001 -1.6882319 69.226562 7
-0.98689997 -1.5526119 70.623047 7
-0.93883502 0.087035999 69.641602 7
-0.85585803 0.24218801 67.833008 7
0.210747 3.9761961 -46.666016 7
0.182678 3.9165039 -47.358398 7
0.223427 3.6091311 -46.373047 7
0.177917 3.5765381 -47.490234 7
0.261154 0.14672901 -45.72168 7
0.26171899 0.035399999 -45.704102 7
0.226082 -0.029053001 -41.861328 7
0.204826 -0.133301 -42.329102 7
0.231323 -0.234009 -41.738281 7
0.25518 -0.33239701 -41.204102 7
-0.95179701 -4.96106 63.762695 7
-1.02607 -4.9276118 65.255859 7
-1.079231 -4.8555908 66.328125 7
-1.178406 -4.8448491 68.317383 7
-0.89144099 -2.109863 62.796875 7
-0.882164 -1.958374 62.621094 7
-0.940216 -1.8479 63.789062 7
-0.86680597 0.50695801 62.417969 7
-0.83354902 0.64465302 61.755859 7
-0.80173498 0.77929699 61.123047 7
-0.859505 3.6923831 62.316406 7
-0.81083697 3.7757571 61.337891 7
0.60720098 27.770264 19.499023 7
0.20125601 4.1434331 -42.348633 7
0.16847999 4.105835 -43.081055 7
0.141251 4.053833 -43.69043 7
0.12294 3.981812 -44.101562 7
0.079102002 3.955811 -45.079102 7
0.246529 0.58215302 -41.424805 7
0.217621 0.48754901 -42.064453 7
0.22380801 0.383057 -41.924805 7
0.19013201 0.28479001 -42.667969 7
0.19009399 0.075317003 -42.662109 7
0.16627499 -0.16406199 -39.954102 7
0.20015 -0.25744599 -39.256836 7
0.168816 -0.35913101 -39.892578 7
0.199844 -0.449707 -39.254883 7
-1.056656 -4.9078369 61.294922 7
-1.099983 -4.829834 62.111328 7
-0.81626898 0.73327601 57.226562 7
-0.73289502 0.97021502 55.679688 7
-0.812729 3.907104 57.121094 7
-0.74095201 3.942749 55.78125 7
0.136108 4.1459961 -40.245117 7
0.108589 4.1009521 -40.8125 7
0.081084996 4.0534668 -41.381836 7
0.047012001 4.0153809 -42.084961 7
0.012352 3.97522 -42.798828 7
0.19868501 0.51281703 -39.307617 7
0.156837 0.42517099 -40.162109 7
0.157738 -0.41894501 -36.475586 7
0.187988 -0.50085402 -35.907227 7
0.19981401 -0.76098597 -35.674805 7
-0.92173803 -4.9489751 54.126953 7
-0.66220897 0.75085402 50.05957 7
-0.62988299 0.856323 49.508789 7
-0.63524598 0.97729498 49.640625 7
-0.71240997 3.9428711 50.893555 7
-0.66412401 3.9927981 50.0625 7
-0.62741899 4.0554199 49.429688 7
0.176826 4.3266602 -35.759766 7
0.16046099 4.2724609 -36.073242 7
0.13942 4.22644 -36.472656 7
0.109924 4.1959229 -37.02832 7
0.088867001 4.145874 -37.428711 7
0.046546999 4.1351318 -38.223633 7
0.028914999 4.0739751 -38.558594 7
0.223427 0.93017602 -35.041992 7
0.19638801 0.85510302 -35.547852 7
0.215996 0.75964397 -35.181641 7
0.19518299 0.679443 -35.569336 7
0.16527601 0.600586 -36.125 7
0.14226501 -0.63903803 -33.81543 7
0.167946 -0.713135 -33.369141 7
0.18343399 -0.78918499 -33.097656 7
0.16190299 -0.88012701 -33.463867 7
0.178757 -0.95446801 -33.168945 7
-0.592354 0.78955102 45.523438 7
-0.55892903 0.98681599 44.994141 7
-0.63012701 3.9819341 46.033203 7
-0.601677 4.0465088 45.576172 7
-0.57727098 4.1149902 45.182617 7
0.141647 4.4776611 -33.436523 7
0.13001999 4.4195561 -33.643555 7
0.115364 4.367065 -33.904297 7
0.095954999 4.322876 -34.245117 7
0.068741001 4.2930908 -34.719727 7
0.19918101 1.193481 -32.632812 7
0.176544 1.043213 -33.023438 7
0.194756 0.952393 -32.709961 7
0.167465 0.883057 -33.179688 7
0.16397101 0.80212402 -33.241211 7
0.162834 -1.1081541 -30.535156 7
-0.597305 -2.1669919 42.036133 7
-0.62233001 -2.089355 42.408203 7
-0.65615797 -2.0162351 42.90918 7
-0.52392602 0.80090302 41.077148 7
-0.56604803 0.908813 41.694336 7
-0.507263 0.98303199 40.833008 7
-0.62027001 3.953125 42.411133 7
-0.58232099 3.995728 41.850586 7
-0.539177 4.0279541 41.211914 7
-0.51713598 4.0892329 40.882812 7
0.122566 4.526001 -30.773438 7
0.111404 4.4733891 -30.958008 7
0.095054999 4.4309082 -31.22168 7
0.075751998 4.393311 -31.533203 7
0.049065001 4.3693848 -31.960938 7
0.038612001 4.310791 -32.132812 7
0.17541499 1.257324 -30.160156 7
0.15717299 1.192871 -30.448242 7
0.179291 1.10498 -30.101562 7
0.160301 1.039673 -30.401367 7
0.137962 0.97448701 -30.753906 7
0.109062 -0.98999 -29.235352 7
0.124817 -1.0543211 -29 7
0.13898499 -1.11853 -28.787109 7
0.111511 -1.205933 -29.1875 7
0.13636801 -1.262695 -28.816406 7
-0.076583996 -4.2159419 -31.638672 7
-0.068764001 -4.2790532 -31.512695 7
-0.052604999 -4.325439 -31.264648 7
-0.037246998 -4.3721919 -31.029297 7
-0.59600103 -2.033325 39.529297 7
-0.60649902 -1.950317 39.679688 7
-0.51478601 1.0174561 38.545898 7
-0.47602099 1.089478 38.010742 7
-0.58184099 4.0195308 39.335938 7
-0.52476501 4.1130371 38.540039 7
-0.51148999 4.1806641 38.350586 7
0.079575002 4.6087651 -29.232422 7
0.092133 4.508667 -29.058594 7
0.063202001 4.4971919 -29.492188 7
0.042465001 4.392334 -29.8125 7
0.017471001 4.3682861 -30.186523 7
0.132019 1.272217 -28.709961 7
0.16199499 1.183105 -28.268555 7
0.14726301 1.120361 -28.487305 7
0.123001 1.061523 -28.84668 7
0.115921 -1.019531 -26.626953 7
0.095252998 -1.097046 -26.905273 7
0.096855 -1.163574 -26.878906 7
0.115196 -1.2199709 -26.625 7
0.107361 -1.291626 -26.726562 7
-0.085701004 -4.2783198 -29.245117 7
-0.051750001 -4.4277339 -28.750977 7
-0.458565 0.843018 35.197266 7
-0.485367 0.932495 35.540039 7
-0.53997803 3.9287109 36.115234 7
-0.54075599 4.012085 36.117188 7
-0.50917798 4.0473628 35.708008 7
-0.488998 4.0977778 35.444336 7
-0.475182 4.157104 35.259766 7
0.067978002 4.7619629 -27.017578 7
0.094397999 4.635498 -26.671875 7
0.077255003 4.605957 -26.914062 7
0.060943998 4.5734859 -27.143555 7
0.052329998 4.5236821 -27.269531 7
0.030029001 4.5018311 -27.580078 7
0.011612 4.4705811 -27.838867 7
0.138145 1.570435 -26.353516 7
0.146606 1.498047 -26.241211 7
0.134537 1.4406739 -26.407227 7
0.14771301 1.3656009 -26.229492 7
0.133499 1.3087161 -26.425781 7
0.115448 1.253418 -26.672852 7
0.090178996 -1.3037111 -25.28418 7
0.096038997 -1.362915 -25.206055 7
0.068397999 -1.44458 -25.551758 7
0.081169002 -1.4992681 -25.385742 7
0.090232998 -1.555542 -25.264648 7
-0.103973 -4.362793 -27.371094 7
-0.108253 -4.4387212 -27.411133 7
-0.079079002 -4.5162349 -27.021484 7
-0.075980999 -4.5767822 -26.970703 7
-0.43651599 0.86132801 32.839844 7
-0.409637 0.92614698 32.516602 7
-0.41380301 1.075562 32.56543 7
-0.48522201 3.910522 33.257812 7
-0.52005798 4.0380859 33.665039 7
-0.49903899 4.0826421 33.40625 7
-0.46975699 4.1134028 33.048828 7
-0.45069101 4.1584468 32.814453 7
0.059280001 4.7172852 -25.180664 7
0.058754001 4.6549072 -25.198242 7
0.046799 4.61731 -25.358398 7
0.033477999 4.581543 -25.536133 7
0.016479 4.5532231 -25.758789 7
-0.001427 4.5253911 -25.995117 7
0.125122 1.537964 -24.658203 7
0.101677 1.4925539 -24.958008 7
0.120285 1.3927 -24.951172 7
0.108299 1.338135 -25.105469 7
0.071563996 -1.339233 -23.595703 7
0.080840997 -1.39209 -23.480469 7
0.067916997 -1.459717 -23.628906 7
0.062378 -1.522705 -23.689453 7
0.068213999 -1.577637 -23.616211 7
-0.118561 -4.5230708 -25.428711 7
-0.109261 -4.5678711 -25.30957 7
-0.101959 -4.6159668 -25.211914 7
-0.093162999 -4.660645 -25.098633 7
-0.109131 -4.756104 -25.269531 7
0.10817 1.55603 -22.979492 7
0.100708 1.503296 -23.071289 7
0.113945 1.435547 -22.916992 7
0.115829 1.3762209 -22.896484 7
0.105881 1.324707 -23.016602 7
0.044952001 -1.322021 -22.233398 7
0.057014 -1.369873 -22.094727 7
0.061684001 -1.422119 -22.039062 7
0.036224 -1.495239 -22.316406 7
0.045646999 -1.544312 -22.208008 7
0.047667999 -1.5986331 -22.180664 7
-0.140633 -4.5588379 -23.827148 7
-0.131218 -4.5993652 -23.712891 7
-0.124451 -4.64502 -23.626953 7
-0.125618 -4.7064209 -23.62793 7
-0.140579 -4.796021 -23.776367 7
0.034263998 4.7469478 -21.78418 7
0.042624999 4.6734619 -21.703125 7
0.029929999 4.6456299 -21.851562 7
0.025658 4.5992432 -21.908203 7
0.017174 4.5612788 -22.011719 7
0.0034099999 4.5340581 -22.170898 7
0.095596001 1.243286 -21.5 7
0.107681 1.1817631 -21.369141 7
0.102867 1.130127 -21.424805 7
0.091170996 1.081421 -21.554688 7
0.106926 1.019165 -21.382812 7
0.11319 0.96179199 -21.314453 7
0.053009 -1.283325 -20.623047 7
0.048409 -1.338257 -20.666016 7
0.056793001 -1.3848881 -20.576172 7
0.060660999 -1.434204 -20.53125 7
0.031189 -1.50647 -20.831055 7
0.044105999 -1.549561 -20.692383 7
0.050232001 -1.597046 -20.625 7
-0.153671 -4.514648 -22.302734 7
-0.15095501 -4.565063 -22.264648 7
-0.14312699 -4.6053472 -22.173828 7
-0.13871799 -4.651978 -22.116211 7
-0.14222699 -4.7142329 -22.139648 7
0.106659 0.59728998 -19.911133 7
0.112221 0.54492199 -19.853516 7
0.119492 0.49255401 -19.77832 7
0.123367 0.44116199 -19.737305 7
0.121597 0.390991 -19.756836 7
0.119835 0.340942 -19.774414 7
0.023117 -1.371338 -19.580078 7
0.022278 -1.5205081 -19.576172 7
0.025208 -1.567871 -19.542969 7
0.028725 -1.614624 -19.503906 7
0.036460999 -1.657837 -19.425781 7
-0.18193799 -4.5571289 -21.083984 7
-0.176125 -4.6514888 -21.005859 7
-0.173813 -4.699585 -20.97168 7
-0.16732 -4.7388921 -20.896484 7
0.091124997 0.30615199 -18.992188 7
0.098251 0.25732401 -18.921875 7
0.101189 0.20886201 -18.894531 7
0.098709002 0.161255 -18.917969 7
0.10218 0.065186001 -18.882812 7
0.111115 0.01709 -18.794922 7
0.072250001 -0.33007801 -17.686523 7
0.076653004 -0.37487799 -17.644531 7
0.083626002 -0.41894501 -17.580078 7
0.086104997 -0.46362299 -17.554688 7
0.084114 -0.50927699 -17.570312 7
0.082764 -0.554932 -17.581055 7
0.083961003 -0.59973103 -17.567383 7
0.023209 -1.333618 -18.292969 7
0.034003999 -1.373047 -18.191406 7
0.037131999 -1.417114 -18.15918 7
0.025543001 -1.471191 -18.259766 7
0.017792 -1.522949 -18.326172 7
0.022834999 -1.565796 -18.276367 7
0.026573 -1.609375 -18.236328 7
-0.192238 -4.5480962 -19.757812 7
-0.187225 -4.5881348 -19.701172 7
-0.17833699 -4.6203609 -19.611328 7
-0.173325 -4.6599121 -19.553711 7
-0.170845 -4.7043462 -19.519531 7
-0.183777 -4.7794189 -19.62207 7
-0.011612 4.7875981 -17.939453 7
0.013847 4.6864009 -17.724609 7
0.015083 4.637939 -17.724609 7
0.0086439997 4.605835 -17.791016 7
-0.001587 4.5814209 -17.892578 7
-0.0092850002 4.55127 -17.97168 7
-0.027817 4.5429692 -18.146484 7
-0.037422001 4.5157471 -18.243164 7
0.049362 -0.67956501 -17.013672 7
0.055381998 -0.72094703 -16.958984 7
0.051261999 -0.76574701 -16.992188 7
0.057944998 -0.80651897 -16.930664 7
0.051125001 -0.852539 -16.988281 7
0.050377 -0.89624 -16.992188 7
0.053017002 -0.93835402 -16.96582 7
0.015892001 -1.307007 -17.256836 7
0.0043179998 -1.358276 -17.352539 7
0.015747 -1.394897 -17.25 7
0.021088 -1.435547 -17.200195 7
0.016945001 -1.4823 -17.232422 7
-0.006813 -1.542969 -17.430664 7
0.0039289999 -1.579468 -17.333984 7
-0.198769 -4.4925542 -18.582031 7
-0.20022599 -4.5422359 -18.583008 7
-0.204384 -4.59729 -18.606445 7
-0.202461 -4.6405029 -18.578125 7
-0.201866 -4.6864009 -18.561523 7
-0.191788 -4.7133789 -18.46582 7
-0.194611 -4.7657471 -18.477539 7
0.030731 -0.976318 -16.094727 7
0.026374999 -1.019653 -16.12793 7
0.02916 -1.05957 -16.101562 7
0.034843002 -1.098022 -16.052734 7
0.039802998 -1.136597 -16.009766 7
0.030396 -1.1826169 -16.082031 7
0.021706 -1.22876 -16.147461 7
0.024513001 -1.268555 -16.12207 7
0.032341 -1.3050539 -16.055664 7
0.020081 -1.353882 -16.150391 7
0.017136 -1.397339 -16.170898 7
0.01564 -1.439697 -16.178711 7
0.020592 -1.477661 -16.134766 7
0.001808 -1.573853 -16.277344 7
0.002449 -1.6151119 -16.267578 7
0.0081099998 -1.652344 -16.217773 7
-0.194763 -4.4936519 -17.348633 7
-0.206375 -4.5600591 -17.429688 7
-0.214386 -4.619751 -17.480469 7
-0.207268 -4.650269 -17.413086 7
-0.20306399 -4.6861572 -17.367188 7
-0.20027199 -4.724731 -17.333984 7
-0.198952 -4.7659912 -17.30957 7
0.015717 -1.281616 -15.219727 7
0.020950001 -1.317505 -15.174805 7
0.0072329999 -1.3651119 -15.276367 7
0.0094529996 -1.4030761 -15.255859 7
0.0055920002 -1.444824 -15.28125 7
0.007034 -1.483032 -15.265625 7
0.0039369999 -1.524658 -15.286133 7
-0.0052339998 -1.570557 -15.350586 7
-0.0030980001 -1.647705 -15.326172 7
-0.205231 -4.5155029 -16.331055 7
-0.214439 -4.5748291 -16.387695 7
-0.224411 -4.6357422 -16.451172 7
-0.216919 -4.6630859 -16.381836 7
-0.210922 -4.6931152 -16.326172 7
-0.211014 -4.7351069 -16.31543 7
-0.20958699 -4.7738042 -16.291992 7
-0.034859002 4.770874 -14.826172 7
-0.03035 4.7224121 -14.804688 7
-0.006935 4.6340332 -14.641602 7
-0.0084760003 4.5987549 -14.664062 7
-0.013809 4.5715332 -14.713867 7
-0.01609 4.5377202 -14.743164 7
-0.016876001 4.5004878 -14.758789 7
-0.026756 4.4820561 -14.841797 7
0.010574 -1.287598 -14.335938 7
-0.00312 -1.332886 -14.431641 7
0.0024339999 -1.3668211 -14.388672 7
0.012001 -1.397827 -14.314453 7
0.0087130005 -1.43689 -14.333984 7
0.0094600003 -1.473511 -14.324219 7
-0.007462 -1.522339 -14.443359 7
-0.0075229998 -1.559814 -14.439453 7
-0.003571 -1.594238 -14.407227 7
-0.002106 -1.66748 -14.386719 7
-0.20742799 -4.5064702 -15.308594 7
-0.211548 -4.5533452 -15.325195 7
-0.218872 -4.606812 -15.365234 7
-0.222183 -4.6524658 -15.375 7
-0.215828 -4.6794429 -15.319336 7
-0.212708 -4.712769 -15.286133 7
-0.210381 -4.7471919 -15.258789 7
-0.21449301 -4.7946782 -15.274414 7
-0.040084999 4.77356 -13.883789 7
-0.021759 4.6616211 -13.777344 7
-0.018623 4.58252 -13.777344 7
-0.020233 4.549561 -13.798828 7
-0.021072 4.514771 -13.81543 7
-0.029877 4.4962158 -13.888672 7
-0.043517999 4.487061 -13.993164 7
0.0064699999 -1.295288 -13.567383 7
0.00051099999 -1.334229 -13.604492 7
-0.0037839999 -1.372192 -13.628906 7
-0.001312 -1.406006 -13.608398 7
0.007065 -1.435791 -13.547852 7
0.001945 -1.4744869 -13.578125 7
0.001869 -1.5098881 -13.575195 7
-0.020119 -1.560791 -13.72168 7
-0.010895 -1.5896 -13.655273 7
-0.21075401 -4.5092769 -14.425781 7
-0.21421801 -4.5531011 -14.4375 7
-0.228699 -4.618042 -14.521484 7
-0.22792099 -4.6540532 -14.504883 7
-0.219551 -4.6750488 -14.438477 7
-0.21963499 -4.7122798 -14.426758 7
-0.221413 -4.7529302 -14.426758 7
-0.222351 -4.7919922 -14.420898 7
0.002968 -1.299194 -12.837891 7
-0.003304 -1.336548 -12.874023 7
-0.0051350002 -1.3712161 -12.882812 7
-0.010521 -1.408447 -12.914062 7
-0.0043640002 -1.43811 -12.870117 7
-0.004433 -1.47168 -12.867188 7
0.00083899999 -1.501709 -12.828125 7
-0.021392999 -1.550781 -12.969727 7
-0.025916999 -1.587891 -12.994141 7
-0.223396 -4.5184331 -13.652344 7
-0.22792099 -4.5623779 -13.668945 7
-0.236908 -4.6147461 -13.712891 7
-0.241447 -4.6591802 -13.729492 7
-0.233505 -4.6793208 -13.669922 7
-0.230919 -4.7097168 -13.641602 7
-0.228333 -4.7399902 -13.613281 7
-0.225739 -4.7701421 -13.585938 7
-0.0079500005 -1.307739 -12.224609 7
0.0040890002 -1.332397 -12.146484 7
-0.01178 -1.374146 -12.240234 7
-0.0081179999 -1.404053 -12.213867 7
-0.0063169999 -1.434814 -12.199219 7
-0.004501 -1.4655761 -12.18457 7
9.2000002e-05 -1.494507 -12.151367 7
-0.022293 -1.542114 -12.286133 7
-0.026077 -1.5769041 -12.305664 7
-0.001114 -1.299683 -11.506836 7
-0.003273 -1.422363 -11.504883 7
-0.003334 -1.452881 -11.501953 7
-0.0053409999 -1.484619 -11.509766 7
-0.0063709999 -1.515625 -11.510742 7
-0.234207 -4.494019 -12.168945 7
-0.23624399 -4.5296631 -12.169922 7
-0.240242 -4.5689702 -12.180664 7
-0.249146 -4.6176758 -12.21875 7
-0.251183 -4.653564 -12.21875 7
-0.243423 -4.6706538 -12.164062 7
-0.241524 -4.69873 -12.142578 7
-0.242607 -4.7325439 -12.134766 7
-0.244644 -4.768311 -12.134766 7
-0.047309998 4.4439702 -10.915039 7
-0.039535999 4.3990479 -10.881836 7
-0.254471 -4.7867432 -11.505859 7
-0.253517 -4.815063 -11.489258 7
-0.25973499 -4.857666 -11.509766 7
-0.37302399 -6.4146729 -11.49707 7
-0.365944 -6.4267578 -11.444336 7
-0.36601299 -6.4571528 -11.429688 7
-0.366119 -6.4871831 -11.414062 7
-0.36721799 -6.5201421 -11.404297 7
-0.368332 -6.5531011 -11.393555 7
-0.37663999 -6.6043701 -11.418945 7
-0.382889 -6.6505132 -11.433594 7
-0.39015999 -6.699585 -11.453125 7
-0.029403999 4.4616699 -10.171875 7
-0.035544999 4.446167 -10.213867 7
-0.011375 -1.297485 -10.380859 7
-0.02108 -1.330933 -10.429688 7
-0.018990001 -1.3575439 -10.415039 7
-0.016891001 -1.384033 -10.400391 7
-0.021225 -1.4144289 -10.419922 7
-0.020218 -1.44165 -10.410156 7
-0.015984001 -1.466431 -10.382812 7
-0.016022 -1.494141 -10.379883 7
-0.021446001 -1.525757 -10.404297 7
-0.026854999 -1.557251 -10.429688 7
-0.040863 -1.595093 -10.499023 7
-0.247337 -4.541748 -10.851562 7
-0.242027 -4.5603032 -10.8125 7
-0.251793 -4.6074219 -10.849609 7
-0.25940701 -4.6505132 -10.875977 7
-0.258385 -4.6776118 -10.860352 7
-0.25630999 -4.702148 -10.837891 7
-0.25207499 -4.7226558 -10.805664 7
-0.254372 -4.7844238 -10.793945 7
-0.367966 -6.4058838 -10.685547 7
-0.36805701 -6.4342041 -10.669922 7
-0.355194 -6.4299321 -10.594727 7
-0.35743001 -6.463623 -10.589844 7
-0.366135 -6.513916 -10.614258 7
-0.362984 -6.533936 -10.583984 7
-0.37384799 -6.5898442 -10.618164 7
-0.38472 -6.6462402 -10.65332 7
-0.394508 -6.699585 -10.680664 7
-0.25544 -4.715332 -10.214844 7
-0.25663 -4.7449951 -10.208984 7
-0.25894201 -4.7767329 -10.208008 7
-0.372978 -6.4099121 -10.033203 7
-0.36855301 -6.4255371 -9.9980469 7
-0.366386 -6.4467769 -9.9736328 7
-0.367607 -6.4763179 -9.9628906 7
-0.36879 -6.505981 -9.9521484 7
-0.368866 -6.5327148 -9.9375 7
-0.37345901 -6.5709229 -9.9414062 7
-0.38141599 -6.618042 -9.9609385 7
-0.38937399 -6.6651611 -9.9785156 7
-0.392845 -6.7008061 -9.9775391 7
-0.37668601 -6.4217529 -9.3925781 7
-0.37909701 -6.4530029 -9.3876953 7
-0.37097901 -6.4576421 -9.3369141 7
-0.37575501 -6.494751 -9.3417969 7
-0.37464899 -6.5170898 -9.3212891 7
-0.37472501 -6.5422359 -9.3056641 7
-0.37596899 -6.5705571 -9.2949219 7
-0.38191199 -6.6108398 -9.3046885 7
-0.394936 -6.669312 -9.3408203 7
-0.39970401 -6.7070308 -9.3447266 7
-0.262344 -4.7567139 -9.0927734 7
-0.37527499 -6.4138179 -8.7685547 7
-0.375359 -6.4376221 -8.7529297 7
-0.374199 -6.4584961 -8.7333984 7
-0.374367 -6.506104 -8.7021484 7
-0.37443501 -6.5297852 -8.6865234 7
-0.376968 -6.559937 -8.6806641 7
-0.38446 -6.6262212 -8.6777344 7
-0.39432499 -6.675293 -8.7001953 7
-0.39317301 -6.6960449 -8.6796885 7
-0.018805999 -1.298584 -8.4824219 7
-0.018851999 -1.321777 -8.4785156 7
-0.018897999 -1.345093 -8.4755859 7
-0.018944001 -1.368286 -8.4726562 7
-0.025359999 -1.39563 -8.4970703 7
-0.030479001 -1.421997 -8.5166016 7
-0.020324999 -1.438843 -8.46875 7
-0.017837999 -1.460205 -8.453125 7
-0.020424001 -1.4851069 -8.4619141 7
-0.020462001 -1.508301 -8.4580078 7
-0.030701 -1.5386961 -8.4990234 7
-0.035835002 -1.56543 -8.5175781 7
-0.046043001 -1.595947 -8.5585938 7
-0.242744 -4.4837651 -8.5605469 7
-0.245377 -4.5117192 -8.5585938 7
-0.25309801 -4.549561 -8.5791016 7
-0.25442499 -4.575439 -8.5732422 7
-0.25705701 -4.6036382 -8.5722656 7
-0.255844 -4.625 -8.5566406 7
-0.25845301 -4.6531978 -8.5566406 7
-0.262344 -4.6838379 -8.5605469 7
-0.25475299 -4.692627 -8.5185547 7
-0.25097701 -4.7086182 -8.4921885 7
-0.252327 -4.7342529 -8.4853516 7
-0.25111401 -4.755127 -8.46875 7
-0.25627899 -4.788208 -8.4785156 7
-0.030540001 4.463501 -7.3994141 7
-0.029274 4.4398189 -7.40625 7
-0.028008001 4.4162598 -7.4111328 7
-0.031837001 4.4025879 -7.4355469 7
-0.039444 4.3964839 -7.4775391 7
-0.050887998 4.3974609 -7.5332031 7
-0.049614001 4.3735352 -7.5380859 7
-0.047088999 4.347168 -7.539062 7
-0.044548001 4.3206792 -7.539062 7
-0.044562999 4.2993159 -7.5488281 7
-0.026794 -1.294678 -8.1103516 7
-0.028175 -1.317871 -8.1123047 7
-0.026900999 -1.339355 -8.1035156 7
-0.034866001 -1.3668211 -8.1347656 7
-0.034903999 -1.38916 -8.1318359 7
-0.030982999 -1.409058 -8.1113281 7
-0.040305998 -1.437378 -8.1464844 7
-0.027100001 -1.451172 -8.0869141 7
-0.027138 -1.473389 -8.0830078 7
-0.029823 -1.497559 -8.0917969 7
-0.031181 -1.52063 -8.09375 7
-0.038543999 -1.547363 -8.1171885 7
-0.050491001 -1.578125 -8.1640615 7
-0.044640001 4.471436 -7.007812 7
-0.04335 4.4486079 -7.0117192 7
-0.047295 4.4362788 -7.039062 7
-0.048629999 4.4656978 -6.5751948 7
-0.044525001 4.438354 -6.570312 7
-0.050011002 4.4299321 -6.6005859 7
-0.051383998 4.394165 -6.6269531 7
-0.056885 4.385498 -6.657227 7
-0.059661999 4.3717041 -6.6757808 7
-0.058295999 4.3302002 -6.6914058 7
-0.058281001 4.310791 -6.702148 7
-0.058295999 4.271729 -6.7226558 7
-0.051422 4.2390141 -6.7080078 7
-0.051445 4.219604 -6.717773 7
-0.051430002 4.1999512 -6.7275391 7
-0.051445 4.1610112 -6.7480469 7
-0.031036001 -1.393353 -7.4139018 7
0.00145 -1.3435071 -6.035006 7
-0.036162999 -1.752171 -6.283855 7
-0.076186001 -1.600899 -4.373683 7
-0.055587001 4.4944978 -7.3413091 7
0.060743 1.203398 -4.73557 7
0.000535 -1.334796 -14.520769 7
-0.025034999 4.5443029 -14.889174 7
-0.26492 -4.7852082 -11.451452 7
-0.024816999 -1.436103 -7.416584 7
-0.24344601 -4.7444739 -9.4606752 7
-0.037577 4.4427309 -6.4600959 7
-0.057716001 4.3565979 -6.8239899 7
-0.014886 -1.464409 -6.499331 7
-0.026403001 -1.732682 -6.5754189 7
-0.016578 1.154375 -5.9557338 7
-0.056738 -1.478029 -5.7767138 7
0.0044940002 1.1705329 -5.2567649 7
0.0071109999 0.990026 -5.2714782 7
-0.048413999 -1.499876 -5.2441721 7
-0.059055999 -1.709273 -5.2719698 7
-0.065833002 4.4155421 -3.2515509 7
-0.075897999 4.3772998 -3.462965 7
0.024327001 1.171005 -4.6885538 7
0.025886999 1.016189 -4.715229 7
-0.043790001 -1.6787421 -4.7622061 7
-0.040371001 -1.681152 -4.402874 7
-0.051279001 -1.8606451 -4.4075789 7
-0.00055699999 1.18268 -4.2770672 7
-0.001015 1.049713 -4.3212972 7
