# .PCD v0.7 - Point Cloud Data file format
VERSION 0.7
FIELDS x y z intensity
SIZE 4 4 4 4
TYPE F F F F
COUNT 1 1 1 1
WIDTH 642
HEIGHT 1
VIEWPOINT 0 0 0 1 0 0 0
POINTS 642
DATA ascii
0.211082 3.603271 -73.314453 7
0.233124 3.903564 -65.083008 7
0.28311199 3.648926 -63.374023 7
0.23714399 3.578979 -64.943359 7
0.156387 -3.1208501 -59.491211 7
0.18763 -3.214355 -58.543945 7
0.23307 3.7602539 -57.736328 7
0.192642 3.6942141 -58.966797 7
0.23813599 3.469116 -57.584961 7
0.20863301 3.3791499 -58.479492 7
0.26563299 3.7935791 -50.50293 7
0.21337099 3.7696531 -51.924805 7
0.185608 3.6937261 -52.680664 7
0.233757 3.4788821 -51.375 7
0.204712 3.402832 -52.166016 7
0.130463 3.3980711 -54.182617 7
0.225761 -0.071410999 -46.392578 7
0.284973 -0.178711 -44.947266 7
-0.95031703 -4.6101069 69.592773 7
-1.0298229 -4.561523 71.337891 7
-1.1034091 -4.4968262 72.953125 7
-0.901627 -1.513916 68.749023 7
-0.891518 -1.349731 68.537109 7
-0.892708 0.23669399 68.628906 7
0.20098899 3.89978 -47.123047 7
0.17153201 3.840332 -47.848633 7
0.146851 3.768311 -48.458984 7
0.197266 3.559082 -47.225586 7
0.122452 3.4523931 -49.067383 7
0.22786701 0.154541 -46.345703 7
0.232574 0.041503999 -46.228516 7
0.15771499 -0.030029001 -43.503906 7
0.19197799 -0.13452099 -42.737305 7
0.19886 -0.238525 -42.578125 7
0.19995099 -0.34289601 -42.547852 7
0.223694 -0.442139 -42.013672 7
-0.87476301 -4.841064 62.291016 7
-0.95397198 -4.818604 63.882812 7
-0.99951202 -4.7385249 64.804688 7
-1.087517 -4.715332 66.572266 7
-0.80957001 -2.0526121 61.210938 7
-0.86500502 -1.946167 62.327148 7
-0.84903699 -1.79248 62.016602 7
-0.81961799 0.64489698 61.514648 7
-0.761253 0.77221698 60.348633 7
-0.77335399 0.91577101 60.59375 7
-0.84179699 3.810425 61.933594 7
-0.79183197 3.8847661 60.9375 7
0.16951799 4.0157471 -43.275391 7
0.14444 3.9580081 -43.837891 7
0.111 3.9129641 -44.587891 7
0.086448997 3.8483889 -45.138672 7
0.053009 3.796875 -45.888672 7
0.2295 0.48644999 -41.926758 7
0.20378099 0.388428 -42.495117 7
0.20674901 0.283447 -42.425781 7
0.173393 0.18225101 -43.163086 7
0.141396 -0.25891101 -40.332031 7
0.177368 -0.44812 -39.594727 7
0.152596 -0.55175799 -40.095703 7
0.187782 -0.63854998 -39.374023 7
-1.001732 -4.8266602 60.338867 7
-1.023003 -4.7185059 60.746094 7
-1.090271 -4.6740718 62.004883 7
-0.78913897 0.85070801 56.71582 7
-0.71081501 1.083496 55.261719 7
-0.78437001 3.993042 56.574219 7
-0.727364 4.0449219 55.510742 7
0.117805 4.100708 -40.782227 7
0.107697 4.0194092 -40.995117 7
0.080231003 3.9702151 -41.5625 7
0.045937002 3.930542 -42.271484 7
0.0051350002 3.899292 -43.114258 7
0.190292 0.51794398 -39.348633 7
0.153496 0.42932099 -40.097656 7
0.14595 0.33252001 -40.25 7
0.14987899 -0.50414997 -36.521484 7
0.187759 -0.67040998 -35.811523 7
0.18445601 -0.84789997 -35.867188 7
-0.624542 0.85717797 49.442383 7
-0.59911299 0.96240199 49.008789 7
-0.606125 1.077881 49.129883 7
-0.69995898 4.0358891 50.662109 7
-0.65098602 4.0821528 49.820312 7
-0.61667597 4.1463618 49.228516 7
-0.603203 4.2393799 48.991211 7
0.15725701 4.296875 -36.286133 7
0.10965 4.213501 -37.189453 7
0.084595002 4.1711431 -37.665039 7
0.060782999 4.124146 -38.117188 7
0.019234 4.1087651 -38.900391 7
0.197502 0.94543499 -35.619141 7
0.182014 0.86401403 -35.907227 7
0.197777 0.76892102 -35.612305 7
0.17730699 0.68786597 -35.993164 7
0.135994 0.52026403 -36.760742 7
0.168152 -0.87060499 -33.282227 7
0.159462 -1.038818 -33.422852 7
-0.028778 -4.1806641 -36.37793 7
-0.017632 -4.2481689 -36.176758 7
-0.56934398 0.881226 45.15332 7
-0.54566199 0.97619599 44.776367 7
-0.56428498 1.086426 45.073242 7
-0.53471398 1.177124 44.602539 7
-0.62804401 4.0780029 45.983398 7
-0.592255 4.1307368 45.410156 7
-0.56121802 4.1877441 44.911133 7
0.40316001 23.664551 18.829102 7
0.122902 4.368042 -33.908203 7
0.10321 4.324585 -34.255859 7
0.089240998 4.2677002 -34.50293 7
0.063110001 4.2341309 -34.958984 7
0.039703 4.1932368 -35.370117 7
0.18409 1.1242681 -32.97168 7
0.172096 1.048584 -33.179688 7
0.15366399 0.80883801 -33.495117 7
0.117126 -0.97228998 -31.207031 7
0.13893899 -1.03833 -30.858398 7
0.155968 -1.105225 -30.588867 7
0.12468 -1.198853 -31.075195 7
0.152115 -1.258545 -30.641602 7
-0.071671002 -4.2408452 -33.876953 7
-0.052429002 -4.2869868 -33.56543 7
-0.034302 -4.3339839 -33.270508 7
-0.020988001 -4.3892822 -33.052734 7
-0.60591102 -1.980103 42.202148 7
-0.64491302 -1.90979 42.77832 7
-0.53311902 0.99462903 41.229492 7
-0.484375 1.069458 40.515625 7
-0.54724902 3.844238 41.335938 7
-0.60640001 4.024292 42.192383 7
-0.56407201 4.0587158 41.566406 7
-0.53408098 4.1086431 41.12207 7
-0.52359802 4.1867681 40.961914 7
0.099930003 4.436646 -31.256836 7
0.084716998 4.3903809 -31.503906 7
0.067680001 4.3468022 -31.78125 7
0.052834 4.2973628 -32.022461 7
0.027321 4.2679439 -32.432617 7
0.02166 4.1982422 -32.529297 7
0.141968 1.126709 -30.772461 7
0.166573 1.0394289 -30.363281 7
0.142799 0.974976 -30.740234 7
0.120506 0.908081 -31.092773 7
0.094276004 -1.063599 -29.402344 7
0.107719 -1.1287839 -29.200195 7
0.097632997 -1.279663 -29.34082 7
0.12569401 -1.40564 -28.920898 7
-0.082847998 -4.2946782 -31.691406 7
-0.074988998 -4.3575439 -31.564453 7
-0.057968002 -4.4017329 -31.304688 7
-0.041343998 -4.4455571 -31.050781 7
-0.58360302 -2.113647 39.37793 7
-0.544792 -1.995605 38.852539 7
-0.57615697 -1.9287111 39.288086 7
-0.59517699 -1.851807 39.554688 7
-0.46454599 0.99352998 37.850586 7
-0.493294 1.091431 38.243164 7
-0.46940601 1.168457 37.915039 7
-0.55190998 3.9702151 38.918945 7
-0.57296002 4.0905762 39.200195 7
-0.54738599 4.1413569 38.84082 7
-0.50981897 4.2597661 38.311523 7
0.278633 20.604126 18.878906 7
0.28872699 20.537964 18.740234 7
0.28687301 20.601318 18.709961 7
0.28706399 20.64209 18.661133 7
0.28147101 20.74585 18.664062 7
0.28125799 20.791016 18.619141 7
0.078093998 4.5551758 -29.363281 7
0.073250003 4.4919429 -29.443359 7
0.052666001 4.4611821 -29.754883 7
0.035216998 4.4224849 -30.019531 7
0.01107 4.3963618 -30.381836 7
-0.0059739999 4.354248 -30.641602 7
0.036415 4.1949458 -30.026367 7
0.141541 1.269775 -28.625977 7
0.147324 1.194702 -28.541016 7
0.12705199 1.134521 -28.84082 7
0.123169 1.033813 -29.007812 7
0.092704996 -1.302856 -26.952148 7
0.108124 -1.378662 -26.902344 7
0.079712003 -1.46521 -27.283203 7
0.096390001 -1.5205081 -27.052734 7
0.092018001 -1.591187 -27.107422 7
-0.087967001 -4.4171138 -29.235352 7
-0.080306999 -4.4741211 -29.121094 7
-0.054687999 -4.5655522 -28.75293 7
-0.48486301 -2.05603 35.443359 7
-0.50624102 -1.991455 35.720703 7
-0.53668201 -1.849365 36.12207 7
-0.52127802 3.978271 35.862305 7
-0.52890003 4.0715332 35.952148 7
-0.50233501 4.112793 35.605469 7
-0.47109199 4.2254639 35.192383 7
0.22724199 18.918335 18.803711 7
0.22742499 18.959351 18.758789 7
0.229836 18.978638 18.693359 7
0.230896 19.010986 18.641602 7
0.227974 19.082031 18.623047 7
0.2295 19.109497 18.566406 7
0.072600998 4.6313481 -27.056641 7
0.071235999 4.5661621 -27.085938 7
0.056221001 4.5300288 -27.296875 7
0.041648999 4.4918208 -27.503906 7
0.00057999999 4.4370122 -28.080078 7
-0.01059 4.388916 -28.240234 7
0.131973 1.44458 -26.499023 7
0.132576 1.311035 -26.494141 7
0.098197997 1.197754 -26.96582 7
0.079437003 -1.3043211 -25.394531 7
0.058249999 -1.38147 -25.65918 7
0.076560996 -1.432739 -25.422852 7
0.052147001 -1.513428 -25.728516 7
0.069077 -1.564819 -25.507812 7
-0.092049003 -4.6036382 -27.181641 7
-0.083838999 -4.6541748 -27.067383 7
-0.472 -2.0687261 33.151367 7
-0.470467 -1.992432 33.139648 7
-0.47670701 -1.921753 33.219727 7
-0.40616599 1.141724 32.467773 7
-0.51367199 4.099854 33.576172 7
-0.48973101 4.1391602 33.282227 7
-0.46822399 4.1809082 33.017578 7
-0.453049 4.231812 32.828125 7
-0.457771 4.3139648 32.875 7
-0.48146799 4.4281011 33.150391 7
0.17211901 17.620239 18.726562 7
0.171837 17.665283 18.688477 7
0.172966 17.697754 18.638672 7
0.1698 17.767822 18.625 7
0.168549 17.821045 18.594727 7
0.021309 4.6875 -25.753906 7
0.032134999 4.5994868 -25.625977 7
0.023848999 4.5522461 -25.741211 7
0.011894 4.512085 -25.901367 7
-0.0087050004 4.4890141 -26.171875 7
-0.020203 4.446167 -26.326172 7
-0.013947 4.3674321 -26.254883 7
0.087256998 1.225098 -25.332031 7
0.053206999 -1.345215 -23.791992 7
0.068970002 -1.394165 -23.602539 7
0.073371999 -1.4499511 -23.546875 7
0.042144999 -1.53125 -23.910156 7
0.055923 -1.580688 -23.743164 7
-0.107697 -4.4934082 -25.301758 7
-0.121162 -4.583252 -25.445312 7
-0.112831 -4.6296391 -25.336914 7
-0.1035 -4.6734619 -25.216797 7
-0.095642 -4.7199712 -25.114258 7
-0.45281199 -1.775269 30.801758 7
-0.36843899 0.981812 29.946289 7
-0.38398701 1.055908 30.118164 7
-0.37346601 1.119507 30 7
-0.35615501 1.179077 29.805664 7
-0.42826101 4.1838379 30.390625 7
-0.41355899 4.2288818 30.21875 7
-0.409798 4.2910161 30.167969 7
-0.42217299 4.380249 30.295898 7
0.096542001 1.216431 -23.160156 7
0.11895 1.087402 -22.896484 7
0.104576 1.036499 -23.069336 7
0.049660001 -1.313477 -22.167969 7
0.039542999 -1.37561 -22.275391 7
0.053261001 -1.422241 -22.121094 7
0.056892 -1.475342 -22.075195 7
0.028252 -1.55127 -22.387695 7
0.039314002 -1.599121 -22.261719 7
-0.139938 -4.552979 -23.836914 7
-0.140007 -4.6125488 -23.826172 7
-0.133186 -4.6582031 -23.741211 7
-0.130623 -4.7121582 -23.701172 7
-0.134949 -4.7800288 -23.735352 7
0.020554001 4.6791992 -22.004883 7
0.012589 4.6401372 -22.102539 7
0.0062179998 4.59729 -22.182617 7
-0.004898 4.5643311 -22.3125 7
-0.025558 4.4926758 -22.558594 7
0.093085997 0.91833502 -21.558594 7
0.094566002 0.86291498 -21.542969 7
0.104362 0.74975598 -21.436523 7
0.114799 0.69177198 -21.321289 7
0.057365 -1.327637 -20.566406 7
0.044876002 -1.387695 -20.691406 7
0.049911 -1.4362791 -20.636719 7
0.055511001 -1.484375 -20.574219 7
0.040169001 -1.547119 -20.726562 7
0.039535999 -1.599854 -20.728516 7
0.044585999 -1.6480711 -20.672852 7
0.043953001 -1.700562 -20.674805 7
-0.158585 -4.5731201 -22.347656 7
-0.15298501 -4.6179199 -22.280273 7
-0.142929 -4.709106 -22.155273 7
0.104187 0.29321301 -19.948242 7
0.107483 0.24182101 -19.914062 7
0.109634 0.19067401 -19.890625 7
0.114616 0.139404 -19.837891 7
0.120705 0.088379003 -19.775391 7
0.120598 0.037842002 -19.774414 7
0.078316003 -0.02832 -19.103516 7
0.084876999 -0.076416001 -19.040039 7
0.090248004 -0.124268 -18.986328 7
0.093193002 -0.171997 -18.957031 7
0.090149 -0.220337 -18.985352 7
0.087090001 -0.268677 -19.013672 7
0.092460997 -0.31604001 -18.959961 7
0.028244 -1.41272 -19.524414 7
0.008835 -1.574707 -19.699219 7
-0.166748 -4.5245361 -20.962891 7
-0.180687 -4.6043701 -21.083008 7
-0.18257099 -4.6608891 -21.088867 7
-0.17360701 -4.6960449 -20.992188 7
-0.17127199 -4.744019 -20.958984 7
-0.16532899 -4.7845459 -20.889648 7
-0.023682 4.745728 -19.456055 7
-0.001663 4.6486821 -19.256836 7
-0.00293 4.6018071 -19.279297 7
-0.0053940001 4.5574951 -19.3125 7
-0.007828 4.5128169 -19.345703 7
0.055344 -0.65478498 -17.826172 7
0.057174999 -0.700073 -17.806641 7
0.062180001 -0.74414098 -17.758789 7
0.067832999 -0.78784198 -17.705078 7
0.065811001 -0.83422899 -17.719727 7
0.058708001 -0.88293499 -17.782227 7
0.071106002 -0.936279 -17.884766 7
-0.170036 -4.5002441 -19.575195 7
-0.184227 -4.5767822 -19.689453 7
-0.19198599 -4.641602 -19.746094 7
-0.183723 -4.6749272 -19.661133 7
-0.177368 -4.711792 -19.592773 7
-0.172318 -4.750977 -19.536133 7
-0.16725899 -4.7897949 -19.479492 7
-0.031845 4.7498779 -18.170898 7
-0.039528001 4.7194819 -18.25 7
-0.030716 4.6538091 -18.180664 7
-0.025681 4.596436 -18.145508 7
-0.028922999 4.5562739 -18.185547 7
-0.030884 4.5133061 -18.213867 7
-0.043053001 4.4909668 -18.331055 7
-0.053902 4.465332 -18.439453 7
0.033684 -0.986938 -17.131836 7
0.036362 -1.029175 -17.106445 7
0.043076001 -1.069458 -17.043945 7
0.035576001 -1.116699 -17.105469 7
0.026039001 -1.165527 -17.183594 7
0.028023001 -1.208252 -17.164062 7
0.037475999 -1.24646 -17.080078 7
0.03064 -1.293945 -17.133789 7
0.005531 -1.353394 -17.345703 7
0.0027689999 -1.399292 -17.365234 7
0.012222 -1.437256 -17.28125 7
0.015549 -1.47876 -17.248047 7
0.014145 -1.5238039 -17.255859 7
-0.0028609999 -1.5799561 -17.396484 7
-0.192192 -4.5246582 -18.541016 7
-0.19837201 -4.583252 -18.582031 7
-0.206589 -4.6462402 -18.638672 7
-0.200546 -4.681519 -18.577148 7
-0.199936 -4.7272949 -18.560547 7
-0.18779799 -4.7498779 -18.447266 7
0.028953999 -1.303223 -16.088867 7
0.020287 -1.349731 -16.155273 7
0.0065990002 -1.4000241 -16.261719 7
0.014465 -1.4362791 -16.195312 7
0.01297 -1.4786381 -16.203125 7
0.016525 -1.517822 -16.170898 7
-0.0079420004 -1.576782 -16.363281 7
0.00135 -1.611694 -16.28418 7
0.00058699999 -1.653931 -16.286133 7
0.0034030001 -1.693359 -16.258789 7
-0.191223 -4.5290532 -17.335938 7
-0.201363 -4.5925288 -17.405273 7
-0.210777 -4.655273 -17.467773 7
-0.20507801 -4.688354 -17.412109 7
-0.19724301 -4.717041 -17.336914 7
-0.197311 -4.76123 -17.326172 7
-0.042969 4.7904048 -15.949219 7
-0.041602999 4.7458501 -15.949219 7
-0.02523 4.6694341 -15.832031 7
-0.0088879997 4.5938721 -15.712891 7
-0.00679 4.5483398 -15.707031 7
-0.0068509998 4.5074458 -15.717773 7
-0.01474 4.4824219 -15.790039 7
-0.038361002 4.4891362 -15.985352 7
0.011665 -1.280151 -15.258789 7
-0.0050889999 -1.329712 -15.382812 7
0.0032269999 -1.364014 -15.316406 7
0.0077439998 -1.400391 -15.27832 7
0.0046620001 -1.441772 -15.297852 7
0.004623 -1.480957 -15.293945 7
-0.006813 -1.52832 -15.37793 7
-0.003052 -1.565063 -15.344727 7
-0.004623 -1.6055911 -15.352539 7
-0.0062409998 -1.685791 -15.355469 7
-0.196678 -4.4978032 -16.296875 7
-0.20282 -4.551147 -16.330078 7
-0.208977 -4.6046138 -16.364258 7
-0.217407 -4.6627202 -16.416016 7
-0.21138801 -4.6928711 -16.359375 7
-0.207626 -4.7271729 -16.320312 7
-0.2062 -4.7657471 -16.295898 7
-0.057785001 4.4362788 -15.118164 7
-0.060837001 4.4024658 -15.151367 7
0.012222 -1.283203 -14.335938 7
0.0073620002 -1.32312 -14.367188 7
0.007332 -1.360229 -14.365234 7
-0.0055769999 -1.40564 -14.453125 7
0.0088579999 -1.433472 -14.34668 7
0.0087970002 -1.470459 -14.342773 7
0.0079500005 -1.508057 -14.344727 7
-0.0057370001 -1.55481 -14.439453 7
-0.011421 -1.596313 -14.475586 7
-0.199867 -4.4909668 -15.285156 7
-0.20315599 -4.5362549 -15.296875 7
-0.205635 -4.5802002 -15.301758 7
-0.21453901 -4.6367192 -15.352539 7
-0.214607 -4.676147 -15.34082 7
-0.21143299 -4.7093511 -15.308594 7
-0.205063 -4.7359619 -15.25293 7
-0.205139 -4.775269 -15.241211 7
0.0050889999 -1.292725 -13.588867 7
0.0092700003 -1.325562 -13.556641 7
0.003334 -1.36438 -13.59375 7
-0.005165 -1.405151 -13.649414 7
-0.00351 -1.439453 -13.634766 7
0.00489 -1.469238 -13.572266 7
0.002319 -1.5062259 -13.585938 7
-0.0053409999 -1.546753 -13.633789 7
-0.018044 -1.591309 -13.716797 7
-0.204376 -4.496582 -14.414062 7
-0.207809 -4.5400391 -14.425781 7
-0.218033 -4.5969238 -14.481445 7
-0.22570799 -4.6490479 -14.519531 7
-0.224075 -4.683105 -14.498047 7
-0.218208 -4.7088618 -14.448242 7
-0.21489701 -4.739502 -14.414062 7
-0.21665201 -4.7801509 -14.414062 7
-0.217499 -4.5068359 -13.646484 7
-0.229996 -4.565918 -13.712891 7
-0.230949 -4.6030269 -13.708008 7
-0.236351 -4.6491699 -13.729492 7
-0.236412 -4.6846919 -13.717773 7
-0.231125 -4.7098389 -13.673828 7
-0.228523 -4.7398682 -13.646484 7
-0.227699 -4.7738042 -13.628906 7
-0.020538 -1.634155 -12.279297 7
-0.020615 -1.69873 -12.271484 7
-0.021591 -1.731445 -12.272461 7
-0.026283 -1.767334 -12.297852 7
-0.038445 -1.809448 -12.367188 7
-0.028244 -1.833374 -12.299805 7
-0.235016 -4.527832 -12.974609 7
-0.22296099 -4.5388179 -12.891602 7
-0.222076 -4.5706792 -12.875977 7
-0.245461 -4.6489258 -13.00293 7
-0.23806 -4.668335 -12.947266 7
-0.236259 -4.6984859 -12.924805 7
-0.234451 -4.728394 -12.902344 7
-0.233566 -4.760376 -12.885742 7
-0.030929999 4.5896001 -11.495117 7
-0.032806002 4.5625 -11.516602 7
-0.239769 -4.7591548 -12.139648 7
-0.035957001 4.5762939 -10.802734 7
-0.03112 4.5371089 -10.786133 7
-0.034065001 4.5137939 -10.8125 7
-0.034088001 4.4844971 -10.823242 7
-0.038010001 4.4630132 -10.856445 7
-0.039985999 4.4373779 -10.87793 7
-0.247208 -4.7429199 -11.511719 7
-0.24727599 -4.7730708 -11.5 7
-0.014122 -1.296509 -10.415039 7
-0.015228 -1.3249511 -10.416992 7
-0.015244 -1.3525389 -10.414062 7
-0.019592 -1.382935 -10.432617 7
-0.021774 -1.412231 -10.441406 7
-0.026108 -1.442749 -10.460938 7
-0.016457001 -1.464233 -10.40625 7
-0.018639 -1.493286 -10.414062 7
-0.022964001 -1.52417 -10.433594 7
-0.024071001 -1.552734 -10.435547 7
-0.033775002 -1.587402 -10.482422 7
-0.042404 -1.621582 -10.524414 7
-0.030624 -1.640869 -10.457031 7
-0.032829002 -1.670166 -10.463867 7
-0.037140001 -1.701416 -10.483398 7
-0.035034001 -1.727783 -10.467773 7
-0.045814998 -1.764038 -10.520508 7
-0.247849 -4.8378911 -10.152344 7
-0.03833 -1.611694 -8.5429688 7
-0.030731 -1.629272 -8.5048828 7
-0.030785 -1.6756589 -8.4970703 7
-0.03083 -1.698975 -8.4921885 7
-0.044876002 -1.756348 -8.5458984 7
-0.050003 -1.783813 -8.5644531 7
-0.051314998 -1.808105 -8.5654297 7
-0.055167999 -1.834717 -8.5791016 7
-0.056503002 -1.882568 -8.5751953 7
-0.062919997 -1.911255 -8.5976562 7
-0.043434002 4.4750981 -7.4550781 7
-0.043427002 4.4536128 -7.4658198 7
-0.043457001 4.432251 -7.476562 7
-0.045998 4.415894 -7.4970698 7
-0.044739 4.3919678 -7.5019531 7
-0.049828 4.3806152 -7.532227 7
-0.059982002 4.3787842 -7.5839839 7
-0.068862997 4.3745122 -7.6308589 7
-0.067619003 4.3502202 -7.6357422 7
-0.054962002 -1.625 -8.2001953 7
-0.054985002 -1.6474611 -8.1962891 7
-0.044418 -1.662109 -8.1474609 7
-0.044449002 -1.6843261 -8.1425781 7
-0.048439 -1.709839 -8.15625 7
-0.052444 -1.735229 -8.1689453 7
-0.056449998 -1.760864 -8.1816406 7
-0.065757997 -1.7906491 -8.2167969 7
-0.067107998 -1.8143311 -8.2177734 7
-0.069778003 -1.839111 -8.2246094 7
-0.075134002 -1.866089 -8.2412109 7
-0.083114997 -1.895264 -8.2714844 7
-0.071425997 4.3615718 -6.7314448 7
-0.071448997 4.342041 -6.742188 7
-0.070068002 4.3195801 -6.7470698 7
-0.063231997 4.2869868 -6.7314448 7
-0.067351997 4.275146 -6.7568359 7
-0.063248001 4.2476811 -6.7519531 7
-0.063271001 4.2280269 -6.7607422 7
-0.057785001 4.1783452 -6.7617192 7
-0.063293003 4.1689448 -6.7910161 7
-0.05909 4.473999 -4.6660161 7
-0.057434 4.4559331 -4.672852 7
-0.059082001 4.4445801 -4.6875 7
-0.057418998 4.4265141 -4.6943359 7
-0.060722001 4.4182129 -4.7128911 7
-0.059074 4.400146 -4.71875 7
-0.057411 4.3822021 -4.7246089 7
-0.075530998 4.4025879 -4.7851558 7
-0.060844 4.4770508 -4.313477 7
-0.064240001 4.4699712 -4.3339839 7
-0.069351003 4.4663091 -4.3574219 7
-0.064240001 4.4422612 -4.3535161 7
-0.065948002 4.431519 -4.3681641 7
-0.062523 4.4110112 -4.3701172 7
-0.062523 4.3969731 -4.3808589 7
-0.064208999 4.38623 -4.3955078 7
-0.065932997 4.3754878 -4.4101558 7
-0.072738998 4.3745122 -4.438477 7
-0.082976997 4.380127 -4.476562 7
-0.089805998 4.3791499 -4.5048828 7
-0.086379997 4.3582759 -4.5058589 7
-0.088104002 4.34729 -4.5195308 7
-0.081253 4.3199458 -4.5117192 7
-0.079552002 4.3023682 -4.5175781 7
-0.081253 4.2911382 -4.532227 7
-0.074432001 4.263916 -4.523438 7
-0.072738998 4.2463379 -4.5292969 7
-0.077826999 4.2415771 -4.5537109 7
-0.078208998 4.226562 -4.563477 7
-0.078224003 4.2122798 -4.5732422 7
-0.073096998 4.1882319 -4.5693359 7
-0.074805997 4.177002 -4.5830078 7
-0.071227998 4.4793701 -4.0117192 7
-0.076522999 4.476685 -4.0361328 7
-0.071204998 4.4530029 -4.0332031 7
-0.069449998 4.436523 -4.0380859 7
-0.071213 4.4266362 -4.0527339 7
-0.067672998 4.4064941 -4.054688 7
-0.071204998 4.400146 -4.0732422 7
-0.071181998 4.3869629 -4.0839839 7
-0.074715003 4.3804932 -4.1035161 7
-0.080017 4.3773189 -4.1269531 7
-0.092345998 4.3876948 -4.1679692 7
-0.094131 4.377563 -4.1826172 7
-0.092354 4.3605962 -4.1894531 7
-0.080002002 4.3234859 -4.1669922 7
-0.088813998 4.3269038 -4.1992192 7
-0.076447003 4.289917 -4.1787109 7
-0.085266002 4.2928472 -4.2119141 7
-0.079971001 4.269165 -4.2080078 7
-0.085266002 4.2655029 -4.2314448 7
-0.079956003 4.2419429 -4.2285161 7
-0.080329999 4.2279048 -4.2373052 7
-0.073265001 4.2011719 -4.2294922 7
-0.071494997 4.1842041 -4.235352 7
-0.076782003 4.1802979 -4.2587891 7
-0.092681997 4.1959229 -4.3085942 7
-0.045646999 -1.699218 -8.8447475 7
-0.016999001 -1.60522 -7.2037148 7
0.010214 -1.530761 -5.9020381 7
-0.060963001 -1.747075 -4.2242241 7
-0.032400999 -1.700117 -1.660656 7
-0.33136201 -5.114574 3.2162981 7
-0.32430199 -5.0868812 3.387861 7
-0.30652201 -4.85427 2.5648429 7
-0.308819 -4.881444 2.726614 7
-0.29998901 -4.8688192 2.8925109 7
-0.298356 -4.8713508 3.0553391 7
-0.29111901 -4.8506379 3.217885 7
-0.28929201 -4.8399148 3.378953 7
0.031596001 4.4095478 -7.850543 7
-0.014132 4.4591098 -3.6420431 7
-0.021482 4.2207241 -3.8997071 7
0.036047 1.036615 -5.0032029 7
0.040541999 1.032903 -4.2663822 7
-0.104003 -1.66114 -11.289165 7
-0.330746 -4.7300758 -14.957245 7
-0.29701799 -4.7567849 -11.978302 7
-0.070260003 4.3968658 -8.3214674 7
-0.035806 -1.604443 -7.5336428 7
-0.072175004 4.4089479 -7.0182991 7
0.042959001 1.176739 -6.545599 7
-0.0034070001 -1.372823 -5.781054 7
-0.003549 -1.5703191 -5.7330618 7
0.0080399998 1.191636 -5.689992 7
0.0098069999 0.99475199 -5.7102432 7
-0.070284002 4.4294472 -4.122014 7
-0.082083002 4.3680291 -4.3540201 7
-0.087375 4.2447701 -4.5460358 7
0.021570001 1.210834 -5.083683 7
-0.035670999 -1.5052789 -5.1294198 7
-0.072094999 4.2837868 -3.529717 7
0.034664001 1.216885 -4.584281 7
0.036954999 1.064075 -4.6068339 7
-0.01311 -1.318399 -4.6352081 7
-0.026365001 -1.50765 -4.6805968 7
-0.034221001 -1.685335 -4.6792269 7
-0.046319 -1.881768 -4.6996918 7
-0.012357 -1.6210279 -4.2078109 7
-0.019204 -1.778091 -4.1889539 7
0.0060060001 1.264217 -4.199358 7
0.008014 1.12809 -4.2300091 7
-0.011135 -1.742432 -3.860353 7
0.019510999 1.256249 -3.853771 7
0.01134 1.160431 -3.9488511 7
0.026652001 1.004999 -3.8939259 7
-0.0037169999 -1.750306 -1.871208 7
-0.013981 -1.823668 -1.813377 7
-0.015813001 -1.8628139 -1.7404701 7
-0.011192 -1.631215 -1.821727 7
-0.0073719998 -1.649307 -1.749685 7
-0.005076 -1.6696759 -1.6790251 7
-0.017882001 -1.74165 -1.62238 7
