# .PCD v0.7 - Point Cloud Data file format
VERSION 0.7
FIELDS x y z intensity
SIZE 4 4 4 4
TYPE F F F F
COUNT 1 1 1 1
WIDTH 559
HEIGHT 1
VIEWPOINT 0 0 0 1 0 0 0
POINTS 559
DATA ascii
0.16122399 -3.494446 -66.626953 7
0.23952501 3.5908201 -65.080078 7
0.20446 3.4945071 -66.287109 7
0.139732 -3.296875 -59.96582 7
0.249908 3.7419429 -57.455078 7
0.201782 3.6915281 -58.929688 7
0.26364899 3.437134 -57.045898 7
0.21472199 3.3820801 -58.542969 7
0.173279 3.3076169 -59.813477 7
0.23444401 3.7424321 -51.478516 7
0.190308 3.696533 -52.666992 7
0.24596401 3.467896 -51.157227 7
0.20446 3.414551 -52.291992 7
0.16766401 3.3477781 -53.299805 7
0.098266996 3.3283689 -55.193359 7
0.212914 -0.077026002 -46.706055 7
0.264938 -0.185791 -45.43457 7
-0.91404003 -4.5588379 68.898438 7
-0.985901 -4.5012822 70.478516 7
-1.059608 -4.4385991 72.100586 7
-0.86407501 -1.493042 68.038086 7
-0.85875702 -1.3330081 67.929688 7
-0.85781097 0.39721701 67.848633 7
-0.912552 3.6148679 69.061523 7
-0.844917 3.6929929 67.581055 7
0.18855999 3.817627 -47.561523 7
0.151749 3.769165 -48.474609 7
0.120399 3.7067871 -49.25293 7
0.17382 3.4932859 -47.942383 7
0.146248 3.4221189 -48.62793 7
0.089546002 3.394897 -50.03125 7
0.213135 0.150391 -46.705078 7
0.217346 0.036743 -46.600586 7
0.175148 -0.13696299 -43.290039 7
0.212219 -0.23876999 -42.458984 7
0.226143 -0.444336 -42.141602 7
-0.85694098 -4.671875 62.029297 7
-0.969666 -4.6963501 64.291992 7
-1.0409321 -4.4979858 65.743164 7
-0.77699298 -1.8889771 60.65625 7
-0.80865502 -1.7674561 61.296875 7
-0.79553998 3.9050291 61.112305 7
-0.726318 4.0913091 59.716797 7
0.15074199 3.955322 -43.765625 7
0.11618 3.913208 -44.544922 7
0.092551999 3.847168 -45.079102 7
0.067107998 3.781738 -45.65332 7
0.029387999 3.7351069 -46.501953 7
0.21012101 0.28332499 -42.517578 7
0.182014 0.181274 -43.144531 7
0.187408 0.075317003 -43.021484 7
0.13064601 -0.36413601 -40.550781 7
0.166702 -0.45519999 -39.8125 7
0.140205 -0.55981398 -40.350586 7
0.16707601 -0.64965802 -39.797852 7
-0.983612 -4.8009028 60.070312 7
-0.99885601 -4.6845698 60.367188 7
-0.72956097 1.095093 55.595703 7
-0.79566199 4.0126948 56.779297 7
-0.72732502 4.0493159 55.504883 7
-0.68255597 4.1135249 54.667969 7
0.105164 4.0313721 -41.121094 7
0.084105998 3.969727 -41.5625 7
0.051437002 3.92749 -42.240234 7
0.019058 3.881592 -42.915039 7
-0.017021 3.8388669 -43.663086 7
0.161934 0.52063 -39.929688 7
0.176193 0.41992199 -39.638672 7
0.141075 0.32861301 -40.351562 7
0.095963001 0.235107 -41.271484 7
0.123192 -0.51501501 -37.020508 7
0.149818 -0.59802198 -36.522461 7
0.171745 -0.68029797 -36.111328 7
0.146484 -0.77844203 -36.578125 7
0.174309 -0.94470203 -36.052734 7
-0.58594501 0.96227998 48.850586 7
-0.60591102 1.082642 49.193359 7
-0.56988502 1.180542 48.578125 7
-0.65943098 4.0982671 49.959961 7
-0.61249501 4.144043 49.152344 7
-0.57920802 4.2067871 48.577148 7
0.46230301 25.468994 18.53418 7
0.46449301 25.480225 18.454102 7
0.46404999 25.530029 18.399414 7
0.464928 25.560303 18.333008 7
0.46349299 25.624756 18.288086 7
0.141068 4.2471919 -36.625977 7
0.116142 4.2072749 -37.100586 7
0.091835 4.1638179 -37.564453 7
0.068145998 4.117065 -38.015625 7
0.035744 4.0847168 -38.630859 7
0.182869 0.77636701 -35.995117 7
0.17810801 0.68896502 -36.083984 7
0.154678 0.60668898 -36.524414 7
0.13456701 -0.805664 -33.865234 7
0.15152 -0.88159198 -33.570312 7
0.144875 -1.0500489 -33.676758 7
0.14033499 -1.135376 -33.749023 7
-0.062981002 -4.0672612 -36.980469 7
-0.054543 -4.1420898 -36.825195 7
-0.039978001 -4.2047119 -36.566406 7
-0.026108 -4.267334 -36.317383 7
-0.53948998 0.97778302 44.665039 7
-0.56546801 1.090454 45.078125 7
-0.53697997 1.181885 44.625 7
-0.613617 4.0605469 45.750977 7
-0.60169202 4.1481929 45.555664 7
-0.56588 4.1983638 44.981445 7
-0.54514301 4.2695308 44.646484 7
0.40174901 23.950073 18.4375 7
0.39804101 24.042847 18.417969 7
0.39966601 24.063843 18.347656 7
0.397385 24.137451 18.314453 7
0.10482 4.4118652 -34.237305 7
0.105438 4.325562 -34.235352 7
0.087188996 4.277832 -34.558594 7
0.071296997 4.2237549 -34.841797 7
0.042580001 4.1937261 -35.344727 7
0.020554001 4.1463618 -35.720703 7
0.172203 1.050537 -33.258789 7
0.152557 0.97741699 -33.600586 7
0.173729 0.88476598 -33.234375 7
0.129715 0.73535198 -33.998047 7
0.104218 -0.98193401 -31.413086 7
0.127174 -1.047729 -31.048828 7
0.146042 -1.113892 -30.74707 7
0.115875 -1.207581 -31.217773 7
0.134361 -1.273132 -30.923828 7
-0.076233 -4.1689448 -33.959961 7
-0.082298003 -4.2636719 -34.041992 7
-0.063437998 -4.3109131 -33.735352 7
-0.048294 -4.3642578 -33.487305 7
-0.028664 -4.4072881 -33.169922 7
-0.55677003 -1.944641 41.525391 7
-0.60089099 -1.879395 42.176758 7
-0.489151 0.98242199 40.634766 7
-0.45899999 1.155273 40.191406 7
-0.572128 4.1695561 41.673828 7
-0.51029998 4.1694341 40.762695 7
-0.52008802 4.2784419 40.898438 7
-0.55970001 4.4364009 41.469727 7
0.33206901 22.439453 18.258789 7
0.086493999 4.3908691 -31.485352 7
0.072448999 4.341187 -31.714844 7
0.051445 4.304565 -32.055664 7
0.028595001 4.2701421 -32.424805 7
0.0039220001 4.2374272 -32.824219 7
0.14875799 1.203369 -30.707031 7
0.13948099 1.1318361 -30.855469 7
0.159302 1.0448 -30.543945 7
0.139725 0.97802699 -30.855469 7
0.116096 0.91149902 -31.231445 7
0.113701 -1.201172 -29.112305 7
0.084213004 -1.29126 -29.541992 7
0.113472 -1.417236 -29.103516 7
-0.065086 -4.1859741 -31.441406 7
-0.092247002 -4.315002 -31.826172 7
-0.082794003 -4.374939 -31.676758 7
-0.064598002 -4.4171138 -31.399414 7
-0.051552001 -4.4683838 -31.199219 7
-0.52860999 -1.983032 38.664062 7
-0.55683899 -1.825073 39.06543 7
-0.50048798 1.0975339 38.333008 7
-0.550354 4.059814 38.885742 7
-0.55188799 4.1512451 38.899414 7
-0.53180701 4.209229 38.618164 7
-0.50242603 4.250977 38.207031 7
-0.51413703 4.3574219 38.360352 7
0.279228 20.872925 18.523438 7
0.28190601 20.885742 18.451172 7
0.28041101 20.944336 18.417969 7
0.27771801 21.016235 18.393555 7
0.278725 21.047363 18.336914 7
0.278496 21.091797 18.291016 7
0.066390999 4.5097661 -29.545898 7
0.055709999 4.458252 -29.711914 7
0.036003001 4.4246831 -30.011719 7
0.018639 4.3847661 -30.276367 7
-0.005814 4.3579102 -30.645508 7
-0.019226 4.3056641 -30.84082 7
0.140045 1.34436 -28.696289 7
0.139534 1.201172 -28.708984 7
0.130402 1.1343991 -28.844727 7
0.097672001 1.0430911 -29.391602 7
0.076187 -1.317627 -27.25293 7
0.103149 -1.385071 -26.974609 7
0.065719999 -1.4781491 -27.478516 7
0.085814998 -1.531433 -27.200195 7
0.096481003 -1.59082 -27.049805 7
-0.096694998 -4.4364619 -29.352539 7
-0.075813003 -4.5393682 -29.048828 7
-0.065154999 -4.589355 -28.892578 7
-0.066543996 -4.6635742 -28.898438 7
-0.45909899 -1.955933 35.150391 7
-0.491882 -1.89917 35.576172 7
-0.51641101 -1.834839 35.894531 7
-0.43598199 1.079468 34.956055 7
-0.50015301 3.9498291 35.589844 7
-0.52688599 4.0712891 35.922852 7
-0.507599 4.1237788 35.668945 7
-0.46495101 4.2186279 35.111328 7
0.223755 19.189819 18.558594 7
0.225281 19.217041 18.5 7
0.225906 19.253052 18.451172 7
0.226974 19.284546 18.397461 7
0.22624201 19.333496 18.359375 7
0.227303 19.364746 18.306641 7
0.226585 19.413452 18.267578 7
0.066680998 4.5780029 -27.140625 7
0.052597001 4.5397949 -27.34082 7
0.041060999 4.4952388 -27.506836 7
0.004402 4.4318848 -28.025391 7
-0.018196 4.4068599 -28.341797 7
-0.0093080001 4.3183589 -28.230469 7
0.094527997 1.202759 -27.045898 7
0.098739997 1.13269 -26.991211 7
0.042785998 -1.394592 -25.860352 7
0.041641001 -1.588196 -25.860352 7
-0.12384 -4.5333252 -27.603516 7
-0.114258 -4.58252 -27.47168 7
-0.10421 -4.630249 -27.333984 7
-0.093727 -4.6763921 -27.189453 7
-0.093826003 -4.743835 -27.178711 7
-0.44201699 -1.970459 32.826172 7
-0.46043399 -1.909241 33.052734 7
-0.456429 -1.831665 33.009766 7
-0.469971 -1.765869 33.176758 7
-0.44553399 1.0869139 32.931641 7
-0.494995 4.07373 33.349609 7
-0.500687 4.1586909 33.410156 7
-0.46105999 4.2469478 32.920898 7
-0.448311 4.3010249 32.762695 7
0.16677099 17.862183 18.555664 7
0.168358 17.890137 18.500977 7
0.171867 17.900635 18.429688 7
0.16870899 17.970581 18.416016 7
0.173622 17.96814 18.333008 7
0.17283601 18.016602 18.298828 7
0.173004 18.056396 18.255859 7
-0.010307 4.7573242 -26.142578 7
-0.00077799999 4.6712651 -26.033203 7
0.013306 4.5759282 -25.865234 7
0.0050659999 4.5279541 -25.980469 7
-0.005905 4.485229 -26.128906 7
-0.028717 4.4654541 -26.426758 7
-0.033775002 4.4090581 -26.500977 7
0.081863001 1.414795 -25.402344 7
0.090049997 1.346436 -25.299805 7
0.090461999 1.282837 -25.296875 7
0.064223997 -1.45929 -23.65918 7
0.052147001 -1.645874 -23.788086 7
-0.117706 -4.5151372 -25.416992 7
-0.128212 -4.5991821 -25.52832 7
-0.119873 -4.6456299 -25.418945 7
-0.102699 -4.7363281 -25.195312 7
-0.40092501 -1.944458 30.230469 7
-0.425697 -1.75647 30.523438 7
-0.38059199 0.923706 30.105469 7
-0.36299101 0.98205602 29.875977 7
-0.35872701 1.047852 29.827148 7
-0.376358 1.1231689 30.023438 7
-0.36215201 1.184204 29.862305 7
-0.36100799 1.251099 29.848633 7
-0.43162501 4.1915278 30.424805 7
0.076874003 1.406616 -23.411133 7
0.047828998 -1.317444 -22.193359 7
0.030289 -1.384277 -22.381836 7
0.046585001 -1.485046 -22.195312 7
0.045464002 -1.541443 -22.203125 7
0.035797 -1.660278 -22.299805 7
-0.137894 -4.5507808 -23.81543 7
-0.150703 -4.6356812 -23.943359 7
-0.139641 -4.6729741 -23.811523 7
-0.136566 -4.7259521 -23.764648 7
-0.13718399 -4.786438 -23.758789 7
-1.294037 -33.991028 14.737305 7
0.00081599999 4.6087651 -22.225586 7
-0.0039440002 4.5622559 -22.288086 7
-0.0066069998 4.5109859 -22.327148 7
0.086379997 0.92199701 -21.657227 7
0.092628002 0.86413598 -21.588867 7
0.092041001 0.80957001 -21.595703 7
0.094642997 0.753784 -21.568359 7
0.102478 0.696289 -21.483398 7
0.117508 -0.063965 -19.831055 7
0.036415 -1.656799 -20.761719 7
0.040314 -1.705994 -20.717773 7
-0.14205199 -4.4871831 -22.194336 7
-0.15403 -4.565979 -22.304688 7
-0.163757 -4.6410518 -22.390625 7
-0.15535 -4.6802368 -22.293945 7
-0.149757 -4.7246089 -22.225586 7
-0.14586601 -4.7719731 -22.173828 7
0.090309002 0.29492199 -20.115234 7
0.100952 0.242432 -20.004883 7
0.105385 0.190918 -19.958984 7
0.10421 0.139893 -19.970703 7
0.105293 0.088744998 -19.958984 7
0.110306 0.037597999 -19.907227 7
0.079704002 -0.320557 -19.089844 7
0.079062998 -0.369019 -19.094727 7
0.081421003 -0.41687 -19.071289 7
0.085570998 -0.46423301 -19.029297 7
0.085518003 -0.51232898 -19.027344 7
0.086060002 -0.56030297 -19.020508 7
0.081207 -0.60998499 -19.06543 7
0.028664 -1.365784 -19.529297 7
0.020187 -1.420593 -19.607422 7
0.028557001 -1.464478 -19.522461 7
0.001366 -1.582703 -19.776367 7
-0.173988 -4.5401611 -21.032227 7
-0.18311299 -4.6105351 -21.107422 7
-0.18499 -4.6672969 -21.114258 7
-0.177246 -4.7047119 -21.02832 7
-0.173096 -4.7492681 -20.977539 7
-0.167183 -4.7895508 -20.907227 7
-0.027930999 4.7033691 -19.487305 7
-0.0052570002 4.6055908 -19.282227 7
-0.015427 4.5773931 -19.390625 7
-0.022018 4.5411382 -19.463867 7
-0.025032001 4.497314 -19.50293 7
-0.038199998 4.4741211 -19.638672 7
-0.026870999 4.401123 -19.541016 7
-0.028084001 4.353394 -19.563477 7
0.061996002 -0.654419 -17.789062 7
0.052391 -0.70336902 -17.874023 7
0.045975 -0.75170898 -17.930664 7
0.046562001 -0.79772902 -17.922852 7
0.051605001 -0.84179699 -17.874023 7
0.059181001 -0.88464397 -17.801758 7
0.056235999 -0.94543499 -18.027344 7
0.0093769999 -1.619934 -18.401367 7
0.011246 -1.6651 -18.380859 7
0.018242 -1.706177 -18.3125 7
0.002174 -1.765564 -18.453125 7
-0.0049359999 -1.818176 -18.512695 7
-0.0062790001 -1.86615 -18.518555 7
-0.174408 -4.5100708 -19.616211 7
-0.18797299 -4.5856929 -19.723633 7
-0.195747 -4.6504521 -19.78125 7
-0.19133 -4.6915889 -19.731445 7
-0.181778 -4.7221069 -19.634766 7
-0.176071 -4.7600098 -19.572266 7
-0.058846001 4.4737549 -18.46582 7
-0.058867998 4.4263921 -18.475586 7
0.024643 -1.037231 -17.211914 7
0.028595001 -1.122681 -17.170898 7
0.031257998 -1.164917 -17.144531 7
0.016975001 -1.216614 -17.264648 7
0.016251 -1.260986 -17.267578 7
0.023651 -1.300476 -17.200195 7
0.026320999 -1.342651 -17.172852 7
-0.188049 -4.5180659 -18.508789 7
-0.196274 -4.58075 -18.566406 7
-0.20720699 -4.6488042 -18.645508 7
-0.202538 -4.6867681 -18.594727 7
-0.19310801 -4.7150269 -18.504883 7
-0.19589999 -4.767395 -18.515625 7
0.015845999 -1.313416 -16.200195 7
0.022987001 -1.350403 -16.139648 7
0.0092770001 -1.400452 -16.246094 7
0.0092320004 -1.441956 -16.243164 7
0.007034 -1.485046 -16.256836 7
0.013451 -1.521973 -16.201172 7
-0.0031280001 -1.5753779 -16.331055 7
0.00030499999 -1.6978149 -16.290039 7
-0.023391999 4.621582 -15.806641 7
-0.016983001 4.5671391 -15.766602 7
-0.024848999 4.5421138 -15.838867 7
-0.025566 4.5024409 -15.855469 7
-0.028449999 4.4669189 -15.887695 7
-0.039161999 4.447021 -15.983398 7
-0.038483001 4.3625488 -15.998047 7
0.006935 -1.285156 -15.300781 7
0.00080099999 -1.328308 -15.34375 7
-0.0098799998 -1.3742681 -15.421875 7
0.001427 -1.445984 -15.328125 7
0.001389 -1.485291 -15.325195 7
-0.007828 -1.570618 -15.387695 7
-0.200371 -4.547668 -16.31543 7
-0.20832799 -4.7711182 -16.31543 7
-0.20612299 -4.808228 -16.287109 7
-0.058639999 4.4355469 -15.104492 7
-0.071479999 4.4211431 -15.210938 7
-0.059418 4.3577881 -15.130859 7
-0.045837 4.2921138 -15.040039 7
0.0096439999 -1.286743 -14.360352 7
0.004768 -1.326782 -14.391602 7
0.0022430001 -1.4397579 -14.399414 7
0.0086209998 -1.472656 -14.350586 7
0.0053559998 -1.5118411 -14.369141 7
-0.197998 -4.488708 -15.275391 7
-0.197266 -4.5264282 -15.258789 7
-0.206192 -4.5826421 -15.30957 7
-0.21832301 -4.6452641 -15.382812 7
-0.21678901 -4.6815801 -15.359375 7
-0.212036 -4.7115479 -15.31543 7
-0.209686 -4.7461548 -15.287109 7
-0.20652001 -4.7789922 -15.253906 7
-0.025855999 -1.598938 -13.776367 7
-0.017456001 -1.62854 -13.713867 7
-0.016647 -1.66333 -13.705078 7
-0.018386999 -1.700134 -13.711914 7
-0.022667 -1.739014 -13.736328 7
-0.025359999 -1.607422 -12.319336 7
-0.030052001 -1.643005 -12.344727 7
-0.021713 -1.668884 -12.289062 7
-0.025490001 -1.704163 -12.307617 7
-0.023682 -1.734924 -12.291992 7
-0.029305 -1.771606 -12.321289 7
-0.032143001 -1.805969 -12.334961 7
-0.029403999 -1.836121 -12.3125 7
-0.035034001 -1.873047 -12.342773 7
-0.032295 4.5576172 -11.492188 7
-0.037765998 -1.62854 -11.707031 7
-0.028030001 -1.651978 -11.645508 7
-0.027084 -1.681885 -11.636719 7
-0.029076001 -1.714111 -11.644531 7
-0.031090001 -1.746338 -11.650391 7
-0.04287 -1.786438 -11.71582 7
-0.046822 -1.820312 -11.733398 7
-0.04882 -1.852722 -11.741211 7
-0.050827 -1.8853149 -11.74707 7
-0.051856998 -1.917114 -11.748047 7
-0.044365 -1.6192631 -11.154297 7
-0.037253998 -1.6433721 -11.111328 7
-0.036254998 -1.671997 -11.101562 7
-0.038345002 -1.702942 -11.108398 7
-0.034286 -1.729126 -11.082031 7
-0.048659999 -1.769775 -11.15625 7
-0.052795 -1.8026119 -11.175781 7
-0.056915 -1.8353879 -11.194336 7
-0.041489001 -1.62262 -10.527344 7
-0.036171 -1.646606 -10.494141 7
-0.034065001 -1.672852 -10.478516 7
-0.037331 -1.703186 -10.491211 7
-0.036293 -1.730225 -10.481445 7
-0.047058001 -1.766663 -10.53418 7
-0.050361998 -1.825317 -10.542969 7
-0.040047001 -1.611389 -9.4980469 7
-0.049438 -1.6439821 -9.5390615 7
-0.047127001 -1.667786 -9.5244141 7
-0.040153999 -1.687988 -9.4863281 7
-0.044853002 -1.717285 -9.5048828 7
-0.036713 -1.736267 -9.4599609 7
-0.051956002 -1.7739871 -9.5302734 7
-0.051994 -1.799561 -9.5253906 7
-0.060226001 -1.831787 -9.5605469 7
-0.060256999 -1.857605 -9.5566406 7
-0.064963996 -1.8872679 -9.5751953 7
-0.068526998 -1.915894 -9.5869141 7
-0.038497999 -1.61322 -8.5507812 7
-0.039818 -1.637329 -8.5517578 7
-0.034766998 -1.6569819 -8.5253906 7
-0.030951999 -1.677307 -8.5039062 7
-0.033546001 -1.702576 -8.5126953 7
-0.037399001 -1.728699 -8.5253906 7
-0.042525999 -1.755859 -8.5439453 7
-0.048912 -1.784363 -8.5673828 7
-0.055328 -1.812683 -8.5908203 7
-0.056641001 -1.837341 -8.5917969 7
-0.055381998 -1.859558 -8.5820312 7
-0.055443 -1.883118 -8.5761719 7
-0.064377002 -1.914001 -8.6113281 7
-0.12880699 6.3929439 -6.6894531 7
-0.126251 6.3665771 -6.695312 7
-0.12624399 6.3470459 -6.710938 7
-0.052368 4.4664311 -7.485352 7
-0.053642001 4.4477539 -7.500977 7
-0.052352998 4.4234619 -7.5068359 7
-0.053635001 4.4046631 -7.5205078 7
-0.053635001 4.3833008 -7.53125 7
-0.057441998 4.3691411 -7.5566411 7
-0.071381003 4.3746338 -7.6230469 7
-0.080254003 4.3701172 -7.6699219 7
-0.053801998 -1.62561 -8.2021484 7
-0.060447998 -1.653015 -8.2265615 7
-0.047249001 -1.665588 -8.1660156 7
-0.047279 -1.688049 -8.1630859 7
-0.047295 -1.71051 -8.1591797 7
-0.053955 -1.737976 -8.1826172 7
-0.059287999 -1.764648 -8.2011719 7
-0.072571002 -1.797546 -8.2519531 7
-0.069968998 -1.818054 -8.2353516 7
-0.079277001 -1.848206 -8.2705078 7
-0.085937999 -1.876282 -8.2939453 7
-0.065521002 4.465332 -4.679688 7
-0.067153998 4.453979 -4.6943359 7
-0.073752999 4.452148 -4.7236328 7
-0.075386003 4.4405522 -4.7392578 7
-0.072067 4.419189 -4.7402339 7
-0.067107998 4.3946528 -4.7363281 7
-0.068747997 4.3830571 -4.7519531 7
-0.070395999 4.3713379 -4.766602 7
-0.073677003 4.3626709 -4.7861328 7
-0.094627 4.381958 -4.5029302 7
-0.101463 4.3808589 -4.53125 7
-0.094612002 4.353394 -4.5224609 7
-0.086060002 4.3226318 -4.5107422 7
-0.089461997 4.3149409 -4.5292969 7
-0.091164 4.303833 -4.5439448 7
-0.084311999 4.2763672 -4.5361328 7
-0.089423999 4.271606 -4.5605469 7
-0.084297001 4.2475591 -4.5566411 7
-0.089409001 4.2426758 -4.5800781 7
-0.089386001 4.2280269 -4.5908198 7
-0.087707996 4.2104492 -4.594727 7
-0.084266998 4.1895752 -4.5957031 7
-0.085968003 4.1782231 -4.609375 7
-0.072067 4.4752202 -4.000977 7
-0.079712003 4.47644 -4.0292969 7
-0.079689004 4.4631348 -4.0400391 7
-0.079681002 4.4498291 -4.0507808 7
-0.079696998 4.436646 -4.0595698 7
-0.077895999 4.4200439 -4.0664058 7
-0.079650998 4.4101558 -4.0810552 7
-0.081413001 4.400146 -4.0957031 7
-0.081398003 4.3868408 -4.1054692 7
-0.084922999 4.380249 -4.125 7
-0.090202004 4.3770752 -4.1494141 7
0.066909999 -1.460784 -14.169648 7
-0.016346 -1.712365 -7.1642909 7
0.031982001 -1.556356 -4.8603969 7
-0.071892999 -1.832196 -4.2815728 7
-0.0086559998 -1.6793 -2.8839409 7
-0.246883 -4.877573 -2.8035741 7
-0.0071999999 -1.731375 -0.47153401 7
0.0026700001 -1.8370759 -0.39985001 7
-0.102002 4.3355961 -8.043786 7
-0.102123 4.4096832 -0.58881003 7
-0.089570999 4.2045789 -0.358284 7
0.017997 -0.09674 -19.619835 7
0.042114001 -1.600545 -13.305991 7
-0.086287998 -1.7133 -10.962307 7
-0.055220999 -1.68768 -8.8862848 7
-0.070285998 4.3970842 -8.3218222 7
-0.041354999 -1.69098 -7.5916491 7
0.031716 1.149508 -6.6991968 7
-0.026503 -1.6166019 -6.6037402 7
-4.9999999e-06 1.163642 -5.780304 7
0.00124 0.96441001 -5.804749 7
-0.105311 4.382854 -4.6563482 7
0.019148 1.217464 -5.105195 7
-0.09025 4.428865 -3.610142 7
-0.089358002 4.2882972 -3.7729981 7
0.02581 1.24198 -4.6550002 7
0.027426001 1.087821 -4.6838641 7
-0.040621001 -1.7455961 -4.7089429 7
-0.028074 -1.708743 -4.2930522 7
-0.053475998 4.315495 -0.43835801 7
-0.056646999 4.3390579 -0.61994499 7
0.00501 1.2342319 -4.2175112 7
-0.005049 1.126622 -4.32864 7
0.006784 0.96573502 -4.2865939 7
-0.016404999 -1.64283 -3.7050741 7
-0.049941 -1.756724 -3.645026 7
-0.034926001 -1.695731 -3.1737759 7
-0.041370999 -1.807251 -3.1317329 7
-0.019352 -1.6938 -2.8938501 7
