# .PCD v0.7 - Point Cloud Data file format
VERSION 0.7
FIELDS x y z intensity
SIZE 4 4 4 4
TYPE F F F F
COUNT 1 1 1 1
WIDTH 644
HEIGHT 1
VIEWPOINT 0 0 0 1 0 0 0
POINTS 644
DATA ascii
0.219337 3.350708 -66.585938 7
0.12930299 3.335083 -69.71582 7
0.041274998 3.3015749 -72.775391 7
0.175148 3.6364751 -60.397461 7
0.22268701 3.407166 -58.939453 7
0.17491899 3.3430181 -60.419922 7
0.194168 -0.035461001 -53.157227 7
-0.82058001 -1.263855 73.112305 7
-0.83555597 -1.099548 73.477539 7
-0.89366901 -0.946594 74.87207 7
-0.88639098 -0.249512 74.727539 7
-0.80284899 -0.073669001 72.737305 7
-0.82247901 0.096069001 73.211914 7
0.201683 3.7115481 -52.851562 7
0.15636399 3.6643679 -54.104492 7
0.220589 3.420532 -52.349609 7
0.163544 3.3881841 -53.922852 7
0.130989 3.30896 -54.824219 7
0.050338998 3.299927 -57.044922 7
0.188629 -0.081786998 -47.004883 7
-0.88686401 -4.5169678 68.313477 7
-0.964661 -4.4688721 70.024414 7
-1.020447 -4.382812 71.254883 7
-0.81627703 -1.473694 66.980469 7
-0.814201 -1.317566 66.942383 7
-0.82512701 0.39300501 67.241211 7
-0.79230499 0.54303002 66.526367 7
-0.76830298 0.69189501 66.005859 7
0.165985 3.776978 -48.543945 7
0.099922001 3.6552119 -50.200195 7
0.150902 3.4459839 -48.942383 7
0.122208 3.3731079 -49.661133 7
0.057053 3.2289431 -51.295898 7
0.1884 0.032531999 -47.017578 7
0.117897 -0.029906999 -44.967773 7
0.15628099 -0.137573 -44.101562 7
0.171059 -0.243958 -43.767578 7
0.165047 -0.35266101 -43.901367 7
0.207596 -0.45062301 -42.941406 7
-0.825836 -4.622498 61.422852 7
-0.88646698 -4.5708618 62.647461 7
-0.93834698 -4.5007319 63.695312 7
-1.020927 -4.4684448 65.357422 7
-0.78451502 -1.891541 60.8125 7
-0.77829701 -1.60675 60.704102 7
-0.75540203 0.91772503 60.330078 7
-0.68840802 1.033325 58.989258 7
-0.69815099 1.17395 59.185547 7
-0.73744202 4.1013179 59.916016 7
-0.68712598 4.1672969 58.90332 7
0.131294 3.9130859 -44.526367 7
0.10038 3.8610229 -45.228516 7
0.071548 3.802002 -45.884766 7
0.037521001 3.7489009 -46.65625 7
0.0089419996 3.6828611 -47.307617 7
0.014351 3.4425049 -47.201172 7
0.17302699 0.185669 -43.727539 7
0.136108 0.079650998 -44.558594 7
0.084816001 -0.37384 -41.265625 7
0.122963 -0.465942 -40.486328 7
0.123604 -0.564758 -40.466797 7
0.127121 -0.662476 -40.389648 7
0.15576901 -0.75060999 -39.802734 7
-0.97930098 -4.6541748 60.011719 7
-0.69660199 0.95635998 55.054688 7
-0.62781501 1.181885 53.775391 7
-0.73041499 4.0574341 55.62207 7
-0.67690998 4.1092529 54.621094 7
-0.63251501 4.1699219 53.790039 7
0.093781002 3.981262 -41.660156 7
0.068145998 3.926208 -42.199219 7
0.03717 3.8783569 -42.848633 7
0.0058820001 3.8280029 -43.504883 7
-0.038345002 3.7966919 -44.428711 7
0.124542 0.62335199 -40.50293 7
0.15055101 0.51763898 -39.97168 7
0.11834 0.42639199 -40.62207 7
0.132835 0.32482901 -40.325195 7
0.089934997 0.23101801 -41.191406 7
0.142189 -0.68969703 -36.475586 7
0.133858 -0.87207001 -36.618164 7
0.144081 -0.95696998 -36.421875 7
-0.84775501 -4.711792 52.995117 7
-0.53683501 1.0526119 48.001953 7
-0.53839099 1.1636961 48.02832 7
-0.601547 4.131958 49.018555 7
-0.56592602 4.1907959 48.402344 7
-0.53577399 4.255188 47.881836 7
0.123413 4.125916 -37.19043 7
0.094039999 4.0914311 -37.75293 7
0.067763999 4.0484619 -38.256836 7
0.043632999 3.999084 -38.719727 7
0.0093080001 3.966125 -39.374023 7
-0.023163 3.9268191 -39.995117 7
0.112221 0.440063 -37.600586 7
0.095650002 -0.81994599 -34.369141 7
0.104851 -0.98431402 -34.200195 7
0.116302 -1.062439 -34 7
-0.083999999 -4.1721802 -37.082031 7
-0.071846001 -4.2399902 -36.864258 7
-0.053543001 -4.2947388 -36.539062 7
-0.081244998 -4.438354 -36.993164 7
-0.50257099 0.965271 44.133789 7
-0.48038501 1.057739 43.780273 7
-0.49788699 1.165771 44.058594 7
-0.47974399 1.2583621 43.769531 7
-0.58167303 4.1219478 45.283203 7
-0.54113799 4.1642461 44.632812 7
0.423531 23.499634 18.206055 7
0.422997 23.548828 18.15625 7
0.424225 23.573975 18.09082 7
0.42689499 23.579834 18.010742 7
0.42671201 23.623901 17.958984 7
0.089523003 4.2967529 -34.702148 7
0.067382999 4.255188 -35.095703 7
0.052643001 4.1972051 -35.360352 7
0.02076 4.0822139 -35.932617 7
0.12894399 0.91235399 -34.243164 7
0.150391 0.81866503 -33.87207 7
0.122871 0.74462903 -34.352539 7
0.113106 0.66272002 -34.522461 7
0.090263002 -0.98657203 -31.490234 7
0.094566002 -1.062073 -31.417969 7
0.118279 -1.126526 -31.041016 7
0.090476997 -1.219177 -31.47168 7
0.100388 -1.290527 -31.310547 7
0.118874 -1.3555911 -31.014648 7
-0.109253 -4.2902222 -34.246094 7
-0.089240998 -4.3356929 -33.922852 7
-0.074470997 -4.3901372 -33.680664 7
-0.052948002 -4.4299321 -33.333984 7
-0.51219898 -1.911621 40.876953 7
-0.53920001 -1.836426 41.27832 7
-0.56898499 -1.761047 41.720703 7
-0.47351801 0.88568097 40.40332 7
-0.442734 0.96661401 39.951172 7
-0.480423 1.073181 40.50293 7
-0.42721599 1.233582 39.720703 7
-0.53509498 4.2115479 41.165039 7
-0.49200401 4.2377319 40.527344 7
-0.45607799 4.272522 39.994141 7
-0.48220101 4.4073491 40.369141 7
0.36299899 21.725586 18.21582 7
0.363159 21.765259 18.164062 7
0.36254099 21.813965 18.119141 7
0.36171699 21.906738 18.026367 7
0.36187699 21.945923 17.974609 7
0.066963002 4.4533691 -31.94043 7
0.067345001 4.3731079 -31.945312 7
0.051589999 4.3256841 -32.205078 7
0.034401 4.2797852 -32.488281 7
0.014992 4.237 -32.804688 7
-0.012848 4.2087402 -33.254883 7
0.130997 1.14502 -31.182617 7
0.136086 0.98736602 -31.104492 7
0.11557 0.918823 -31.43457 7
0.091003001 0.85064697 -31.827148 7
0.076668002 -1.07373 -29.540039 7
0.062125999 -1.1546021 -29.748047 7
0.082726002 -1.216125 -29.44043 7
0.088942997 -1.285156 -29.344727 7
0.090195 -1.429077 -29.314453 7
-0.118538 -4.3414922 -32.018555 7
-0.110741 -4.4052119 -31.892578 7
-0.083099 -4.5065308 -31.463867 7
-0.091293 -4.6004028 -31.569336 7
-0.49404901 -1.95636 38.192383 7
-0.52325398 -1.889648 38.599609 7
-0.52909899 -1.805542 38.686523 7
-0.44074199 0.98828101 37.552734 7
-0.414314 1.0632319 37.1875 7
-0.44178799 1.160156 37.56543 7
-0.413681 1.2325439 37.177734 7
-0.52250701 4.1095581 38.52832 7
-0.51350403 4.1837769 38.397461 7
-0.48669401 4.229126 38.023438 7
-0.45943499 4.2721558 37.640625 7
-0.46694201 4.370544 37.735352 7
0.30582401 20.501099 18.222656 7
0.30804399 20.518311 18.15625 7
0.30901301 20.548706 18.100586 7
0.30834201 20.59729 18.05957 7
0.30684701 20.654663 18.025391 7
0.30740401 20.689209 17.972656 7
0.30590799 20.746704 17.9375 7
0.39653 21.549683 14.759766 7
0.39214301 21.635986 14.742188 7
0.040679999 4.4354248 -30.073242 7
0.020691 4.4009399 -30.378906 7
-0.001259 4.292419 -30.723633 7
-0.039260998 4.2892461 -31.295898 7
0.100716 1.159119 -29.456055 7
0.065513998 -1.3308721 -27.566406 7
0.075309999 -1.399658 -27.238281 7
0.051003002 -1.4840699 -27.560547 7
0.058166999 -1.547119 -27.458008 7
-0.120308 -4.4588618 -29.499023 7
-0.118759 -4.5283198 -29.463867 7
-0.103371 -4.5700679 -29.246094 7
-0.092712 -4.620544 -29.09082 7
-0.086852998 -4.6798711 -28.998047 7
-0.464935 -1.79895 35.241211 7
-0.40517399 0.98944098 34.561523 7
-0.39321899 1.06311 34.407227 7
-0.419083 1.152832 34.737305 7
-0.39982599 1.222717 34.489258 7
-0.486404 4.1752319 35.422852 7
-0.464432 4.2211299 35.134766 7
-0.44429001 4.2684331 34.870117 7
-0.42594901 4.317627 34.62793 7
-0.45313999 4.4422002 34.96582 7
0.34496301 20.193237 14.722656 7
0.047821 4.5637212 -27.492188 7
0.035087999 4.521606 -27.674805 7
0.022781 4.4779658 -27.851562 7
0.0096359998 4.434937 -28.041016 7
-0.011566 4.407227 -28.34082 7
-0.035735998 4.3838501 -28.680664 7
-0.032752998 4.306519 -28.650391 7
0.102081 1.40979 -27.077148 7
0.091018997 1.2125241 -27.237305 7
0.068092003 1.156799 -27.555664 7
0.090117998 1.076538 -27.25293 7
0.054855 -1.510437 -25.59668 7
0.026558001 -1.59491 -25.948242 7
0.034706 -1.653015 -25.839844 7
0.046569999 -1.7078249 -25.68457 7
-0.136383 -4.5353999 -27.609375 7
-0.145355 -4.6213379 -27.708008 7
-0.130722 -4.6601558 -27.511719 7
-0.116982 -4.7000728 -27.329102 7
-0.109756 -4.7524409 -27.225586 7
-0.413147 -1.947571 32.482422 7
-0.43643999 -1.890869 32.767578 7
-0.42904699 -1.811462 32.683594 7
-0.45183599 -1.7527471 32.961914 7
-0.41001901 0.92541498 32.540039 7
-0.386574 0.99017298 32.258789 7
-0.405426 1.070984 32.482422 7
-0.39172399 1.138672 32.318359 7
-0.35804701 1.196167 31.912109 7
-0.37986001 1.279297 32.172852 7
-0.45746601 4.1686401 32.908203 7
-0.43987301 4.2155151 32.69043 7
-0.41693899 4.2521968 32.410156 7
-0.405655 4.3070068 32.265625 7
-0.43466899 4.4293208 32.601562 7
-0.0083539998 4.6393428 -26.232422 7
-0.001526 4.5592041 -26.157227 7
-0.042389002 4.443542 -26.706055 7
-0.048721001 4.3887329 -26.798828 7
0.055367 1.3635859 -25.686523 7
0.043715999 -1.291321 -23.828125 7
0.034988001 -1.4159549 -23.920898 7
0.043297 -1.470032 -23.818359 7
0.019814 -1.546082 -24.087891 7
0.027122 -1.600708 -23.99707 7
0.031456001 -1.657166 -23.941406 7
-0.14994 -4.6196289 -25.643555 7
-0.144104 -4.6716309 -25.564453 7
-0.133324 -4.712769 -25.425781 7
-0.129005 -4.7669072 -25.363281 7
-0.39379901 -1.8701169 30.160156 7
-0.39371499 -1.801941 30.164062 7
-0.40457901 -1.74115 30.291016 7
-0.34003401 0.97406 29.649414 7
-0.33002499 1.036804 29.536133 7
-0.35705599 1.115417 29.836914 7
-0.338707 1.174194 29.629883 7
-0.32923901 1.236511 29.522461 7
-0.417786 4.1721802 30.291992 7
-0.39945999 4.210876 30.081055 7
-0.38791701 4.259644 29.944336 7
-0.374275 4.304565 29.78418 7
-0.393318 4.4723511 29.976562 7
0.083991997 1.231689 -23.442383 7
0.082024001 1.173645 -23.467773 7
0.069297999 1.12085 -23.623047 7
0.083480999 1.0541379 -23.456055 7
0.095206998 0.98919702 -23.318359 7
-0.153671 -4.5010381 -23.878906 7
-0.17248499 -4.5970459 -24.068359 7
-0.171562 -4.6550288 -24.045898 7
-0.163193 -4.697876 -23.943359 7
-0.159233 -4.8087769 -23.875 7
-0.054283001 4.4458618 -22.931641 7
0.061127 0.938721 -22.033203 7
0.072655 0.87780797 -21.907227 7
0.078925997 0.81970203 -21.839844 7
0.074202999 0.76593 -21.894531 7
0.075768001 0.70971698 -21.87793 7
0.082557999 0.65203899 -21.803711 7
0.024863999 -1.452271 -20.832031 7
-0.164719 -4.510437 -22.317383 7
-0.175102 -4.5863042 -22.40918 7
-0.185516 -4.6626592 -22.500977 7
-0.179405 -4.7064819 -22.425781 7
-0.172142 -4.7478032 -22.34082 7
0.073090002 0.299988 -20.381836 7
0.076995999 0.247559 -20.341797 7
0.089309998 0.194397 -20.213867 7
0.089294001 0.142883 -20.214844 7
0.089272 0.091187 -20.214844 7
0.090384997 0.039429002 -20.203125 7
0.058104999 -0.324341 -19.254883 7
0.062224999 -0.37249801 -19.212891 7
0.065742001 -0.42022699 -19.177734 7
0.060196001 -0.46991 -19.228516 7
0.0625 -0.517883 -19.204102 7
0.066611998 -0.56530797 -19.162109 7
0.068297997 -0.61321998 -19.142578 7
-0.0052109999 -1.6333621 -19.773438 7
0.00070199999 -1.678467 -19.711914 7
-2.3000001e-05 -1.728821 -19.713867 7
-0.182274 -4.4837041 -21.026367 7
-0.18604299 -4.5436401 -21.050781 7
-0.20494799 -4.632935 -21.216797 7
-0.206917 -4.6898799 -21.22168 7
-0.20098101 -4.7312622 -21.154297 7
-0.197487 -4.7772222 -21.108398 7
-0.189751 -4.8143311 -21.023438 7
-0.055854999 4.7713618 -19.789062 7
-0.044502001 4.6968989 -19.692383 7
-0.017075 4.589417 -19.439453 7
-0.026604 4.5594478 -19.541016 7
-0.034926999 4.5262451 -19.631836 7
-0.03968 4.4855962 -19.689453 7
-0.057571001 4.4709468 -19.870117 7
-0.055771001 4.4165039 -19.863281 7
-0.0096819997 -1.630127 -18.519531 7
-0.0027310001 -1.671692 -18.452148 7
-0.00028199999 -1.71637 -18.423828 7
-0.19859301 -4.5369258 -19.743164 7
-0.20323201 -4.595459 -19.772461 7
-0.211761 -4.6616211 -19.833984 7
-0.211243 -4.7103882 -19.816406 7
-0.20364401 -4.7449951 -19.737305 7
-0.199249 -4.7857671 -19.686523 7
-0.073279999 4.510498 -18.624023 7
-0.070076004 4.4561772 -18.606445 7
-0.00070999999 -1.312622 -17.363281 7
0.007332 -1.351746 -17.290039 7
0.002472 -1.398926 -17.327148 7
-0.0064539998 -1.448853 -17.399414 7
-0.011322 -1.4962161 -17.436523 7
0.003517 -1.530212 -17.305664 7
-0.033295002 -1.60083 -17.615234 7
-0.0057529998 -1.282227 -16.338867 7
-0.0080180001 -1.325195 -16.352539 7
-0.0037769999 -1.364319 -16.314453 7
0.002602 -1.401917 -16.259766 7
-0.0032500001 -1.4472049 -16.302734 7
-0.0040819999 -1.4892581 -16.304688 7
-0.0063319998 -1.532593 -16.319336 7
-0.002846 -1.571594 -16.285156 7
-0.026627 4.5522461 -15.873047 7
-0.034453999 4.526978 -15.944336 7
-0.0063169999 -1.330078 -15.363281 7
-0.017082 -1.376038 -15.44043 7
-0.018798999 -1.4562989 -15.445312 7
-0.011284 -1.490723 -15.382812 7
-0.010605 -1.529785 -15.374023 7
-0.034325 -1.58606 -15.549805 7
-0.002602 -1.477173 -14.397461 7
-0.027946001 -1.597229 -13.760742 7
-0.027283 -1.667847 -13.74707 7
-0.029929999 -1.705322 -13.758789 7
-0.024071001 -1.736328 -13.71582 7
-0.011406 -1.3041379 -12.927734 7
-0.010597 -1.337219 -12.917969 7
-0.019585 -1.376465 -12.973633 7
-0.017890999 -1.409119 -12.958008 7
-0.030425999 -1.45105 -13.035156 7
-0.018051 -1.476746 -12.951172 7
-0.018127 -1.510376 -12.947266 7
-0.015556 -1.542114 -12.925781 7
-0.026320999 -1.5834351 -12.991211 7
-0.041542001 -1.6283571 -13.084961 7
-0.029152 -1.653137 -13.000977 7
-0.030205 -1.7214971 -12.999023 7
-0.038307 -1.761658 -13.045898 7
-0.048202999 -1.803528 -13.104492 7
-0.050055999 -1.8390501 -13.111328 7
-0.065140001 4.395752 -12.511719 7
-0.073067002 4.3779302 -12.571289 7
-0.057151999 4.3137212 -12.481445 7
-0.077454001 4.401001 -11.850586 7
-0.045745999 -1.631104 -11.731445 7
-0.042885002 -1.659668 -11.710938 7
-0.036079001 -1.685303 -11.666992 7
-0.041060999 -1.719849 -11.691406 7
-0.041152999 -1.750366 -11.686523 7
-0.053986002 -1.791504 -11.755859 7
-0.058975 -1.8264771 -11.78125 7
-0.059036002 -1.857361 -11.776367 7
-0.063056998 -1.891541 -11.794922 7
-0.055351 -1.624023 -11.196289 7
-0.053390998 -1.6521 -11.180664 7
-0.046287999 -1.676208 -11.136719 7
-0.046356 -1.705505 -11.132812 7
-0.046425 -1.7351069 -11.128906 7
-0.056747001 -1.772583 -11.181641 7
-0.046303 -1.650879 -10.530273 7
-0.042068001 -1.675598 -10.50293 7
-0.044289 -1.705078 -10.509766 7
-0.046509001 -1.734863 -10.517578 7
-0.044509999 -1.611694 -9.5058594 7
-0.058623999 -1.647522 -9.5703115 7
-0.056366 -1.671387 -9.5537109 7
-0.049385 -1.691833 -9.5166016 7
-0.049461 -1.717285 -9.5117188 7
-0.049522001 -1.742981 -9.5078115 7
-0.049575999 -1.768494 -9.5039062 7
-0.062553003 -1.80426 -9.5605469 7
-0.067313999 -1.833923 -9.5791016 7
-0.065017998 -1.8577271 -9.5634766 7
-0.069778003 -1.887329 -9.5820312 7
0.0077740001 1.263245 -9.0859385 7
0.010094 1.236694 -9.0771484 7
0.01088 1.211975 -9.0791016 7
0.010887 1.186829 -9.0820312 7
-0.00075499999 1.167847 -9.1416016 7
0.0038989999 1.139954 -9.1220703 7
0.0050659999 1.113892 -9.1191406 7
0.0050659999 1.088684 -9.1210938 7
0.0038759999 1.064026 -9.1279297 7
0.003883 1.038635 -9.1308594 7
0.0050579999 1.012817 -9.1279297 7
0.0027079999 0.988464 -9.140625 7
0.010605 1.258301 -8.6171885 7
0.011818 1.233459 -8.6142578 7
0.01181 1.11261 -8.6279297 7
0.011818 1.0641479 -8.6337891 7
-0.042679001 -1.61322 -8.5566406 7
-0.049102999 -1.641174 -8.5810547 7
-0.046615999 -1.662659 -8.5654297 7
-0.041565001 -1.6821899 -8.5400391 7
-0.042892002 -1.7064821 -8.5410156 7
-0.044234999 -1.730774 -8.5429688 7
-0.046852 -1.756104 -8.5488281 7
-0.059691999 -1.78949 -8.6015615 7
-0.061020002 -1.814026 -8.6025391 7
-0.064902999 -1.840515 -8.6152344 7
-0.066238001 -1.86499 -8.6162109 7
-0.070137002 -1.891724 -8.6289062 7
-0.072746001 -1.917358 -8.6357422 7
-0.126472 6.3870239 -6.6748052 7
-0.126442 6.3676152 -6.6894531 7
-0.123878 6.341064 -6.695312 7
-0.12513 6.3251338 -6.7138672 7
-0.078148 4.476685 -7.6064448 7
-0.071792997 4.4422612 -7.592773 7
-0.073036 4.4230962 -7.6074219 7
-0.070496 4.3965449 -7.6074219 7
-0.071739003 4.3773189 -7.6230469 7
-0.076797001 4.3652339 -7.6542969 7
0.021461001 1.264282 -8.1035156 7
0.016380001 1.244202 -8.1289062 7
0.016388001 1.221252 -8.1318359 7
0.016388001 1.198181 -8.1347656 7
0.013855 1.176514 -8.1494141 7
0.0037 1.158936 -8.1962891 7
0.0075070001 1.13385 -8.1816406 7
0.01004 1.109497 -8.1728516 7
0.010048 1.086426 -8.1757812 7
0.0075070001 1.064453 -8.1904297 7
0.01133 1.039551 -8.1757812 7
0.01004 1.017029 -8.1835938 7
0.010056 0.99389601 -8.1855469 7
0.011292 0.970276 -8.1816406 7
-0.059181001 -1.626587 -8.2158203 7
-0.063239999 -1.6520391 -8.2275391 7
-0.063285999 -1.6745 -8.2246094 7
-0.055374 -1.691162 -8.1855469 7
-0.059425 -1.7164921 -8.1972656 7
-0.063460998 -1.742065 -8.2119141 7
-0.064834997 -1.765625 -8.2138672 7
-0.075522996 -1.796509 -8.2539062 7
-0.083534002 -1.825623 -8.2822266 7
-0.088904999 -1.852722 -8.3007812 7
-0.086333998 -1.873047 -8.2841797 7
-0.062743999 4.4703369 -5.03125 7
-0.061119001 4.4516602 -5.0371089 7
-0.065871999 4.445435 -5.061523 7
-0.065848999 4.429565 -5.0722661 7
-0.065834001 4.4138179 -5.0830078 7
-0.065819003 4.3982539 -5.092773 7
-0.062622003 4.3763428 -5.092773 7
-0.065788001 4.3666992 -5.1123052 7
-0.382103 -6.4468989 -4.4345698 7
-0.38215601 -6.4606318 -4.4199219 7
-0.382202 -6.4741211 -4.4042969 7
-0.37391701 -6.4664922 -4.3701172 7
-0.37898299 -6.4927368 -4.3662109 7
-0.380707 -6.5102539 -4.3544922 7
-0.379089 -6.5195308 -4.3349609 7
-0.379143 -6.5328979 -4.3193359 7
-0.37252799 -6.5291748 -4.2900391 7
-0.374268 -6.5465088 -4.2763672 7
-0.37932599 -6.5728149 -4.2724609 7
-0.37435901 -6.5731201 -4.2460942 7
-0.371086 -6.5777588 -4.2236328 7
-0.38115701 -6.6167598 -4.2294922 7
-0.38453701 -6.6384282 -4.2207031 7
-0.379585 -6.6384888 -4.1943359 7
-0.39299801 -6.6862178 -4.2070308 7
-0.399719 -6.7165532 -4.2050781 7
-0.063781999 4.4771729 -4.6591802 7
-0.068709999 4.4721069 -4.6826172 7
-0.067038998 4.454102 -4.6894531 7
-0.067009002 4.4393311 -4.7001948 7
-0.065346003 4.4213872 -4.704102 7
-0.068634003 4.4129639 -4.7246089 7
-0.068604 4.3980708 -4.735352 7
-0.061981 4.3702998 -4.7275391 7
-0.066917002 4.3651118 -4.750977 7
-0.075142004 4.3660889 -4.7851558 7
-0.083359003 4.3669429 -4.8183589 7
-0.083359003 4.3518682 -4.828125 7
-0.089942999 4.3493042 -4.8564448 7
-0.086617 4.3279419 -4.858398 7
-0.091545001 4.322021 -4.8818359 7
-0.091530003 4.3068242 -4.891602 7
-0.083267003 4.276123 -4.8779302 7
-0.089836001 4.2732539 -4.9082031 7
-0.086516999 4.251709 -4.9082031 7
-0.079902999 4.2241211 -4.898438 7
-0.086471997 4.2211299 -4.9287109 7
-0.079879999 4.193604 -4.9179692 7
-0.081496999 4.1812129 -4.9326172 7
-0.081482001 4.1659551 -4.9423828 7
-0.37564099 -6.5040889 -3.8251951 7
-0.37222299 -6.5075679 -3.8037109 7
-0.37229201 -6.5195308 -3.7871089 7
-0.37235999 -6.5316162 -3.7714839 7
-0.37239799 -6.5435791 -3.7558589 7
-0.37764001 -6.5689092 -3.75 7
-0.37422201 -6.572021 -3.7285161 7
-0.38117999 -6.601685 -3.726562 7
-0.376068 -6.6002202 -3.7001951 7
-0.381302 -6.6255488 -3.695312 7
-0.38479599 -6.6464229 -3.6855471 7
-0.37969199 -6.6447749 -3.6582029 7
-0.37455699 -6.6430659 -3.632812 7
-0.383255 -6.677124 -3.6337891 7
-0.38503301 -6.693542 -3.621094 7
-0.070152 4.4769292 -4.3300781 7
-0.070770003 4.462646 -4.3408198 7
-0.069045998 4.445374 -4.3457031 7
-0.069022998 4.431335 -4.3564448 7
-0.069016002 4.4172969 -4.367188 7
-0.070694 4.4067988 -4.382812 7
-0.070685998 4.3927002 -4.391602 7
-0.070656002 4.3786621 -4.4013672 7
-0.079177998 4.381104 -4.4355469 7
-0.084289998 4.37677 -4.4580078 7
-0.094527997 4.3822632 -4.4970698 7
-0.092795998 4.364624 -4.5029302 7
-0.096184 4.356812 -4.5224609 7
-0.091049001 4.3327031 -4.5185552 7
-0.087615997 4.3118901 -4.5185552 7
-0.089302003 4.3005981 -4.5341802 7
-0.085860997 4.2797241 -4.5341802 7
-0.087554999 4.2686772 -4.5488281 7
-0.085837997 4.250916 -4.5537109 7
-0.082390003 4.230042 -4.5556641 7
-0.085785002 4.2220459 -4.5742192 7
-0.084060997 4.2043462 -4.5800781 7
-0.082314 4.186584 -4.585938 7
-0.084037997 4.175354 -4.5986328 7
-0.079131998 4.4769292 -4.0224609 7
-0.102669 4.4685059 -4.1220698 7
-0.106186 4.4620361 -4.141602 7
-0.099097997 4.4347529 -4.1337891 7
-0.095550999 4.4145508 -4.1347661 7
-0.100815 4.4113159 -4.1591802 7
-0.100807 4.3978271 -4.1689448 7
-0.097244002 4.377502 -4.170898 7
-0.102531 4.374084 -4.195312 7
-0.091881 4.340271 -4.1777339 7
-0.083038002 4.309814 -4.1660161 7
-0.083030999 4.2963262 -4.1748052 7
-0.091843002 4.2993159 -4.2070308 7
-0.088271998 4.2791138 -4.2080078 7
-0.079414003 4.2488399 -4.1962891 7
-0.088225998 4.2518311 -4.2294922 7
-0.075828999 4.2149658 -4.2080078 7
-0.081123002 4.21106 -4.2304692 7
-0.082886003 4.2008672 -4.2451172 7
-0.095229998 4.2098389 -4.2880859 7
-0.082840003 4.1732788 -4.264648 7
-0.093429998 4.1790161 -4.3007808 7
0.090970002 -1.5210119 -10.820273 7
-0.045697 -1.842703 -7.4366431 7
0.011702 -1.717886 -5.8345761 7
-0.072237998 -1.909662 -4.2621069 7
-0.435157 -6.4802718 -4.396214 7
-0.245258 -4.7170329 -0.216934 7
-0.23576 -4.8160968 -0.021748001 7
-0.279046 -4.8435912 0.47481099 7
-0.300935 -5.0133638 0.60014898 7
-0.26446399 -4.742826 0.77852798 7
-0.247456 -4.54843 0.90651399 7
-0.25405601 -4.6535878 1.05075 7
-0.26546299 -4.7676401 1.191622 7
-0.25381899 -4.8058238 1.373122 7
-0.26502201 -4.9074092 1.522265 7
-0.249743 -4.7157388 1.606596 7
-0.243982 -4.7559991 1.773447 7
-0.29118299 -4.8556499 2.0953009 7
-0.325699 -5.0907011 2.9157109 7
-0.322319 -5.0862069 3.0879681 7
-0.261141 -4.4873762 1.706611 7
-0.26746699 -4.5600762 1.849452 7
-0.273114 -4.7051821 2.306998 7
-0.27908599 -4.7535419 2.4603829 7
-0.27393401 -4.7627292 2.6216719 7
-0.27605599 -4.7873082 2.779593 7
-0.28728101 -4.8330622 2.9362421 7
-0.27630401 -4.8058 3.0985179 7
-0.248503 -4.5095949 2.3563709 7
-0.262106 -4.5777369 2.496937 7
-0.260463 -4.59656 2.648983 7
-0.264431 -4.6255999 2.7992361 7
0.042036001 1.228671 -5.723947 7
-0.056113999 4.2614918 -4.1993742 7
0.064602003 1.202648 -4.7020321 7
-0.13849901 4.4728088 -11.335134 7
-0.204546 4.461586 -12.588239 7
-0.057603002 -1.695423 -8.9217567 7
-0.020014999 1.187143 -8.3974266 7
-0.044089001 -1.70013 -7.6264768 7
-0.032775 -1.696264 -6.6598768 7
-0.018671 1.210453 -5.966372 7
-0.019683 1.008014 -6.0149789 7
-0.074658997 -1.681764 -5.8943119 7
-0.088748999 4.3802948 -4.4340978 7
-0.091034003 4.230546 -4.6079378 7
0.015332 1.233359 -4.7499409 7
-0.032782 -1.725089 -4.323072 7
-0.00544 1.262331 -4.2872319 7
-0.01409 1.113822 -4.4002261 7
-0.022962 -1.6938339 -3.9761989 7
-0.046516001 -1.904054 -4.0442319 7
