# .PCD v0.7 - Point Cloud Data file format
VERSION 0.7
FIELDS x y z intensity
SIZE 4 4 4 4
TYPE F F F F
COUNT 1 1 1 1
WIDTH 634
HEIGHT 1
VIEWPOINT 0 0 0 1 0 0 0
POINTS 634
DATA ascii
-0.005653 -3.6994629 -70.539062 7
-0.039978001 -3.362488 -64.008789 7
0.162045 3.6746831 -61.209961 7
0.123825 3.5922849 -62.404297 7
0.15444601 3.389282 -61.459961 7
0.094779998 3.3349609 -63.321289 7
0.031704001 3.2770391 -65.287109 7
-0.76072299 -4.3876948 71.349609 7
-0.83012402 -4.3217158 73.013672 7
-0.87959301 -4.2203369 74.203125 7
-0.69102901 -1.206604 69.90625 7
-0.68495601 -1.042114 69.768555 7
-0.75572199 -0.90185499 71.461914 7
-0.72206903 0.250732 70.689453 7
-0.77350998 3.60144 71.93457 7
0.155476 3.678894 -54.450195 7
0.081661001 3.674927 -56.496094 7
0.047786999 3.5942991 -57.439453 7
0.092391998 3.382324 -56.214844 7
0.059363998 3.296448 -57.132812 7
-0.025032001 3.2824099 -59.472656 7
0.146854 -0.081726 -47.555664 7
-0.76836801 -4.4865112 65.612305 7
-0.85017401 -4.4603882 67.392578 7
-0.92650598 -4.4125371 69.066406 7
-0.69691801 -1.5608521 64.254883 7
-0.68306702 -1.405151 63.961914 7
-0.67024201 0.66857898 63.753906 7
-0.64030498 0.80767798 63.101562 7
-0.62833399 0.95001203 62.84375 7
0.119614 3.6316531 -49.979492 7
0.070762999 3.592468 -51.207031 7
0.038963001 3.5192871 -52.010742 7
0.106922 3.2849121 -50.318359 7
0.057372998 3.2371221 -51.564453 7
-0.0059930002 3.2037959 -53.15332 7
0.097851001 -0.037659001 -45.635742 7
0.117718 -0.148132 -45.183594 7
0.101391 -0.26110801 -45.550781 7
0.135216 -0.366882 -44.785156 7
-0.73741502 -4.6182861 59.575195 7
-0.78411502 -4.5522461 60.519531 7
-0.82788497 -4.477356 61.404297 7
-0.905922 -4.4478149 62.97168 7
-0.67608303 -1.819458 58.567383 7
-0.632626 -1.658386 57.706055 7
-0.63217503 -1.524902 57.704102 7
-0.59223199 -1.3718261 56.913086 7
-0.53694898 -1.0864871 55.821289 7
-0.50550801 -0.946594 55.197266 7
-0.59979999 0.994995 57.128906 7
-0.59056097 1.1233521 56.945312 7
-0.58979797 1.2546999 56.930664 7
-0.605003 4.1759028 57.177734 7
-0.56921399 4.2529912 56.457031 7
0.073746003 3.8105471 -46.067383 7
0.030842001 3.7727051 -47.043945 7
0.0093879998 3.6939089 -47.536133 7
-0.02808 3.6390381 -48.389648 7
0.01012 3.4597781 -47.535156 7
-0.0097810002 3.3739619 -47.993164 7
0.105442 0.18554699 -45.464844 7
0.024967 -0.380676 -42.143555 7
0.069858998 -0.47351101 -41.235352 7
0.047268 -0.58032203 -41.68457 7
0.082291 -0.67108202 -40.976562 7
-0.60627401 0.43383801 53.290039 7
-0.58570099 0.55255097 52.907227 7
-0.57358199 0.67169201 52.68457 7
-0.55231899 1.028442 52.292969 7
-0.52728301 1.138672 51.827148 7
-0.55607998 1.271423 52.362305 7
-0.54454398 4.1546021 52.071289 7
0.025676999 3.9094241 -43.28125 7
-0.00042299999 3.8491211 -43.831055 7
-0.032382999 3.7961431 -44.504883 7
-0.064090997 3.7394409 -45.171875 7
-0.094085999 3.677002 -45.805664 7
0.086375996 0.430298 -40.938477 7
0.059544001 0.233215 -41.472656 7
0.017783999 0.13446 -42.308594 7
0.060504999 -0.71160901 -37.710938 7
0.087093003 -0.79400599 -37.217773 7
0.066196002 -0.89404303 -37.594727 7
0.085139997 -0.97717297 -37.241211 7
0.075089 -1.073547 -37.419922 7
-0.099209003 -4.1246948 -40.320312 7
-0.45682901 1.020874 46.575195 7
-0.47376999 1.135254 46.864258 7
-0.452099 1.232849 46.494141 7
-0.522259 4.119751 47.600586 7
-0.48419601 4.1700439 46.943359 7
-0.460495 4.2400508 46.533203 7
-0.42894399 4.2954712 45.987305 7
0.52547801 24.346802 17.870117 7
0.52467 24.400085 17.822266 7
0.524189 24.448547 17.770508 7
0.52303702 24.506653 17.726562 7
0.52519602 24.515808 17.648438 7
0.065208003 4.065002 -38.466797 7
0.035645001 4.025269 -39.035156 7
0.0030139999 3.9885859 -39.662109 7
-0.021637 3.9347529 -40.135742 7
-0.061039001 3.9042971 -40.890625 7
-0.093151003 3.856689 -41.5 7
0.082001001 0.63110399 -38.323242 7
0.078598 0.53723103 -38.389648 7
0.082557999 0.44171101 -38.314453 7
0.049582999 0.352478 -38.941406 7
0.055858999 -0.91509998 -34.811523 7
0.048836 -1.003845 -34.926758 7
0.069351003 -1.079102 -34.573242 7
0.058497999 -1.169922 -34.751953 7
0.035927001 -1.268494 -35.128906 7
-0.13242 -4.235352 -37.675781 7
-0.127083 -4.3173218 -37.572266 7
-0.467022 -1.839905 43.428711 7
-0.41588199 1.031433 42.706055 7
-0.431198 1.136047 42.949219 7
-0.41157201 1.22522 42.636719 7
-0.49241599 4.1863399 43.801758 7
-0.45516199 4.227356 43.205078 7
-0.430401 4.2860718 42.804688 7
-0.43538699 4.3926392 42.875977 7
0.033112001 4.2468872 -35.838867 7
0.037445001 4.1499019 -35.772461 7
0.016415 4.0999761 -36.141602 7
-0.0026209999 4.0456538 -36.483398 7
-0.036373001 4.016418 -37.081055 7
-0.060104001 3.966675 -37.501953 7
0.103039 0.83502197 -34.824219 7
0.079948001 0.75695801 -35.228516 7
0.068210997 0.58563203 -35.4375 7
0.064502999 0.49865699 -35.50293 7
0.025387 -1.0109251 -32.30957 7
0.044762 -1.080505 -32.00293 7
0.069778003 -1.145874 -31.609375 7
0.041839998 -1.239807 -32.039062 7
-0.171299 -4.2961431 -35.029297 7
-0.15262599 -4.347168 -34.729492 7
-0.132851 -4.3946528 -34.411133 7
-0.11607 -4.4464111 -34.139648 7
-0.46015501 -1.872498 40.077148 7
-0.47641799 -1.79187 40.321289 7
-0.497471 -1.7130131 40.635742 7
-0.37928 1.027954 38.979492 7
-0.37077701 1.113342 38.853516 7
-0.385414 1.209106 39.067383 7
-0.46408501 4.1897578 40.080078 7
-0.43808001 4.239624 39.693359 7
-0.414455 4.2915039 39.339844 7
-0.39084601 4.342041 38.987305 7
0.40173 21.292847 17.801758 7
0.40189001 21.331421 17.750977 7
0.40049401 21.38855 17.714844 7
0.40066099 21.426941 17.664062 7
0.03418 4.3716431 -32.59375 7
0.024342 4.3101811 -32.761719 7
0.003174 4.2703862 -33.107422 7
-0.019432001 4.2314448 -33.477539 7
-0.046417002 4.1990972 -33.917969 7
-0.064671002 4.148499 -34.216797 7
0.091853999 1.086182 -31.915039 7
0.088150002 0.92907703 -31.977539 7
0.060040001 0.86077899 -32.429688 7
0.047584999 0.78485101 -32.629883 7
0.024117 -1.317322 -30.12793 7
0.028628999 -1.4630131 -30.050781 7
0.048172001 -1.523193 -29.761719 7
-0.17675801 -4.348877 -32.711914 7
-0.16885 -4.4143071 -32.586914 7
-0.14866599 -4.5349121 -32.270508 7
-0.147194 -4.6112671 -32.236328 7
-0.45607799 -1.843994 37.637695 7
-0.47172201 -1.768494 37.858398 7
-0.38711199 0.96771199 36.776367 7
-0.370419 1.0446171 36.545898 7
-0.39665201 1.1394041 36.90625 7
-0.36976999 1.210876 36.535156 7
-0.43426901 4.227417 37.257812 7
-0.404037 4.262939 36.835938 7
-0.38779101 4.3197632 36.604492 7
-0.42029199 4.4589229 37.041016 7
0.34684399 20.001465 17.895508 7
0.349911 20.008606 17.821289 7
0.35047501 20.042908 17.770508 7
0.348553 20.104248 17.741211 7
0.34703401 20.16095 17.708984 7
0.347195 20.199219 17.661133 7
0.34569201 20.255798 17.62793 7
0.0082440004 4.3599849 -30.672852 7
-0.011269 4.32196 -30.973633 7
-0.027538 4.275208 -31.220703 7
-0.049019001 4.2380981 -31.549805 7
-0.073647 4.2053828 -31.925781 7
0.061172001 1.2548831 -30.136719 7
0.075626001 1.171631 -29.923828 7
0.053341001 1.108398 -30.258789 7
0.0076680002 -1.304871 -28.444336 7
0.032577999 -1.360291 -28.097656 7
0.031952001 -1.4211431 -27.683594 7
-0.001587 -1.5128779 -28.12793 7
0.017798999 -1.568481 -27.862305 7
0.029372999 -1.6287839 -27.701172 7
-0.178535 -4.4761348 -30.15332 7
-0.16913199 -4.532104 -30.013672 7
-0.157543 -4.583313 -29.84668 7
-0.141167 -4.6243291 -29.616211 7
-0.14348599 -4.7018428 -29.633789 7
-0.385452 -1.898315 34.189453 7
-0.406376 -1.83551 34.461914 7
-0.41222399 -1.761292 34.541016 7
-0.42629999 -1.691895 34.727539 7
-0.35908499 0.96795702 33.941406 7
-0.344852 1.039368 33.758789 7
-0.3484 1.117676 33.804688 7
-0.34737799 1.193909 33.790039 7
-0.33175299 1.262756 33.587891 7
-0.42100501 4.227478 34.544922 7
-0.39627501 4.2653809 34.222656 7
-0.37657201 4.3102422 33.964844 7
-0.359135 4.3577271 33.734375 7
0.294765 18.590332 17.713867 7
0.29507801 18.667419 17.626953 7
0.012074 4.5140381 -28.101562 7
-0.001862 4.4721069 -28.301758 7
-0.019184001 4.4361572 -28.550781 7
-0.034393001 4.3948359 -28.769531 7
-0.061023999 4.3748169 -29.142578 7
-0.080012999 4.3383179 -29.413086 7
-0.029324001 4.1694951 -28.729492 7
0.055622 1.44104 -27.794922 7
0.063625 1.366272 -27.6875 7
0.065269001 1.226624 -27.668945 7
0.028889 1.106567 -28.175781 7
-0.0056949998 -1.676331 -26.231445 7
0.0062560001 -1.731873 -26.075195 7
-0.18691599 -4.545959 -28.141602 7
-0.191715 -4.6246948 -28.1875 7
-0.180683 -4.6725459 -28.038086 7
-0.166885 -4.7139888 -27.853516 7
-0.162846 -4.7744751 -27.790039 7
-0.376057 -1.8484499 32.014648 7
-0.381836 -1.779907 32.088867 7
-0.39393601 -1.715271 32.238281 7
-0.38606301 -1.637329 32.149414 7
-0.328201 0.96716303 31.529297 7
-0.332008 1.040161 31.573242 7
-0.35626599 1.122375 31.861328 7
-0.327934 1.1812741 31.522461 7
-0.30350101 1.240417 31.226562 7
-0.394142 4.2113042 32.107422 7
-0.37410399 4.2510991 31.862305 7
-0.35210401 4.2861938 31.59082 7
-0.34568 4.3467412 31.505859 7
-0.024338 4.549377 -26.53125 7
-0.033836 4.5019531 -26.663086 7
-0.067332998 4.4341431 -27.110352 7
-0.084716998 4.3989868 -27.34082 7
-0.084732004 4.3303828 -27.350586 7
0.027404999 1.560181 -26.175781 7
0.041331999 1.429504 -25.730469 7
0.025939999 1.375183 -25.926758 7
0.027690999 1.309692 -25.907227 7
-0.0078469999 -1.740845 -24.293945 7
-0.184532 -4.6061401 -25.959961 7
-0.200176 -4.701416 -26.12793 7
-0.192307 -4.7503052 -26.025391 7
-0.17254999 -4.8388062 -25.772461 7
-0.36528799 -1.713135 29.831055 7
-0.28355801 1.017151 28.993164 7
-0.28598401 1.149109 29.017578 7
-0.281719 1.212463 28.967773 7
-0.34986499 4.1937261 29.5 7
-0.33726099 4.2393799 29.351562 7
-0.32725501 4.2887568 29.232422 7
-0.319855 4.3419189 29.141602 7
-0.32286799 4.4130249 29.166016 7
0.044810999 1.253845 -23.966797 7
0.052607998 1.188904 -23.876953 7
0.029663 1.140747 -24.154297 7
0.045727 1.071838 -23.961914 7
0.061829001 1.003601 -23.772461 7
-0.024429001 -1.46759 -22.811523 7
-0.2174 -4.6687012 -24.470703 7
-0.214333 -4.7233891 -24.424805 7
-0.206963 -4.7693481 -24.333008 7
-0.204418 -4.824646 -24.292969 7
-0.204006 -4.8841548 -24.276367 7
-0.048695002 4.6201782 -22.905273 7
-0.045024998 4.554565 -22.875977 7
-0.048153002 4.5029302 -22.921875 7
-0.076358996 4.4422612 -23.251953 7
-0.085758001 4.4017329 -23.366211 7
0.029461 0.95092797 -22.435547 7
0.040428001 0.889404 -22.31543 7
0.044608999 0.83123797 -22.270508 7
0.036757998 0.77740502 -22.360352 7
0.043533001 0.71832299 -22.287109 7
0.051876001 0.659302 -22.195312 7
-0.027431 -1.642212 -21.275391 7
-0.017852999 -1.6882319 -21.171875 7
-0.014519 -1.738647 -21.132812 7
-0.035151999 -1.808594 -21.337891 7
-0.038128 -1.864563 -21.361328 7
-0.202343 -4.5117192 -22.636719 7
-0.216755 -4.5956421 -22.768555 7
-0.227165 -4.6725459 -22.861328 7
-0.22327401 -4.7220459 -22.810547 7
-0.21538199 -4.7632451 -22.71875 7
0.042938001 0.30133101 -20.738281 7
0.050751001 0.247437 -20.657227 7
0.058001999 0.194214 -20.582031 7
0.058543999 0.141541 -20.576172 7
0.057392001 0.089233004 -20.586914 7
0.063541003 0.036621001 -20.523438 7
0.024383999 -0.32861301 -19.513672 7
0.027923999 -0.37731901 -19.477539 7
0.033870999 -0.42523199 -19.416992 7
0.033169001 -0.474365 -19.421875 7
0.028240001 -0.52465802 -19.467773 7
0.031773001 -0.57287598 -19.431641 7
0.034717999 -0.62097198 -19.400391 7
-0.245575 -4.6445918 -21.552734 7
-0.24934401 -4.705627 -21.576172 7
-0.24034099 -4.742065 -21.479492 7
-0.23388299 -4.8366699 -21.393555 7
-0.044009998 4.6055908 -19.759766 7
-0.047573 4.5621948 -19.804688 7
-0.086764999 4.4360352 -20.222656 7
0.017735001 -0.67401099 -18.299805 7
0.0088419998 -0.72412097 -18.378906 7
0.00248 -0.77355999 -18.435547 7
-9.2000002e-05 -0.82202101 -18.456055 7
0.0030670001 -0.86828601 -18.425781 7
0.0062259999 -0.91436797 -18.394531 7
-0.020885 -1.398682 -18.584961 7
-0.033215001 -1.453918 -18.692383 7
-0.021702001 -1.493225 -18.583984 7
-0.043823 -1.602966 -18.773438 7
-0.03875 -1.646606 -18.722656 7
-0.034984998 -1.690979 -18.683594 7
-0.029262999 -1.733826 -18.626953 7
-0.052574001 -1.799744 -18.832031 7
-0.056534 -1.850525 -18.862305 7
-0.058566999 -1.899841 -18.875 7
-0.25492099 -4.6824341 -20.175781 7
-0.035145 -1.32959 -17.608398 7
-0.031146999 -1.371948 -17.570312 7
-0.032703001 -1.462158 -17.575195 7
-0.040286999 -1.51178 -17.635742 7
-0.039005 -1.555603 -17.619141 7
-0.25125501 -4.8438721 -18.839844 7
-0.25137299 -4.891418 -18.827148 7
-0.031493999 -1.293884 -16.50293 7
-0.042415999 -1.342651 -16.585938 7
-0.033829 -1.379578 -16.514648 7
-0.031036001 -1.4198 -16.486328 7
-0.032554999 -1.4628299 -16.494141 7
-0.034798 -1.50647 -16.508789 7
-0.040665001 -1.5526119 -16.550781 7
-0.038582001 -1.593384 -16.530273 7
-0.050213002 -1.6439821 -16.619141 7
-0.049587 -1.685791 -16.608398 7
-0.043892 -1.723938 -16.558594 7
-0.085133001 4.4259639 -16.432617 7
-0.085841998 4.342041 -16.458984 7
-0.028835 -1.300964 -15.501953 7
-0.034247998 -1.343872 -15.539062 7
-0.034340002 -1.383728 -15.535156 7
-0.044342 -1.429871 -15.606445 7
-0.048241001 -1.472351 -15.631836 7
-0.036106002 -1.504028 -15.535156 7
-0.037696999 -1.545105 -15.543945 7
-0.039299 -1.58606 -15.551758 7
-0.049400002 -1.6730959 -15.619141 7
-0.050239999 -1.713684 -15.620117 7
-0.049545001 -1.753113 -15.610352 7
-0.092430003 4.5159912 -15.40332 7
-0.09166 4.4743652 -15.408203 7
-0.089386001 4.429749 -15.401367 7
-0.095406003 4.4012451 -15.456055 7
-0.091628999 4.3535771 -15.439453 7
-0.04707 -1.654907 -14.666992 7
-0.046420999 -1.729797 -14.652344 7
-0.050896 4.5397949 -12.387695 7
-0.051750001 4.508606 -12.404297 7
-0.054375 4.4805908 -12.431641 7
-0.048850998 -1.618652 -12.418945 7
-0.073253997 -1.669067 -12.56543 7
-0.057406999 -1.689697 -12.461914 7
-0.066830002 -1.729553 -12.516602 7
-0.056595001 -1.7542109 -12.448242 7
-0.079124004 -1.804688 -12.582031 7
-0.077324003 -1.835938 -12.566406 7
-0.079262003 -1.870239 -12.573242 7
-0.092437997 -1.914001 -12.648438 7
-0.054816999 -1.604431 -11.770508 7
-0.063796997 -1.672668 -11.813477 7
-0.061889999 -1.702209 -11.798828 7
-0.061958 -1.733215 -11.794922 7
-0.062987998 -1.7648931 -11.795898 7
-0.062111001 -1.478821 -11.239258 7
-0.065421999 -1.5994869 -11.241211 7
0.002991 1.274109 -10.125977 7
0.001923 1.246948 -10.134766 7
0.0051190001 1.2175291 -10.121094 7
0.006172 1.161377 -10.121094 7
-0.0087620001 1.141479 -10.204102 7
-0.003422 1.11084 -10.176758 7
-0.005566 1.0840451 -10.19043 7
-0.0098299999 1.058167 -10.21582 7
-0.0066260002 1.028809 -10.201172 7
-0.0066260002 1.000977 -10.204102 7
-0.062756002 -1.615967 -10.083984 7
-0.068435997 -1.646912 -10.108398 7
-0.065104999 -1.671326 -10.087891 7
-0.062916003 -1.696655 -10.072266 7
-0.066349 -1.726074 -10.083984 7
-0.064152002 -1.751099 -10.069336 7
-0.076583996 -1.787964 -10.12793 7
-0.080008999 -1.817688 -10.140625 7
-0.082328998 -1.846436 -10.145508 7
-0.083518997 -1.874451 -10.146484 7
-0.089184001 -1.90625 -10.171875 7
-0.062877998 -1.494568 -9.6054688 7
-0.063129 -1.623535 -9.5859385 7
-0.065646999 -1.702332 -9.5849609 7
-0.066875003 -1.728943 -9.5869141 7
-0.066914 -1.754578 -9.5830078 7
-0.061168998 -1.6034549 -9.1123047 7
-0.071010999 -1.635132 -9.1533203 7
-0.071056001 -1.65979 -9.1494141 7
-0.072338 -1.6852421 -9.1503906 7
-0.072384 -1.710144 -9.1464844 7
-0.069981001 -1.732849 -9.1308594 7
-0.079825997 -1.765076 -9.171875 7
-0.089661002 -1.7976069 -9.2128906 7
-0.084824003 -1.818542 -9.1855469 7
-0.087325998 -1.8453979 -9.1923828 7
-0.088577002 -1.8712161 -9.1943359 7
-0.082526997 -1.890747 -9.1601562 7
-0.12431 6.3987432 -7.2705078 7
-0.131565 6.3979492 -7.3125 7
-0.13396101 6.3834839 -7.3369141 7
-0.065857001 -1.607666 -8.2421885 7
-0.079173997 -1.639832 -8.2949219 7
-0.083224997 -1.665344 -8.3076172 7
-0.076626003 -1.683228 -8.2753906 7
-0.075343996 -1.7047729 -8.265625 7
-0.078060001 -1.729309 -8.2714844 7
-0.080761001 -1.754089 -8.2792969 7
-0.088779002 -1.782837 -8.3085938 7
-0.091476001 -1.8078001 -8.3154297 7
-0.40256101 -6.4425049 -6.0517578 7
-0.40111899 -6.4562378 -6.032227 7
-0.40115699 -6.4736328 -6.016602 7
-0.41169 -6.517395 -6.03125 7
-0.40126401 -6.5083008 -5.9863281 7
-0.40131 -6.5254521 -5.9707031 7
-0.40286601 -6.5465698 -5.9599609 7
-0.39393601 -6.540833 -5.9189448 7
-0.395473 -6.561707 -5.9082031 7
-0.403034 -6.5978999 -5.9121089 7
-0.40607801 -6.6225591 -5.9042969 7
-0.40912199 -6.6473389 -5.8974609 7
-0.415169 -6.6798711 -5.8974609 7
-0.41073999 -6.6853638 -5.8691411 7
-0.39097601 -6.4154048 -5.5439448 7
-0.398785 -6.4509282 -5.547852 7
-0.397293 -6.4633789 -5.5283198 7
-0.398891 -6.483398 -5.516602 7
-0.40048599 -6.503418 -5.5058589 7
-0.39744601 -6.5117192 -5.4814448 7
-0.39594299 -6.5238042 -5.4619141 7
-0.39445499 -6.5358891 -5.4423828 7
-0.39294401 -6.5479741 -5.422852 7
-0.389893 -6.5560298 -5.398438 7
-0.400803 -6.5996089 -5.4111328 7
-0.39154801 -6.5916748 -5.3710942 7
-0.39160201 -6.6074219 -5.3554692 7
-0.40094 -6.6471558 -5.3652339 7
-0.41339499 -6.6948242 -5.3808589 7
-0.39596599 -6.4187622 -5.0449219 7
-0.39601901 -6.4337769 -5.0292969 7
-0.402565 -6.4797969 -5.0136719 7
-0.401039 -6.5056152 -4.9794922 7
-0.39309701 -6.5151982 -4.9277339 7
-0.39473701 -6.533936 -4.9169922 7
-0.39640799 -6.552917 -4.9042969 7
-0.39650699 -6.5822139 -4.8730469 7
-0.398224 -6.615479 -4.8457031 7
-0.40957299 -6.673645 -4.8417969 7
-0.414455 -6.700562 -4.8369141 7
-0.41287601 -6.710999 -4.8173828 7
-0.39672101 -6.4815669 -4.469727 7
-0.40509799 -6.5162349 -4.4736328 7
-0.40015399 -6.5172119 -4.4462891 7
-0.40020001 -6.5309448 -4.4306641 7
-0.396896 -6.5359502 -4.407227 7
-0.39194101 -6.5368652 -4.3808589 7
-0.39364201 -6.554688 -4.3701172 7
-0.39035401 -6.5595698 -4.3466802 7
-0.383724 -6.5559082 -4.3164058 7
-0.39879599 -6.607605 -4.3330078 7
-0.39884901 -6.6209111 -4.3173828 7
-0.40055799 -6.6384888 -4.304688 7
-0.403938 -6.6602778 -4.296875 7
-0.41233799 -6.6950679 -4.2998052 7
-0.064567998 4.4685669 -4.6757808 7
-0.067841001 4.4602661 -4.695312 7
-0.071121 4.4520259 -4.7148442 7
-0.069435 4.43396 -4.7207031 7
-0.071083002 4.4224238 -4.734375 7
-0.074348003 4.4138789 -4.7548828 7
-0.069381997 4.3893428 -4.750977 7
-0.067718998 4.3712769 -4.7568359 7
-0.071792997 4.3626099 -4.7763672 7
-0.071762003 4.3475952 -4.7871089 7
-0.39572501 -6.5778809 -3.8369141 7
-0.39924201 -6.5988159 -3.827148 7
-0.39926499 -6.6110229 -3.811523 7
-0.39931899 -6.6231079 -3.795898 7
-0.401081 -6.639648 -3.7841799 7
-0.39767101 -6.6428218 -3.7607419 7
-0.39945599 -6.6591802 -3.7480471 7
-0.40467799 -6.6846309 -3.742188 7
-0.41336799 -6.7188721 -3.7431641 7
-0.094570003 4.3710332 -4.507812 7
-0.096263997 4.3598018 -4.5224609 7
-0.091122001 4.3356318 -4.5185552 7
-0.092822999 4.324585 -4.532227 7
-0.085956998 4.2972412 -4.5244141 7
-0.092776999 4.2955928 -4.5527339 7
-0.091038004 4.2780762 -4.5585942 7
-0.084187001 4.250793 -4.5507808 7
-0.087582 4.2426758 -4.5693359 7
-0.090968996 4.234375 -4.5898442 7
-0.085827 4.2102051 -4.585938 7
-0.082390003 4.1895752 -4.5849609 7
-0.082367003 4.1749878 -4.594727 7
-0.39797601 -6.403564 -3.577148 7
-0.39807501 -6.4265141 -3.545898 7
-0.39811301 -6.4381709 -3.53125 7
-0.39635801 -6.4450679 -3.5126951 7
-0.403557 -6.4743652 -3.5107419 7
-0.40359101 -6.4858398 -3.4951169 7
-0.409004 -6.5106201 -3.4892581 7
-0.40547901 -6.512939 -3.4658201 7
-0.40372801 -6.5197749 -3.4482419 7
-0.40377399 -6.5311279 -3.4326169 7
-0.40560201 -6.546875 -3.420898 7
-0.39850199 -6.539917 -3.391602 7
-0.39853999 -6.551147 -3.375977 7
-0.39857101 -6.5623169 -3.360352 7
-0.40577301 -6.5913701 -3.3564451 7
-0.404026 -6.5978999 -3.3388669 7
-0.407635 -6.617981 -3.329102 7
-0.409462 -6.633606 -3.316406 7
-0.40773401 -6.6399541 -3.296875 7
-0.40956101 -6.6555181 -3.2841799 7
-0.409592 -6.6662598 -3.2685549 7
-0.40785599 -6.672668 -3.25 7
-0.416832 -6.7064209 -3.25 7
-0.042991001 -1.4473161 -8.8925247 7
-0.0038129999 -1.728999 -5.9802089 7
0.016944 -1.649646 -4.9662018 7
-0.327856 -6.5924101 -5.279613 7
-0.43930301 -6.496263 -4.418613 7
-0.055930998 -1.8321199 -3.618408 7
-0.409477 -6.5311098 -3.2437539 7
-0.027365999 -1.720062 -1.140342 7
-0.25841501 -4.756711 -0.25413901 7
-0.020888001 -1.6824861 -0.91002202 7
-0.037762001 -1.86623 -0.93072301 7
-0.013854 -1.647765 -0.697052 7
-0.025435001 -1.8181241 -0.69709402 7
-0.293396 -4.5371399 -0.051098999 7
-0.300502 -4.6809778 0.092009 7
-0.298498 -4.7924271 0.262474 7
-0.00096099998 -1.612373 -0.479159 7
-0.012669 -1.773629 -0.48085299 7
-0.27594599 -4.7180071 1.011796 7
-0.26769 -4.7743349 1.187948 7
-0.246511 -4.495049 1.1457371 7
-0.25295201 -4.5902791 1.2881 7
-0.26435399 -4.694653 1.427382 7
-0.25871301 -4.742681 1.594636 7
-0.33583999 -5.0897942 2.5675809 7
-0.33324301 -5.1093822 3.4749711 7
-0.29618901 -4.8291211 2.6106 7
-0.30012101 -4.859448 2.770669 7
-0.30580601 -4.888773 2.931725 7
-0.30587199 -4.894855 3.095068 7
-0.29286399 -4.8551769 3.2582481 7
-0.29290301 -4.8457999 3.4599271 7
0.0083569996 1.155648 -7.1333909 7
-0.037757002 4.420722 -4.7882161 7
0.031906001 1.136314 -5.8534288 7
0.059441999 1.1202511 -4.7730651 7
-0.058394998 -1.504516 -16.220234 7
-0.090681002 4.3943281 -8.6661253 7
-0.061849002 -1.544901 -7.8909588 7
0.0066089998 1.154163 -7.0309191 7
-0.020566 1.163954 -5.9955721 7
-0.092716001 4.2005558 -4.6574678 7
-6.9000002e-05 1.182156 -5.2974958 7
-0.0029549999 1.011837 -5.3621688 7
-0.066345997 -1.506951 -5.400723 7
-0.072742 -1.7084171 -5.3949771 7
-0.37095499 -6.5114751 -5.129971 7
0.016662 1.229704 -4.7392859 7
-0.0592 -1.68943 -4.8870478 7
-0.343988 -6.5482192 -3.4588699 7
-0.034368001 -1.626248 -4.37924 7
-0.017848 1.2612391 -4.3818059 7
-0.012529 1.1101871 -4.3896332 7
-0.0087219998 0.964068 -4.4018312 7
-0.033651002 -1.7624691 -4.021903 7
-0.059179001 -1.7040139 -3.7393949 7
-0.073495999 -1.865819 -3.7415881 7
-0.035197001 -1.9110481 -1.035359 7
-0.026381001 -1.789922 -1.211362 7
-0.033300001 -1.821642 -1.136054 7
-0.027946999 -1.805292 -1.060553 7
-0.033006001 -1.82346 -0.96358001 7
-0.033888999 -1.8227381 -0.88615 7
-0.042815 -1.6999789 -1.279212 7
-0.042139001 -1.706365 -1.207999 7
-0.043141998 -1.7154551 -1.1364239 7
-0.040881 -1.7105139 -1.064779 7
-0.043614998 -1.7194771 -0.99192899 7
-0.039815001 -1.703279 -0.921215 7
-0.032646999 -1.619418 -1.001068 7
