# .PCD v0.7 - Point Cloud Data file format
VERSION 0.7
FIELDS x y z intensity
SIZE 4 4 4 4
TYPE F F F F
COUNT 1 1 1 1
WIDTH 625
HEIGHT 1
VIEWPOINT 0 0 0 1 0 0 0
POINTS 625
DATA ascii
0.046787001 -0.097290002 -62.120117 7
-0.13539299 -3.352844 -67.180664 7
0.052795 3.3707891 -63.833008 7
-0.026556 3.3353879 -66.277344 7
-0.64790201 -4.3787842 68.588867 7
-0.726713 -4.3371582 70.472656 7
-0.78361702 -4.2553101 71.838867 7
-0.85648 -4.1889648 73.583008 7
-0.58051699 -1.31897 67.207031 7
-0.58277297 -1.164001 67.267578 7
-0.64524698 -1.0309449 68.761719 7
-0.61096799 0.40154999 67.99707 7
-0.56213999 0.549622 66.837891 7
0.049141001 3.700073 -56.761719 7
0.00067099999 3.6425779 -58.097656 7
0.077138998 3.378479 -56.014648 7
0.0098839998 3.3453979 -57.862305 7
-0.038801 3.2763669 -59.202148 7
-0.63334799 -4.571228 62.598633 7
-0.69844598 -4.528687 64.026367 7
-0.74448001 -4.4505 65.041016 7
-0.81869298 -4.4086909 66.667969 7
-0.60280198 -1.650269 62.158203 7
-0.58571398 -1.496887 61.793945 7
-0.52271098 0.91638201 60.572266 7
-0.53724301 1.062256 60.892578 7
-0.55214101 4.0487061 61.18457 7
-0.51027101 4.1264648 60.263672 7
0.052329998 3.595093 -51.136719 7
-0.012285 3.5753169 -52.743164 7
0.067217 3.3217771 -50.785156 7
0.016275 3.2745969 -52.053711 7
-0.021447999 3.202332 -52.996094 7
0.010475 -0.14825401 -47.195312 7
-0.001524 -0.26544201 -47.463867 7
-0.72334701 -4.5955811 59.242188 7
-0.74955601 -4.4987788 59.77832 7
-0.81270802 -4.4546509 61.048828 7
-0.59802198 -1.640015 56.969727 7
-0.57855397 -1.497986 56.587891 7
-0.55642498 -1.356384 56.152344 7
-0.54222101 -1.220276 55.875977 7
-0.48509201 1.082214 54.798828 7
-0.49895301 1.215149 55.077148 7
-0.52191401 4.183167 55.535156 7
-0.46838 4.2263789 54.458008 7
0.0063359998 3.7876589 -47.117188 7
-0.031686999 3.619019 -47.985352 7
-0.061912999 3.5491941 -48.671875 7
-0.039733998 3.39624 -48.183594 7
-0.042847 3.2828979 -48.260742 7
-0.079084001 3.2163091 -49.079102 7
-0.043324001 -0.28076199 -43.712891 7
-0.0062480001 -0.38073701 -42.957031 7
-0.020428 -0.48864701 -43.236328 7
0.010584 -0.58581501 -42.603516 7
0.037544001 -0.68115199 -42.052734 7
-0.51196498 1.015198 51.568359 7
-0.447393 1.106995 50.367188 7
-0.484312 1.2402951 51.053711 7
-0.41847599 1.324402 49.828125 7
-0.52447498 4.2471919 51.71875 7
-0.470339 4.2792969 50.705078 7
-0.42061201 4.3139648 49.775391 7
-0.38405201 4.3667598 49.089844 7
-0.040511999 3.8925779 -44.266602 7
-0.059992 3.816956 -44.677734 7
-0.090502001 3.7576289 -45.316406 7
-0.130896 3.711365 -46.158203 7
-0.0040040002 0.248291 -42.947266 7
0.00064099999 0.143066 -42.847656 7
-0.048548002 0.039489999 -43.835938 7
-0.013994 -0.636536 -39.232422 7
0.023189999 -0.72003198 -38.541016 7
-0.002447 -0.82391399 -39.006836 7
0.025544999 -0.90753198 -38.484375 7
-0.16913401 -4.1526489 -41.716797 7
-0.153162 -4.2252202 -41.410156 7
-0.606453 -4.7793579 48.74707 7
-0.63204402 -4.710022 49.195312 7
-0.38482901 0.99456799 45.318359 7
-0.35906199 1.0875241 44.87793 7
-0.41966599 4.1773682 45.850586 7
-0.387445 4.2297969 45.294922 7
-0.35968801 4.287354 44.814453 7
-0.0021860001 4.068481 -39.416992 7
-0.026357999 4.0150151 -39.880859 7
-0.057666998 3.972229 -40.477539 7
-0.078107998 3.9077761 -40.871094 7
-0.114994 3.869324 -41.573242 7
-0.150011 3.8244021 -42.240234 7
0.040823001 0.64404303 -38.800781 7
0.025948999 0.55206299 -39.083008 7
0.038031001 0.453125 -38.856445 7
0.0085739996 0.36206099 -39.412109 7
-0.032354001 0.26983601 -40.185547 7
-0.020020001 -0.855591 -36.229492 7
0.0049510002 -1.021484 -35.792969 7
0.018549001 -1.189514 -35.548828 7
-0.198576 -4.1695561 -38.907227 7
-0.18638 -4.3365479 -38.671875 7
-0.18905801 -4.435791 -38.701172 7
-0.42654401 -1.906921 42.758789 7
-0.42606401 -1.808777 42.757812 7
-0.43736601 -1.718262 42.942383 7
-0.34999299 1.006714 41.672852 7
-0.32707 1.092041 41.307617 7
-0.34716201 1.196228 41.625977 7
-0.411762 4.1603389 42.53125 7
-0.38518 4.214355 42.102539 7
-0.35787201 4.2651982 41.662109 7
-0.33387399 4.3195801 41.275391 7
0.512842 22.062927 17.583008 7
0.0039619999 4.1873779 -36.067383 7
-0.013842 4.1317139 -36.384766 7
-0.031658001 4.0743408 -36.701172 7
-0.063913003 4.041687 -37.269531 7
-0.097177997 4.0080571 -37.854492 7
0.038910002 0.77124 -35.68457 7
0.047297999 0.680237 -35.540039 7
0.029146001 0.59735101 -35.855469 7
-0.010937 -1.02478 -32.977539 7
0.018444 -1.091064 -32.512695 7
-0.015118 -1.189087 -33.029297 7
0.004133 -1.259216 -32.72168 7
0.021531999 -1.328979 -32.444336 7
-0.25059301 -4.2645869 -36.351562 7
-0.227926 -4.3128662 -35.987305 7
-0.213892 -4.374939 -35.755859 7
-0.184824 -4.4082642 -35.292969 7
-0.38606301 -1.909912 38.963867 7
-0.40790901 -1.8364871 39.289062 7
-0.41579601 -1.752136 39.410156 7
-0.44163901 -1.678528 39.793945 7
-0.32925999 1.009155 38.225586 7
-0.30840501 1.08728 37.918945 7
-0.33939701 1.188599 38.373047 7
-0.30896899 1.2609251 37.926758 7
-0.375332 4.2288208 38.776367 7
-0.34814599 4.27179 38.37207 7
-0.33051899 4.3292241 38.106445 7
-0.34549901 4.442749 38.317383 7
-0.041985001 4.4163818 -33.553711 7
-0.007799 4.2667241 -33.025391 7
-0.023581 4.2148442 -33.28418 7
-0.045593001 4.1735229 -33.640625 7
-0.065752 4.1269531 -33.970703 7
-0.095841996 4.0968628 -34.457031 7
-0.107573 4.032104 -34.651367 7
0.046980001 1.026001 -32.412109 7
0.024586 0.95532203 -32.770508 7
0.045141 0.86554003 -32.445312 7
0.024227001 0.79254198 -32.78125 7
-0.00073099998 0.71935999 -33.179688 7
-0.037409 -1.199463 -31.12207 7
-0.0069940002 -1.485413 -30.65332 7
-0.241264 -4.386353 -33.71582 7
-0.236696 -4.4605098 -33.635742 7
-0.200987 -4.5567021 -33.092773 7
-0.200003 -4.6358032 -33.064453 7
-0.41726899 -1.729919 37.09375 7
-0.31255701 1.022095 35.757812 7
-0.288681 1.092896 35.427734 7
-0.32337201 1.190186 35.904297 7
-0.286751 1.2533571 35.399414 7
-0.37042999 4.2094121 36.383789 7
-0.346165 4.2518311 36.043945 7
-0.32783499 4.3026118 35.78418 7
-0.31541601 4.3626099 35.605469 7
-0.033943001 4.4186401 -31.078125 7
-0.033927999 4.3413091 -31.087891 7
-0.054735001 4.3040771 -31.404297 7
-0.073172003 4.2605591 -31.686523 7
-0.099873997 4.2312622 -32.089844 7
-0.117159 4.1828609 -32.355469 7
0.030554 1.193481 -30.394531 7
0.030018 0.99945098 -30.232422 7
0.011049 0.93273902 -30.509766 7
-0.017904 0.868958 -30.931641 7
0.015038 0.78076202 -30.447266 7
-0.043159001 -1.324585 -28.981445 7
-0.030018 -1.388855 -28.795898 7
-0.037813 -1.4649661 -28.693359 7
-0.035847001 -1.534546 -28.661133 7
-0.014826 -1.59021 -28.37207 7
-0.216553 -4.5479741 -30.703125 7
-0.20460699 -4.6004028 -30.530273 7
-0.19570699 -4.6578369 -30.398438 7
-0.34353399 -1.868225 33.634766 7
-0.36036101 -1.803772 33.854492 7
-0.36576101 -1.7305911 33.929688 7
-0.37571499 -1.659973 34.061523 7
-0.29779199 1.0209351 33.139648 7
-0.276701 1.086853 32.870117 7
-0.303978 1.174255 33.217773 7
-0.286531 1.240906 32.993164 7
-0.35865399 4.2047119 33.749023 7
-0.33985901 4.2497559 33.500977 7
-0.321529 4.2946172 33.259766 7
-0.30184901 4.335876 33.000977 7
-0.294891 4.39856 32.90332 7
0.33746499 17.960999 17.544922 7
0.34027901 17.972961 17.479492 7
0.33816701 18.032715 17.456055 7
0.340532 18.048645 17.393555 7
0.34065399 18.086182 17.350586 7
0.34122699 18.119568 17.305664 7
-0.019075001 4.4837041 -28.34082 7
-0.027115 4.4289551 -28.460938 7
-0.043682002 4.3904419 -28.697266 7
-0.060653999 4.351562 -28.939453 7
-0.078074001 4.3126221 -29.185547 7
-0.107805 4.2954102 -29.599609 7
-0.115005 4.2347412 -29.708984 7
0.034348 1.310913 -27.921875 7
0.012251 1.2537839 -28.227539 7
0.02713 1.174927 -28.027344 7
0.015667001 1.1105959 -28.186523 7
-0.0098320004 1.052246 -28.541016 7
0.010136 0.97192401 -28.267578 7
-0.061347999 -1.44989 -27.015625 7
-0.040771 -1.701721 -26.733398 7
-0.23422199 -4.4946899 -28.792969 7
-0.25021699 -4.5957642 -28.977539 7
-0.239729 -4.6469121 -28.833984 7
-0.226458 -4.6921391 -28.65625 7
-0.21924201 -4.7483521 -28.552734 7
-0.336321 -1.888855 31.520508 7
-0.338669 -1.819092 31.554688 7
-0.33859301 -1.74762 31.558594 7
-0.33850101 -1.67627 31.5625 7
-0.34379399 -1.6081541 31.630859 7
-0.29221901 1.024719 31.100586 7
-0.272165 1.086182 30.859375 7
-0.264292 1.152344 30.764648 7
-0.27782401 1.228821 30.924805 7
-0.259251 1.288879 30.700195 7
-0.33003801 4.1793818 31.341797 7
-0.33915901 4.2659302 31.442383 7
-0.315247 4.2961431 31.148438 7
-0.29861799 4.337646 30.941406 7
-0.279594 4.3739619 30.706055 7
-0.29549801 4.472229 30.885742 7
-0.063189 4.6054082 -26.852539 7
-0.064095996 4.5397339 -26.874023 7
-0.110449 4.4268188 -27.493164 7
-0.118618 4.3734131 -27.608398 7
-0.090832002 4.2524409 -27.265625 7
0.0062500001 1.397217 -26.265625 7
-0.016968001 1.345947 -26.560547 7
-0.026709 1.153015 -26.685547 7
-0.061071001 -1.47052 -24.994141 7
-0.055289999 -1.7146 -24.90332 7
-0.048983 -1.771667 -24.824219 7
-0.231794 -4.5657349 -26.560547 7
-0.25696599 -4.679626 -26.836914 7
-0.249163 -4.7307739 -26.734375 7
-0.23736399 -4.773499 -26.583984 7
-0.232063 -4.8285518 -26.508789 7
-0.31079301 -1.808838 29.198242 7
-0.309679 -1.742249 29.191406 7
-0.31272101 -1.678528 29.229492 7
0.0052089998 1.273682 -24.303711 7
0.018952999 1.204651 -24.143555 7
-0.0050659999 1.156433 -24.431641 7
0.007183 1.088623 -24.288086 7
0.020912001 1.020874 -24.12793 7
-0.062661998 -1.606995 -23.265625 7
-0.064562 -1.724426 -23.275391 7
-0.059939999 -1.77887 -23.217773 7
-0.245848 -4.5379639 -24.837891 7
-0.255642 -4.618042 -24.931641 7
-0.270798 -4.7088618 -25.082031 7
-0.25921199 -4.7484741 -24.943359 7
-0.254576 -4.801208 -24.880859 7
-0.25208101 -4.8579102 -24.84082 7
-0.113686 4.435791 -23.53125 7
0.0025559999 0.90362501 -22.618164 7
0.0088560004 0.84393299 -22.549805 7
0.0062469998 0.78759801 -22.581055 7
0.0057199998 0.730591 -22.587891 7
0.011494 0.67144799 -22.525391 7
0.029859999 0.55230701 -22.324219 7
0.02977 -0.013672 -20.773438 7
0.035376001 -0.066223003 -20.713867 7
0.033117 -0.119324 -20.737305 7
0.031438999 -0.17230199 -20.753906 7
0.026946999 -0.225647 -20.799805 7
-0.039515998 -1.380493 -21.463867 7
-0.056175001 -1.445007 -21.628906 7
-0.044930998 -1.4916379 -21.509766 7
-0.038821999 -1.541199 -21.441406 7
-0.25566101 -4.494873 -23.21582 7
-0.259262 -4.5593262 -23.239258 7
-0.27198401 -4.6411738 -23.355469 7
-0.28244999 -4.7192988 -23.446289 7
-0.266615 -4.7468872 -23.275391 7
-0.26277199 -4.7971191 -23.223633 7
0.003395 0.30810499 -21.044922 7
0.007332 0.25402799 -21.003906 7
0.020802001 0.19927999 -20.865234 7
0.022462999 0.145813 -20.847656 7
0.024157001 0.092651002 -20.831055 7
0.024721 0.039489999 -20.825195 7
-0.0092489999 -0.330017 -19.879883 7
-0.0039559999 -0.37927201 -19.826172 7
-0.001049 -0.42864999 -19.795898 7
-0.001789 -0.47863799 -19.801758 7
-0.0043449998 -0.52929699 -19.823242 7
-0.00086799997 -0.57843 -19.787109 7
-0.00038700001 -0.628052 -19.779297 7
-0.070862003 -1.674866 -20.374023 7
-0.072196998 -1.727173 -20.381836 7
-0.110313 4.4115601 -20.344727 7
-0.113869 4.366394 -20.389648 7
-0.022793001 -0.97332799 -18.670898 7
-0.02808 -1.0228879 -18.714844 7
-0.032060999 -1.0722049 -18.74707 7
-0.02705 -1.116943 -18.697266 7
-0.022665 -1.161804 -18.654297 7
-0.029231999 -1.212585 -18.708984 7
-0.037737001 -1.264709 -18.78125 7
-0.084389001 -1.629944 -19.168945 7
-0.070987999 -1.668457 -19.043945 7
-0.070491999 -1.715881 -19.033203 7
-0.080918998 -1.772095 -19.12207 7
-0.29483601 -4.6530151 -20.563477 7
-0.29822299 -4.7106929 -20.581055 7
-0.29061899 -4.7476201 -20.500977 7
-0.28186199 -4.8331299 -20.398438 7
-0.286531 -4.8934941 -20.426758 7
-0.050776001 -1.291748 -17.775391 7
-0.054313999 -1.338745 -17.800781 7
-0.066702001 -1.391663 -17.902344 7
-0.062743999 -1.434509 -17.864258 7
-0.073086001 -1.486572 -17.947266 7
-0.073200002 -1.532166 -17.943359 7
-0.063789003 -1.571106 -17.858398 7
-0.060876999 -1.308594 -16.763672 7
-0.061730999 -1.351807 -16.766602 7
-0.072669998 -1.401306 -16.850586 7
-0.065560997 -1.439636 -16.789062 7
-0.065676004 -1.482361 -16.785156 7
-0.067377001 -1.569031 -16.789062 7
-0.07254 -1.615417 -16.826172 7
-0.074805997 -1.659912 -16.84082 7
-0.079999998 -1.7064821 -16.875977 7
-0.081556 -1.750671 -16.883789 7
-0.085279003 -1.796387 -16.908203 7
-0.082413003 4.6166382 -16.275391 7
-0.05954 4.5280762 -16.105469 7
-0.065237001 4.4977422 -16.162109 7
-0.071644001 4.4684448 -16.223633 7
-0.078034997 4.4387822 -16.285156 7
-0.057165001 -1.315063 -15.739258 7
-0.060329001 -1.357361 -15.759766 7
-0.063496001 -1.399597 -15.77832 7
-0.078102 -1.449158 -15.884766 7
-0.070580997 -1.484924 -15.824219 7
-0.065350004 -1.521729 -15.780273 7
-0.066234998 -1.562561 -15.78125 7
-0.078553997 -1.611694 -15.869141 7
-0.090108998 -1.660645 -15.953125 7
-0.080316998 -1.694092 -15.873047 7
-0.082703002 -1.73645 -15.886719 7
-0.083572 -1.77771 -15.888672 7
-0.098209001 -1.830017 -15.994141 7
-0.081606001 -1.6398931 -14.936523 7
-0.082514003 -1.678955 -14.938477 7
-0.073751003 -1.71051 -14.871094 7
-0.0779 -1.751953 -14.895508 7
-0.093323 -1.802246 -15 7
-0.068154998 -1.6081541 -13.25293 7
-0.095027998 -1.661926 -13.420898 7
-0.082631998 -1.687561 -13.335938 7
-0.082732998 -1.7221071 -13.332031 7
-0.082824998 -1.7568361 -13.328125 7
-0.086493 -1.7941279 -13.34668 7
-0.096409 -1.83667 -13.405273 7
-0.062873997 4.5501099 -12.408203 7
-0.062866002 4.5169072 -12.418945 7
-0.065490998 4.4891362 -12.446289 7
-0.083022997 -1.608215 -12.648438 7
-0.106485 -1.6580811 -12.787109 7
-0.087883003 -1.677734 -12.668945 7
-0.087029003 -1.710022 -12.65918 7
-0.089005001 -1.744446 -12.666016 7
-0.086281002 -1.775146 -12.644531 7
-0.106951 -1.824463 -12.765625 7
-0.099567004 -1.851685 -12.71582 7
-0.102467 -1.8872679 -12.728516 7
-0.090760998 4.5153198 -11.860352 7
-0.099082999 4.4998779 -11.920898 7
-0.105558 4.4804082 -11.970703 7
-0.091041997 -1.627991 -11.996094 7
-0.095068 -1.662292 -12.015625 7
-0.086313002 -1.6871949 -11.959961 7
-0.090317003 -1.721436 -11.978516 7
-0.089432001 -1.751953 -11.967773 7
-0.103285 -1.794373 -12.043945 7
-0.107319 -1.829041 -12.061523 7
-0.112309 -1.864563 -12.085938 7
-0.118296 -1.901062 -12.116211 7
-0.075712003 -1.604431 -11.311523 7
-0.093268998 -1.6468509 -11.404297 7
-0.100555 -1.6821899 -11.44043 7
-0.092409 -1.706116 -11.390625 7
-0.095565997 -1.738464 -11.40332 7
-0.092584997 -1.766113 -11.381836 7
-0.098816 -1.800964 -11.412109 7
-0.111227 -1.84082 -11.475586 7
-0.102081 -1.8635859 -11.420898 7
-0.103195 -1.89447 -11.420898 7
-0.078198999 -1.613342 -10.705078 7
-0.093355 -1.65271 -10.78125 7
-0.086979002 -1.676331 -10.743164 7
-0.088131003 -1.705566 -10.745117 7
-0.089282997 -1.734985 -10.746094 7
-0.095934004 -1.796936 -10.771484 7
-0.099237002 -1.827942 -10.78418 7
-0.104721 -1.860962 -10.807617 7
-0.112341 -1.8959351 -10.842773 7
-0.011271 1.25238 -10.168945 7
-0.008076 1.2229609 -10.15332 7
-0.0080599999 1.195129 -10.15625 7
-0.0080599999 1.167236 -10.15918 7
-0.020873999 1.146057 -10.230469 7
-0.020865999 1.118042 -10.233398 7
-0.015497 1.087463 -10.208008 7
-0.017641 1.060547 -10.22168 7
-0.017649001 1.0046999 -10.224609 7
-0.01977 0.97778302 -10.238281 7
-0.088985004 -1.632385 -10.227539 7
-0.086888999 -1.68512 -10.208008 7
-0.084706999 -1.710632 -10.192383 7
-0.088170998 -1.740356 -10.206055 7
-0.085988998 -1.765869 -10.19043 7
-0.018062999 1.2771 -9.1865234 7
-0.014553 1.2496949 -9.1728516 7
-0.016865 1.225342 -9.1875 7
-0.016865 1.199829 -9.1904297 7
-0.016865 1.174438 -9.1923828 7
-0.026178 1.153625 -9.2412109 7
-0.026178 1.128113 -9.2441406 7
-0.022684 1.100769 -9.2285156 7
-0.02733 1.077454 -9.2539062 7
-0.027308 1.051819 -9.2568359 7
-0.022662999 1.023743 -9.2363281 7
-0.021488 0.997742 -9.2333984 7
-0.021481 0.97216803 -9.2353516 7
-0.0058590001 1.278137 -8.1992188 7
-0.0045719999 1.2542109 -8.1962891 7
-0.0045719999 1.230896 -8.1982422 7
-0.0071109999 1.20929 -8.2119141 7
-0.0070949998 1.185974 -8.2148438 7
-0.007088 1.162842 -8.2177734 7
-0.019773001 1.146057 -8.2783203 7
-0.015951 1.120911 -8.2646484 7
-0.015944 1.097473 -8.2666016 7
-0.013405 1.072876 -8.2578115 7
-0.015953001 1.05072 -8.2705078 7
-0.015938001 1.027527 -8.2724609 7
-0.012131 1.002502 -8.2578115 7
-0.012169 0.978333 -8.2597656 7
-0.017743999 1.277405 -7.844727 7
-0.015099 1.253601 -7.8369141 7
-0.017743999 1.23291 -7.8496089 7
-0.017720999 1.2103879 -7.8525391 7
-0.020361001 1.189514 -7.867188 7
-0.017746 1.1650389 -7.858398 7
-0.026974 1.147278 -7.9013672 7
-0.030941 1.126892 -7.9199219 7
-0.026974 1.102356 -7.905273 7
-0.025648 1.079285 -7.9013672 7
-0.024312999 1.056152 -7.8994141 7
-0.026968 1.034912 -7.9121089 7
-0.026945001 1.0124511 -7.9150391 7
-0.026945001 0.98992902 -7.9179692 7
-0.024305001 0.96630901 -7.9082031 7
-0.41901001 -6.4085078 -5.6757808 7
-0.42681301 -6.4442139 -5.6826172 7
-0.426891 -6.460815 -5.6660161 7
-0.43004 -6.4849238 -5.6591802 7
-0.431665 -6.5053711 -5.6474609 7
-0.43017799 -6.5177612 -5.6279302 7
-0.42713499 -6.5264888 -5.6044922 7
-0.42563999 -6.53894 -5.5849609 7
-0.42726499 -6.5591431 -5.5722661 7
-0.42578501 -6.5714111 -5.5527339 7
-0.42273501 -6.5799561 -5.530273 7
-0.42124 -6.5921631 -5.5107422 7
-0.418219 -6.6004028 -5.485352 7
-0.42758599 -6.6401372 -5.4941411 7
-0.433855 -6.671936 -5.4941411 7
-0.44323 -6.7119751 -5.5019531 7
-0.068466 4.430603 -5.4492192 7
-0.073059 4.4231572 -5.4726558 7
-0.073036 4.4064941 -5.483398 7
-0.071456999 4.3699951 -5.5 7
-0.071442001 4.353271 -5.5097661 7
-0.074470997 4.3423462 -5.53125 7
-0.082112998 4.3400879 -5.5654302 7
-0.089771003 4.3378301 -5.5996089 7
-0.100487 4.3413701 -5.6425781 7
-0.097398996 4.318542 -5.6425781 7
-0.091205999 4.2727661 -5.6445308 7
-0.085055999 4.2443242 -5.6347661 7
-0.086567 4.22998 -5.6503911 7
-0.081923001 4.1873169 -5.6542969 7
-0.089573003 4.1843262 -5.688477 7
-0.41715801 -6.4448848 -5.110352 7
-0.42204899 -6.4720459 -5.1074219 7
-0.41891301 -6.479187 -5.0820308 7
-0.42702901 -6.5143428 -5.085938 7
-0.41741899 -6.5054932 -5.047852 7
-0.41585499 -6.516418 -5.0283198 7
-0.41269699 -6.523438 -5.0058589 7
-0.414368 -6.5423579 -4.9931641 7
-0.41442099 -6.557251 -4.9785161 7
-0.422544 -6.5924072 -4.9814448 7
-0.42261299 -6.6072388 -4.9648442 7
-0.42427599 -6.6261601 -4.954102 7
-0.424337 -6.6410518 -4.9375 7
-0.42923501 -6.6681519 -4.9335942 7
-0.43735099 -6.7034912 -4.9375 7
-0.062479001 4.463623 -5.0117192 7
-0.064066 4.451416 -5.0253911 7
-0.068810999 4.4451289 -5.0498052 7
-0.068796001 4.4293818 -5.0605469 7
-0.068758003 4.4136958 -5.0712891 7
-0.068742998 4.3979492 -5.0820308 7
-0.067125 4.3790278 -5.0869141 7
-0.067102 4.3634028 -5.0976558 7
-0.068673998 4.350708 -5.1113281 7
-0.089611001 4.47821 -4.7441411 7
-0.089602999 4.4631348 -4.7548828 7
-0.073053002 4.415833 -4.71875 7
-0.074646004 4.3892212 -4.7441411 7
-0.076293997 4.377625 -4.7587891 7
-0.074602 4.3444819 -4.7744141 7
-0.092753999 4.3641968 -4.8369141 7
-0.100985 4.3649292 -4.8701172 7
-0.089399002 4.3276982 -4.8476558 7
-0.092678003 4.3034668 -4.8769531 7
-0.089337997 4.2819209 -4.8779302 7
-0.089293003 4.2515259 -4.8974609 7
-0.095881999 4.2484131 -4.9267578 7
-0.085957997 4.2147222 -4.9082031 7
-0.085936002 4.1993408 -4.9179692 7
-0.085890003 4.1686401 -4.938477 7
-0.090414003 4.34021 -4.4882808 7
-0.090383999 4.3259282 -4.499023 7
-0.086943001 4.3049932 -4.5 7
-0.088620998 4.2939448 -4.514648 7
-0.093740001 4.2892461 -4.5380859 7
-0.086882003 4.2618408 -4.530273 7
-0.083411999 4.226624 -4.539062 7
-0.088506997 4.2072139 -4.5742192 7
-0.088491 4.192627 -4.5839839 7
-0.014561 -1.741955 -12.426718 7
-0.090216003 -1.598087 -9.4126139 7
-0.084443003 -1.528988 -7.944942 7
-0.010949 -1.7546411 -5.1798348 7
-0.034265 -1.60675 -3.5290511 7
-0.28623301 -4.818737 -3.146136 7
-0.0072989999 -1.709228 -2.1225419 7
-0.041692 -1.729957 -1.202769 7
-0.038582001 -1.694121 -0.983549 7
-0.055516001 -1.8809201 -1.003638 7
-0.25666401 -4.6010232 1.282202 7
-0.26804599 -4.7055469 1.421986 7
-0.26404801 -4.7587051 1.587523 7
-0.31358001 -4.8387051 1.7863671 7
-0.29192799 -4.5110621 1.516817 7
-0.299514 -4.7911968 2.3272309 7
-0.27907899 -4.5963941 2.3342359 7
-0.27974001 -4.634757 2.5245891 7
-0.041740999 4.4340281 -4.819695 7
-0.027988 -1.566643 -15.337965 7
-0.131658 -1.6295 -11.793468 7
-0.172904 4.4893579 -11.983569 7
-0.056529 -1.529269 -7.8228002 7
-0.0024929999 1.113746 -7.1572499 7
-0.038660999 -1.537114 -6.7646651 7
-0.106666 4.3956409 -5.4950209 7
-0.026796 1.178919 -6.057806 7
-0.063281 -1.296019 -5.8826852 7
-0.0748 -1.529295 -5.9370208 7
-0.0082059996 1.202883 -5.3701272 7
-0.0092320004 1.025439 -5.418726 7
-0.074340001 -1.75922 -5.392271 7
0.0088799996 1.212146 -4.8126988 7
0.0064409999 1.061295 -4.8732591 7
-0.030389 -1.327459 -4.7732868 7
-0.048744999 -1.5367 -4.855464 7
-0.063162997 -1.742788 -4.8998251 7
-0.043313 -1.512256 -4.4948888 7
-0.053385999 -1.688308 -4.5022812 7
-0.077643998 -1.918426 -4.591763 7
-0.013267 1.2150379 -4.3624859 7
-0.023243999 1.099893 -4.4726558 7
-0.013454 -1.3214509 -4.0728121 7
-0.03145 -1.5008121 -4.129847 7
-0.045795999 -1.67583 -4.1564441 7
-0.066285998 -1.755777 -3.758024 7
-0.033020999 -1.710157 -2.169174 7
-0.036079999 -1.767226 -2.1051331 7
-0.047559001 -1.852605 -2.0529709 7
-0.047683999 -1.894989 -1.9772249 7
-0.056465 -1.6881731 -2.0618119 7
-0.047696002 -1.700471 -1.978425 7
-0.038061 -1.834482 -1.193544 7
-0.040298998 -1.848416 -1.116421 7
-0.037962001 -1.842369 -1.0392669 7
-0.053454999 -1.822654 -0.96327502 7
-0.045864999 -1.71021 -1.279959 7
-0.040137999 -1.699617 -1.2077889 7
-0.047747999 -1.7310359 -1.136255 7
-0.040144 -1.7082241 -1.046962 7
-0.042934999 -1.716621 -0.97405899 7
-0.036189001 -1.615664 -1.272701 7
-0.030378001 -1.604872 -1.204499 7
-0.033222999 -1.619339 -1.137115 7
-0.030990001 -1.614462 -1.069496 7
-0.030270001 -1.61111 -0.98483098 7
