# .PCD v0.7 - Point Cloud Data file format
VERSION 0.7
FIELDS x y z intensity
SIZE 4 4 4 4
TYPE F F F F
COUNT 1 1 1 1
WIDTH 734
HEIGHT 1
VIEWPOINT 0 0 0 1 0 0 0
POINTS 734
DATA ascii
-0.214315 -3.3345339 -70.041016 7
-0.55491799 -0.76977497 73.613281 7
-0.594414 -0.60729998 74.661133 7
-0.044264 3.217346 -66.792969 7
-0.63630301 -4.3753662 68.460938 7
-0.69602001 -4.3058472 69.896484 7
-0.76357102 -4.241272 71.517578 7
-0.50515002 -1.442993 65.546875 7
-0.54809999 -1.311829 66.580078 7
-0.53858799 -1.15332 66.360352 7
-0.52627403 0.53820801 66.131836 7
-0.50181198 0.68536401 65.550781 7
-0.48250401 0.83154303 65.092773 7
-0.026876001 3.5614619 -58.852539 7
-0.075953998 3.493958 -60.197266 7
-0.023972001 3.2702031 -58.78125 7
-0.069854997 3.191833 -60.038086 7
-0.134333 3.1326289 -61.804688 7
-0.61110902 -4.4057012 62.259766 7
-0.67149001 -4.3538818 63.587891 7
-0.743671 -4.3129878 65.174805 7
-0.53978902 -1.480713 60.922852 7
-0.55593699 -1.347778 61.283203 7
-0.49125499 1.0411381 59.947266 7
-0.45844701 1.165588 59.230469 7
-0.46628001 1.306396 59.40332 7
-0.49016801 4.234314 59.881836 7
-0.44113499 4.2929082 58.804688 7
-0.39770299 4.355896 57.849609 7
-0.024343001 3.6113889 -53.050781 7
-0.073239997 3.4260859 -54.270508 7
-0.052595001 3.2632451 -53.763672 7
-0.112656 3.216064 -55.255859 7
-0.022234 -0.019165 -47.855469 7
-0.01479 -0.135986 -47.685547 7
-0.023545999 -0.253784 -47.878906 7
0.035828002 -0.36102301 -46.543945 7
-0.70015001 -4.4351201 58.897461 7
-0.795946 -4.4421391 60.820312 7
-0.445461 1.06366 54.104492 7
-0.41214201 1.296875 53.438477 7
-0.40929401 4.255127 53.3125 7
-0.0082400003 3.710815 -47.499023 7
-0.047959998 3.659363 -48.392578 7
-0.074404001 3.5827031 -48.990234 7
-0.111525 3.519531 -49.828125 7
-0.062125999 3.3243411 -48.726562 7
-0.085433997 3.2380979 -49.253906 7
-0.13925 3.1912839 -50.464844 7
-0.064292997 -0.29211399 -44.333008 7
-0.021553 -0.39257801 -43.461914 7
-0.052916002 -0.505615 -44.091797 7
-0.01305 -0.602112 -43.277344 7
-0.41996801 1.092468 49.898438 7
-0.45120201 1.222046 50.481445 7
-0.38480899 1.304626 49.245117 7
-0.44371599 4.2362671 50.258789 7
-0.39685199 4.2745972 49.380859 7
-0.36220601 4.3296509 48.729492 7
-0.330704 4.3870239 48.137695 7
-0.074299 3.7467041 -45.005859 7
-0.111967 3.6967161 -45.790039 7
-0.13978399 3.6277471 -46.370117 7
-0.18453 3.5814209 -47.299805 7
-0.023699 0.24389599 -43.53418 7
-0.014112 0.137146 -43.334961 7
-0.072848998 0.032226998 -44.521484 7
-0.068461999 -0.56359899 -40.416992 7
-0.028549001 -0.65057403 -39.672852 7
-0.018642001 -0.74414098 -39.484375 7
-0.030848 -0.845276 -39.704102 7
-8.8000001e-05 -0.92919898 -39.128906 7
-0.219961 -4.0621948 -42.896484 7
-0.211 -4.151001 -42.716797 7
-0.19729599 -4.2305298 -42.450195 7
-0.31480199 1.167969 44.193359 7
-0.330706 1.277405 44.464844 7
-0.31143799 1.369019 44.134766 7
-0.35122901 4.2730098 44.704102 7
-0.32620201 4.332581 44.269531 7
-0.305935 4.3986821 43.916016 7
0.61523998 23.05835 17.088867 7
0.61574399 23.090332 17.030273 7
0.61460698 23.146667 16.989258 7
-0.036401998 3.949707 -40.109375 7
-0.070288002 3.9095459 -40.753906 7
-0.095799997 3.8521731 -41.239258 7
-0.120687 3.791321 -41.714844 7
-0.168219 3.7645259 -42.616211 7
0.004803 0.56866503 -39.445312 7
-0.0071029998 0.47393799 -39.668945 7
-0.003176 0.37542701 -39.594727 7
-0.026293 0.28082299 -40.025391 7
-0.064595997 0.18536399 -40.746094 7
-0.066008002 -0.79254198 -37.167969 7
-0.036109999 -0.87188703 -36.651367 7
-0.037514001 -1.052002 -36.664062 7
-0.013056 -1.129272 -36.241211 7
-0.263796 -4.2120972 -40.213867 7
-0.24135 -4.2706299 -39.819336 7
-0.221672 -4.3319702 -39.472656 7
-0.39495501 -1.793396 42.326172 7
-0.395206 -1.696594 42.335938 7
-0.40501401 -1.605835 42.49707 7
-0.316854 1.085449 41.173828 7
-0.31476399 1.2730711 41.139648 7
-0.365118 4.2771611 41.808594 7
-0.32827801 4.3100591 41.217773 7
-0.312372 4.376709 40.958008 7
-0.283243 4.418457 40.488281 7
0.55231303 21.670532 17.220703 7
0.554609 21.679443 17.149414 7
0.55692101 21.68811 17.078125 7
0.55531102 21.748718 17.042969 7
0.55370301 21.809326 17.008789 7
-0.047961999 4.1199341 -37.020508 7
-0.069303997 3.9742429 -37.40625 7
-0.129862 3.9859619 -38.461914 7
0.010632 0.79211402 -36.151367 7
-0.017757 0.71173102 -36.643555 7
-0.061774999 -1.0587161 -33.900391 7
-0.020683 -1.36615 -33.235352 7
-0.29383999 -4.2749019 -37.204102 7
-0.28769299 -4.355042 -37.09668 7
-0.26768899 -4.4096069 -36.771484 7
-0.245821 -4.459167 -36.417969 7
-0.227327 -4.5134282 -36.117188 7
-0.353643 -1.891479 38.539062 7
-0.37745699 -1.820496 38.892578 7
-0.39436001 -1.6535029 39.152344 7
-0.27545899 1.156616 37.486328 7
-0.272026 1.3258671 37.433594 7
-0.34016001 4.2581792 38.28125 7
-0.30425799 4.283875 37.749023 7
-0.28585199 4.337769 37.47168 7
-0.29128301 4.433167 37.541992 7
0.49024001 20.165833 17.170898 7
0.492338 20.17981 17.105469 7
0.49017301 20.24469 17.079102 7
0.49111199 20.272278 17.024414 7
0.49088299 20.313843 16.979492 7
-0.035163999 4.3347778 -33.510742 7
-0.034127999 4.2496338 -33.50293 7
-0.051075 4.1980591 -33.780273 7
-0.078281 4.164062 -34.21875 7
-0.108805 4.1342769 -34.708984 7
-0.130877 4.0870361 -35.068359 7
0.019327 1.049072 -32.838867 7
-0.0032649999 0.89483601 -33.199219 7
0.002874 0.81011999 -33.100586 7
-0.031730998 0.73950201 -33.651367 7
-0.0035399999 0.647461 -33.204102 7
-0.067938 -1.147949 -31.686523 7
-0.058913998 -1.220947 -31.548828 7
-0.033144001 -1.28363 -31.166016 7
-0.045843001 -1.445374 -31.341797 7
-0.28901899 -4.412292 -34.567383 7
-0.27600899 -4.478333 -34.370117 7
-0.252579 -4.5189209 -34.017578 7
-0.237156 -4.572998 -33.780273 7
-0.24374799 -4.6685181 -33.862305 7
-0.34530801 -1.851868 36.140625 7
-0.37070099 -1.787354 36.494141 7
-0.36590999 -1.701172 36.433594 7
-0.39130199 -1.634338 36.788086 7
-0.280848 1.00708 35.342773 7
-0.28116801 1.087708 35.34668 7
-0.25138101 1.1539921 34.9375 7
-0.28985399 1.253113 35.464844 7
-0.33675399 4.2358398 35.939453 7
-0.33027601 4.3068848 35.842773 7
-0.30220801 4.3396001 35.452148 7
-0.28007099 4.381165 35.139648 7
-0.27613601 4.4541631 35.077148 7
0.43697399 19.02478 17.173828 7
0.435478 19.080078 17.144531 7
0.437691 19.094543 17.080078 7
0.43950701 19.113403 17.020508 7
0.43842301 19.163757 16.986328 7
-0.047212999 4.3051152 -31.333984 7
-0.063757002 4.2583008 -31.586914 7
-0.104736 4.1754761 -32.208984 7
-0.146404 4.1698608 -32.833984 7
0.0058670002 1.007385 -30.677734 7
-0.037836 0.87310803 -31.318359 7
-0.072825998 -1.331177 -29.342773 7
-0.047366999 -1.38855 -28.988281 7
-0.041921999 -1.47821 -28.851562 7
-0.074841 -1.572327 -29.291992 7
-0.056017 -1.6309201 -29.03125 7
-0.047559999 -1.696106 -28.910156 7
-0.28072199 -4.5384521 -31.720703 7
-0.26621401 -4.5889282 -31.511719 7
-0.253851 -4.6427002 -31.333984 7
-0.238453 -4.6898189 -31.115234 7
-0.245111 -4.7793579 -31.19043 7
-0.32210699 -1.856873 33.395508 7
-0.33926201 -1.717163 33.625 7
-0.34191501 -1.6424561 33.665039 7
-0.26812601 1.0068361 32.796875 7
-0.25432801 1.075195 32.619141 7
-0.27929899 1.160828 32.936523 7
-0.308449 4.1965332 33.119141 7
-0.27864099 4.295166 32.724609 7
-0.26577201 4.3468022 32.551758 7
0.37783101 17.612793 17.236328 7
0.379471 17.674377 17.140625 7
0.37915799 17.715881 17.103516 7
0.37796801 17.766052 17.073242 7
0.37944001 17.789795 17.019531 7
-0.038830001 4.4616699 -28.651367 7
-0.055036999 4.421875 -28.881836 7
-0.071664996 4.3816528 -29.117188 7
-0.086170003 4.3365479 -29.323242 7
-0.115093 4.3175049 -29.726562 7
-0.13596199 4.2816768 -30.020508 7
0.003094 1.338806 -28.347656 7
-0.0088809999 1.274658 -28.513672 7
0.0016589999 1.197449 -28.371094 7
-0.007334 1.131104 -28.495117 7
-0.030802 1.071106 -28.819336 7
-0.018553 0.993469 -28.652344 7
-0.064800002 -1.327026 -27.15918 7
-0.089863002 -1.409729 -27.470703 7
-0.077529997 -1.469849 -27.30957 7
-0.060148001 -1.5255131 -27.083008 7
-0.28282401 -4.539062 -29.53125 7
-0.28576899 -4.617188 -29.554688 7
-0.272497 -4.6647339 -29.375977 7
-0.26016399 -4.7131958 -29.208984 7
-0.255238 -4.7755742 -29.134766 7
-0.311607 -1.875122 31.258789 7
-0.31785399 -1.80896 31.338867 7
-0.31484801 -1.7360229 31.308594 7
-0.31573299 -1.665771 31.324219 7
-0.24061599 1.070435 30.498047 7
-0.232729 1.13562 30.402344 7
-0.248198 1.212036 30.585938 7
-0.23497801 1.274353 30.425781 7
-0.30256301 4.204041 31.026367 7
-0.30389801 4.2765498 31.03418 7
-0.28242701 4.3095088 30.769531 7
-0.25999299 4.339294 30.494141 7
-0.24386001 4.3792109 30.292969 7
-0.25929099 4.4761348 30.467773 7
0.32309899 16.679626 16.984375 7
-0.080302998 4.5205078 -27.130859 7
-0.084909 4.4615479 -27.199219 7
-0.092208996 4.407227 -27.302734 7
-0.114998 4.3821411 -27.601562 7
-0.135515 4.3512568 -27.871094 7
-0.122847 4.2579961 -27.719727 7
-0.046769999 1.1604 -27.008789 7
-0.085208997 -1.495605 -25.356445 7
-0.079793997 -1.743469 -25.271484 7
-0.29015401 -4.6976929 -27.337891 7
-0.28134301 -4.7527471 -27.228516 7
-0.26322201 -4.8511958 -26.991211 7
-0.282307 -4.9561772 -27.198242 7
-0.27924499 -1.855042 28.869141 7
-0.28594199 -1.794983 28.948242 7
-0.28326601 -1.727905 28.922852 7
-0.28893301 -1.666626 28.991211 7
-0.23147801 4.1895752 28.180664 7
-0.24020199 4.2685552 28.268555 7
-0.234383 4.32196 28.195312 7
-0.078583002 4.6271362 -24.956055 7
-0.052186999 4.5108638 -24.65625 7
-0.050753001 4.4456792 -24.650391 7
-0.018394001 1.233398 -24.584961 7
-0.0052220002 1.1644289 -24.431641 7
-0.011667 1.106079 -24.508789 7
-0.020065 1.048157 -24.610352 7
-0.0039579999 0.97882098 -24.419922 7
0.0067810002 0.91253698 -24.294922 7
-0.088448003 -1.752197 -23.607422 7
-0.105742 4.4300542 -23.473633 7
-0.119936 4.397644 -23.638672 7
-0.123138 4.34375 -23.681641 7
-0.011705 0.62835699 -22.776367 7
-0.0044140001 0.56860399 -22.696289 7
0.0044559999 0.50903302 -22.598633 7
0.0085890004 0.45074499 -22.553711 7
0.0038149999 0.39447001 -22.606445 7
0.0049689999 -0.0065919999 -21.016602 7
0.0020920001 -0.060486 -21.045898 7
0.0076520001 -0.113831 -20.987305 7
0.011511 -0.166931 -20.946289 7
0.013136 -0.220154 -20.928711 7
0.01026 -0.27392599 -20.956055 7
-0.081297003 -1.688965 -21.927734 7
-0.079704002 -1.742493 -21.90625 7
-0.30909899 -4.6759639 -23.830078 7
-0.30355501 -4.7246089 -23.760742 7
-0.29741499 -4.77179 -23.686523 7
-0.29472399 -4.8255 -23.645508 7
-0.29712701 -4.8890381 -23.658203 7
-0.0022090001 0.100952 -21.092773 7
0.0033509999 0.046875 -21.03418 7
-0.028512999 -0.338074 -20.115234 7
-0.031640999 -0.38922101 -20.142578 7
-0.031748001 -0.43994099 -20.141602 7
-0.023418 -0.48889199 -20.058594 7
-0.024119999 -0.53967297 -20.063477 7
-0.029041 -0.59124798 -20.108398 7
-0.093961999 -1.648315 -20.657227 7
-0.10252 -1.706665 -20.734375 7
-0.095403999 -1.753296 -20.661133 7
-0.092483997 -1.802734 -20.62793 7
-0.106472 -1.865967 -20.756836 7
-0.326487 -4.8197632 -22.411133 7
-0.070908003 4.5502319 -19.954102 7
-0.081083 4.5194702 -20.061523 7
-0.087665997 4.4810791 -20.134766 7
-0.130117 4.407166 -20.572266 7
-0.046597 -1.037964 -18.931641 7
-0.055048 -1.089722 -19.003906 7
-0.051304001 -1.135864 -18.966797 7
-0.050120998 -1.183044 -18.952148 7
-0.053431999 -1.232788 -18.978516 7
-0.102453 -1.651062 -19.385742 7
-0.094857998 -1.694153 -19.310547 7
-0.091112003 -1.739929 -19.272461 7
-0.109205 -1.8026119 -19.429688 7
-0.112522 -1.854309 -19.454102 7
-0.119699 -1.90918 -19.513672 7
-0.077735998 -1.313843 -18.048828 7
-0.089374997 -1.3666379 -18.144531 7
-0.091518 -1.413757 -18.158203 7
-0.084821999 -1.4553829 -18.09668 7
-0.094425 -1.507568 -18.173828 7
-0.096574999 -1.555176 -18.188477 7
-0.091228001 -1.597351 -18.137695 7
-0.064409003 4.4685059 -17.336914 7
-0.067801997 4.4300542 -17.375977 7
-0.077917002 4.4049072 -17.469727 7
-0.088053003 4.3338008 -17.576172 7
-0.083382003 -1.37146 -16.983398 7
-0.094991997 -1.421875 -17.072266 7
-0.084289998 -1.458252 -16.981445 7
-0.085831001 -1.502502 -16.989258 7
-0.087364003 -1.546753 -16.99707 7
-0.091782004 -1.5930181 -17.029297 7
-0.096189 -1.639526 -17.05957 7
-0.098439999 -1.684448 -17.073242 7
-0.102148 -1.730774 -17.097656 7
-0.097204 -1.770264 -17.052734 7
-0.113878 -1.826843 -17.180664 7
-0.12188 -1.877014 -17.240234 7
-0.069329999 4.473877 -16.228516 7
-0.076476999 4.4456182 -16.294922 7
-0.087903999 4.4255371 -16.396484 7
-0.100794 4.3648682 -16.516602 7
-0.104362 4.3286738 -16.556641 7
-0.089414999 4.25769 -16.447266 7
-0.089158997 -1.421814 -16.011719 7
-0.104467 -1.472595 -16.124023 7
-0.104071 -1.636597 -16.101562 7
-0.104155 -1.677917 -16.098633 7
-0.101974 -1.717346 -16.077148 7
-0.102814 -1.758972 -16.079102 7
-0.112051 -1.8071899 -16.143555 7
-0.122042 -1.856445 -16.214844 7
-0.12443 -1.89978 -16.226562 7
-0.094104998 -1.501099 -15.081055 7
-0.079062998 -1.606262 -14.958008 7
-0.070642002 4.4677119 -13.326172 7
-0.077399999 4.4100952 -13.391602 7
-0.097558998 4.377686 -13.546875 7
-0.07914 4.2711182 -13.442383 7
-0.079986997 4.2371221 -13.458008 7
-0.074120998 4.1906128 -13.429688 7
-0.099775001 -1.497131 -13.504883 7
-0.069522999 4.540771 -12.478516 7
-0.059822001 4.4881592 -12.428711 7
-0.063375004 4.461792 -12.460938 7
-0.100578 -1.628601 -12.786133 7
-0.094479002 -1.6046751 -12.045898 7
-0.111219 -1.648132 -12.139648 7
-0.108353 -1.677673 -12.119141 7
-0.102533 -1.705078 -12.080078 7
-0.105547 -1.738892 -12.09375 7
-0.107574 -1.772034 -12.100586 7
-0.104326 -1.630127 -11.495117 7
-0.109606 -1.6943361 -11.515625 7
-0.1066 -1.722351 -11.493164 7
-0.108706 -1.75415 -11.500977 7
-0.10673 -1.7828979 -11.486328 7
-0.027206 1.271606 -10.866211 7
-0.021135001 1.238831 -10.833984 7
-0.026253 1.212219 -10.865234 7
-0.023218 1.180969 -10.850586 7
-0.023249 1.151489 -10.853516 7
-0.093383998 -1.629578 -10.80957 7
-0.107449 -1.668213 -10.878906 7
-0.102133 -1.692993 -10.84668 7
-0.100042 -1.7199709 -10.831055 7
-0.102247 -1.750366 -10.837891 7
-0.102316 -1.779053 -10.833984 7
-0.112078 -1.81543 -10.879883 7
-0.061232001 4.4752808 -9.6679688 7
-0.065517001 4.4571528 -9.7001953 7
-0.066586003 4.4324951 -9.7158203 7
-0.065518998 4.403687 -9.7207031 7
-0.064451002 4.374939 -9.7255859 7
-0.071925998 4.3624272 -9.7734385 7
-0.083678998 4.3581538 -9.8427734 7
-0.080491997 4.3250728 -9.8359385 7
-0.081557997 4.3001709 -9.8515615 7
-0.078363001 4.2667851 -9.8457031 7
-0.078363001 4.2398071 -9.8554688 7
-0.077311002 4.2106318 -9.8603516 7
-0.077317998 4.1834722 -9.8701172 7
-0.013891 1.258484 -10.183594 7
-0.01605 1.231567 -10.198242 7
-0.01499 1.203186 -10.195312 7
-0.013952 1.174561 -10.193359 7
-0.067296997 4.470459 -9.1318359 7
-0.069525003 4.4494019 -9.1533203 7
-0.069540001 4.4241328 -9.1630859 7
-0.069548003 4.39856 -9.1738281 7
-0.069532 4.3729248 -9.1845703 7
-0.076228999 4.3604131 -9.2265615 7
-0.074018002 4.2278442 -9.2666016 7
-0.087894 -1.601624 -9.2705078 7
-0.097369999 -1.6298831 -8.8242188 7
-0.102526 -1.6574709 -8.8427734 7
-0.098194003 -1.679871 -8.8222656 7
-0.090597004 -1.697876 -8.7822266 7
-0.093206003 -1.723755 -8.7900391 7
-0.094534002 -1.748596 -8.7910156 7
-0.102236 -1.77832 -8.8212891 7
-0.111229 -1.8093261 -8.8564453 7
-0.111282 -1.833313 -8.8515615 7
-0.118994 -1.863525 -8.8818359 7
-0.119055 -1.88739 -8.8759766 7
-0.124212 -1.91571 -8.8935547 7
-0.117708 6.3864141 -6.6162109 7
-0.117701 6.367065 -6.6308589 7
-0.115147 6.3405151 -6.6376948 7
-0.118929 6.331543 -6.6650391 7
-0.117411 6.3088989 -6.6767578 7
-0.116123 6.2860112 -6.686523 7
-0.116108 6.266418 -6.7011719 7
-0.012936 1.262939 -8.2353516 7
-0.0091509996 1.23761 -8.2207031 7
-0.0117 1.215698 -8.2353516 7
-0.01173 1.192444 -8.2382812 7
-0.010479 1.168457 -8.2353516 7
-0.015568 1.147766 -8.2607422 7
-0.023203 1.128296 -8.296875 7
-0.020678001 1.103577 -8.2880859 7
-0.020708 1.0802 -8.2900391 7
-0.020723 1.0567631 -8.2929688 7
-0.018215001 1.032288 -8.2832031 7
-0.020769 1.01001 -8.2978516 7
-0.019517999 0.985901 -8.2949219 7
-0.01701 0.96160901 -8.2841797 7
-0.091581002 -1.606873 -8.3828115 7
-0.106226 -1.640198 -8.4414062 7
-0.112915 -1.667908 -8.4648438 7
-0.110308 -1.689087 -8.4501953 7
-0.105059 -1.708191 -8.4228516 7
-0.110483 -1.7581789 -8.4365234 7
-0.117157 -1.786255 -8.4599609 7
-0.127827 -1.817688 -8.5009766 7
-0.12788799 -1.840881 -8.4960938 7
-0.138605 -1.895691 -8.5322266 7
-0.018549001 1.25946 -7.8525391 7
-0.018572001 1.237183 -7.8544922 7
-0.019907 1.2153929 -7.8632808 7
-0.02125 1.193787 -7.8720698 7
-0.021265 1.1711431 -7.875 7
-0.02524 1.151123 -7.8925781 7
-0.035817999 1.13385 -7.9414058 7
-0.031883001 1.109375 -7.9267578 7
-0.033218 1.087402 -7.9355469 7
-0.029274 1.062927 -7.920898 7
-0.027970999 1.039856 -7.9179692 7
-0.031952001 1.019165 -7.936523 7
-0.026697 0.99408001 -7.9160161 7
-0.028047999 0.97216803 -7.9238281 7
-0.325562 -4.80304 -7.8349609 7
-0.32839999 -4.8300171 -7.8339839 7
-0.329842 -4.854187 -7.827148 7
-0.33128399 -4.8786011 -7.8212891 7
-0.33412001 -4.905457 -7.820312 7
-0.33972701 -4.9378662 -7.828125 7
-0.34947401 -4.9786382 -7.851562 7
-0.348171 -4.997437 -7.8339839 7
-0.348225 -5.019043 -7.8222661 7
-0.351046 -5.046082 -7.820312 7
-0.352503 -5.070435 -7.8125 7
-0.355333 -5.0974731 -7.8105469 7
-0.35539401 -5.118958 -7.7988281 7
-0.441973 -6.4398189 -7.3369141 7
-0.44482601 -6.46698 -7.3300781 7
-0.44766399 -6.4942632 -7.3232422 7
-0.444956 -6.50769 -7.297852 7
-0.44501701 -6.5281978 -7.2832031 7
-0.43952599 -6.5346069 -7.249023 7
-0.44236401 -6.561707 -7.2431641 7
-0.43826699 -6.5715942 -7.2138672 7
-0.44110501 -6.5986328 -7.2070308 7
-0.44532999 -6.6292109 -7.2050781 7
-0.45649701 -6.6774292 -7.2246089 7
-0.327402 -4.8292241 -7.375977 7
-0.331833 -4.8786011 -7.367188 7
-0.33332801 -4.901855 -7.3613281 7
-0.33625001 -4.92804 -7.360352 7
-0.34785801 -4.9917598 -7.3769531 7
-0.35085699 -5.0383911 -7.3613281 7
-0.067511 4.4664311 -6.2119141 7
-0.066068999 4.44519 -6.21875 7
-0.066068999 4.4265752 -6.2285161 7
-0.066053003 4.4081421 -6.2382808 7
-0.066053003 4.3895259 -6.2480469 7
-0.064626999 4.3684082 -6.2539058 7
-0.066046 4.352478 -6.2685552 7
-0.085983001 4.3722529 -6.3486328 7
-0.087387003 4.3563838 -6.3642578 7
-0.081697002 4.3267212 -6.3544922 7
-0.084542997 4.313354 -6.374023 7
-0.081689999 4.289185 -6.374023 7
-0.078836001 4.2648931 -6.374023 7
-0.083094001 4.2540889 -6.398438 7
-0.080239996 4.2298579 -6.398438 7
-0.45237201 -6.4529419 -6.3251948 7
-0.44794101 -6.4599609 -6.296875 7
-0.44203001 -6.4631348 -6.2636719 7
-0.43759701 -6.4700322 -6.235352 7
-0.43765101 -6.4876709 -6.219727 7
-0.445187 -6.5239868 -6.2255859 7
-0.433281 -6.5120239 -6.1767578 7
-0.43483001 -6.5335078 -6.1650391 7
-0.439383 -6.5623169 -6.1621089 7
-0.43643999 -6.5724492 -6.1376948 7
-0.432024 -6.5787349 -6.108398 7
-0.435074 -6.6037598 -6.101562 7
-0.43661499 -6.625061 -6.0908198 7
-0.45015299 -6.6766968 -6.1123052 7
-0.45618099 -6.7094731 -6.1132808 7
-0.065724999 4.479126 -5.7900391 7
-0.071645997 4.4733891 -5.820312 7
-0.076076999 4.4646611 -5.844727 7
-0.070134997 4.4354248 -5.8369141 7
-0.076068997 4.4295039 -5.8652339 7
-0.074574001 4.4090581 -5.8710942 7
-0.068646997 4.3798828 -5.8613281 7
-0.070111997 4.3652339 -5.8769531 7
-0.071592003 4.3504028 -5.891602 7
-0.084902003 4.3583369 -5.9462891 7
-0.089348003 4.348938 -5.9707031 7
-0.090805002 4.3339229 -5.9863281 7
-0.092285 4.3187871 -6.000977 7
-0.096724004 4.3093262 -6.0253911 7
-0.084879003 4.269043 -5.9960942 7
-0.084871002 4.2510381 -6.0068359 7
-0.080417998 4.224915 -6.0019531 7
-0.089289002 4.2233891 -6.0419922 7
-0.086328998 4.1998291 -6.0419922 7
-0.081874996 4.173584 -6.0371089 7
-0.087808996 4.166626 -6.0644531 7
-0.44901699 -6.5162349 -5.7597661 7
-0.44906399 -6.5328979 -5.7451172 7
-0.44911799 -6.549561 -5.7294922 7
-0.44298601 -6.5509028 -5.6972661 7
-0.43840799 -6.5556641 -5.6689448 7
-0.44621101 -6.5914922 -5.672852 7
-0.44470999 -6.604248 -5.6533198 7
-0.44477099 -6.620728 -5.6376948 7
-0.443275 -6.6331182 -5.6181641 7
-0.45572299 -6.6809692 -5.6347661 7
-0.455769 -6.6974492 -5.6191411 7
-0.061234999 4.4594731 -5.4130859 7
-0.061228 4.4429321 -5.4238281 7
-0.059687 4.4234619 -5.429688 7
-0.070395 4.427856 -5.4736328 7
-0.068847999 4.4080811 -5.4794922 7
-0.067322001 4.3884888 -5.484375 7
-0.064240001 4.3657842 -5.484375 7
-0.068824999 4.3580322 -5.5097661 7
-0.068824999 4.341248 -5.5185552 7
-0.071874999 4.3303218 -5.5400391 7
-0.077983998 4.3251948 -5.5683589 7
-0.0933 4.3374629 -5.6269531 7
-0.094825998 4.3232422 -5.641602 7
-0.085619003 4.2886958 -5.624023 7
-0.085619003 4.271606 -5.632812 7
-0.085619003 4.2547002 -5.6425781 7
-0.079479001 4.2261958 -5.6337891 7
-0.079471998 4.209106 -5.6435552 7
-0.082530998 4.1976318 -5.6630859 7
-0.079457998 4.1748662 -5.6630859 7
-0.32382801 -4.8071899 -6.092773 7
-0.427807 -6.5336909 -5.1074219 7
-0.439127 -6.5768428 -5.1181641 7
-0.43758601 -6.5878911 -5.0986328 7
-0.440844 -6.6112061 -5.0908198 7
-0.437677 -6.6183472 -5.0673828 7
-0.44095001 -6.641479 -5.0585942 7
-0.45225301 -6.684937 -5.070312 7
-0.45390901 -6.7043462 -5.0595698 7
-0.45396999 -6.7192988 -5.0429692 7
-0.070937999 4.3330078 -5.1464839 7
-0.075689003 4.3261719 -5.170898 7
-0.086825997 4.331543 -5.2138672 7
-0.086810999 4.3153691 -5.2246089 7
-0.094756998 4.3143921 -5.257812 7
-0.089983001 4.2892461 -5.2539058 7
-0.082006 4.2581792 -5.2402339 7
-0.089951999 4.2568359 -5.273438 7
-0.083590999 4.2286992 -5.264648 7
-0.083568998 4.2125239 -5.2753911 7
-0.083576001 4.1962891 -5.2832031 7
-0.083568998 4.1799932 -5.2929692 7
-0.43585399 -6.4026489 -4.7753911 7
-0.434246 -6.4130249 -4.7568359 7
-0.43762401 -6.4355469 -4.75 7
-0.44100401 -6.4580078 -4.742188 7
-0.444397 -6.4805908 -4.734375 7
-0.45111799 -6.511353 -4.734375 7
-0.44450399 -6.5089111 -4.702148 7
-0.44288099 -6.5189819 -4.6835942 7
-0.44293401 -6.5331421 -4.6679692 7
-0.43965301 -6.539062 -4.6445308 7
-0.436382 -6.5447388 -4.6220698 7
-0.43642801 -6.5586548 -4.6064448 7
-0.43314701 -6.5643311 -4.5830078 7
-0.43820599 -6.5907588 -4.578125 7
-0.44158399 -6.6129761 -4.5693359 7
-0.43831301 -6.6186519 -4.546875 7
-0.43835801 -6.6325068 -4.53125 7
-0.44841999 -6.6715088 -4.5371089 7
-0.45346799 -6.697937 -4.53125 7
-0.43483499 -6.5067749 -4.1503911 7
-0.429701 -6.5067139 -4.124023 7
-0.433249 -6.5410161 -4.0996089 7
-0.43162301 -6.5621338 -4.0654302 7
-0.43513301 -6.5834961 -4.0566411 7
-0.44213501 -6.6262212 -4.039062 7
-0.44218099 -6.638916 -4.023438 7
-0.44574401 -6.672791 -3.9980471 7
-0.45103601 -6.710999 -3.976562 7
-0.040792 -1.5082999 -7.4856281 7
-0.025986999 -1.451299 -6.270143 7
0.011471 -1.395975 -5.0794692 7
-0.013748 -1.756703 -5.2036562 7
-0.066664003 -1.673537 -4.2854409 7
-0.48775899 -6.4561648 -4.8917789 7
-0.35266599 -4.7907372 -4.3065381 7
-0.010522 -1.711464 -2.140084 7
-0.32943699 -4.7843471 -1.9181581 7
-0.063024998 -1.66842 -1.822336 7
-0.087246001 -1.895523 -1.883083 7
-0.28076801 -4.746819 -0.79613799 7
-0.044121001 -1.777415 -1.2007951 7
-0.269723 -4.5437722 -0.57738 7
-0.27556601 -4.7047429 -0.429923 7
-0.036961 -1.7364399 -0.965128 7
-0.31466401 -4.7517619 0.098623998 7
-0.29540801 -4.5464349 0.27070799 7
-0.30848601 -4.694643 0.40089801 7
-0.30203599 -4.8161249 1.0065759 7
-0.32973099 -4.9810009 1.128399 7
-0.33209699 -4.7005482 1.658028 7
-0.32193601 -4.7279272 1.828084 7
-0.32259101 -4.7793269 1.986998 7
-0.299292 -4.5386281 1.899895 7
-0.30356899 -4.5977378 2.047266 7
-0.30021101 -4.6295319 2.2033701 7
-0.29327601 -4.6961908 2.672076 7
-0.297088 -4.723721 2.8266411 7
-0.269568 -4.5082731 2.70102 7
-0.281221 -4.5566978 2.8451869 7
-0.06174 4.42275 -6.12643 7
0.01612 1.1381691 -6.0050869 7
-0.12929501 -1.74046 -10.015724 7
-0.094261996 4.3367038 -8.7491379 7
-0.103327 -1.743997 -8.4091291 7
-0.019027 1.153221 -7.3699908 7
-0.084241003 -1.741726 -7.2594981 7
-0.050691999 -1.457292 -6.2614579 7
-0.066449001 -1.725793 -6.363698 7
-0.111029 4.3765969 -5.56778 7
-0.126873 4.278245 -5.846611 7
-0.034437999 1.144495 -6.1442919 7
-0.054133002 0.96967602 -6.378943 7
-0.36867201 -4.8745809 -7.4926929 7
-0.013503 1.171054 -5.4279642 7
-0.082105003 -1.6451631 -5.4987578 7
0.012003 1.1650749 -4.7982378 7
-0.052809998 -1.387659 -4.937376 7
-0.064398997 -1.583617 -4.968441 7
-0.102462 -1.872709 -5.1789918 7
-0.40665501 -6.4271312 -4.6286292 7
-0.045682002 -1.410358 -4.550447 7
-0.050230999 -1.569322 -4.5263081 7
-0.069026001 -1.776666 -4.5874 7
-0.27996001 -4.7064581 -4.3039198 7
-0.04713 -1.7129 -4.1485858 7
-0.046124998 -1.714727 -3.8790591 7
-0.055766001 -1.867522 -3.862643 7
-0.27731299 -4.7523069 -1.7161371 7
-0.057597 -1.8071181 -2.2012 7
-0.057691999 -1.855299 -2.1275311 7
-0.047223002 -1.68407 -2.153286 7
-0.037191 -1.69548 -2.066149 7
-0.040403001 -1.748428 -2.0020621 7
-0.061050002 -1.7839 -1.928195 7
-0.067078002 -1.849702 -1.843945 7
-0.068876997 -1.888997 -1.769689 7
-0.045348 -1.827348 -1.6866879 7
-0.053943999 -1.6526231 -1.954861 7
-0.048067998 -1.670262 -1.878551 7
-0.042247999 -1.68461 -1.802266 7
-0.042730998 -1.716862 -1.733265 7
-0.043230001 -1.746434 -1.662756 7
-0.046946999 -1.85789 -1.272002 7
-0.056814 -1.9030041 -1.194983 7
-0.049725998 -1.882971 -1.1157 7
-0.047332 -1.876761 -1.037107 7
-0.042022001 -1.647872 -1.709654 7
-0.036141001 -1.654968 -1.635793 7
-0.049176998 -1.723791 -1.262816 7
-0.050046999 -1.7347521 -1.1907049 7
-0.050944 -1.742821 -1.117879 7
-0.051883999 -1.748003 -1.044446 7
-0.04961 -1.739225 -0.97167599 7
-0.046856999 -1.650122 -1.275211 7
-0.052685998 -1.678923 -1.189193 7
-0.041733 -1.6479371 -1.119544 7
-0.041104998 -1.647612 -1.050439 7
-0.040573999 -1.644697 -0.98128301 7
