# .PCD v0.7 - Point Cloud Data file format
VERSION 0.7
FIELDS x y z intensity
SIZE 4 4 4 4
TYPE F F F F
COUNT 1 1 1 1
WIDTH 683
HEIGHT 1
VIEWPOINT 0 0 0 1 0 0 0
POINTS 683
DATA ascii
-0.55584902 -4.1812739 73.426758 7
-0.49180901 -0.57971197 71.974609 7
-0.192719 3.2813721 -72.109375 7
-0.557841 -4.2510991 66.626953 7
-0.61240202 -4.1782231 67.939453 7
-0.67677999 -4.1131592 69.485352 7
-0.45362201 -1.2622679 64.351562 7
-0.44068399 -1.107605 64.049805 7
-0.42843801 0.81958002 63.823242 7
-0.39223599 0.95422399 62.959961 7
-0.39278501 1.100403 62.975586 7
-0.109998 3.4143071 -61.839844 7
-0.134444 3.2987061 -62.518555 7
-0.107994 3.1104741 -61.790039 7
-0.14449701 3.0072019 -62.802734 7
-0.53778499 -4.4273682 60.667969 7
-0.595496 -4.3781128 61.9375 7
-0.63580799 -4.296021 62.830078 7
-0.42976099 -1.687256 58.517578 7
-0.47027901 -1.576111 59.410156 7
-0.46529001 -1.436096 59.308594 7
-0.40129399 1.14502 57.990234 7
-0.37287101 1.397827 57.370117 7
-0.42132899 4.2533569 58.272461 7
-0.37622601 4.312561 57.282227 7
-0.32338801 4.3534551 56.124023 7
-0.096885003 3.482178 -55.330078 7
-0.16137099 3.4416499 -56.943359 7
-0.085933998 3.1963501 -55.064453 7
-0.138721 3.1331789 -56.386719 7
-0.205091 3.081177 -58.047852 7
-0.67852098 -4.4000239 58.493164 7
-0.70877898 -4.309875 59.111328 7
-0.35767499 1.39502 52.363281 7
-0.380678 4.3354492 52.748047 7
-0.33361501 4.3757319 51.799805 7
-0.279268 4.3982539 50.706055 7
-0.051111002 3.561096 -48.924805 7
-0.078850999 3.4838259 -49.555664 7
-0.126993 3.4338989 -50.650391 7
-0.072911002 3.232239 -49.431641 7
-0.10814 3.15979 -50.233398 7
-0.146207 3.087219 -51.100586 7
-0.217337 3.052551 -52.712891 7
-0.104295 -0.077147998 -44.901367 7
-0.158517 -0.30297899 -45.988281 7
-0.104724 -0.40527299 -44.899414 7
-0.070647001 -0.50695801 -44.208008 7
-0.084124997 -0.61834699 -44.475586 7
-0.042512 -0.71337903 -43.632812 7
-0.36479199 1.18042 48.802734 7
-0.300201 1.260254 47.602539 7
-0.334326 1.388489 48.237305 7
-0.282938 1.468994 47.28125 7
-0.38110501 4.3555908 49.009766 7
-0.342951 4.4021001 48.293945 7
-0.29508701 4.427856 47.398438 7
-0.27986199 4.5093989 47.109375 7
-0.120509 3.7290039 -46.298828 7
-0.143902 3.651978 -46.791016 7
-0.18693399 3.602417 -47.693359 7
-0.234345 3.4358521 -48.688477 7
-0.228138 3.1887209 -48.570312 7
-0.099120997 -0.668396 -40.777344 7
-0.070665002 -0.75848401 -40.25 7
-0.093028001 -0.86523402 -40.657227 7
-0.070932999 -0.95520002 -40.246094 7
-0.26149201 -4.2226558 -43.480469 7
-0.261224 1.146606 43.286133 7
-0.258919 1.343811 43.246094 7
-0.30691099 4.2941279 43.884766 7
-0.27775699 4.3434448 43.379883 7
-0.25203699 4.39679 42.93457 7
0.635364 23.029785 16.594727 7
-0.086568996 3.9534299 -41.384766 7
-0.107262 3.886353 -41.78418 7
-0.140569 3.8384399 -42.422852 7
-0.16342799 3.7706909 -42.862305 7
-0.200747 3.7233281 -43.576172 7
-0.239287 3.6745 -44.313477 7
-0.058483999 0.27954099 -40.894531 7
-0.08884 0.18121301 -41.466797 7
-0.098526999 0.079650998 -41.648438 7
-0.104917 -0.80297899 -37.665039 7
-0.065646 -0.97033697 -36.988281 7
-0.074349001 -1.06488 -37.130859 7
-0.308696 -4.2746582 -40.835938 7
-0.270248 -4.3067021 -40.174805 7
-0.53125399 -4.7333369 44.226562 7
-0.54219902 -4.6506348 44.412109 7
-0.33761799 -1.845703 41.421875 7
-0.350012 -1.759521 41.624023 7
-0.35321501 -1.666321 41.681641 7
-0.242286 1.147949 39.996094 7
-0.26898199 1.253113 40.419922 7
-0.30860499 4.2711792 40.857422 7
-0.28422701 4.3222051 40.462891 7
-0.25691199 4.3660889 40.023438 7
-0.23914 4.4255371 39.734375 7
-0.056646999 4.0591431 -37.451172 7
-0.085744001 4.0177612 -37.966797 7
-0.109526 3.964905 -38.390625 7
-0.13762499 3.91748 -38.887695 7
-0.180748 3.892395 -39.645508 7
-0.213865 3.847595 -40.232422 7
-0.050992001 0.62731898 -37.442383 7
-0.110996 -0.993164 -34.541016 7
-0.096887 -1.071167 -34.314453 7
-0.065165997 -1.139343 -33.81543 7
-0.093745001 -1.237915 -34.255859 7
-0.067638002 -1.307007 -33.844727 7
-0.053132001 -1.381165 -33.614258 7
-0.33768699 -4.337769 -37.773438 7
-0.31231099 -4.385437 -37.368164 7
-0.274306 -4.4984131 -36.754883 7
-0.32993799 -1.871704 38.205078 7
-0.31908301 -1.776733 38.051758 7
-0.33253801 -1.699097 38.25293 7
-0.34838799 -1.621887 38.492188 7
-0.21030401 1.379028 36.536133 7
-0.28066701 4.2390141 37.365234 7
-0.282123 4.3269038 37.37793 7
-0.261711 4.375977 37.072266 7
-0.236517 4.4146729 36.696289 7
0.51118201 20.2052 16.668945 7
0.59720701 20.969421 13.399414 7
0.59314299 21.053589 13.380859 7
-0.073021002 4.1688228 -34.360352 7
-0.090571001 4.1150508 -34.649414 7
-0.116878 4.0756841 -35.078125 7
-0.13516 4.0203252 -35.37793 7
-0.169856 3.9914551 -35.938477 7
-0.18305901 3.9242549 -36.15625 7
-0.034339 0.900635 -33.914062 7
-0.058892 0.82531703 -34.306641 7
-0.030786 0.73687702 -33.816406 7
-0.062302001 0.66223103 -34.321289 7
-0.113497 -1.246094 -32.232422 7
-0.083957002 -1.308228 -31.796875 7
-0.079267003 -1.383606 -31.722656 7
-0.098601997 -1.474304 -32 7
-0.074684002 -1.536865 -31.646484 7
-0.335435 -4.482666 -35.147461 7
-0.31549799 -4.5325928 -34.84668 7
-0.299169 -4.587646 -34.597656 7
-0.27884299 -4.6342158 -34.291016 7
-0.27094901 -4.7028809 -34.164062 7
-0.305967 -1.8208621 35.609375 7
-0.32031399 -1.749939 35.810547 7
-0.32913899 -1.674255 35.9375 7
-0.22251201 1.1394041 34.503906 7
-0.259345 1.236389 35.008789 7
-0.27200499 4.2026982 35.008789 7
-0.28205001 4.2999878 35.137695 7
-0.25989199 4.3405762 34.826172 7
-0.242386 4.3883672 34.578125 7
-0.235063 4.4536738 34.470703 7
-0.088454999 4.3192749 -32.152344 7
-0.097883001 4.2566528 -32.300781 7
-0.117454 4.2120972 -32.601562 7
-0.139771 4.1708369 -32.941406 7
-0.17105 4.1438599 -33.416016 7
-0.18515299 4.0852051 -33.632812 7
-0.046905998 1.027161 -31.314453 7
-0.039012998 0.94653302 -31.199219 7
-0.043505002 0.87133801 -31.265625 7
-0.072802 0.80474901 -31.693359 7
-0.046877999 0.71826202 -31.31543 7
-0.112877 -1.3666379 -30.025391 7
-0.094763003 -1.430115 -29.772461 7
-0.077601999 -1.49707 -29.243164 7
-0.107128 -1.589905 -29.634766 7
-0.081263997 -1.644165 -29.28125 7
-0.323993 -4.5281978 -32.240234 7
-0.311553 -4.5845342 -32.060547 7
-0.29348499 -4.629456 -31.806641 7
-0.27453199 -4.6715088 -31.541016 7
-0.28635401 -4.7719121 -31.686523 7
-0.28876999 -1.905334 32.977539 7
-0.265856 -1.813599 32.69043 7
-0.28266701 -1.751404 32.910156 7
-0.286686 -1.679565 32.966797 7
-0.305778 -1.617188 33.21582 7
-0.232149 1.0682369 32.34375 7
-0.202767 1.200256 31.966797 7
-0.203025 1.345276 31.96582 7
-0.265852 4.269165 32.533203 7
-0.25889501 4.330811 32.435547 7
-0.243296 4.3765259 32.229492 7
-0.225425 4.4169312 31.993164 7
0.395078 17.60907 16.93457 7
0.39657301 17.632385 16.880859 7
0.39851901 17.651489 16.824219 7
0.40134799 17.661194 16.758789 7
0.40016699 17.710693 16.728516 7
0.39853501 17.764709 16.702148 7
0.39958701 17.791687 16.652344 7
-0.069018997 4.3956909 -29.264648 7
-0.083838001 4.3508301 -29.477539 7
-0.10206 4.311523 -29.735352 7
-0.118573 4.2677612 -29.970703 7
-0.14058501 4.2329102 -30.282227 7
-0.173557 4.2163091 -30.744141 7
-0.17403799 4.1403809 -30.759766 7
-0.033112001 1.212219 -29.008789 7
-0.052219 1.149353 -29.273438 7
-0.036660001 1.068604 -29.060547 7
-0.055330999 1.0042109 -29.319336 7
-0.076977 0.940063 -29.619141 7
-0.128236 -1.497986 -27.869141 7
-0.10704 -1.552734 -27.597656 7
-0.095118999 -1.612488 -27.441406 7
-0.31491399 -4.5830078 -29.865234 7
-0.325692 -4.6766362 -29.987305 7
-0.31142899 -4.7235718 -29.797852 7
-0.29717401 -4.7694092 -29.606445 7
-0.2843 -4.8173828 -29.43457 7
-0.19354799 1.184021 29.904297 7
-0.236285 1.274048 30.413086 7
-0.207964 1.327271 30.073242 7
-0.192304 1.3859251 29.884766 7
-0.253842 4.186646 30.410156 7
-0.25615999 4.259521 30.428711 7
-0.260416 4.3361211 30.469727 7
-0.242339 4.3725591 30.24707 7
-0.223773 4.407166 30.018555 7
-0.211996 4.453125 29.869141 7
-0.104878 4.4443359 -27.611328 7
-0.11127 4.387146 -27.702148 7
-0.123519 4.3406372 -27.868164 7
-0.143465 4.3076782 -28.131836 7
-0.177871 4.2996221 -28.582031 7
-0.076134004 1.238647 -27.272461 7
-0.095519997 -1.624756 -25.402344 7
-0.107244 -1.823303 -25.523438 7
-0.32801601 -4.7608032 -27.728516 7
-0.304281 -4.85144 -27.429688 7
-0.29489899 -4.9006958 -27.30957 7
-0.30400699 -4.9862061 -27.400391 7
-0.25812101 -1.902283 28.634766 7
-0.243957 -1.827026 28.483398 7
-0.25016499 -1.767395 28.558594 7
-0.251118 -1.703735 28.573242 7
-0.048131 1.246155 -25.05957 7
-0.036492001 1.1767581 -24.922852 7
-0.052432999 1.126038 -25.09375 7
-0.049566001 1.061462 -25.060547 7
-0.033031002 0.99072301 -24.865234 7
-0.100703 -1.639221 -23.697266 7
-0.136483 -1.724915 -24.083008 7
-0.118445 -1.770874 -23.880859 7
-0.116927 -1.829224 -23.859375 7
-0.137796 -1.905884 -24.082031 7
-0.1231 4.4794312 -23.785156 7
-0.127837 4.4282842 -23.84668 7
-0.143549 4.397644 -24.029297 7
-0.157675 4.3631592 -24.194336 7
-0.119608 4.2320561 -23.785156 7
-0.116519 4.1660161 -23.760742 7
-0.065091997 0.93817103 -23.452148 7
-0.054177999 0.87451202 -23.331055 7
-0.042722002 0.81109601 -23.206055 7
-0.04019 0.75164801 -23.176758 7
-0.047573999 0.69519001 -23.260742 7
-0.041365001 0.63445997 -23.192383 7
-0.032007001 0.57324201 -23.087891 7
-0.099744998 -1.533142 -22.084961 7
-0.053374998 -0.34082001 -20.306641 7
-0.063717999 -0.39379901 -20.404297 7
-0.060148001 -0.444397 -20.369141 7
-0.059020001 -0.495361 -20.355469 7
-0.054260999 -0.54528803 -20.307617 7
-0.047671001 -0.594666 -20.242188 7
-0.122034 -1.507629 -20.901367 7
-0.103368 4.4737549 -20.387695 7
-0.110522 4.4354858 -20.466797 7
-0.15693399 4.3648682 -20.943359 7
-0.085300997 -1.005127 -19.24707 7
-0.080862999 -1.051453 -19.203125 7
-0.074493997 -1.0969239 -19.143555 7
-0.075211003 -1.145569 -19.146484 7
-0.082998998 -1.198059 -19.212891 7
-0.081130996 -1.245422 -19.192383 7
-0.089689001 -1.395874 -19.258789 7
-0.103297 -1.453125 -19.375977 7
-0.119452 -1.5124511 -19.518555 7
-0.103427 -1.550842 -19.369141 7
-0.100277 -1.597412 -19.336914 7
-0.119727 -1.70929 -19.50293 7
-0.116585 -1.755981 -19.469727 7
-0.11988 -1.807495 -19.493164 7
-0.115921 -1.286865 -18.348633 7
-0.11191 -1.3308721 -18.30957 7
-0.100393 -1.3703001 -18.208008 7
-0.099088997 -1.415588 -18.193359 7
-0.114145 -1.471252 -18.316406 7
-0.116258 -1.518921 -18.330078 7
-0.117006 -1.5658571 -18.332031 7
-0.116381 -1.611816 -18.322266 7
-0.115084 -1.657227 -18.307617 7
-0.138317 -1.720764 -18.5 7
-0.126801 -1.7587889 -18.398438 7
-0.121416 -1.801025 -18.34668 7
-0.133063 -1.856812 -18.44043 7
-0.106323 -1.600464 -17.120117 7
-0.117924 -1.652161 -17.208984 7
-0.118702 -1.696411 -17.209961 7
-0.119557 -1.7846071 -17.208008 7
-0.120343 -1.828918 -17.209961 7
-0.096221 4.495667 -16.510742 7
-0.098371997 4.4568481 -16.538086 7
-0.102651 4.4221802 -16.583008 7
-0.106745 -1.636047 -16.102539 7
-0.13045 -1.6943361 -16.277344 7
-0.121367 -1.728882 -16.203125 7
-0.120657 -1.769775 -16.193359 7
-0.119186 -1.809998 -16.177734 7
-0.135272 -1.8640749 -16.293945 7
-0.135341 -1.905762 -16.290039 7
-0.10233 -1.6203001 -15.109375 7
-0.12578399 -1.676025 -15.271484 7
-0.112132 -1.705078 -15.168945 7
-0.113856 -1.784241 -15.172852 7
-0.133329 -1.877808 -15.302734 7
-0.102523 -1.6125489 -14.280273 7
-0.100883 -1.648132 -14.264648 7
-0.1179 -1.6973881 -14.375977 7
-0.118015 -1.7713619 -14.366211 7
-0.083208002 4.466187 -13.460938 7
-0.088234 4.4403691 -13.504883 7
-0.090751 4.4094238 -13.53125 7
-0.094108 4.3800659 -13.564453 7
-0.104153 4.3632808 -13.641602 7
-0.114206 4.3461909 -13.71875 7
-0.115052 4.3114619 -13.734375 7
-0.099173002 4.245544 -13.638672 7
-0.098348998 4.2080078 -13.642578 7
-0.09584 4.1672969 -13.635742 7
-0.091614999 4.4588618 -12.694336 7
-0.093385004 4.4284058 -12.71582 7
-0.093392 4.3944702 -12.726562 7
-0.099563003 4.372375 -12.774414 7
-0.096078001 4.2294922 -12.792969 7
-0.091677003 4.1872559 -12.776367 7
-0.104532 -1.6268311 -12.798828 7
-0.11727 -1.523254 -12.18457 7
-0.105632 -1.610352 -12.103516 7
-0.11451 -1.648438 -12.151367 7
-0.117646 -1.777771 -12.152344 7
-0.465388 -6.5410161 -12.796875 7
-0.46842399 -6.581665 -12.795898 7
-0.470469 -6.6199341 -12.791016 7
-0.031394001 1.238037 -11.508789 7
-0.031424999 1.207153 -11.511719 7
-0.031456001 1.175964 -11.514648 7
-0.108478 -1.600952 -11.516602 7
-0.103406 -1.627625 -11.483398 7
-0.100661 -1.604248 -10.84668 7
-0.074482001 4.4545898 -9.7783203 7
-0.078745998 4.4361572 -9.8095703 7
-0.077678002 4.407104 -9.8144531 7
-0.078745998 4.382019 -9.8291016 7
-0.078745998 4.354919 -9.8398438 7
-0.085146002 4.3400269 -9.8828115 7
-0.036401 1.268677 -10.323242 7
-0.034295999 1.2392581 -10.31543 7
-0.037530001 1.212891 -10.334961 7
-0.037553001 1.184692 -10.337891 7
-0.035440002 1.1550291 -10.329102 7
-0.04293 1.130554 -10.37207 7
-0.044020999 1.102905 -10.379883 7
-0.039779998 1.072632 -10.359375 7
-0.044082001 1.046021 -10.384766 7
-0.046241 1.018738 -10.398438 7
-0.039872002 0.98736602 -10.366211 7
-0.080363996 4.4771118 -9.2246094 7
-0.079235002 4.4493408 -9.2304688 7
-0.079242997 4.423584 -9.2412109 7
-0.082575999 4.4046021 -9.2666016 7
-0.082561001 4.3786621 -9.2773438 7
-0.032625999 1.265503 -9.7753906 7
-0.034876 1.239746 -9.7900391 7
-0.030445 1.210327 -9.7705078 7
-0.031574 1.18396 -9.7792969 7
-0.031605002 1.1569819 -9.7822266 7
-0.031628001 1.130066 -9.7841797 7
-0.045014001 1.109863 -9.8544922 7
-0.036127999 1.078064 -9.8125 7
-0.039500002 1.052673 -9.8320312 7
-0.036173999 1.02417 -9.8164062 7
-0.038431998 0.99804699 -9.8300781 7
-0.042909 0.97289997 -9.8554688 7
-0.098748997 -1.624023 -9.7910156 7
-0.117558 -1.663757 -9.8779297 7
-0.126978 -1.69696 -9.9189453 7
-0.115293 -1.714722 -9.8583984 7
-0.115324 -1.741028 -9.8544922 7
-0.120068 -1.7709351 -9.8710938 7
-0.11659 -1.7946171 -9.8505859 7
-0.044289999 1.265015 -8.8652344 7
-0.035838999 1.235291 -8.828125 7
-0.040706001 1.213196 -8.8535156 7
-0.035884999 1.1858521 -8.8339844 7
-0.035900999 1.1611331 -8.8359385 7
-0.041972 1.139526 -8.8681641 7
-0.044420999 1.115906 -8.8818359 7
-0.046 1.093628 -8.8886719 7
-0.044801999 1.068115 -8.8857422 7
-0.018183 1.030823 -8.7636719 7
-0.036382001 1.014587 -8.8505859 7
-0.038830999 0.99096698 -8.8642578 7
-0.036421001 0.96508801 -8.8554688 7
-0.096203998 -1.627625 -8.8183594 7
-0.10901 -1.660706 -8.8710938 7
-0.116699 -1.690369 -8.9013672 7
-0.102687 -1.703979 -8.8349609 7
-0.102733 -1.727844 -8.8300781 7
-0.102779 -1.7518311 -8.8261719 7
-0.105365 -1.777588 -8.8330078 7
-0.115608 -1.809509 -8.8730469 7
-0.125875 -1.841553 -8.9140615 7
-0.128461 -1.86792 -8.9208984 7
-0.12977301 -1.893127 -8.9228516 7
-0.33731499 -4.816895 -8.9003906 7
-0.33992401 -4.8458252 -8.8994141 7
-0.338689 -4.8674321 -8.8828115 7
-0.341297 -4.8964839 -8.8808594 7
-0.343914 -4.9256592 -8.8798828 7
-0.35165599 -4.9647222 -8.8984385 7
-0.35425699 -4.9937129 -8.8964844 7
-0.35942799 -5.0280151 -8.9052734 7
-0.36076301 -5.054626 -8.8984385 7
-0.36209801 -5.0813599 -8.8916016 7
-0.36342499 -5.1079712 -8.8847656 7
-0.022256 1.265991 -8.2880859 7
-0.023568001 1.219788 -8.2988281 7
-0.019778 1.194397 -8.2851562 7
-0.024879999 1.150208 -8.3134766 7
-0.098743998 -1.6090699 -8.4121094 7
-0.106753 -1.637573 -8.4404297 7
-0.12139 -1.671082 -8.4990234 7
-0.125402 -1.697083 -8.5117188 7
-0.11615 -1.713379 -8.46875 7
-0.116181 -1.736389 -8.4648438 7
-0.117546 -1.760559 -8.4658203 7
-0.121574 -1.7865601 -8.4785156 7
-0.13355701 -1.81897 -8.5234385 7
-0.137576 -1.845459 -8.5361328 7
-0.141596 -1.871887 -8.5488281 7
-0.35993901 -4.8023071 -8.5068359 7
-0.34933701 -4.8052979 -8.4541016 7
-0.34806299 -4.8258672 -8.4375 7
-0.352106 -4.8566279 -8.4414062 7
-0.35216001 -4.8795781 -8.4287109 7
-0.35088599 -4.8998408 -8.4121094 7
-0.352267 -4.9255371 -8.40625 7
-0.357629 -4.9587402 -8.4140615 7
-0.36700299 -4.9998779 -8.4375 7
-0.37104601 -5.0308232 -8.4404297 7
-0.36977199 -5.051147 -8.4238281 7
-0.37114501 -5.0767822 -8.4169922 7
-0.37386799 -5.104919 -8.4140615 7
-0.03115 1.264343 -7.9160161 7
-0.029860999 1.241089 -7.9130859 7
-0.032515999 1.220032 -7.9267578 7
-0.032524001 1.1973881 -7.929688 7
-0.033851001 1.175476 -7.9394531 7
-0.035193 1.153625 -7.9472661 7
-0.039159998 1.132996 -7.9667969 7
-0.045765001 1.113647 -7.9970698 7
-0.044475999 1.090454 -7.9931641 7
-0.047123 1.068909 -8.0068359 7
-0.040555999 1.04303 -7.9814448 7
-0.045841999 1.022827 -8.0068359 7
-0.041921999 0.998169 -7.992188 7
-0.040624999 0.974792 -7.9892578 7
-0.079768002 4.476501 -6.273438 7
-0.074063003 4.4465942 -6.2636719 7
-0.074055001 4.427979 -6.2744141 7
-0.078303002 4.4176641 -6.2998052 7
-0.076876998 4.3963008 -6.304688 7
-0.076870002 4.377563 -6.3154302 7
-0.075436004 4.3561401 -6.320312 7
-0.076847002 4.34021 -6.3349609 7
-0.086792998 4.3404541 -6.3798828 7
-0.089622997 4.327148 -6.4013672 7
-0.096731 4.3217769 -6.436523 7
-0.102399 4.313354 -6.4667969 7
-0.096701004 4.2836299 -6.4570308 7
-0.093855999 4.2591548 -6.4570308 7
-0.089576997 4.2321782 -6.452148 7
-0.089561999 4.2132568 -6.4599609 7
-0.086717002 4.1888428 -6.460938 7
-0.088128999 4.1726069 -6.4746089 7
-0.450528 -6.4115601 -6.3574219 7
-0.44757599 -6.4224849 -6.3339839 7
-0.44613501 -6.436707 -6.3144531 7
-0.446188 -6.4547729 -6.2988281 7
-0.45672199 -6.4984741 -6.3125 7
-0.45825499 -6.5202641 -6.3017578 7
-0.449339 -6.5158691 -6.2597661 7
-0.45537201 -6.5485229 -6.2617192 7
-0.452436 -6.559021 -6.2382808 7
-0.445007 -6.558167 -6.2001948 7
-0.44654801 -6.5796509 -6.188477 7
-0.44660899 -6.59729 -6.172852 7
-0.457127 -6.6411738 -6.186523 7
-0.454191 -6.6513062 -6.1621089 7
-0.46170399 -6.6879878 -6.1679692 7
-0.077441998 4.4710078 -5.8564448 7
-0.077427 4.4533691 -5.867188 7
-0.077420004 4.4359741 -5.875977 7
-0.077412002 4.418335 -5.8867192 7
-0.077389002 4.4006958 -5.8974609 7
-0.081804998 4.391479 -5.922852 7
-0.080325998 4.3708501 -5.9277339 7
-0.077358998 4.3474121 -5.9277339 7
-0.089157999 4.3522949 -5.9775391 7
-0.093589999 4.342896 -6.0029302 7
-0.096533999 4.330627 -6.0224609 7
-0.097998001 4.3154302 -6.0380859 7
-0.096510999 4.2944341 -6.0439448 7
-0.105366 4.2930908 -6.0839839 7
-0.090576999 4.2472529 -6.0429692 7
-0.089089997 4.226562 -6.047852 7
-0.100905 4.2304082 -6.0976558 7
-0.102377 4.2149048 -6.1123052 7
-0.089060001 4.1723628 -6.077148 7
-0.455488 -6.5684199 -5.7548828 7
-0.45552599 -6.585083 -5.7392578 7
-0.46022499 -6.6135859 -5.7363281 7
-0.455625 -6.6184082 -5.7080078 7
-0.45724201 -6.638855 -5.695312 7
-0.46192601 -6.6671138 -5.6923828 7
-0.46043101 -6.67981 -5.671875 7
-0.46357399 -6.704041 -5.664062 7
-0.330594 -4.8005371 -6.1289058 7
-0.33705401 -4.8304439 -6.1357422 7
-0.33228001 -4.8386841 -6.1113281 7
-0.33396599 -4.87677 -6.092773 7
-0.33562899 -4.8973389 -6.0839839 7
-0.350189 -4.9780879 -6.0917969 7
-0.44194901 -6.4188228 -5.3056641 7
-0.44520599 -6.4422002 -5.2988281 7
-0.44525999 -6.4581299 -5.2832031 7
-0.45333701 -6.4934082 -5.289062 7
-0.450187 -6.500854 -5.2626948 7
-0.453444 -6.524353 -5.2568359 7
-0.45348999 -6.539978 -5.2402339 7
-0.44712099 -6.5393071 -5.2089839 7
-0.44073701 -6.5386958 -5.1777339 7
-0.44079101 -6.5540771 -5.1621089 7
-0.440837 -6.5693359 -5.1474609 7
-0.44731301 -6.600647 -5.1464839 7
-0.44896001 -6.6199341 -5.1347661 7
-0.45062301 -6.6392822 -5.1220698 7
-0.43767899 -6.410522 -4.7880859 7
-0.44104299 -6.4329219 -4.780273 7
-0.44609201 -6.4597168 -4.7763672 7
-0.45280501 -6.490356 -4.7763672 7
-0.45284301 -6.5047002 -4.7617192 7
-0.449563 -6.5108638 -4.7382808 7
-0.447938 -6.5210571 -4.71875 7
-0.44632101 -6.5310669 -4.6992192 7
-0.45137101 -6.5576782 -4.6943359 7
-0.443095 -6.5509639 -4.6601558 7
-0.43980801 -6.5567632 -4.6367192 7
-0.44652 -6.5875239 -4.6367192 7
-0.44490299 -6.5974121 -4.617188 7
-0.448282 -6.619751 -4.608398 7
-0.45331699 -6.6463008 -4.6044922 7
-0.45337 -6.6602778 -4.5878911 7
-0.45508599 -6.6784668 -4.5751948 7
-0.45513201 -6.6922002 -4.5595698 7
-0.46018201 -6.71875 -4.554688 7
-0.33568299 -4.80304 -5.3476558 7
-0.33054999 -4.8087769 -5.3232422 7
-0.334043 -4.8309941 -5.320312 7
-0.33408901 -4.8466802 -5.3085942 7
-0.33412701 -4.8623052 -5.296875 7
-0.33416599 -4.8779302 -5.2851558 7
-0.33592799 -4.896729 -5.2783198 7
-0.33768201 -4.915771 -5.2714839 7
-0.33773601 -4.9311519 -5.2597661 7
-0.33950499 -4.9500122 -5.250977 7
-0.34987101 -4.9858398 -5.265625 7
-0.34991699 -5.0012212 -5.2539058 7
-0.34995499 -5.0167241 -5.242188 7
-0.35172501 -5.035583 -5.234375 7
-0.360367 -5.0682368 -5.2451172 7
-0.35180101 -5.0664058 -5.210938 7
-0.358735 -5.0956421 -5.2167969 7
-0.35190099 -5.097229 -5.1855469 7
-0.44196701 -6.5406489 -4.157227 7
-0.44201401 -6.5535889 -4.141602 7
-0.44034299 -6.5620732 -4.1210942 7
-0.44039699 -6.5750122 -4.1054692 7
-0.44389001 -6.5964971 -4.0966802 7
-0.44737601 -6.6178589 -4.0888672 7
-0.447429 -6.6306758 -4.0732422 7
-0.450923 -6.6521001 -4.0644531 7
-0.44923699 -6.6603999 -4.0449219 7
-0.452739 -6.6815801 -4.0351558 7
-0.45623201 -6.7030029 -4.0263672 7
-0.130715 -1.755193 -9.8484697 7
-0.077078998 -1.64022 -7.8340001 7
-0.040449001 -1.55721 -6.3803859 7
-0.28666699 -4.9026308 -6.1888399 7
-0.413118 -6.4324322 -6.2945509 7
-0.102065 -1.775613 -4.5194249 7
-0.481713 -6.509943 -4.7887039 7
-0.064336002 -1.695876 -3.7121601 7
-0.33678401 -4.7458248 -4.216475 7
-0.024900001 -1.734099 -1.89816 7
-0.077848002 -1.693411 -1.620882 7
-0.095421001 -1.906832 -1.646335 7
-0.035643999 -1.6050479 -0.99335098 7
-0.056887001 -1.750394 -1.047703 7
-0.32525 -4.769742 0.405186 7
-0.30121699 -4.5562611 0.56594801 7
-0.30621299 -4.6698141 0.71395802 7
-0.30787799 -4.7678318 0.872747 7
-0.301218 -4.8346162 1.049368 7
-0.31738299 -4.9631371 1.1909519 7
-0.29249901 -4.5614548 0.95010501 7
-0.28201401 -4.6158762 1.123916 7
-0.29173899 -4.7213778 1.2664649 7
-0.29855201 -4.7099881 2.010232 7
-0.295838 -4.753994 2.2103961 7
-0.26749 -4.4972339 2.08096 7
-0.27535 -4.5594778 2.223614 7
-0.093814999 4.4365058 -6.4813428 7
-0.149407 -1.793924 -12.099249 7
-0.24828599 4.3525429 -13.435472 7
-0.108882 -1.771348 -9.6984262 7
-0.148206 4.377481 -9.6264906 7
-0.086877003 -1.768388 -8.1854258 7
-0.025961 1.1031671 -7.4685521 7
-0.068999998 -1.693305 -7.089788 7
-0.30128101 -5.017015 -8.7791967 7
-0.137082 4.2958522 -5.9662738 7
-0.045481998 1.1158431 -6.2647538 7
-0.109953 -1.683452 -6.2347708 7
-0.025708999 1.154438 -5.5475941 7
-0.022913 0.96208501 -5.5598412 7
-0.454597 -6.5662599 -6.1767449 7
-0.0024979999 1.2024519 -4.9151192 7
-0.002841 1.042518 -4.9582291 7
-0.067507997 -1.634146 -4.9764061 7
-0.311133 -4.8172822 -5.2551861 7
-0.41149801 -6.4628839 -4.6479521 7
-0.048785001 -1.601144 -4.5023961 7
-0.078705996 -1.846808 -4.6330142 7
-0.290483 -4.81249 -4.3023262 7
-0.029036 1.219751 -4.4798632 7
-0.050151002 -1.723025 -4.1662812 7
-0.017526001 1.106516 -4.170588 7
-0.30088401 -4.7897048 -3.0081799 7
-0.27265999 -4.830925 -1.115768 7
-0.058770999 -1.653567 -3.551219 7
-0.062625997 -1.770487 -3.5032699 7
-0.05855 -1.728796 -3.3031521 7
-0.075635001 -1.882252 -3.3026159 7
-0.066921003 -1.849158 -1.843742 7
-0.071699001 -1.899 -1.772944 7
-0.061868999 -1.724195 -1.880528 7
-0.043331999 -1.6961451 -1.786363 7
-0.048487999 -1.743678 -1.7220089 7
-0.050473999 -1.777995 -1.651776 7
-0.048221 -1.8625211 -1.272293 7
-0.042231001 -1.8514659 -1.174511 7
-0.044402 -1.8644021 -1.096558 7
-0.037388999 -1.840389 -1.0200419 7
-0.038554002 -1.636578 -1.705852 7
-0.040786002 -1.670338 -1.640258 7
-0.047184002 -1.717097 -1.2623971 7
-0.044709999 -1.716743 -1.190334 7
-0.047268 -1.730381 -1.118144 7
-0.044546999 -1.723163 -1.0279 7
-0.041026 -1.6335911 -1.25682 7
-0.038598001 -1.633145 -1.18826 7
-0.043065 -1.652277 -1.11945 7
-0.028741 -1.607281 -1.052999 7
