# .PCD v0.7 - Point Cloud Data file format
VERSION 0.7
FIELDS x y z intensity
SIZE 4 4 4 4
TYPE F F F F
COUNT 1 1 1 1
WIDTH 820
HEIGHT 1
VIEWPOINT 0 0 0 1 0 0 0
POINTS 820
DATA ascii
-0.214939 -0.735901 71.225586 7
-0.25115201 -0.579041 72.287109 7
-0.269054 -0.41400099 72.81543 7
-0.246693 0.428406 72.195312 7
-0.22296099 0.59045398 71.509766 7
-0.319832 -3.9720459 67.185547 7
-0.38037899 -3.908752 68.789062 7
-0.443371 -3.841248 70.458008 7
-0.23679 -0.97466999 65.199219 7
-0.23171601 -0.82165498 65.073242 7
-0.214127 0.98278803 64.667969 7
-0.22171 1.136292 64.871094 7
-0.32731199 -4.171936 61.09668 7
-0.365971 -4.0927119 62.029297 7
-0.4147 -4.0247192 63.200195 7
-0.260021 -1.304443 59.697266 7
-0.24833301 -1.160706 59.425781 7
-0.218082 1.30011 58.775391 7
-0.22844701 1.442261 59.024414 7
-0.18612701 1.551453 58.014648 7
-0.27726001 4.4015498 60.145508 7
-0.231056 4.4559941 59.037109 7
-0.188793 4.5125728 58.023438 7
-0.491539 2.913147 -71.010742 7
-0.40086699 -4.3339839 57.65918 7
-0.41735101 -4.2277222 58.03125 7
-0.47298399 -4.1812129 59.253906 7
-0.32018301 -1.484009 56.112305 7
-0.276501 -1.203552 55.171875 7
-0.21524 1.313538 53.902344 7
-0.165611 1.408264 52.817383 7
-0.190044 1.546204 53.351562 7
-0.226101 4.4445801 54.069336 7
-0.188812 4.499023 53.249023 7
-0.16032401 4.566772 52.620117 7
-0.32906699 3.2150879 -60.202148 7
-0.386787 3.1386111 -61.617188 7
-0.33729899 2.9306641 -60.397461 7
-0.379841 2.8301389 -61.4375 7
-0.181961 1.299927 48.820312 7
-0.156422 1.397339 48.30957 7
-0.172325 1.5187989 48.62793 7
-0.246387 4.4555049 50.019531 7
-0.2066 4.4961548 49.217773 7
-0.16563401 4.5307622 48.391602 7
-0.12468 4.561584 47.56543 7
-0.203522 3.399292 -51.613281 7
-0.29010001 3.391479 -53.541016 7
-0.31721899 3.296082 -54.144531 7
-0.26543 3.0978999 -52.990234 7
-0.304878 3.0158689 -53.867188 7
-0.36478001 2.953552 -55.200195 7
-0.221165 -0.218018 -47.412109 7
-0.210991 -0.331909 -47.207031 7
-0.26324099 -0.45648199 -48.264648 7
-0.211716 -0.56170702 -47.22168 7
-0.38774899 -3.685364 -50.681641 7
-0.186756 1.311829 45.547852 7
-0.14359701 1.390625 44.744141 7
-0.171387 1.51123 45.260742 7
-0.13072599 1.58728 44.50293 7
-0.22258399 4.519897 46.103516 7
-0.18416999 4.5522461 45.383789 7
-0.150787 4.591064 44.756836 7
-0.27625701 3.47229 -48.950195 7
-0.29649699 3.3796389 -49.365234 7
-0.332371 3.305542 -50.102539 7
-0.38928199 3.2545781 -51.272461 7
-0.322853 3.047852 -49.908203 7
-0.361305 2.9703369 -50.698242 7
-0.229885 -0.114624 -43.535156 7
-0.234154 -0.623779 -43.411133 7
-0.203381 -0.720276 -42.842773 7
-0.218521 -0.83001697 -43.121094 7
-0.187126 -0.92285198 -42.540039 7
-0.38413599 -4.256958 -46.020508 7
-0.174061 -1.57019 41.706055 7
-0.14820901 1.379089 41.336914 7
-0.126232 1.459717 40.959961 7
-0.19278701 4.3939209 41.96582 7
-0.146805 4.4979248 41.166016 7
-0.141876 4.5827031 41.073242 7
-0.24520899 3.665894 -43.891602 7
-0.28070101 3.6096189 -44.557617 7
-0.31838199 3.553467 -45.265625 7
-0.34237301 3.4749761 -45.71582 7
-0.389103 3.4246221 -46.594727 7
-0.215775 0.098632999 -43.28418 7
-0.23049501 -0.86761498 -39.932617 7
-0.21803699 -1.0571899 -39.717773 7
-0.188519 -1.140198 -39.213867 7
-0.186077 -1.234863 -39.169922 7
-0.42811599 -4.3141479 -43.125 7
-0.40135601 -4.374084 -42.661133 7
-0.38420901 -4.4484859 -42.359375 7
-0.200813 -1.74353 39.244141 7
-0.20586801 -1.65741 39.330078 7
-0.207973 -1.568909 39.369141 7
-0.149387 1.1934201 38.509766 7
-0.11729 1.2637939 37.999023 7
-0.15134799 1.370483 38.539062 7
-0.114483 1.435608 37.952148 7
-0.196301 4.3546748 39.101562 7
-0.181465 4.4165649 38.858398 7
-0.15747499 4.4599609 38.47168 7
0.56896198 22.567444 15.998047 7
0.56954199 22.596802 15.942383 7
0.56802702 22.655823 15.904297 7
0.56846201 22.723877 15.796875 7
0.56592202 22.797363 15.766602 7
0.567554 22.811401 15.701172 7
-0.17518599 3.865967 -39.126953 7
-0.202438 3.8126831 -39.600586 7
-0.238796 3.7711179 -40.232422 7
-0.277531 3.7302859 -40.904297 7
-0.31324399 3.681885 -41.524414 7
-0.35975999 3.6460569 -42.331055 7
-0.39212 3.586426 -42.894531 7
-0.177696 0.29705799 -39.03125 7
-0.231796 0.20611601 -39.955078 7
-0.227898 -1.062256 -36.451172 7
-0.19929899 -1.139038 -36.033203 7
-0.17049401 -1.212585 -35.582031 7
-0.20293 -1.3178101 -36.086914 7
-0.17338599 -1.3887939 -35.621094 7
-0.178192 -1.479248 -35.694336 7
-0.435482 -4.3554082 -39.532227 7
-0.44029999 -4.4603271 -39.59668 7
-0.41563401 -4.5140381 -39.201172 7
-0.39396301 -4.5715332 -38.854492 7
-0.378254 -4.6383061 -38.599609 7
-0.208378 -1.779236 36.418945 7
-0.18277 -1.678162 36.050781 7
-0.203007 -1.609924 36.351562 7
-0.21368399 -1.533875 36.512695 7
-0.11808 1.086792 35.178711 7
-0.141865 1.178894 35.525391 7
-0.117455 1.2466429 35.167969 7
-0.191769 4.4220581 36.070312 7
-0.14260501 4.492065 35.338867 7
-0.129345 4.5465698 35.136719 7
0.504875 21.091553 15.982422 7
-0.187714 4.0943599 -35.879883 7
-0.211109 4.0446172 -36.256836 7
-0.23452 3.9932251 -36.631836 7
-0.26199299 3.9481809 -37.070312 7
-0.28800601 3.8970339 -37.486328 7
-0.31806201 3.85022 -37.96582 7
-0.148415 0.781555 -35.317383 7
-0.184303 0.52679402 -35.876953 7
-0.18774401 -1.3056639 -33.429688 7
-0.17092501 -1.37793 -33.181641 7
-0.198837 -1.476868 -33.585938 7
-0.17484701 -1.543884 -33.233398 7
-0.438961 -4.5285029 -36.87207 7
-0.41698501 -4.5800781 -36.542969 7
-0.389431 -4.6201782 -36.132812 7
-0.370644 -4.674438 -35.848633 7
-0.17799 -1.725647 33.84668 7
-0.200008 -1.664124 34.155273 7
-0.127811 1.401489 33.231445 7
-0.171009 4.2661128 33.639648 7
-0.195847 4.3884888 33.972656 7
-0.172428 4.421936 33.643555 7
-0.155357 4.4659419 33.401367 7
-0.13829 4.5088501 33.160156 7
-0.207844 4.1104131 -33.676758 7
-0.22696701 4.0585942 -33.964844 7
-0.24924099 4.0106812 -34.299805 7
-0.280579 3.975769 -34.767578 7
-0.31269801 3.9399409 -35.248047 7
-0.165062 0.90527302 -33.095703 7
-0.178188 0.82849097 -33.290039 7
-0.16095699 0.741211 -33.041016 7
-0.196861 0.670044 -33.567383 7
-0.19465999 -1.6700439 -30.925781 7
-0.17306501 -1.730286 -30.629883 7
-0.189411 -1.818604 -30.84668 7
-0.384186 -4.7584229 -33.21875 7
-0.360039 -4.7946172 -32.881836 7
-0.15614299 -1.730835 31.285156 7
-0.16109499 -1.663452 31.353516 7
-0.133083 1.166199 31.067383 7
-0.14019001 1.310913 31.155273 7
-0.17726099 4.3344731 31.40918 7
-0.17987099 4.410583 31.433594 7
-0.148678 4.4932861 31.020508 7
-0.13762701 4.5419922 30.871094 7
0.40564001 18.44574 15.977539 7
0.40628099 18.475525 15.930664 7
0.40603599 18.514404 15.890625 7
0.40623501 18.548462 15.84668 7
0.403339 18.614929 15.827148 7
0.40443 18.639404 15.776367 7
0.40639901 18.654663 15.717773 7
-0.187878 4.3054199 -30.702148 7
-0.205933 4.2607422 -30.955078 7
-0.226971 4.2201538 -31.25 7
-0.24417099 4.1715698 -31.491211 7
-0.27244201 4.1403809 -31.882812 7
-0.30624801 4.1166382 -32.350586 7
-0.144642 1.203247 -30.25293 7
-0.14229199 1.126465 -30.22168 7
-0.16086601 1.059509 -30.473633 7
-0.14017899 0.97460902 -30.189453 7
-0.22219101 -1.577271 -29.152344 7
-0.20001601 -1.634155 -28.869141 7
-0.174614 -1.687439 -28.543945 7
-0.214249 -1.787598 -29.041992 7
-0.195309 -1.844666 -28.797852 7
-0.38460901 -4.8262329 -30.893555 7
-0.371696 -4.877686 -30.71875 7
-0.365219 -4.9408569 -30.626953 7
-0.13694 1.15863 29.250977 7
-0.095894001 1.267761 28.755859 7
-0.132759 1.354187 29.196289 7
-0.18013 4.4005132 29.522461 7
-0.208031 4.4161382 -28.758789 7
-0.208664 4.3449712 -28.775391 7
-0.224796 4.3014531 -28.987305 7
-0.24184801 4.258606 -29.211914 7
-0.264801 4.2250371 -29.509766 7
-0.28777701 4.1898799 -29.808594 7
-0.141148 1.193176 -28.129883 7
-0.181747 1.143066 -28.645508 7
-0.196411 -1.581787 -26.680664 7
-0.179001 -1.635864 -26.472656 7
-0.17300799 -1.697266 -26.398438 7
-0.20377 -1.785828 -26.754883 7
-0.193314 -1.8440551 -26.628906 7
-0.19625901 -1.912537 -26.660156 7
-1.6374739 -41.788635 12.620117 7
-1.631554 -41.694214 12.700195 7
-1.60812 -41.408508 12.728516 7
-0.148586 -1.754089 27.417969 7
-0.153225 -1.695923 27.474609 7
-0.15102001 -1.5708621 27.459961 7
-0.13060001 -1.49585 27.236328 7
-0.13528401 1.234802 -25.882812 7
-0.14532501 1.174561 -26.00293 7
-0.123859 1.098877 -25.748047 7
-0.121593 1.03302 -25.72168 7
-0.13703901 0.97460902 -25.904297 7
-0.110367 0.83422899 -25.586914 7
-0.185936 -1.532166 -24.72168 7
-0.19229101 -1.5979609 -24.788086 7
-0.1758 -1.648315 -24.603516 7
-0.20889699 4.4498901 -24.624023 7
-0.21168099 4.3926392 -24.662109 7
-0.21603 4.3378911 -24.71875 7
-0.22773001 4.2962041 -24.855469 7
-0.25728199 4.2851558 -25.188477 7
-0.232246 4.17804 -24.920898 7
-0.126614 0.72412097 -23.959961 7
-0.120468 0.66162097 -23.889648 7
-0.123825 0.60205102 -23.926758 7
-0.119263 0.54046601 -23.875 7
-0.110474 0.478149 -23.777344 7
-0.102222 0.41638201 -23.685547 7
-0.107357 -0.002991 -22.089844 7
-0.099068001 -0.058959998 -22.001953 7
-0.092476003 -0.114685 -21.931641 7
-0.090392999 -0.17022701 -21.908203 7
-0.090561002 -0.225952 -21.908203 7
-0.089615002 -0.28149399 -21.895508 7
-0.163818 -1.648132 -22.80957 7
-0.155853 -1.699463 -22.723633 7
-0.190441 -1.782166 -23.074219 7
-0.17736401 -1.829651 -22.936523 7
-0.173943 -1.8843991 -22.895508 7
-0.116879 -0.67669702 -20.958984 7
-0.11747 -0.72955298 -20.960938 7
-0.120457 -0.783081 -20.989258 7
-0.116211 -0.834351 -20.946289 7
-0.114372 -0.88622999 -20.926758 7
-0.117355 -0.940063 -20.954102 7
-0.176201 -1.6112061 -21.484375 7
-0.172562 -1.662659 -21.446289 7
-0.199055 -1.790222 -21.694336 7
-0.185757 -1.83429 -21.5625 7
-0.176704 -1.880981 -21.46875 7
-0.186024 4.4675899 -21.119141 7
-0.19270299 4.4260249 -21.191406 7
-0.20355999 4.3917241 -21.305664 7
-0.212635 4.3536382 -21.401367 7
-0.232456 4.3344731 -21.600586 7
-0.24511699 4.3017578 -21.730469 7
-0.207672 4.1807251 -21.378906 7
-0.149143 -1.044189 -19.865234 7
-0.149746 -1.095276 -19.878906 7
-0.14715999 -1.144104 -19.853516 7
-0.136852 -1.188782 -19.757812 7
-0.135548 -1.237915 -19.743164 7
-0.167496 -1.607849 -20.009766 7
-0.16297901 -1.65509 -19.964844 7
-0.158474 -1.7019041 -19.918945 7
-0.192486 -1.777649 -20.222656 7
-0.17832901 -1.817505 -20.09082 7
-0.17253099 -1.8635859 -20.03418 7
-0.93106103 -24.91864 12.62207 7
-0.92259997 -24.822937 12.650391 7
-0.91347498 -24.722107 12.674805 7
-0.168274 -1.2805181 -18.850586 7
-0.17504101 -1.3319089 -18.905273 7
-0.17163099 -1.377808 -18.873047 7
-0.164139 -1.420959 -18.805664 7
-0.152584 -1.461182 -18.703125 7
-0.17361499 -1.522156 -18.879883 7
-0.180389 -1.574463 -18.93457 7
-0.200039 -1.732239 -19.089844 7
-0.186432 -1.770142 -18.969727 7
-0.187096 -1.8187259 -18.97168 7
-0.161808 -1.472839 -17.634766 7
-0.172585 -1.524475 -17.717773 7
-0.163219 -1.563293 -17.638672 7
-0.15814599 -1.649353 -17.59082 7
-0.180351 4.436584 -17.176758 7
-0.18329599 4.397522 -17.209961 7
-0.185646 4.3121948 -17.24707 7
-0.15280899 -1.638855 -16.505859 7
-0.15736 -1.684265 -16.536133 7
-0.177128 -1.741028 -16.682617 7
-0.16494399 -1.774292 -16.585938 7
-0.16796499 -1.861084 -16.599609 7
-0.146217 -1.616882 -14.624023 7
-0.14704099 -1.654968 -14.625977 7
-0.152107 -1.69635 -14.657227 7
-0.16054501 -1.778137 -14.706055 7
-0.160538 -1.8158571 -14.702148 7
-0.159676 -1.852966 -14.691406 7
-0.14533199 4.442627 -13.885742 7
-0.144577 4.4044189 -13.889648 7
-0.149673 4.3768921 -13.933594 7
-0.15478501 4.3494868 -13.976562 7
-0.159054 4.320435 -14.014648 7
-0.184265 4.3294072 -14.192383 7
-0.16430999 4.2183232 -14.078125 7
-0.16935299 4.4723511 -13.198242 7
-0.17470901 4.4473271 -13.242188 7
-0.17654 4.4155269 -13.263672 7
-0.18895701 4.4031978 -13.352539 7
-0.187263 4.364563 -13.351562 7
-0.18468501 4.3242192 -13.344727 7
-0.183872 4.287231 -13.348633 7
-0.160133 4.209229 -13.208008 7
-0.157555 4.16925 -13.202148 7
-0.148754 -1.634949 -13.114258 7
-0.14688499 -1.66748 -13.097656 7
-0.13779099 -1.61084 -12.332031 7
-0.13581499 -1.641602 -12.316406 7
-0.159325 -1.723083 -12.445312 7
-0.15049399 -1.78125 -12.385742 7
-0.152447 -1.815125 -12.392578 7
-0.151455 -1.846558 -12.382812 7
-0.38235101 -4.8139038 -13.064453 7
-0.382366 -4.8479609 -13.053711 7
-0.37943599 -4.8762212 -13.024414 7
-0.378483 -4.941895 -12.996094 7
-0.390293 -5.0324101 -13.037109 7
-0.39421499 -5.0740361 -13.047852 7
-0.086483002 1.272339 -11.790039 7
-0.076828003 1.235352 -11.735352 7
-0.076912001 1.203796 -11.737305 7
-0.077003002 1.172058 -11.739258 7
-0.077095002 1.140503 -11.742188 7
-0.077179 1.108887 -11.745117 7
-0.095790997 1.08606 -11.857422 7
-0.087108999 1.05011 -11.807617 7
-0.089152999 1.019287 -11.821289 7
-0.086310998 0.986206 -11.805664 7
-0.13729499 -1.630676 -11.710938 7
-0.132164 -1.657654 -11.678711 7
-0.15264501 -1.703308 -11.790039 7
-0.15469 -1.735657 -11.796875 7
-0.15057801 -1.763428 -11.769531 7
-0.14954799 -1.793396 -11.758789 7
-0.14648101 -1.821838 -11.737305 7
-0.38589901 -4.8317261 -12.364258 7
-0.37772 -4.8485718 -12.308594 7
-0.37772799 -4.8807368 -12.296875 7
-0.375698 -4.9090581 -12.275391 7
-0.37469101 -4.9390869 -12.257812 7
-0.37471399 -4.9711299 -12.246094 7
-0.390095 -5.0332642 -12.31543 7
-0.39114001 -5.0674438 -12.307617 7
-0.39629 -5.1096802 -12.322266 7
-0.131107 4.4545898 -10.774414 7
-0.12810899 4.4194951 -10.768555 7
-0.13527299 4.4038701 -10.81543 7
-0.13837799 4.380127 -10.842773 7
-0.13639501 4.3467412 -10.842773 7
-0.138485 4.321228 -10.863281 7
-0.14463399 4.3027949 -10.90625 7
-0.158913 4.2993159 -10.992188 7
-0.15082601 4.2546391 -10.959961 7
-0.150887 4.2250981 -10.967773 7
-0.15094399 4.195251 -10.978516 7
-0.074509002 1.26947 -11.116211 7
-0.078674003 1.241699 -11.141602 7
-0.079773001 1.2119139 -11.150391 7
-0.079865001 1.1817631 -11.152344 7
-0.081984997 1.152588 -11.166992 7
-0.080025002 1.121277 -11.158203 7
-0.085205004 1.093689 -11.189453 7
-0.084457003 1.002014 -11.19043 7
-0.124794 -1.601135 -11.011719 7
-0.123718 -1.629456 -11.001953 7
-0.12908199 -1.662415 -11.027344 7
-0.14306299 -1.701843 -11.095703 7
-0.146267 -1.733459 -11.109375 7
-0.138733 -1.756897 -11.06543 7
-0.141956 -1.788574 -11.077148 7
-0.146244 -1.821106 -11.09668 7
-0.15269101 -1.855469 -11.125977 7
-0.158062 -1.889099 -11.149414 7
-0.15697899 -1.917725 -11.139648 7
-0.130604 4.4588618 -10.09082 7
-0.13171799 4.433167 -10.106445 7
-0.130703 4.4035029 -10.111328 7
-0.130741 4.3757319 -10.121094 7
-0.135098 4.328186 -10.164062 7
-0.076522999 1.265442 -10.50293 7
-0.076599002 1.236755 -10.506836 7
-0.072967999 1.2069089 -10.490234 7
-0.075180002 1.179382 -10.504883 7
-0.072052002 1.149048 -10.490234 7
-0.074271999 1.121338 -10.504883 7
-0.081009001 1.00946 -10.547852 7
-0.081092998 0.98071301 -10.550781 7
-0.12560999 -1.6156009 -10.470703 7
-0.12785301 -1.644897 -10.477539 7
-0.134583 -1.677551 -10.507812 7
-0.139053 -1.708679 -10.526367 7
-0.141296 -1.766113 -10.529297 7
-0.146908 -1.798401 -10.552734 7
-0.145771 -1.825439 -10.541992 7
-0.36443299 -4.8239751 -10.860352 7
-0.35997 -4.8442988 -10.827148 7
-0.35775 -4.8685298 -10.804688 7
-0.35888699 -4.899292 -10.798828 7
-0.35778001 -4.9256592 -10.782227 7
-0.355564 -4.949707 -10.758789 7
-0.365677 -4.9981079 -10.794922 7
-0.369057 -5.0332642 -10.798828 7
-0.374695 -5.0730591 -10.813477 7
-0.38145399 -5.1151118 -10.833008 7
-0.464634 -6.6331792 -10.547852 7
-0.46804401 -6.6696172 -10.546875 7
-0.15528101 4.4706421 -9.6367188 7
-0.15532701 4.4440918 -9.6464844 7
-0.160934 4.42804 -9.6845703 7
-0.15986601 4.3991699 -9.6884766 7
-0.15879799 4.3702998 -9.6943359 7
-0.15773 4.3415532 -9.6992188 7
-0.156647 4.3127441 -9.7041016 7
-0.154476 4.282043 -9.703125 7
-0.150066 4.2471309 -9.6914062 7
-0.14120901 4.204102 -9.6582031 7
-0.13792001 4.1714482 -9.6513672 7
-0.065784 1.205627 -9.9199219 7
-0.127922 -1.60022 -9.9697266 7
-0.129089 -1.627625 -9.9726562 7
-0.132607 -1.656616 -9.984375 7
-0.147808 -1.6943361 -10.054688 7
-0.146626 -1.74707 -10.040039 7
-0.14661799 -1.773865 -10.036133 7
-0.14544301 -1.799683 -10.026367 7
-0.144272 -1.8255 -10.016602 7
-0.16065601 -1.8651119 -10.089844 7
-0.16299801 -1.893921 -10.09668 7
-0.085258 1.267944 -9.5058594 7
-0.073677003 1.235168 -9.4521484 7
-0.069087997 1.20636 -9.4326172 7
-0.070308998 1.180847 -9.4414062 7
-0.069224998 1.154175 -9.4375 7
-0.076270998 1.13147 -9.4755859 7
-0.078681998 1.106506 -9.4892578 7
-0.081084996 1.08136 -9.5019531 7
-0.072994001 1.05127 -9.4648438 7
-0.085891999 1.0309449 -9.5292969 7
-0.081298999 1.00238 -9.5087891 7
-0.076706 0.97393799 -9.4892578 7
-0.111935 -1.622803 -8.9199219 7
-0.120853 -1.653259 -8.9541016 7
-0.12466 -1.7286381 -8.9589844 7
-0.064686 1.26886 -8.4550781 7
-0.053328998 1.23877 -8.40625 7
-0.052848998 1.215332 -8.4082031 7
-0.051635999 1.190979 -8.4052734 7
-0.052979 1.167908 -8.4140615 7
-0.051764999 1.143494 -8.4111328 7
-0.054375 1.120972 -8.4248047 7
-0.062031001 1.101135 -8.4619141 7
-0.059565999 1.07605 -8.4521484 7
-0.063441999 1.0541379 -8.4716797 7
-0.063510999 1.030151 -8.4736328 7
-0.058490999 1.003967 -8.4541016 7
-0.057296999 0.97967499 -8.4501953 7
-0.122013 -1.609985 -8.5410156 7
-0.12598801 -1.635986 -8.5537109 7
-0.12598801 -1.659302 -8.5498047 7
-0.13128699 -1.686096 -8.5664062 7
-0.143204 -1.718201 -8.6132812 7
-0.145859 -1.743713 -8.6210938 7
-0.13790099 -1.76123 -8.5830078 7
-0.14055599 -1.7865601 -8.5898438 7
-0.141884 -1.8108521 -8.5908203 7
-0.145851 -1.837341 -8.6035156 7
-0.156452 -1.868958 -8.6435547 7
-0.15512501 -1.891602 -8.6337891 7
-0.37007099 -4.8206792 -8.6005859 7
-0.36612299 -4.8364868 -8.5742188 7
-0.35952401 -4.8470459 -8.5361328 7
-0.35821199 -4.8677979 -8.5185547 7
-0.35823399 -4.8910518 -8.5078115 7
-0.358257 -4.914185 -8.4960938 7
-0.35828799 -4.9373169 -8.484375 7
-0.35962299 -4.9630742 -8.4775391 7
-0.363621 -4.993896 -8.4804688 7
-0.37294 -5.0351558 -8.5029297 7
-0.37826499 -5.0688481 -8.5117188 7
-0.375633 -5.086731 -8.4892578 7
-0.46224201 -6.5870361 -7.9882808 7
-0.464928 -6.61554 -7.9824219 7
-0.463631 -6.6341548 -7.9619141 7
-0.45836601 -6.6427002 -7.9287109 7
-0.45706901 -6.6612549 -7.9082031 7
-0.45976299 -6.6895142 -7.9003911 7
-0.124115 4.4594731 -7.375 7
-0.124146 4.4381709 -7.3847661 7
-0.124168 4.4170532 -7.3945308 7
-0.128143 4.4031978 -7.420898 7
-0.126854 4.379456 -7.4257808 7
-0.129517 4.3630371 -7.4462891 7
-0.144016 4.368896 -7.5136719 7
-0.14404701 4.347229 -7.523438 7
-0.140137 4.3182368 -7.5175781 7
-0.14015999 4.2966919 -7.5283198 7
-0.061115 1.261719 -8.0244141 7
-0.066455998 1.241943 -8.0498047 7
-0.066517003 1.218994 -8.0527344 7
-0.063937999 1.194702 -8.0439453 7
-0.062679 1.171265 -8.0410156 7
-0.062739998 1.148315 -8.0439453 7
-0.062794 1.125427 -8.046875 7
-0.069462001 1.105835 -8.0771484 7
-0.078769997 1.087402 -8.1181641 7
-0.073550999 1.0617681 -8.0986328 7
-0.072292 1.038147 -8.0957031 7
-0.073680997 1.015869 -8.1044922 7
-0.073734 0.99285901 -8.1064453 7
-0.072475001 0.96917701 -8.1035156 7
-0.35517499 -4.8137822 -8.0224609 7
-0.35242799 -4.8305659 -8.0009766 7
-0.447025 -6.5646968 -7.3388672 7
-0.447063 -6.5848389 -7.3222661 7
-0.44156301 -6.5914922 -7.289062 7
-0.44160801 -6.6117549 -7.2724609 7
-0.44164699 -6.631897 -7.2568359 7
-0.44582701 -6.6625981 -7.2548828 7
-0.45414001 -6.703979 -7.265625 7
-0.12506101 4.4763789 -6.9042969 7
-0.116863 4.4403691 -6.8837891 7
-0.112782 4.412354 -6.8779302 7
-0.122391 4.4108281 -6.9238281 7
-0.126526 4.398376 -6.9492192 7
-0.122437 4.3704219 -6.945312 7
-0.126572 4.3580928 -6.9707031 7
-0.12660199 4.337708 -6.9804692 7
-0.123878 4.3123779 -6.9804692 7
-0.13076 4.3048711 -7.015625 7
-0.139015 4.2998052 -7.0556641 7
-0.14589299 4.2918701 -7.0917969 7
-0.139053 4.258667 -7.0761719 7
-0.13497201 4.2306519 -7.0712891 7
-0.139107 4.2174678 -7.0966802 7
-0.139137 4.197021 -7.1064448 7
-0.13231701 4.1642461 -7.0888672 7
-0.44380599 -6.4220581 -6.9033198 7
-0.44384399 -6.4414668 -6.8886719 7
-0.443874 -6.460999 -6.8730469 7
-0.44535401 -6.4837651 -6.8613281 7
-0.44968799 -6.5136108 -6.859375 7
-0.454025 -6.543457 -6.8564448 7
-0.44975701 -6.552124 -6.827148 7
-0.439762 -6.5462651 -6.782227 7
-0.44266099 -6.5724492 -6.7753911 7
-0.44126499 -6.5880132 -6.7548828 7
-0.438427 -6.599854 -6.7304692 7
-0.44563699 -6.6369019 -6.7363281 7
-0.44998601 -6.666687 -6.733398 7
-0.461487 -6.7147222 -6.7519531 7
-0.113552 4.45575 -6.4414058 7
-0.115002 4.4393921 -6.4570308 7
-0.119289 4.4287109 -6.4824219 7
-0.119312 4.4094849 -6.4931641 7
-0.120747 4.393127 -6.507812 7
-0.119358 4.3710332 -6.5136719 7
-0.119373 4.3519902 -6.523438 7
-0.125084 4.3433838 -6.5537109 7
-0.122257 4.3189092 -6.5537109 7
-0.130821 4.3156128 -6.59375 7
-0.140793 4.3144531 -6.639648 7
-0.137978 4.289856 -6.6386719 7
-0.136574 4.2677612 -6.6435552 7
-0.13375901 4.242981 -6.6435552 7
-0.129509 4.2158198 -6.6386719 7
-0.12952401 4.1963501 -6.6494141 7
-0.12813599 4.1741939 -6.6533198 7
-0.34486401 -4.8083501 -7.0693359 7
-0.34190401 -4.8226929 -7.0488281 7
-0.349365 -4.8565669 -7.061523 7
-0.448185 -6.4367681 -6.3867192 7
-0.44524801 -6.4475098 -6.3632808 7
-0.44082299 -6.4546509 -6.3349609 7
-0.45127499 -6.4984131 -6.3496089 7
-0.451305 -6.516418 -6.3339839 7
-0.44985601 -6.5306401 -6.313477 7
-0.448414 -6.5449219 -6.2929692 7
-0.445461 -6.555481 -6.2695308 7
-0.44997001 -6.5844121 -6.266602 7
-0.44553801 -6.591187 -6.2382808 7
-0.441113 -6.5976558 -6.2099609 7
-0.44710201 -6.6304321 -6.210938 7
-0.45903799 -6.6782842 -6.2285161 7
-0.45164099 -6.677124 -6.1914058 7
-0.454662 -6.7024541 -6.1835942 7
-0.337143 -4.8100591 -6.6269531 7
-0.33562499 -4.8257451 -6.610352 7
-0.332596 -4.8571172 -6.577148 7
-0.33723399 -4.8847051 -6.5810552 7
-0.33419001 -4.8972778 -6.5595698 7
-0.33421299 -4.915894 -6.547852 7
-0.341957 -4.9680791 -6.547852 7
-0.34660301 -4.9957891 -6.5507808 7
-0.35893601 -5.0386348 -6.5751948 7
-0.35743001 -5.0540771 -6.5595698 7
-0.35130301 -5.0603032 -6.5273442 7
-0.35901299 -5.0942378 -6.5400391 7
-0.445797 -6.5914922 -5.7460942 7
-0.44740701 -6.6287842 -5.71875 7
-0.44749099 -6.6618042 -5.6875 7
-0.44295099 -6.683044 -5.6435552 7
-0.44915399 -6.7150879 -5.6425781 7
-0.33279401 -4.807251 -6.1777339 7
-0.336014 -4.8311162 -6.1757808 7
-0.33603701 -4.8486328 -6.1650391 7
-0.334465 -4.8633418 -6.1474609 7
-0.334488 -4.8808589 -6.1367192 7
-0.33451799 -4.898499 -6.125 7
-0.33454901 -4.9159551 -6.1132808 7
-0.33456799 -4.9334111 -6.101562 7
-0.34098801 -4.9633789 -6.1074219 7
-0.35220301 -5.0030522 -6.1289058 7
-0.34423801 -5.0047612 -6.09375 7
-0.35065499 -5.0349121 -6.0996089 7
-0.350685 -5.0523071 -6.0888672 7
-0.35070801 -5.0697632 -6.0761719 7
-0.35713199 -5.099915 -6.0820308 7
-0.35556 -5.1141968 -6.0644531 7
-0.42941299 -6.4328609 -5.2900391 7
-0.43425 -6.460083 -5.2871089 7
-0.434288 -6.4759521 -5.2724609 7
-0.431122 -6.483398 -5.2480469 7
-0.43755701 -6.514832 -5.2480469 7
-0.43441001 -6.5222778 -5.2255859 7
-0.43764099 -6.5457759 -5.217773 7
-0.434479 -6.552979 -5.1933589 7
-0.42971 -6.5562129 -5.1660161 7
-0.43135801 -6.5756841 -5.1542969 7
-0.43139601 -6.5907588 -5.1386719 7
-0.431427 -6.6061401 -5.1230469 7
-0.436272 -6.6333618 -5.1191411 7
-0.442707 -6.6647949 -5.1191411 7
-0.44115099 -6.6759639 -5.0986328 7
-0.44439301 -6.6992192 -5.0908198 7
-0.33974499 -4.8033452 -5.8007808 7
-0.333141 -4.8074951 -5.7714839 7
-0.33647901 -4.8305049 -5.7685552 7
-0.336494 -4.8471069 -5.7568359 7
-0.32824299 -4.8477168 -5.7216802 7
-0.33159301 -4.870667 -5.71875 7
-0.331608 -4.887207 -5.7080078 7
-0.32997501 -4.9005132 -5.6914058 7
-0.33331701 -4.9235229 -5.6894531 7
-0.33333999 -4.9398799 -5.6777339 7
-0.33668101 -4.9630742 -5.6748052 7
-0.35162401 -5.0089722 -5.703125 7
-0.34834301 -5.0188599 -5.6816411 7
-0.351677 -5.0419312 -5.6787109 7
-0.35667399 -5.0682979 -5.6806641 7
-0.35835999 -5.0880742 -5.672852 7
-0.35672799 -5.1012568 -5.65625 7
-0.35676599 -5.1176152 -5.6445308 7
-0.43538699 -6.4187622 -4.827148 7
-0.42878699 -6.4168701 -4.795898 7
-0.42511699 -6.4373779 -4.757812 7
-0.433456 -6.472168 -4.7617192 7
-0.43685201 -6.5090942 -4.7382808 7
-0.43854499 -6.5272222 -4.726562 7
-0.43691999 -6.537354 -4.7070308 7
-0.43364701 -6.543335 -4.6835942 7
-0.42707801 -6.5548711 -4.6376948 7
-0.435417 -6.5897222 -4.640625 7
-0.43383801 -6.6133418 -4.6044922 7
-0.43718699 -6.6357422 -4.5966802 7
-0.442211 -6.6624761 -4.5917969 7
-0.438934 -6.6679082 -4.5683589 7
-0.44067401 -6.6998901 -4.5410161 7
-0.33888999 -4.8126831 -5.3955078 7
-0.333767 -4.8187871 -5.3710942 7
-0.328648 -4.824707 -5.3457031 7
-0.32867101 -4.840271 -5.3349609 7
-0.33041799 -4.859314 -5.327148 7
-0.32358199 -4.8615112 -5.296875 7
-0.33047101 -4.8904419 -5.3027339 7
-0.327061 -4.8994141 -5.2832031 7
-0.333958 -4.9283452 -5.289062 7
-0.328823 -4.9337769 -5.264648 7
-0.334003 -4.9593511 -5.265625 7
-0.34261301 -4.9917598 -5.2763672 7
-0.33749801 -4.9971919 -5.25 7
-0.339237 -5.0160518 -5.2431641 7
-0.33926001 -5.0315552 -5.2314448 7
-0.34786999 -5.0640869 -5.2412109 7
-0.34618399 -5.0760498 -5.2246089 7
-0.34448999 -5.0879521 -5.2080078 7
-0.34109101 -5.096375 -5.186523 7
-0.341122 -5.1115718 -5.1738281 7
-0.42948899 -6.5383911 -4.157227 7
-0.429535 -6.551208 -4.141602 7
-0.42269099 -6.546814 -4.1123052 7
-0.41758299 -6.5466919 -4.085938 7
-0.419346 -6.5637822 -4.0732422 7
-0.41939199 -6.5762939 -4.0566411 7
-0.42458299 -6.6021118 -4.0517578 7
-0.426323 -6.619019 -4.0400391 7
-0.42809299 -6.6361079 -4.0273442 7
-0.42985499 -6.6530151 -4.015625 7
-0.428177 -6.6611938 -3.996094 7
-0.42820701 -6.6737061 -3.980469 7
-0.42996201 -6.6906738 -3.96875 7
-0.33526999 -4.810791 -5.0058589 7
-0.34062999 -4.835938 -5.007812 7
-0.33355299 -4.8372798 -4.9794922 7
-0.33002901 -4.8451538 -4.9580078 7
-0.33182901 -4.8634028 -4.9501948 7
-0.32830399 -4.8713379 -4.9306641 7
-0.33366001 -4.8963008 -4.9316411 7
-0.33013499 -4.9041748 -4.9111328 7
-0.330158 -4.9187622 -4.9003911 7
-0.33018899 -4.9334111 -4.8886719 7
-0.33377501 -4.954895 -4.8847661 7
-0.33557501 -4.973022 -4.875977 7
-0.33559799 -4.9874878 -4.8652339 7
-0.335621 -5.0021362 -4.8535161 7
-0.34807599 -5.0413208 -4.8720698 7
-0.34100699 -5.0419922 -4.8417969 7
-0.33393499 -5.0421748 -4.8125 7
-0.34817499 -5.0848999 -4.8339839 7
-0.35174599 -5.1066279 -4.8310552 7
-0.42778799 -6.6274409 -3.519531 7
-0.427834 -6.638855 -3.503906 7
-0.429672 -6.6547241 -3.4902339 7
-0.43148801 -6.6705928 -3.4785161 7
-0.435074 -6.69104 -3.46875 7
-0.43333399 -6.6976929 -3.449219 7
-0.020328 -1.502465 -15.835296 7
-0.467913 -4.8019819 -12.625072 7
-0.13523699 -1.794469 -8.4076509 7
-0.061158001 -1.66931 -6.5476861 7
-0.022092 -1.586696 -5.3232141 7
-0.41584399 -6.5326619 -6.238379 7
-0.047363002 -1.880816 -4.7168059 7
-0.39856699 -5.0428982 -5.248251 7
-0.47620001 -6.564322 -4.688488 7
-0.097851999 -1.79128 -3.9164059 7
-0.34188199 -4.9045658 -4.143002 7
-0.44009 -6.5902538 -3.454602 7
-0.280458 -4.7466068 -2.6009901 7
-0.43628699 -7.0750971 -1.131458 7
-0.25925699 -4.8817601 -1.822546 7
-0.30712301 -4.8037891 -1.314431 7
-0.042010002 -1.684314 -1.216221 7
-0.034914002 -1.64825 -0.979527 7
-0.047642998 -1.831086 -0.98444098 7
-0.129786 4.3601279 -6.942472 7
-0.28343499 4.286756 -14.105725 7
-0.15553799 -1.621078 -10.432313 7
-0.171609 4.3478479 -10.020003 7
-0.134886 -1.677896 -8.8397474 7
-0.084214002 4.3675861 -7.2240949 7
-0.083402999 1.083523 -8.227828 7
-0.092689998 -1.636034 -7.381114 7
-0.101422 -1.606617 -5.6815271 7
-0.117886 -1.852107 -5.7515879 7
-0.37248501 -4.832912 -6.6799049 7
-0.041319001 1.2156301 -5.2506471 7
-0.049233999 1.057289 -5.355979 7
-0.091454998 -1.750733 -5.1330509 7
-0.336081 -4.8702049 -5.4795828 7
-0.402744 -6.488904 -4.4882121 7
-0.375103 -6.612062 -3.878294 7
-0.073027998 -1.71468 -4.645184 7
-0.269061 -4.8618069 -3.9824941 7
-0.044707999 1.185155 -4.6080599 7
-0.065967001 1.080815 -4.7950168 7
-0.026105 1.2240061 -4.1915102 7
-0.034309 1.078396 -4.29638 7
-0.039786998 -1.604566 -3.891541 7
-0.052216999 -1.765296 -3.8951721 7
-0.079612002 -1.7467279 -3.6302209 7
-0.030137001 -1.801538 -1.230617 7
-0.036897 -1.833487 -1.155126 7
-0.037505001 -1.839839 -1.078045 7
-0.028975001 -1.809427 -1.00326 7
-0.026846999 -1.716619 -1.244701 7
-0.022802999 -1.709839 -1.172653 7
-0.041221 -1.711271 -1.08269 7
-0.037191998 -1.698074 -1.01187 7
