# .PCD v0.7 - Point Cloud Data file format
VERSION 0.7
FIELDS x y z intensity
SIZE 4 4 4 4
TYPE F F F F
COUNT 1 1 1 1
WIDTH 959
HEIGHT 1
VIEWPOINT 0 0 0 1 0 0 0
POINTS 959
DATA ascii
-0.34066001 -3.7258911 74.566406 7
-0.25303301 -0.41479501 72.256836 7
-0.251362 -0.246704 72.217773 7
-0.31115001 -3.95575 66.857422 7
-0.36550501 -3.8837891 68.297852 7
-0.42964599 -3.8191531 69.995117 7
-0.20969 -0.96630901 64.414062 7
-0.234364 -0.82568401 65.071289 7
-0.24457601 -0.67761201 65.348633 7
-0.216377 0.97888201 64.672852 7
-0.221016 1.131165 64.799805 7
-0.183689 1.261597 63.819336 7
0.92957699 33.380615 15.645508 7
0.93068302 33.392639 15.557617 7
0.92895103 33.479797 15.5 7
0.92884398 33.523804 15.425781 7
-0.268242 -0.48199499 -64.116211 7
-0.31009299 -4.1393428 60.586914 7
-0.355423 -4.07196 61.677734 7
-0.403202 -4.0032349 62.826172 7
-0.479496 -3.971863 64.650391 7
-0.25165901 -1.163879 59.430664 7
-0.276508 -1.036865 60.030273 7
-0.218105 1.2956541 58.722656 7
-0.232586 1.440369 59.070312 7
-0.196564 1.553467 58.212891 7
-0.242268 4.4708252 59.276367 7
-0.205826 4.6748052 58.396484 7
0.84748799 31.689331 15.368164 7
-0.25328401 3.097656 -63.96582 7
-0.30190301 2.8414919 -65.266602 7
-0.38271701 2.769897 -67.435547 7
-0.39272299 -4.1853638 57.422852 7
-0.40300801 -4.0689702 57.660156 7
-0.455421 -4.0157471 58.8125 7
-0.31878999 -1.355652 56.038086 7
-0.266945 -1.074158 54.921875 7
-0.223267 1.438843 54.049805 7
-0.185078 1.538879 53.21582 7
-0.206799 1.677063 53.692383 7
-0.235561 4.5939941 54.336914 7
-0.210545 4.6712041 53.78418 7
-0.16048799 4.6955571 52.683594 7
-0.26580799 3.245667 -58.092773 7
-0.33884799 3.1964719 -59.870117 7
-0.249779 2.9425049 -57.697266 7
-0.32427999 2.887207 -59.511719 7
-0.387054 2.8106079 -61.036133 7
-0.140182 -0.37609899 -49.65332 7
-0.235043 1.325439 49.84375 7
-0.20418499 1.422058 49.226562 7
-0.21247099 1.54071 49.391602 7
-0.185993 1.6364141 48.862305 7
-0.25764099 4.5873408 50.216797 7
-0.22187001 4.634521 49.49707 7
-0.18551999 4.6771851 48.763672 7
-0.221375 3.272217 -51.599609 7
-0.29058799 3.2362061 -53.130859 7
-0.20722599 3.001343 -51.288086 7
-0.262997 2.942749 -52.520508 7
-0.31348801 2.8721919 -53.637695 7
-0.38512 2.8197019 -55.22168 7
-0.277206 -0.337524 -49.188477 7
-0.26607099 -0.454956 -48.959961 7
-0.271198 -0.575073 -49.063477 7
-0.43435299 -3.7888789 -52.267578 7
-0.39669001 -3.859375 -51.489258 7
-0.208 1.322632 45.932617 7
-0.164463 1.402222 45.123047 7
-0.188805 1.524353 45.62793 7
-0.14503101 1.599121 44.8125 7
-0.228043 4.5361938 46.260742 7
-0.196224 4.581604 45.662109 7
-0.15689801 4.609375 44.923828 7
-0.28573999 3.3369751 -48.743164 7
-0.31840101 3.2597661 -49.411133 7
-0.368835 3.201782 -50.44043 7
-0.41041201 3.1282959 -51.288086 7
-0.35202399 2.934937 -50.097656 7
-0.206745 -0.0090330001 -42.807617 7
-0.233318 -0.73095697 -43.928711 7
-0.200775 -0.826599 -43.319336 7
-0.223286 -0.94116199 -43.738281 7
-0.195114 -1.0354609 -43.209961 7
-0.36621901 -4.3789058 -46.208984 7
-0.335888 -4.4378662 -45.633789 7
-0.137806 1.3696899 41.137695 7
-0.13270199 1.554871 41.048828 7
-0.20184299 4.512146 42.151367 7
-0.180225 4.5673828 41.774414 7
-0.157566 4.6185908 41.379883 7
-0.168621 4.7357788 41.560547 7
-0.225857 3.6121831 -43.223633 7
-0.293484 3.6040039 -44.484375 7
-0.327591 3.54248 -45.123047 7
-0.36359799 3.480835 -45.793945 7
-0.40587199 3.42395 -46.584961 7
-0.174973 0.094788 -42.223633 7
-0.237202 -0.97174102 -40.498047 7
-0.18668699 -1.048279 -39.625977 7
-0.208046 -1.155334 -39.989258 7
-0.18295699 -1.239929 -39.554688 7
-0.42061201 -4.3378301 -43.451172 7
-0.385391 -4.487915 -42.825195 7
-0.37117001 -4.566956 -42.570312 7
-0.38985401 -4.704834 -42.878906 7
-0.22956499 -1.402832 39.69043 7
-0.128765 1.3544919 38.164062 7
-0.153984 1.457458 38.564453 7
-0.1292 1.529053 38.169922 7
-0.1987 4.5432739 39.160156 7
-0.17031901 4.5780029 38.704102 7
-0.154751 4.6359248 38.450195 7
-0.19503 3.8735349 -39.205078 7
-0.222755 3.8205571 -39.68457 7
-0.26065099 3.7810061 -40.339844 7
-0.29007301 3.7254641 -40.849609 7
-0.33375499 3.6885381 -41.602539 7
-0.37473699 3.644165 -42.310547 7
-0.193253 0.308716 -39.75 7
-0.16917001 0.20959499 -39.335938 7
-0.20306399 0.114868 -39.919922 7
-0.21694601 0.017517 -40.15918 7
-0.204197 -1.146912 -36.489258 7
-0.19754399 -1.321716 -36.376953 7
-0.18349101 -1.40271 -36.152344 7
-0.15316799 -1.4719239 -35.669922 7
-0.43011099 -4.477478 -39.823242 7
-0.40647101 -4.5332031 -39.44043 7
-0.38689399 -4.5944819 -39.12207 7
-0.35955399 -4.6402588 -38.681641 7
-0.173645 -1.59021 35.889648 7
-0.196281 -1.523254 36.225586 7
-0.20933899 -1.448547 36.421875 7
-0.212818 -1.3675539 36.477539 7
-0.12524 1.328613 35.262695 7
-0.116741 1.403687 35.136719 7
-0.13771801 1.497131 35.442383 7
-0.114475 1.562256 35.100586 7
-0.195942 4.516541 36.15332 7
-0.180298 4.5689092 35.915039 7
-0.16027801 4.6115718 35.616211 7
-0.15257999 4.6776118 35.496094 7
0.47038701 22.081787 15.535156 7
0.470211 22.119995 15.486328 7
0.469284 22.167969 15.443359 7
0.46797201 22.220703 15.402344 7
-0.20194601 4.0065918 -35.885742 7
-0.223976 3.9536741 -36.239258 7
-0.244892 3.8972781 -36.573242 7
-0.27026701 3.846313 -36.977539 7
-0.307468 3.8114619 -37.568359 7
-0.132355 0.59728998 -34.844727 7
-0.162678 0.51770002 -35.319336 7
-0.18818299 0.434692 -35.716797 7
-0.20367099 -1.3206789 -33.984375 7
-0.194576 -1.398621 -33.845703 7
-0.164894 -1.463196 -33.405273 7
-0.19853599 -1.567505 -33.897461 7
-0.169655 -1.630859 -33.467773 7
-0.163334 -1.708252 -33.370117 7
-0.425854 -4.6277471 -36.99707 7
-0.40094799 -4.6731572 -36.620117 7
-0.379612 -4.7235112 -36.294922 7
-0.363419 -4.7819819 -36.046875 7
-0.354027 -4.5638428 35.933594 7
-0.17997 -1.6509399 33.855469 7
-0.211941 -1.439697 34.310547 7
-0.125145 1.3218991 33.186523 7
-0.15556 1.41571 33.604492 7
-0.134216 1.4784549 33.30957 7
-0.117111 1.542542 33.071289 7
-0.20478401 4.4874272 34.117188 7
-0.185169 4.5276489 33.839844 7
-0.171066 4.577332 33.638672 7
-0.152725 4.6177368 33.379883 7
-0.17963 4.7479858 33.738281 7
0.419907 20.830017 15.661133 7
0.42379001 20.820129 15.583008 7
0.423592 20.858337 15.536133 7
0.41930401 20.944824 15.522461 7
0.42073801 20.963562 15.462891 7
0.42012799 21.006165 15.418945 7
0.41870499 21.058838 15.383789 7
0.481888 22.045837 12.15918 7
-0.219109 4.105957 -33.638672 7
-0.245232 3.9811399 -34.035156 7
-0.29332 3.9734499 -34.74707 7
-0.32043099 3.929626 -35.151367 7
-0.15001699 0.66876203 -33.211914 7
-0.178883 0.59417701 -33.638672 7
-0.19905099 0.51593 -33.938477 7
-0.160809 -1.579224 -30.749023 7
-0.194168 -1.67865 -31.199219 7
-0.17407601 -1.7406009 -30.920898 7
-0.16039699 -1.806213 -30.730469 7
-0.192039 -1.907349 -31.157227 7
-0.36576101 -4.7557368 -33.24707 7
-0.15176401 -1.656799 31.206055 7
-0.167114 -1.525757 31.412109 7
-0.169762 -1.456421 31.450195 7
-0.17834499 -1.390137 31.56543 7
-0.138657 1.237366 31.121094 7
-0.121201 1.297852 30.897461 7
-0.108307 1.360229 30.731445 7
-0.130997 1.443909 31.019531 7
-0.118111 1.505554 30.852539 7
-0.13258401 1.585327 31.036133 7
-0.192509 4.50946 31.607422 7
-0.177807 4.5531011 31.412109 7
-0.162663 4.5947881 31.210938 7
-0.158424 4.6572881 31.147461 7
-0.175106 4.7617192 31.349609 7
0.37163901 19.312195 15.650391 7
0.37272301 19.336243 15.597656 7
0.37424901 19.355469 15.541016 7
0.37356201 19.398315 15.501953 7
0.37331 19.436218 15.459961 7
0.373074 19.47406 15.416016 7
0.371052 19.530823 15.387695 7
-0.19975699 4.3053589 -30.693359 7
-0.19694901 4.2236938 -30.662109 7
-0.219349 4.1858521 -30.973633 7
-0.23748 4.1393428 -31.225586 7
-0.262447 4.1031489 -31.573242 7
-0.29425001 4.076416 -32.011719 7
-0.31239301 4.0258789 -32.263672 7
-0.140057 1.194702 -30.03418 7
-0.128254 1.113892 -29.874023 7
-0.142593 1.045776 -30.068359 7
-0.130367 0.96551502 -29.901367 7
-0.15370899 0.89984101 -30.217773 7
-0.165489 0.82843 -30.37793 7
-0.20118 -1.642029 -29.118164 7
-0.175541 -1.695618 -28.789062 7
-0.19615901 -1.782043 -29.045898 7
-0.200287 -1.857178 -29.094727 7
-0.177402 -1.910583 -28.799805 7
-0.157593 -1.690552 29.40918 7
-0.122231 1.414856 29.086914 7
-0.103645 1.468689 28.862305 7
-0.18867099 4.3538208 29.65918 7
-0.197258 4.4368901 29.751953 7
-0.182575 4.47644 29.568359 7
-0.1674 4.5144038 29.379883 7
-0.15368301 4.5541992 29.208008 7
-0.160336 4.6333618 29.27832 7
0.32544699 18.047791 15.671875 7
0.323273 18.104492 15.647461 7
0.32204399 18.151733 15.615234 7
0.32714799 18.17218 15.492188 7
0.32733199 18.205505 15.450195 7
-0.214581 4.3329468 -28.69043 7
-0.22343101 4.2767329 -28.810547 7
-0.236866 4.2277832 -28.988281 7
-0.255806 4.187439 -29.236328 7
-0.28113899 4.1567988 -29.563477 7
-0.29320899 4.1028442 -29.723633 7
-0.14049099 1.207581 -28.369141 7
-0.152832 1.1433721 -28.529297 7
-0.164261 1.077881 -28.677734 7
-0.15829501 1.004639 -28.603516 7
-0.181183 0.94305402 -28.896484 7
-0.189137 -1.649963 -26.799805 7
-0.171398 -1.7034301 -26.584961 7
-0.165985 -1.7653199 -26.516602 7
-0.199512 -1.857239 -26.908203 7
-0.183254 -1.910828 -26.710938 7
-0.137665 -1.684692 27.28125 7
-0.15064999 -1.6324461 27.430664 7
-0.111504 1.372986 27.067383 7
-0.097832002 1.425293 26.913086 7
-0.177761 4.413269 27.564453 7
-0.144108 4.5342412 27.165039 7
-0.139305 4.585938 27.101562 7
-0.19315299 4.383728 -26.223633 7
-0.115829 0.96008301 -25.527344 7
-0.125084 0.83453399 -25.637695 7
-0.193951 -1.667419 -24.982422 7
-0.168625 -1.71106 -24.698242 7
-0.162827 -1.768188 -24.629883 7
-0.201893 -1.859924 -25.056641 7
-0.18236899 -1.906616 -24.836914 7
-1.1637 -33.575317 12.400391 7
-1.1495481 -33.405212 12.431641 7
-0.231663 4.4729609 -24.751953 7
-0.23495901 4.4161382 -24.797852 7
-0.24563999 4.3726201 -24.922852 7
-0.25067499 4.255127 -24.994141 7
-0.26715899 4.2202759 -25.181641 7
-0.108601 0.414673 -23.647461 7
-0.101788 -0.33892801 -21.925781 7
-0.095717996 -0.393738 -21.860352 7
-0.090218 -0.448181 -21.801758 7
-0.086418003 -0.50280797 -21.759766 7
-0.088844001 -0.558716 -21.78125 7
-0.168823 -1.600281 -23.022461 7
-0.157555 -1.649902 -22.901367 7
-0.151352 -1.702576 -22.833984 7
-0.180122 -1.781311 -23.126953 7
-0.16828901 -1.829834 -22.999023 7
-0.16321599 -1.88324 -22.943359 7
-0.17804299 4.375854 -22.455078 7
-0.17873 4.3198242 -22.470703 7
-0.18561199 4.2749629 -22.549805 7
-0.115818 -0.83508301 -21.080078 7
-0.175262 -1.615723 -21.612305 7
-0.16507 -1.66272 -21.508789 7
-0.15548301 -1.709473 -21.413086 7
-0.18608101 -1.786316 -21.706055 7
-0.178894 -1.835083 -21.630859 7
-0.170509 -1.882507 -21.544922 7
-0.219643 4.4584351 -21.354492 7
-0.20957901 4.3853149 -21.267578 7
-0.21508799 4.3408809 -21.329102 7
-0.21999399 4.2952881 -21.385742 7
-0.242268 4.2798462 -21.607422 7
-0.24599101 4.2310791 -21.650391 7
-0.136547 -1.2915649 -19.874023 7
-0.135906 -1.34137 -19.865234 7
-0.14485499 -1.3968509 -19.942383 7
-0.139751 -1.4437259 -19.892578 7
-0.138477 -1.49292 -19.876953 7
-0.142315 -1.54541 -19.908203 7
-0.160206 -1.60791 -20.066406 7
-0.15638401 -1.655579 -20.02832 7
-0.154469 -1.70459 -20.006836 7
-0.185127 -1.777954 -20.28125 7
-0.170441 -1.817749 -20.143555 7
-0.16662601 -1.865234 -20.102539 7
-0.162487 -1.614197 -18.883789 7
-0.16656099 -1.664673 -18.914062 7
-0.15710101 -1.705444 -18.828125 7
-0.157116 -1.753052 -18.824219 7
-0.17671999 -1.8156739 -18.988281 7
-0.17739899 -1.864136 -18.990234 7
-0.174713 -1.909912 -18.961914 7
-0.18544 4.4169922 -18.34668 7
-0.19430199 4.3858638 -18.431641 7
-0.20047399 4.3496699 -18.492188 7
-0.20461699 4.3092651 -18.537109 7
-0.159077 -1.609253 -17.698242 7
-0.146908 -1.645447 -17.595703 7
-0.149067 -1.691833 -17.609375 7
-0.156239 -1.7416379 -17.663086 7
-0.159824 -1.789185 -17.686523 7
-0.15913001 -1.878235 -17.672852 7
-0.20776001 4.4727778 -17.326172 7
-0.20713399 4.4265752 -17.331055 7
-0.22224 4.4091802 -17.460938 7
-0.226616 4.3719478 -17.504883 7
-0.224575 4.3227539 -17.496094 7
-0.223232 4.2750239 -17.495117 7
-0.19687299 4.183228 -17.295898 7
-0.159771 -1.605225 -16.648438 7
-0.14312699 -1.635864 -16.516602 7
-0.14312001 -1.677917 -16.513672 7
-0.146164 -1.722168 -16.532227 7
-0.16663 -1.779846 -16.683594 7
-0.15679599 -1.8147579 -16.604492 7
-0.159069 -1.858765 -16.617188 7
-0.157566 -1.89978 -16.600586 7
-0.140755 -1.6231689 -15.512695 7
-0.132751 -1.657166 -15.451172 7
-0.134361 -1.6978149 -15.457031 7
-0.15601 -1.753601 -15.608398 7
-0.148811 -1.787964 -15.552734 7
-0.150429 -1.868958 -15.555664 7
-0.154449 -1.912048 -15.580078 7
-0.156139 4.4525151 -14.794922 7
-0.15301099 4.4075928 -14.783203 7
-0.160282 4.3822632 -14.84375 7
-0.163555 4.3491211 -14.876953 7
-0.16282301 4.3087158 -14.880859 7
-0.17648301 4.294373 -14.986328 7
-0.18135799 4.2636108 -15.03125 7
-0.16944499 4.2029419 -14.956055 7
-0.17351501 4.1706538 -14.994141 7
-0.142929 -1.617676 -14.670898 7
-0.1362 -1.6505131 -14.621094 7
-0.13958 -1.690491 -14.638672 7
-0.14128099 -1.729431 -14.646484 7
-0.16066401 -1.781677 -14.774414 7
-0.153938 -1.814453 -14.724609 7
-0.148056 -1.8853149 -14.675781 7
-0.15412501 4.445435 -13.892578 7
-0.154202 4.408752 -13.902344 7
-0.158474 4.3800049 -13.94043 7
-0.16359299 4.352478 -13.984375 7
-0.16534799 4.318604 -14.005859 7
-0.177185 4.3031621 -14.09375 7
-0.191551 4.2918701 -14.200195 7
-0.18911 4.249939 -14.191406 7
-0.170681 4.179565 -14.079102 7
-0.145401 -1.609741 -13.882812 7
-0.14186101 -1.643005 -13.857422 7
-0.14452399 -1.6806639 -13.870117 7
-0.148972 -1.719727 -13.894531 7
-0.169376 -1.771118 -14.022461 7
-0.156967 -1.797791 -13.938477 7
-0.16053 -1.8364871 -13.956055 7
-0.15345 -1.86676 -13.905273 7
-0.16763701 -1.914246 -13.993164 7
-0.473656 -6.7077031 -14.717773 7
-0.079150997 1.2219239 -13.115234 7
-0.144318 -1.600159 -13.146484 7
-0.131317 -1.625061 -13.061523 7
-0.132256 -1.659546 -13.0625 7
-0.129482 -1.691406 -13.041992 7
-0.15924799 -1.747559 -13.219727 7
-0.147163 -1.772583 -13.141602 7
-0.151833 -1.810425 -13.166016 7
-0.149048 -1.842407 -13.144531 7
-0.16113999 -1.88623 -13.214844 7
-0.35872999 -4.9238281 -13.751953 7
-0.36346099 -5.0042109 -13.755859 7
-0.073344998 1.227356 -12.37207 7
-0.078083001 1.196777 -12.404297 7
-0.085597999 1.167358 -12.453125 7
-0.081042998 1.131714 -12.426758 7
-0.082057998 1.098999 -12.435547 7
-0.084934004 1.067017 -12.455078 7
-0.126019 -1.605042 -12.314453 7
-0.129932 -1.639954 -12.333984 7
-0.127987 -1.670715 -12.318359 7
-0.145576 -1.715881 -12.416992 7
-0.153404 -1.75415 -12.458984 7
-0.137787 -1.7744139 -12.362305 7
-0.139755 -1.8082891 -12.369141 7
-0.14366899 -1.843689 -12.388672 7
-0.15345 -1.883911 -12.44043 7
-0.36940399 -4.834106 -13.027344 7
-0.363583 -4.8566279 -12.981445 7
-0.36068299 -4.8847661 -12.953125 7
-0.35780001 -4.9129028 -12.925781 7
-0.35979101 -4.9501948 -12.923828 7
-0.35883701 -4.9819951 -12.908203 7
-0.366703 -5.0307622 -12.939453 7
-0.37358499 -5.078064 -12.96582 7
-0.37753701 -5.1194458 -12.973633 7
-0.080738001 1.265198 -11.716797 7
-0.072994001 1.22937 -11.674805 7
-0.075993001 1.199524 -11.695312 7
-0.073146999 1.166443 -11.679688 7
-0.072246999 1.134521 -11.675781 7
-0.070370004 1.10199 -11.666992 7
-0.074359998 1.072266 -11.693359 7
-0.088115998 1.047241 -11.775391 7
-0.082324997 1.0128779 -11.744141 7
-0.082416996 0.98120099 -11.746094 7
-0.123791 -1.6233521 -11.682617 7
-0.125835 -1.655396 -11.69043 7
-0.123798 -1.684631 -11.673828 7
-0.14321101 -1.729614 -11.779297 7
-0.149353 -1.765137 -11.808594 7
-0.139156 -1.788147 -11.748047 7
-0.139164 -1.819092 -11.743164 7
-0.138165 -1.848877 -11.732422 7
-0.14532501 -1.885376 -11.768555 7
-0.36605501 -4.8362432 -12.288086 7
-0.362003 -4.8605962 -12.254883 7
-0.35590699 -4.8807368 -12.209961 7
-0.355946 -4.9125981 -12.198242 7
-0.35623601 -4.9455571 -12.186523 7
-0.352184 -4.9692988 -12.15332 7
-0.35325199 -5.0032349 -12.145508 7
-0.362492 -5.0532231 -12.182617 7
-0.368664 -5.09729 -12.203125 7
-0.14830799 4.475647 -10.830078 7
-0.139191 4.4289551 -10.791016 7
-0.142303 4.405396 -10.816406 7
-0.150497 4.3912959 -10.87207 7
-0.151566 4.3634639 -10.887695 7
-0.14856701 4.3282471 -10.881836 7
-0.155746 4.3119512 -10.930664 7
-0.171055 4.3101811 -11.022461 7
-0.180279 4.296936 -11.081055 7
-0.171169 4.2503662 -11.041016 7
-0.160023 4.2003779 -10.991211 7
-0.158035 4.1669922 -10.990234 7
-0.082355 1.27002 -11.124023 7
-0.093662001 1.246033 -11.19043 7
-0.081486002 1.209229 -11.123047 7
-0.076443002 1.176331 -11.098633 7
-0.077541001 1.14679 -11.106445 7
-0.077618003 1.116577 -11.109375 7
-0.088932 1.091797 -11.174805 7
-0.088992998 1.061646 -11.176758 7
-0.088055 1.030884 -11.173828 7
-0.086750001 0.999695 -11.169922 7
-0.086833999 0.96954298 -11.171875 7
-0.119869 -1.629028 -11.024414 7
-0.117725 -1.656616 -11.009766 7
-0.134884 -1.698181 -11.095703 7
-0.138126 -1.758911 -11.104492 7
-0.134914 -1.785889 -11.083984 7
-0.134937 -1.815063 -11.079102 7
-0.14138401 -1.849304 -11.108398 7
-0.151031 -1.886475 -11.155273 7
-0.15532701 -1.919434 -11.173828 7
-0.34832799 -4.810791 -11.452148 7
-0.35051 -4.8450322 -11.451172 7
-0.343086 -4.890686 -11.389648 7
-0.343117 -4.9205928 -11.378906 7
-0.345337 -4.9846191 -11.365234 7
-0.35824999 -5.0400391 -11.417969 7
-0.359364 -5.072144 -11.410156 7
-0.36369699 -5.1107788 -11.419922 7
-0.149147 4.4551392 -10.162109 7
-0.13957199 4.4090581 -10.123047 7
-0.141747 4.385376 -10.144531 7
-0.145004 4.3635859 -10.170898 7
-0.14398199 4.3337402 -10.175781 7
-0.14830799 4.3135991 -10.208008 7
-0.15583 4.2996831 -10.255859 7
-0.170834 4.2988892 -10.341797 7
-0.17087901 4.2703862 -10.351562 7
-0.155968 4.21521 -10.286133 7
-0.15280201 4.181335 -10.280273 7
-0.082638003 1.265869 -10.505859 7
-0.071987003 1.231384 -10.450195 7
-0.074199997 1.204041 -10.464844 7
-0.069983996 1.1730959 -10.444336 7
-0.068985 1.1439821 -10.442383 7
-0.073338002 1.117493 -10.466797 7
-0.078769997 1.091553 -10.498047 7
-0.080982 1.0637209 -10.512695 7
-0.077846996 1.03363 -10.496094 7
-0.078975998 1.005554 -10.504883 7
-0.083339997 0.97869903 -10.530273 7
-0.11684 -1.611145 -10.463867 7
-0.119091 -1.640442 -10.47168 7
-0.119099 -1.668274 -10.467773 7
-0.132534 -1.706055 -10.532227 7
-0.134792 -1.763489 -10.535156 7
-0.134808 -1.791382 -10.53125 7
-0.137058 -1.820984 -10.537109 7
-0.141544 -1.852417 -10.554688 7
-0.35014299 -4.834106 -10.811523 7
-0.34121701 -4.84552 -10.757812 7
-0.34127 -4.8739619 -10.744141 7
-0.340179 -4.900208 -10.727539 7
-0.33686101 -4.9221191 -10.700195 7
-0.33913401 -4.954834 -10.699219 7
-0.34253699 -4.9897461 -10.703125 7
-0.350418 -5.033752 -10.728516 7
-0.35269201 -5.0665889 -10.727539 7
-0.356094 -5.101624 -10.729492 7
-0.071235999 1.205017 -9.9169922 7
-0.067939997 1.175964 -9.9023438 7
-0.066886999 1.14801 -9.8984385 7
-0.069885001 1.12207 -9.9189453 7
-0.119129 -1.622498 -9.9609385 7
-0.122646 -1.651672 -9.9736328 7
-0.124996 -1.67981 -9.9804688 7
-0.135509 -1.714172 -10.027344 7
-0.14486299 -1.747864 -10.068359 7
-0.1367 -1.768494 -10.024414 7
-0.13670699 -1.795166 -10.019531 7
-0.13905001 -1.823669 -10.027344 7
-0.13206901 -1.844727 -9.9882812 7
-0.147251 -1.883606 -10.057617 7
-0.150764 -1.913269 -10.070312 7
-0.084109999 1.264221 -9.4746094 7
-0.073669001 1.232239 -9.4257812 7
-0.070229001 1.204224 -9.4121094 7
-0.069122002 1.17749 -9.4091797 7
-0.069182999 1.1513669 -9.4121094 7
-0.071579002 1.126465 -9.4267578 7
-0.071648002 1.100342 -9.4287109 7
-0.079875998 1.078125 -9.4707031 7
-0.076447003 1.050293 -9.4550781 7
-0.081173003 1.026245 -9.4804688 7
-0.081234001 0.99993902 -9.4833984 7
-0.076637 0.97155797 -9.4628906 7
-0.113625 -1.600647 -9.4501953 7
-0.112427 -1.6253051 -9.4414062 7
-0.118511 -1.65509 -9.4648438 7
-0.124607 -1.684875 -9.4892578 7
-0.118542 -1.705688 -9.4570312 7
-0.13557801 -1.744019 -9.5322266 7
-0.12707099 -1.763 -9.4882812 7
-0.131954 -1.7921751 -9.5058594 7
-0.13562401 -1.820374 -9.5185547 7
-0.13197701 -1.843079 -9.4980469 7
-0.15145101 -1.884277 -9.5830078 7
-0.14783099 -1.907043 -9.5615234 7
-0.066757001 1.252197 -8.9189453 7
-0.07412 1.23114 -8.9570312 7
-0.071754001 1.204834 -8.9472656 7
-0.066947997 1.177246 -8.9277344 7
-0.071877003 1.154785 -8.953125 7
-0.070724003 1.1292109 -8.9501953 7
-0.062401 1.0502321 -8.9169922 7
-0.069762997 1.0285029 -8.9550781 7
-0.067459002 0.97735602 -8.9472656 7
-0.099922001 -1.615723 -8.8974609 7
-0.10247 -1.641907 -8.9052734 7
-0.11393 -1.674072 -8.9501953 7
-0.119057 -1.774475 -8.9570312 7
-0.119072 -1.798767 -8.9521484 7
-0.121616 -1.8249511 -8.9589844 7
-0.337044 -4.8223882 -8.9804688 7
-0.33326 -4.839294 -8.953125 7
-0.32822001 -4.8535161 -8.9199219 7
-0.32825899 -4.877625 -8.9082031 7
-0.33083701 -4.9066768 -8.9072266 7
-0.33215699 -4.933228 -8.9003906 7
-0.33345801 -4.960022 -8.8945312 7
-0.337311 -4.9915771 -8.8974609 7
-0.346268 -5.0333862 -8.921875 7
-0.34503901 -5.0548711 -8.9033203 7
-0.34507 -5.0788569 -8.8916016 7
-0.352745 -5.1183472 -8.9091797 7
-0.062752001 1.265015 -8.4228516 7
-0.052634999 1.235657 -8.3808594 7
-0.053963002 1.212708 -8.3876953 7
-0.051468 1.187622 -8.3798828 7
-0.051537 1.164001 -8.3828115 7
-0.051589999 1.140381 -8.3847656 7
-0.049102999 1.1152951 -8.3769531 7
-0.050438002 1.092285 -8.3847656 7
-0.058113001 1.072144 -8.421875 7
-0.058173999 1.0485229 -8.4238281 7
-0.058235001 1.02478 -8.4257812 7
-0.058288999 1.001038 -8.4287109 7
-0.062164001 0.97900403 -8.4472656 7
-0.108719 -1.602051 -8.5126953 7
-0.115334 -1.629822 -8.5361328 7
-0.115349 -1.653015 -8.5322266 7
-0.119331 -1.679016 -8.5449219 7
-0.135212 -1.7140501 -8.6074219 7
-0.13918699 -1.740234 -8.6201172 7
-0.12729999 -1.7546999 -8.5664062 7
-0.12995499 -1.779907 -8.5732422 7
-0.135258 -1.807312 -8.5908203 7
-0.13526499 -1.830505 -8.5859385 7
-0.147175 -1.863403 -8.6328115 7
-0.149845 -1.888916 -8.6386719 7
-0.153828 -1.91571 -8.6513672 7
-0.34489399 -4.8257451 -8.5 7
-0.33963001 -4.838623 -8.4677734 7
-0.33702099 -4.8565669 -8.4462891 7
-0.33573201 -4.8770142 -8.4296885 7
-0.33841699 -4.9050288 -8.4287109 7
-0.33713499 -4.9255371 -8.4111328 7
-0.33453 -4.9431152 -8.3886719 7
-0.34251401 -4.981689 -8.4072266 7
-0.34652701 -5.0123901 -8.4111328 7
-0.35451499 -5.051147 -8.4287109 7
-0.35454601 -5.0741582 -8.4169922 7
-0.35591099 -5.099854 -8.4101562 7
-0.13818 4.4553828 -7.4179692 7
-0.135563 4.4289551 -7.4189448 7
-0.135593 4.4077148 -7.4277339 7
-0.139576 4.3937988 -7.454102 7
-0.142235 4.3774409 -7.4746089 7
-0.14226501 4.355957 -7.484375 7
-0.140972 4.3318481 -7.4902339 7
-0.144958 4.317749 -7.515625 7
-0.14762101 4.301147 -7.5351558 7
-0.160851 4.303772 -7.5966802 7
-0.069945998 1.263184 -8.0390615 7
-0.071327001 1.24115 -8.0458984 7
-0.072701 1.2190551 -8.0556641 7
-0.072761998 1.196045 -8.0585938 7
-0.064879999 1.169006 -8.0263672 7
-0.064934 1.146301 -8.0292969 7
-0.06498 1.123413 -8.0322266 7
-0.063712999 1.099915 -8.0292969 7
-0.076995999 1.0834351 -8.0878906 7
-0.073073998 1.058533 -8.0732422 7
-0.070487998 1.034485 -8.0644531 7
-0.073196001 1.012634 -8.078125 7
-0.07457 0.99023402 -8.0859385 7
-0.073302999 0.96685803 -8.0820312 7
-0.332104 -4.819519 -7.9335942 7
-0.32800701 -4.833252 -7.907227 7
-0.32252899 -4.8443599 -7.875977 7
-0.322559 -4.8659058 -7.8642578 7
-0.32259801 -4.8875122 -7.8525391 7
-0.32539701 -4.9145508 -7.8505859 7
-0.32957101 -4.9442749 -7.8535161 7
-0.33098999 -4.9684448 -7.8457031 7
-0.33102801 -4.9901118 -7.8349609 7
-0.34071401 -5.0309448 -7.8574219 7
-0.33800101 -5.0469971 -7.835938 7
-0.346313 -5.0852051 -7.8535161 7
-0.34358999 -5.1011348 -7.8310552 7
-0.41922399 -6.420166 -7.3242192 7
-0.41650799 -6.4337158 -7.2998052 7
-0.423466 -6.4711909 -7.3076172 7
-0.422131 -6.487854 -7.2861328 7
-0.42494601 -6.5150762 -7.2792969 7
-0.42638001 -6.5387568 -7.2685552 7
-0.42781401 -6.5623779 -7.257812 7
-0.42372501 -6.5723271 -7.2285161 7
-0.42101699 -6.5854492 -7.204102 7
-0.41416499 -6.5880132 -7.1669922 7
-0.41698101 -6.6149292 -7.1582031 7
-0.42255801 -6.6489868 -7.1601558 7
-0.42260399 -6.6689448 -7.1455078 7
-0.42542601 -6.6959839 -7.1376948 7
-0.129627 4.455627 -6.9111328 7
-0.126904 4.4303589 -6.9111328 7
-0.13242701 4.4207149 -6.9404302 7
-0.13931701 4.4135742 -6.976562 7
-0.13932399 4.393311 -6.9873052 7
-0.135235 4.3652949 -6.9824219 7
-0.136631 4.3473511 -6.9970698 7
-0.132534 4.319397 -6.9931641 7
-0.13805801 4.3092041 -7.023438 7
-0.32524499 -4.808167 -7.4511719 7
-0.32384899 -4.8260498 -7.4345698 7
-0.32246 -4.8439331 -7.4169922 7
-0.31821099 -4.8560791 -7.390625 7
-0.32110199 -4.8822021 -7.389648 7
-0.32114801 -4.9026489 -7.3769531 7
-0.324047 -4.928772 -7.375 7
-0.32552001 -4.9520869 -7.3681641 7
-0.32984501 -4.9812012 -7.3720698 7
-0.33131799 -5.004395 -7.3652339 7
-0.335659 -5.0333862 -7.367188 7
-0.337116 -5.0565801 -7.360352 7
-0.42611301 -6.5545039 -6.719727 7
-0.42042899 -6.559021 -6.686523 7
-0.42049 -6.5779419 -6.671875 7
-0.41624099 -6.585938 -6.6425781 7
-0.42059699 -6.6156621 -6.639648 7
-0.42209199 -6.637939 -6.6269531 7
-0.42357299 -6.6602778 -6.6162109 7
-0.427921 -6.690002 -6.6132808 7
-0.14515699 4.4690552 -6.5537109 7
-0.139484 4.4387822 -6.5439448 7
-0.138081 4.416748 -6.5507808 7
-0.135258 4.3920898 -6.5507808 7
-0.135281 4.3728638 -6.5605469 7
-0.13103101 4.3455811 -6.5556641 7
-0.135326 4.33429 -6.5810552 7
-0.132496 4.3096309 -6.5810552 7
-0.138218 4.3006592 -6.6113281 7
-0.14679 4.2970581 -6.6513672 7
-0.14965799 4.2828369 -6.671875 7
-0.146835 4.2580571 -6.670898 7
-0.138309 4.2227778 -6.6513672 7
-0.141186 4.2086182 -6.670898 7
-0.14121599 4.1889648 -6.6806641 7
-0.138386 4.1643071 -6.6806641 7
-0.32969299 -4.8044429 -7.0244141 7
-0.31933999 -4.8040771 -6.9785161 7
-0.32233 -4.8292241 -6.9775391 7
-0.325344 -4.8544922 -6.9755859 7
-0.320934 -4.8652949 -6.9482422 7
-0.31948501 -4.8818359 -6.9326172 7
-0.32101101 -4.9042358 -6.9257808 7
-0.32847199 -4.9382319 -6.938477 7
-0.324047 -4.948669 -6.9121089 7
-0.33152401 -4.9830322 -6.9238281 7
-0.34046599 -5.020081 -6.9414058 7
-0.344971 -5.0484619 -6.9433589 7
-0.33758199 -5.0527949 -6.90625 7
-0.34059501 -5.0782471 -6.9042969 7
-0.34064099 -5.0974731 -6.891602 7
-0.32969299 -4.8001709 -6.617188 7
-0.323589 -4.8070679 -6.5869141 7
-0.319004 -4.8167109 -6.561523 7
-0.31596801 -4.8292851 -6.5400391 7
-0.31601301 -4.8476558 -6.5283198 7
-0.31912601 -4.872314 -6.5263672 7
-0.316082 -4.884583 -6.5048828 7
-0.32074401 -4.9121699 -6.507812 7
-0.31616601 -4.9213872 -6.4814448 7
-0.31313699 -4.9335942 -6.4599609 7
-0.32701501 -4.9796748 -6.4912109 7
-0.333202 -5.0103149 -6.4980469 7
-0.33324799 -5.028564 -6.4863281 7
-0.33482 -5.0500488 -6.4785161 7
-0.34254801 -5.0838008 -6.4892578 7
-0.33491099 -5.0866089 -6.454102 7
-0.41184601 -6.4264531 -5.742188 7
-0.41190699 -6.4431758 -5.726562 7
-0.416576 -6.471313 -5.7236328 7
-0.41662201 -6.4880371 -5.7089839 7
-0.419765 -6.512207 -5.7011719 7
-0.421345 -6.5325928 -5.6904302 7
-0.422939 -6.552979 -5.6787109 7
-0.424541 -6.5733032 -5.6669922 7
-0.42304599 -6.585815 -5.6464839 7
-0.416935 -6.5866089 -5.6142578 7
-0.41698799 -6.6028442 -5.5986328 7
-0.42166501 -6.6309199 -5.594727 7
-0.421711 -6.6474609 -5.5800781 7
-0.421772 -6.6635742 -5.5644531 7
-0.417202 -6.6679082 -5.5351558 7
-0.42649499 -6.7078252 -5.5439448 7
-0.42501399 -6.7199101 -5.523438 7
-0.32542801 -4.8147578 -6.1582031 7
-0.31588399 -4.8137822 -6.117188 7
-0.31592199 -4.8312988 -6.1064448 7
-0.31596801 -4.8487549 -6.09375 7
-0.31440401 -4.8630371 -6.078125 7
-0.31444901 -4.8803101 -6.0664058 7
-0.31767699 -4.9041138 -6.0644531 7
-0.31772199 -4.9215698 -6.0517578 7
-0.31457099 -4.9326782 -6.03125 7
-0.31301901 -4.9466548 -6.014648 7
-0.31782901 -4.9734502 -6.016602 7
-0.325863 -5.0066528 -6.0273442 7
-0.33388901 -5.0400391 -6.039062 7
-0.33392701 -5.0571899 -6.0273442 7
-0.33716199 -5.0809941 -6.0244141 7
-0.33241701 -5.088501 -5.9980469 7
-0.326069 -5.0927119 -5.9667969 7
-0.40473199 -6.510376 -5.0957031 7
-0.40638 -6.52948 -5.0839839 7
-0.411221 -6.5566411 -5.0810552 7
-0.406479 -6.5595698 -5.0537109 7
-0.40493 -6.5704961 -5.0341802 7
-0.40338099 -6.5813599 -5.014648 7
-0.40343499 -6.596375 -4.999023 7
-0.40988901 -6.6273189 -4.9980469 7
-0.40834001 -6.6381841 -4.9785161 7
-0.411587 -6.6613159 -4.9707031 7
-0.41324201 -6.6802368 -4.9580078 7
-0.41170099 -6.690918 -4.938477 7
-0.31911799 -4.8172612 -5.7207031 7
-0.31254601 -4.8210449 -5.6894531 7
-0.30761701 -4.8280029 -5.6650391 7
-0.31096601 -4.8508301 -5.6630859 7
-0.307686 -4.8608398 -5.6425781 7
-0.316006 -4.893311 -5.6523442 7
-0.31108099 -4.9000239 -5.6279302 7
-0.30616 -4.9065552 -5.601562 7
-0.31281999 -4.9358521 -5.6074219 7
-0.30788401 -4.9423828 -5.5830078 7
-0.31950799 -4.9814448 -5.6035161 7
-0.32286501 -5.004395 -5.6005859 7
-0.32621399 -5.0274048 -5.5966802 7
-0.32957101 -5.0502319 -5.59375 7
-0.33457601 -5.0765991 -5.594727 7
-0.33462101 -5.092834 -5.5830078 7
-0.333004 -5.1057129 -5.5664058 7
-0.32808301 -5.1117549 -5.5400391 7
-0.312767 -4.8128052 -5.3027339 7
-0.30593899 -4.815063 -5.273438 7
-0.30770099 -4.8339839 -5.266602 7
-0.30773199 -4.8494258 -5.2548828 7
-0.306061 -4.8615718 -5.2382808 7
-0.30780801 -4.880249 -5.2314448 7
-0.30784601 -4.8956299 -5.21875 7
-0.30788401 -4.9111328 -5.2080078 7
-0.31135601 -4.933228 -5.2050781 7
-0.30625901 -4.938354 -5.179688 7
-0.32001099 -4.980957 -5.203125 7
-0.32176599 -4.9995732 -5.1962891 7
-0.32008699 -5.0116582 -5.179688 7
-0.32870099 -5.0440669 -5.1894531 7
-0.323605 -5.0488892 -5.1630859 7
-0.321926 -5.06073 -5.1474609 7
-0.330547 -5.0932622 -5.1582031 7
-0.325436 -5.098145 -5.1318359 7
-0.317417 -4.8088989 -4.9482422 7
-0.31745499 -4.823669 -4.936523 7
-0.312172 -4.828125 -4.9121089 7
-0.30511501 -4.829041 -4.882812 7
-0.30339101 -4.8400879 -4.8652339 7
-0.306961 -4.8615718 -4.8632808 7
-0.30700701 -4.8760991 -4.851562 7
-0.31237 -4.9009399 -4.8535161 7
-0.30708301 -4.9050288 -4.828125 7
-0.30535099 -4.9159551 -4.811523 7
-0.31253099 -4.9587402 -4.8056641 7
0.0090060001 -1.566793 -12.118469 7
-0.416587 -4.817719 -11.981672 7
-0.13108 -1.910839 -8.3266993 7
-0.372338 -4.816421 -9.6601105 7
-0.048385002 -1.760926 -6.3985791 7
-0.39054099 -6.6399131 -7.1571569 7
0.011483 -1.309433 -5.0998302 7
-0.017735001 -1.672163 -5.2621899 7
-0.29498699 -5.1102958 -6.13061 7
-0.086209998 -1.855734 -3.819212 7
-0.049226001 -1.771771 -3.1185639 7
-0.025249001 -1.707117 -2.5798981 7
-0.032171 -1.723381 -1.16128 7
-0.0078680003 -1.616513 -0.50540698 7
-0.020857999 -1.779811 -0.511621 7
-0.265892 -4.7470951 0.77569598 7
-0.022349 -1.859395 -0.32777199 7
-0.23752899 -4.5199132 0.92544103 7
-0.24376599 -4.6233101 1.06906 7
-0.24827699 -4.7159519 1.21998 7
-0.236324 -4.6754332 1.6244889 7
-0.235366 -4.729712 1.783815 7
-0.213396 -4.5304708 1.861771 7
-0.042048 4.4416471 -11.11748 7
-0.13602801 4.378901 -6.9998178 7
-0.016322 1.158969 -7.3972631 7
0.020222999 1.137687 -5.9656649 7
0.046592999 1.121582 -4.885098 7
-0.11487 4.3891459 -3.170788 7
-0.20185 -1.108961 -20.37681 7
-0.24766099 -1.812434 -13.877367 7
-0.142946 1.0855629 -12.02299 7
-0.17894299 4.2982559 -10.156319 7
-0.079069003 1.246217 -9.2912464 7
-0.126729 -1.735512 -8.7220459 7
-0.33435601 -4.9301939 -10.693216 7
-0.115218 4.31599 -7.7159591 7
-0.072896004 -1.641802 -7.146719 7
-0.31638601 -4.9387808 -9.0143442 7
-0.046326999 -1.606586 -6.1798272 7
-0.29355001 -4.8611279 -7.6159048 7
-0.18705501 4.2817111 -6.6046028 7
-0.074863002 1.065771 -6.578938 7
-0.036201999 1.083881 -5.661726 7
-0.080457002 -1.547047 -5.5136909 7
-0.101721 -1.800655 -5.6238952 7
-0.33323801 -4.905725 -6.2028532 7
-0.0066689998 1.0917031 -4.979794 7
-0.045340002 -1.327662 -4.8947468 7
-0.062141001 -1.5359581 -4.9660969 7
-0.075723 -1.742783 -5.0049081 7
-0.30295199 -4.8629351 -5.1212449 7
-0.088384002 4.423769 -2.7637839 7
-0.092601001 4.3581152 -2.9500699 7
-0.094671004 4.2686062 -3.1263001 7
-0.050909001 -1.534897 -4.5448918 7
-0.065664999 -1.728375 -4.5817199 7
-0.030433999 1.1519001 -4.5111699 7
-0.026560999 1.00045 -4.5243602 7
-0.061441999 -1.727262 -4.2485609 7
-0.070294 -1.892244 -4.2330012 7
-0.048795 -1.663529 -3.925046 7
-0.048342001 -1.781778 -3.8580141 7
-0.036329001 -1.6295919 -3.626523 7
-0.048636999 -1.779528 -3.6219621 7
-0.069968 -1.716542 -3.1979921 7
-0.060515001 -1.773851 -3.09465 7
-0.071602002 -1.898425 -3.063421 7
-0.042169999 -1.623317 -2.929539 7
-0.051622 -1.732874 -2.896482 7
-0.059758 -1.838251 -2.853425 7
-0.048142001 -1.708321 -2.732887 7
-0.042943999 -1.7601219 -2.648803 7
-0.053984001 -1.866505 -2.6088369 7
-0.031870998 -1.62393 -2.562355 7
-0.020936999 -1.845683 -1.21351 7
-0.024343001 -1.865502 -1.135994 7
-0.024854001 -1.871063 -1.0575089 7
-0.022449 -1.862179 -0.97959101 7
-0.0019640001 -1.69882 -1.226305 7
-0.0072369999 -1.724918 -1.155118 7
-0.010662 -1.741861 -1.063871 7
-0.0083250003 -1.733366 -0.99135602 7
0.001115 -1.620842 -1.2226861 7
0.00031100001 -1.629968 -1.1547641 7
-0.017651999 -1.6314369 -1.086063 7
-0.013677 -1.618403 -1.018585 7
