# .PCD v0.7 - Point Cloud Data file format
VERSION 0.7
FIELDS x y z intensity
SIZE 4 4 4 4
TYPE F F F F
COUNT 1 1 1 1
WIDTH 1404
HEIGHT 1
VIEWPOINT 0 0 0 1 0 0 0
POINTS 1404
DATA ascii
-0.126819 -2.49646 -41.772461 7
-0.110425 -2.5802 -41.457031 7
-0.303132 -2.853271 43.727539 7
-0.313622 -2.764771 43.915039 7
-0.25860801 0.059326001 43.141602 7
-0.27863401 0.159668 43.485352 7
-0.061933 4.8006592 -40.095703 7
-0.090273 4.7611079 -40.630859 7
-0.109192 4.6999512 -40.990234 7
-0.077618003 4.535645 -40.415039 7
-0.108468 4.496582 -40.995117 7
-0.168512 -2.248657 -39.158203 7
-0.140903 -2.3170171 -38.673828 7
-0.12685201 -2.397095 -38.422852 7
-0.181564 -2.550293 -39.357422 7
-0.152263 -2.6138921 -38.842773 7
-0.111106 -2.661377 -38.125 7
-0.094002999 -2.7342529 -37.821289 7
-0.075190999 -2.8037109 -37.488281 7
-0.26734999 -2.795532 40.140625 7
-0.27384901 -2.7111821 40.251953 7
-0.296958 -2.643677 40.625977 7
-0.25210601 0.048462 40.097656 7
-0.231333 0.139038 39.769531 7
-0.257332 0.23242199 40.18457 7
-0.22810601 0.32019001 39.72168 7
-0.00069900003 4.841064 -35.787109 7
-0.100803 4.8778081 -37.515625 7
-0.118227 4.8216548 -37.823242 7
-0.14585 4.7850342 -38.302734 7
-0.169393 4.737915 -38.71582 7
-0.124979 4.55481 -37.96582 7
-0.138657 4.4876709 -38.208984 7
-0.0037370001 1.1999511 -36.044922 7
0.0046689999 1.106567 -35.901367 7
-0.004958 1.0224611 -36.067383 7
0.0089100003 0.92761201 -35.830078 7
-0.002106 0.84326202 -36.018555 7
0.0093759997 0.75036597 -35.823242 7
0.0099630002 0.66174299 -35.8125 7
-0.167813 -2.7626951 -35.697266 7
-0.157629 -2.8378911 -35.527344 7
-0.121339 -2.9658201 -34.9375 7
-0.12741899 -3.059814 -35.024414 7
-0.114148 4.9251709 -34.431641 7
-0.13053501 4.8743901 -34.699219 7
-0.153596 4.8363042 -35.069336 7
-0.181472 4.8060298 -35.514648 7
-0.200078 4.755127 -35.816406 7
-0.021484001 1.274048 -33.207031 7
-0.015656 1.188599 -33.116211 7
-0.044705998 1.1212161 -33.574219 7
-0.01918 1.026245 -33.173828 7
0.0044979998 0.608643 -32.804688 7
-0.026054 0.53478998 -33.28418 7
0.0031940001 0.446289 -32.824219 7
0.00385 0.36486799 -32.813477 7
-0.177488 -2.919678 -33.359375 7
-0.152878 -3.0517581 -32.978516 7
-0.13521001 -3.109375 -32.708984 7
-0.129484 4.9527588 -32.251953 7
-0.15336899 4.922729 -32.611328 7
-0.176522 4.8079829 -32.967773 7
-0.22816101 4.8294678 -33.731445 7
-0.030671 1.272705 -31.0625 7
-0.026116 1.057251 -31.329102 7
-0.050147001 0.59838903 -31.683594 7
-0.021074001 0.51318401 -31.25293 7
0.00051500002 0.43139601 -30.932617 7
0.0041740001 -0.035399999 -28.166992 7
-0.188201 -3.0949709 -30.862305 7
-0.18364 -3.164917 -30.790039 7
-0.17180701 -3.224854 -30.620117 7
-0.158693 -3.282227 -30.432617 7
-0.16739701 -3.369751 -30.541016 7
-0.132697 5.1081538 -29.705078 7
-0.104929 4.973877 -29.341797 7
-0.132834 4.9604492 -29.727539 7
-0.15003 4.9226069 -29.970703 7
-0.16980401 4.8887939 -30.24707 7
-0.202851 4.880981 -30.704102 7
-0.20806099 4.815186 -30.78418 7
-0.00076899998 1.58667 -28.229492 7
-0.024859 1.532959 -28.560547 7
-0.026240001 1.462646 -28.581055 7
-0.010007 1.3812259 -28.362305 7
-0.042695999 1.329712 -28.80957 7
-0.022549 0.248657 -28.53418 7
0.0022750001 0.17541499 -28.195312 7
-0.037730001 0.107056 -28.740234 7
-0.016355 0.035034001 -28.447266 7
-0.0037990001 -0.024048001 -26.561523 7
-0.019102 -0.157593 -26.75293 7
-0.012824 -0.223511 -26.670898 7
-0.208915 -3.272095 -28.927734 7
-0.196228 -3.3258059 -28.757812 7
-0.18491501 -3.380981 -28.604492 7
-0.183671 -3.450073 -28.580078 7
-0.124277 5.0949712 -27.466797 7
-0.104618 4.983521 -27.232422 7
-0.118425 4.9449458 -27.416016 7
-0.131791 4.904541 -27.594727 7
-0.15753099 4.8892822 -27.928711 7
-0.17823499 4.862061 -28.199219 7
-0.027608 1.564697 -26.581055 7
-0.036991 1.523315 -26.977539 7
-0.0046760002 1.434692 -26.566406 7
-0.022588 1.379517 -26.796875 7
-0.046900999 1.327271 -27.109375 7
-0.047001 0.110718 -27.116211 7
-0.033530001 -0.154907 -24.667969 7
-0.029273 -0.27111799 -24.855469 7
-0.205819 -3.4320071 -26.669922 7
-0.182391 -3.5297849 -26.375 7
-0.187457 -3.6031489 -26.424805 7
-0.109326 5.0804439 -25.160156 7
-0.102468 5.0021968 -25.091797 7
-0.114857 4.9658198 -25.246094 7
-0.124286 4.9224849 -25.368164 7
-0.142611 4.8972168 -25.591797 7
-0.16437501 4.8782959 -25.856445 7
-0.0043720002 1.560303 -24.300781 7
-0.029129 -0.252808 -23.108398 7
-0.0093940003 -0.423096 -22.884766 7
-0.035309002 -0.48632801 -23.168945 7
-0.02012 -0.54077101 -22.999023 7
-0.012842 -0.59655797 -22.916016 7
-0.21019199 -3.5819089 -24.799805 7
-0.197109 -3.6239009 -24.647461 7
-0.182973 -3.6634519 -24.482422 7
-0.186269 -3.7297361 -24.507812 7
-0.208056 -3.8256841 -24.736328 7
-0.112181 5.0449219 -23.369141 7
-0.116987 4.99646 -23.432617 7
-0.129177 4.9633789 -23.575195 7
-0.13821 4.9229741 -23.686523 7
-0.162034 4.913208 -23.954102 7
-0.17106 4.8713379 -24.063477 7
-0.013474 1.749756 -22.680664 7
-0.014718 1.578613 -22.703125 7
-0.020282 -0.34924299 -21.222656 7
-0.028833 -0.404663 -21.308594 7
-0.030038999 -0.45886201 -21.318359 7
-0.017085001 -0.50976598 -21.18457 7
-0.013759 -0.56262201 -21.147461 7
-0.036545999 -0.61828601 -21.584961 7
-0.019282 -0.72119099 -21.400391 7
-0.176612 -3.5311279 -22.725586 7
-0.19084001 -3.609741 -22.861328 7
-0.20226 -3.6846919 -22.96875 7
-0.19164801 -3.7255859 -22.850586 7
-0.183851 -3.7702639 -22.760742 7
-0.178885 -3.819458 -22.700195 7
-0.118018 5.0621338 -21.755859 7
-0.12653901 5.0255132 -21.853516 7
-0.133931 4.9859619 -21.938477 7
-0.143003 4.949707 -22.041016 7
-0.16449299 4.939209 -22.270508 7
-0.17244899 4.8991699 -22.361328 7
-0.153873 4.8043208 -22.18457 7
-0.028863 1.9198 -21.268555 7
-0.020439999 1.858521 -21.186523 7
-0.016550001 1.8017581 -21.148438 7
-0.028488999 1.7574461 -21.274414 7
-0.0082040001 1.687866 -21.069336 7
-0.01787 1.641479 -21.171875 7
-0.05314 -0.68786597 -20.355469 7
-0.052621 -0.73938 -20.347656 7
-0.041940998 -0.78710902 -20.242188 7
-0.031833 -0.83447301 -20.140625 7
-0.055291001 -0.89477497 -20.366211 7
-0.060196999 -0.94824201 -20.40918 7
-0.20435899 -3.6820071 -21.484375 7
-0.221294 -3.762573 -21.635742 7
-0.212392 -3.8027339 -21.541016 7
-0.2041 -3.8436279 -21.452148 7
-0.20061301 -3.8917241 -21.408203 7
-0.195922 -3.9377439 -21.353516 7
-0.215261 -4.0240479 -21.526367 7
-0.224995 -4.094727 -21.609375 7
-0.133513 5.1022949 -20.435547 7
-0.140753 5.0657959 -20.515625 7
-0.15279099 5.0395508 -20.640625 7
-0.15642899 4.994873 -20.6875 7
-0.175677 4.9830322 -20.880859 7
-0.190125 4.960083 -21.029297 7
-0.18776099 4.9016109 -21.017578 7
-0.024729 1.900879 -19.845703 7
-0.034988999 1.858887 -19.949219 7
-0.044654999 1.815918 -20.045898 7
-0.022485999 1.747314 -19.834961 7
-0.032136001 1.704224 -19.932617 7
-0.046631001 1.664307 -20.076172 7
-0.034653999 1.60437 -19.963867 7
-0.049325999 -0.64831501 -18.803711 7
-0.053240001 -0.69763201 -18.836914 7
-0.041125 -0.74157703 -18.724609 7
-0.030285001 -0.78564501 -18.624023 7
-0.061106 -0.84484899 -18.900391 7
-0.052827999 -0.889893 -18.823242 7
-0.045198999 -0.93469203 -18.751953 7
-0.21322399 -3.8751221 -20.083984 7
-0.203109 -3.909302 -19.982422 7
-0.195549 -3.947021 -19.904297 7
-0.19117001 -3.9902339 -19.855469 7
-0.193848 -4.0447998 -19.869141 7
-0.207389 -4.1184082 -19.979492 7
-0.132416 5.127563 -19.000977 7
-0.131172 5.0761719 -19.001953 7
-0.140784 5.0484619 -19.098633 7
-0.14913 5.0175781 -19.183594 7
-0.156836 4.9848628 -19.263672 7
-0.17155799 4.9666748 -19.405273 7
-0.186938 4.9490972 -19.553711 7
-0.172924 4.8703609 -19.439453 7
-0.041917998 1.895264 -18.692383 7
-0.050285999 1.8544919 -18.772461 7
-0.026033999 1.786743 -18.556641 7
-0.036318 1.747192 -18.65332 7
-0.05108 1.710693 -18.790039 7
-0.044739999 1.6580811 -18.736328 7
-0.035829999 1.6036381 -18.65918 7
-0.049883999 -0.69946301 -17.84375 7
-0.071565002 -0.75207502 -18.02832 7
-0.054088 -0.79187 -17.875977 7
-0.042011 -0.83300799 -17.769531 7
-0.061678 -0.88610798 -17.935547 7
-0.071884997 -0.93615699 -18.020508 7
-0.22884899 -3.8751221 -18.977539 7
-0.22015999 -3.908936 -18.893555 7
-0.22160099 -3.959229 -18.896484 7
-0.21223401 -3.9914551 -18.806641 7
-0.207596 -4.0313721 -18.757812 7
-0.213119 -4.0883789 -18.792969 7
-0.226088 -4.1584468 -18.891602 7
-0.144447 5.0966802 -17.899414 7
-0.151916 5.066772 -17.972656 7
-0.160055 5.038208 -18.052734 7
-0.16549499 5.003418 -18.109375 7
-0.18988401 5.0083008 -18.325195 7
-0.19465201 4.9711909 -18.375977 7
-0.16902 4.8244629 -18.183594 7
-0.042291999 1.833984 -17.560547 7
-0.20781 -3.845947 -17.598633 7
-0.21075401 -3.895752 -17.612305 7
-0.222342 -3.9594729 -17.693359 7
-0.23033801 -4.0178218 -17.746094 7
-0.22255599 -4.0498052 -17.674805 7
-0.218338 -4.087769 -17.630859 7
-0.212708 -4.1228032 -17.575195 7
-0.209931 -4.1627202 -17.542969 7
-0.15824001 5.051147 -16.841797 7
-0.165427 5.0230708 -16.910156 7
-0.182652 5.0159912 -17.056641 7
-0.18340001 4.9736328 -17.074219 7
-0.164794 4.8908691 -16.939453 7
-0.15838499 4.8338618 -16.900391 7
-0.066409998 -1.0354 -15.842773 7
-0.078593001 -1.082031 -15.932617 7
-0.070354 -1.118896 -15.865234 7
-0.070497997 -1.200562 -15.859375 7
-0.084969997 -1.24939 -15.966797 7
-0.221062 -4.1629639 -16.530273 7
-0.217454 -4.241333 -16.482422 7
-0.23349801 -4.3120122 -16.59082 7
-0.23825 -4.4055181 -16.603516 7
-0.240623 -4.452271 -16.610352 7
-0.057353001 1.88916 -15.579102 7
-0.055888001 1.847412 -15.571289 7
-0.045315001 1.798462 -15.495117 7
-0.046108 1.7587889 -15.504883 7
-0.045405999 1.717896 -15.50293 7
-0.051500998 1.682251 -15.552734 7
-0.047001 1.63855 -15.522461 7
-0.055707 -0.97326702 -14.810547 7
-0.060566999 -1.0137939 -14.842773 7
-0.078249998 -1.060547 -14.96875 7
-0.072719999 -1.096558 -14.925781 7
-0.071185999 -1.134277 -14.912109 7
-0.066463999 -1.170532 -14.875 7
-0.081744 -1.217407 -14.982422 7
-0.083423004 -1.2568361 -14.990234 7
-0.226312 -4.181519 -15.516602 7
-0.224786 -4.21875 -15.496094 7
-0.22247399 -4.2545171 -15.46875 7
-0.23380999 -4.3144531 -15.537109 7
-0.24596301 -4.3762212 -15.610352 7
-0.24604701 -4.416626 -15.600586 7
-0.248557 -4.4611821 -15.606445 7
-0.059811998 0.876221 17.083008 7
-0.058086999 0.91284198 17.069336 7
-0.060513001 0.95080602 17.083984 7
-0.051182002 1.894165 -14.581055 7
-0.039189 1.846191 -14.498047 7
-0.037625 1.807007 -14.490234 7
-0.037663002 1.769043 -14.494141 7
-0.046521001 1.7381589 -14.563477 7
-0.044163998 1.698364 -14.548828 7
-0.036991999 1.6550291 -14.500977 7
-0.032217 1.613525 -14.470703 7
-0.072940998 -0.93115199 -14.112305 7
-0.062047001 -0.963135 -14.03418 7
-0.062116001 -0.99951202 -14.03125 7
-0.067243002 -1.038452 -14.063477 7
-0.240288 -4.1080322 -14.727539 7
-0.242897 -4.1506348 -14.734375 7
-0.236238 -4.177002 -14.679688 7
-0.237168 -4.2165532 -14.674805 7
-0.236413 -4.2531738 -14.65918 7
-0.233117 -4.2851558 -14.62793 7
-0.240814 -4.3366699 -14.666992 7
-0.247658 -4.3869629 -14.702148 7
-0.25197601 -4.4327388 -14.71875 7
-0.25291401 -4.4725342 -14.714844 7
-0.105365 -2.236938 16.442383 7
-0.060010001 0.83374 16.322266 7
-0.057324 0.868164 16.301758 7
-0.060764998 0.90466303 16.323242 7
-0.060695998 0.93994099 16.321289 7
-0.141231 5.0844731 -13.685547 7
-0.1514 5.0343022 -13.775391 7
-0.15056799 4.9962158 -13.782227 7
-0.15481 4.9691162 -13.821289 7
-0.178444 4.9459229 -13.999023 7
-0.15825801 4.8310552 -13.889648 7
-0.049214002 1.543335 -13.77832 7
-0.062254 -0.98400903 -13.255859 7
-0.060536999 -1.017944 -13.242188 7
-0.064153999 -1.054199 -13.263672 7
-0.075733997 -1.0944819 -13.335938 7
-0.084666997 -1.1337889 -13.391602 7
-0.074970998 -1.1636961 -13.324219 7
-0.068907 -1.230103 -13.27832 7
-0.084927 -1.273682 -13.379883 7
-0.24865 -4.1685791 -13.90332 7
-0.241632 -4.1925049 -13.847656 7
-0.242616 -4.2302251 -13.84375 7
-0.239144 -4.2600098 -13.811523 7
-0.237443 -4.2928472 -13.790039 7
-0.24376 -4.3399658 -13.819336 7
-0.25539401 -4.3968511 -13.880859 7
-0.257256 -4.4361572 -13.880859 7
-0.258232 -4.473999 -13.875977 7
-0.102595 -2.2944341 15.666016 7
-0.101642 -2.2597661 15.665039 7
-0.102504 -2.2268071 15.675781 7
-0.099719003 -2.1904299 15.664062 7
-0.098765001 -2.1556399 15.664062 7
-0.057048999 0.82592797 15.573242 7
-0.054249 0.85839802 15.554688 7
-0.054203 0.891846 15.552734 7
-0.055050001 0.92578101 15.556641 7
-0.056820001 0.959961 15.56543 7
-0.176202 5.109375 -13.072266 7
-0.17001399 5.0614009 -13.045898 7
-0.170037 5.026978 -13.058594 7
-0.169176 4.9907231 -13.064453 7
-0.169191 4.9561772 -13.076172 7
-0.186066 4.9221191 -13.204102 7
-0.16394199 4.807251 -13.089844 7
-0.040548 1.563843 -12.952148 7
-0.058347002 1.541748 -13.070312 7
-0.032683 1.455933 -12.910156 7
-0.023871999 1.382324 -12.859375 7
-0.042578001 1.325317 -12.987305 7
-0.035514001 1.2869869 -12.944336 7
-0.057303 -0.968018 -12.526367 7
-0.063856997 -1.003906 -12.564453 7
-0.051849 -1.031372 -12.487305 7
-0.057487 -1.066895 -12.519531 7
-0.051041 -1.09668 -12.476562 7
-0.057592999 -1.132812 -12.514648 7
-0.079038002 -1.1767581 -12.643555 7
-0.068884 -1.20459 -12.577148 7
-0.071722001 -1.239136 -12.592773 7
-0.065291002 -1.268555 -12.547852 7
-0.24232601 -4.165894 -13.079102 7
-0.245202 -4.2049561 -13.084961 7
-0.246224 -4.2408452 -13.080078 7
-0.24070901 -4.2652588 -13.037109 7
-0.2436 -4.3043208 -13.042969 7
-0.240885 -4.3334961 -13.015625 7
-0.24562199 -4.3762212 -13.033203 7
-0.25036001 -4.4185791 -13.050781 7
-0.25604299 -4.4631348 -13.073242 7
-0.083157003 -2.233887 14.886719 7
-0.094630003 -2.2132571 14.959961 7
-0.086916998 -2.1738279 14.919922 7
-0.090715997 -2.1452639 14.947266 7
-0.087793998 -2.1105959 14.935547 7
-0.083903 -2.0751951 14.916992 7
-0.083873004 -2.0430911 14.921875 7
-0.035789002 1.257935 -12.255859 7
-0.03582 1.225464 -12.258789 7
-0.026558001 1.187988 -12.202148 7
-0.018212 1.1513669 -12.15332 7
-0.0061440002 1.112671 -12.081055 7
-0.021073001 1.087891 -12.175781 7
-0.035994999 1.062744 -12.270508 7
-0.027649 1.026123 -12.22168 7
-0.021157 0.99072301 -12.183594 7
-0.013758 0.95507801 -12.140625 7
-0.0072650001 0.92028803 -12.101562 7
-0.0063800002 0.88769501 -12.097656 7
-0.013849 0.85827601 -12.146484 7
-0.054207001 -0.98095697 -11.813477 7
-0.056221001 -1.013062 -11.822266 7
-0.04651 -1.039917 -11.762695 7
-0.049492002 -1.0723881 -11.777344 7
-0.049552999 -1.1036381 -11.775391 7
-0.062323999 -1.141113 -11.845703 7
-0.072141998 -1.1776119 -11.900391 7
-0.061454002 -1.203247 -11.834961 7
-0.059563 -1.233521 -11.820312 7
-0.061584 -1.265991 -11.829102 7
-0.24943 -4.197998 -12.331055 7
-0.249506 -4.2304692 -12.321289 7
-0.24566799 -4.2562261 -12.289062 7
-0.24183799 -4.2814941 -12.256836 7
-0.241915 -4.3138428 -12.24707 7
-0.24395201 -4.349731 -12.248047 7
-0.240114 -4.3748779 -12.214844 7
-0.24999399 -4.4250488 -12.259766 7
-0.25790501 -4.4715581 -12.292969 7
-0.077099003 -2.2111821 14.185547 7
-0.076053999 -2.1799321 14.18457 7
-0.076022997 -2.149658 14.19043 7
-0.070933998 -2.114624 14.166016 7
-0.068897001 -2.08252 14.15918 7
-0.066845 -2.0505371 14.15332 7
-0.065800004 -2.019531 14.152344 7
-0.061733998 -1.985718 14.134766 7
-0.061687998 -1.955688 14.138672 7
-0.036892999 0.80358899 14.152344 7
-0.038853999 0.83459502 14.162109 7
-0.040812999 0.865601 14.171875 7
-0.038754001 0.89489698 14.157227 7
-0.042706002 0.92688 14.178711 7
-0.040661 0.95629901 14.165039 7
-0.024171 0.94384801 -11.526367 7
-0.023225 0.91259801 -11.523438 7
-0.022821 0.72668499 -11.530273 7
-0.052887 -0.966187 -11.211914 7
-0.064177997 -1.000854 -11.272461 7
-0.050958 -1.0250241 -11.196289 7
-0.051011 -1.054565 -11.193359 7
-0.051064 -1.084473 -11.191406 7
-0.052140001 -1.114746 -11.193359 7
-0.071593001 -1.154297 -11.299805 7
-0.076757997 -1.187134 -11.326172 7
-0.062514998 -1.209717 -11.243164 7
-0.064621001 -1.240845 -11.250977 7
-0.066717997 -1.2718509 -11.260742 7
-0.25371 -4.2030029 -11.680664 7
-0.25377801 -4.2338872 -11.671875 7
-0.25386199 -4.2648931 -11.661133 7
-0.247797 -4.2849121 -11.618164 7
-0.24378499 -4.3084722 -11.584961 7
-0.245905 -4.342773 -11.585938 7
-0.243945 -4.369751 -11.564453 7
-0.247087 -4.4061279 -11.570312 7
-0.250238 -4.4422612 -11.576172 7
-0.061749 -1.899292 13.583008 7
-0.050914001 0.77355999 13.675781 7
-0.048755001 0.80188 13.661133 7
-0.048709001 0.83093297 13.660156 7
-0.048663002 0.85998499 13.658203 7
-0.048617002 0.88891602 13.65625 7
-0.050662 0.918823 13.666016 7
-0.061106 0.95227098 13.720703 7
-0.14166801 5.0227051 -10.666016 7
-0.135565 4.980835 -10.646484 7
-0.13455001 4.921021 -10.665039 7
-0.13355801 4.8901372 -10.669922 7
-0.13766301 4.8701172 -10.702148 7
-0.14991499 4.8666992 -10.77832 7
-0.15198199 4.8128662 -10.811523 7
-0.018709 0.634399 -10.927734 7
-0.010585 0.60266101 -10.882812 7
-0.0024530001 0.54211402 -10.839844 7
0.00055300002 0.48303199 -10.825195 7
-0.0086850002 0.45581099 -10.87793 7
-0.019975999 0.42883301 -10.941406 7
-0.0097759999 0.397461 -10.885742 7
-0.002659 0.36706501 -10.845703 7
0.0054660002 0.30725101 -10.801758 7
0.004375 0.24939001 -10.808594 7
-0.0038409999 0.22106899 -10.855469 7
-0.057342999 -0.97778302 -10.620117 7
-0.059547 -1.007202 -10.628906 7
-0.056375001 -1.034058 -10.610352 7
-0.047867998 -1.058472 -10.561523 7
-0.052209001 -1.0888669 -10.582031 7
-0.05333 -1.117676 -10.583984 7
-0.061958 -1.150635 -10.62793 7
-0.069510996 -1.182983 -10.665039 7
-0.067420997 -1.210327 -10.651367 7
-0.059976 -1.234619 -10.608398 7
-0.063248001 -1.2648931 -10.621094 7
-0.24238899 -4.300293 -10.878906 7
-0.24138901 -4.3275151 -10.863281 7
-0.242534 -4.358398 -10.858398 7
-0.241549 -4.385498 -10.841797 7
-0.241611 -4.4144292 -10.832031 7
-0.251376 -4.4611821 -10.870117 7
-0.061572999 -1.918823 12.988281 7
-0.052708 -1.884033 12.946289 7
-0.043866001 -1.849365 12.905273 7
-0.043836001 -1.822144 12.910156 7
-0.041593 -1.7930911 12.90332 7
-0.16103099 5.0935059 -10.056641 7
-0.158902 5.061523 -10.058594 7
-0.139624 4.9926758 -9.9755859 7
-0.134269 4.9542241 -9.9609385 7
-0.13536701 4.9294429 -9.9775391 7
-0.136443 4.904541 -9.9941406 7
-0.13645799 4.8774409 -10.005859 7
-0.13861001 4.8544922 -10.02832 7
-0.139685 4.8294678 -10.043945 7
-0.154698 4.833252 -10.129883 7
-0.15792599 4.8125 -10.157227 7
-0.0063900002 0.29418901 -10.270508 7
-0.00642 0.26623499 -10.270508 7
-0.0032319999 0.23803701 -10.254883 7
0.0031689999 0.209839 -10.219727 7
0.0063729999 0.18176299 -10.203125 7
0.0074189999 0.15393101 -10.198242 7
0.00093400001 0.126709 -10.233398 7
-0.001248 0.099120997 -10.245117 7
-0.0088010002 0.071533002 -10.285156 7
-0.0056190002 0.043701001 -10.266602 7
-0.000272 0.015991 -10.238281 7
-0.0052840002 -0.0078119999 -9.8769531 7
-0.001958 -0.034423999 -9.859375 7
-0.0031330001 -0.061156999 -9.8652344 7
-0.0042849998 -0.087890998 -9.8720703 7
-0.0076799998 -0.114746 -9.8886719 7
-0.012302 -0.19519 -9.9101562 7
-0.0089919996 -0.221558 -9.8925781 7
-0.0067949998 -0.248169 -9.8808594 7
-0.0068330001 -0.27465799 -9.8798828 7
-0.0046509998 -0.30114701 -9.8671885 7
-0.053895 -0.960693 -10.077148 7
-0.055078 -0.98852497 -10.080078 7
-0.051759001 -1.014038 -10.061523 7
-0.061882999 -1.046021 -10.109375 7
-0.048501998 -1.066895 -10.039062 7
-0.048571002 -1.093872 -10.036133 7
-0.054214999 -1.123657 -10.0625 7
-0.053146999 -1.150269 -10.053711 7
-0.064384997 -1.18335 -10.108398 7
-0.067795001 -1.21228 -10.12207 7
-0.061135001 -1.23584 -10.084961 7
-0.063432001 -1.26416 -10.092773 7
-0.24559399 -4.4528809 -10.236328 7
-0.25280601 -5.1000981 12.469727 7
-0.250494 -5.0689702 12.470703 7
-0.24587101 -5.0332031 12.461914 7
-0.247015 -5.0093989 12.478516 7
-0.051601 -1.985962 12.422852 7
-0.051562998 -1.959717 12.426758 7
-0.053822 -1.935791 12.442383 7
-0.109797 4.2346191 12.154297 7
-0.109729 4.2600098 12.143555 7
-0.110797 4.2874761 12.139648 7
-0.115313 4.3214111 12.150391 7
-0.16653199 5.1181641 -9.4736328 7
-0.164304 5.0874019 -9.4755859 7
-0.16431101 5.0614009 -9.4873047 7
-0.16097 5.0281978 -9.484375 7
-0.15202899 4.9829102 -9.4541016 7
-0.139731 4.9310298 -9.4091797 7
-0.137504 4.9006348 -9.4091797 7
-0.135276 4.8699951 -9.4111328 7
-0.139754 4.8536382 -9.4433594 7
-0.139777 4.8276372 -9.4550781 7
-0.143126 4.8087158 -9.4824219 7
-0.152082 4.801147 -9.5351562 7
-0.019009 -0.34375 -9.328125 7
-0.013196 -0.36828601 -9.2988281 7
-0.0085570002 -0.39294401 -9.2744141 7
-0.014424 -0.419678 -9.3027344 7
-0.027317001 -0.44763201 -9.3652344 7
-0.037875 -0.47582999 -9.4160156 7
-0.033229001 -0.50060999 -9.3916016 7
-0.017689001 -0.52050799 -9.4345703 7
-0.011907 -0.54455602 -9.4023438 7
-0.020122999 -0.57226598 -9.4423828 7
-0.027171999 -0.59985399 -9.4755859 7
-0.033053 -0.62719703 -9.5019531 7
-0.061227001 -1.337769 -9.5693359 7
-0.257985 -5.0944819 11.925781 7
-0.251973 -5.0570068 11.913086 7
-0.251966 -5.032104 11.924805 7
-0.25554401 -5.014771 11.951172 7
-0.25673401 -4.992188 11.96875 7
-0.260335 -4.9743652 11.996094 7
-0.26391199 -4.956543 12.023438 7
-0.26508701 -4.9338379 12.040039 7
-0.25428501 -4.8869629 12.003906 7
-0.25188899 -4.8569341 12.006836 7
-0.244688 -4.817749 11.987305 7
-0.027171999 -0.32788101 -9.03125 7
-0.023571 -0.35192901 -9.0117188 7
-0.021190999 -0.376221 -9 7
-0.028522 -0.40197799 -9.0332031 7
-0.032214999 -0.42749 -9.0498047 7
-0.032260999 -0.45214799 -9.0488281 7
-0.032299001 -0.476807 -9.046875 7
-0.025059 -0.50012201 -9.0117188 7
-0.028743999 -0.52551299 -9.0283203 7
-0.019055 -0.54772902 -8.9814453 7
-0.023968 -0.57348597 -9.0029297 7
-0.032528002 -0.60046399 -9.0410156 7
-0.036212001 -0.626221 -9.0566406 7
-0.055101 -0.98022503 -9.1152344 7
-0.050287001 -1.002808 -9.0888672 7
-0.052758999 -1.028809 -9.0986328 7
-0.060121998 -1.057129 -9.1298828 7
-0.061379001 -1.08252 -9.1337891 7
-0.054125 -1.103882 -9.0957031 7
-0.057824999 -1.130615 -9.1103516 7
-0.060304999 -1.156738 -9.1201172 7
-0.053049002 -1.177734 -9.0830078 7
-0.064057 -1.208374 -9.1308594 7
-0.073838003 -1.23877 -9.1738281 7
-0.073891997 -1.263672 -9.1708984 7
-0.25522301 -5.070435 11.391602 7
-0.26394299 -5.0646968 11.439453 7
-0.255207 -5.0230708 11.416016 7
-0.251454 -4.9916992 11.412109 7
-0.26642999 -4.9985352 11.485352 7
-0.265163 -4.9720459 11.492188 7
-0.252675 -4.9230962 11.453125 7
-0.25890699 -4.9118652 11.490234 7
-0.24892101 -4.8677979 11.460938 7
-0.24640401 -4.8391109 11.461914 7
-0.25015 -4.8227539 11.489258 7
-0.058421001 -1.877197 11.546875 7
-0.049578998 -1.77417 11.524414 7
-0.137238 4.171875 11.301758 7
-0.12849499 4.179688 11.255859 7
-0.129685 4.2052002 11.250977 7
-0.130868 4.2307129 11.246094 7
-0.135765 4.263062 11.257812 7
-0.13942701 4.293335 11.262695 7
-0.135635 4.3095698 11.237305 7
-0.13304099 4.35144 11.206055 7
-0.134232 4.3770752 11.201172 7
-0.03056 -0.64355499 -8.5605469 7
-0.024266001 -0.66516101 -8.5292969 7
-0.016690001 -0.68640101 -8.4921885 7
-0.016728001 -0.70983899 -8.4912109 7
-0.016767001 -0.73303199 -8.4892578 7
-0.020618999 -0.75769001 -8.5048828 7
-0.028301001 -0.78393602 -8.5380859 7
-0.041034002 -0.81201202 -8.5927734 7
-0.039829001 -0.83520502 -8.5849609 7
-0.030972 -0.85534698 -8.5429688 7
-0.029751001 -0.87841803 -8.5351562 7
-0.031063 -0.902466 -8.5390615 7
-0.032382999 -0.92639202 -8.5419922 7
-0.034954 -0.95104998 -8.5507812 7
-0.053401001 -1.290283 -8.59375 7
-0.055994999 -1.31543 -8.6005859 7
-0.057314001 -1.339844 -8.6035156 7
-0.059900001 -1.36499 -8.6123047 7
-0.254002 -5.0919189 10.816406 7
-0.25399399 -5.0697021 10.829102 7
-0.244855 -5.0284419 10.805664 7
-0.247457 -5.0114751 10.827148 7
-0.246152 -4.9864502 10.833984 7
-0.246152 -4.9641109 10.84668 7
-0.24484 -4.9390869 10.853516 7
-0.248731 -4.924561 10.879883 7
-0.039737999 -1.915771 10.993164 7
-0.041012 -1.894287 11.00293 7
-0.037083 -1.8681639 10.990234 7
-0.043552 -1.850952 11.022461 7
-0.047442 -1.831421 11.043945 7
-0.043506 -1.805542 11.03125 7
-0.035670999 -1.7763669 11.001953 7
-0.029134 -1.748535 10.977539 7
-0.023915 -1.72168 10.959961 7
-0.021276001 -1.697144 10.953125 7
-0.026464 -1.678467 10.979492 7
-0.038143001 -1.664551 11.033203 7
-0.034205999 -1.6387939 11.020508 7
-0.031582002 -1.614136 11.013672 7
-0.035335999 -0.64111298 -8.1728516 7
-0.036694001 -0.66406202 -8.1767578 7
-0.040707 -0.68810999 -8.1923828 7
-0.042072002 -0.71093798 -8.1962891 7
-0.044757001 -0.73461902 -8.2060547 7
-0.047442 -0.75830102 -8.2158203 7
-0.05012 -0.781982 -8.2246094 7
-0.039593 -0.80078101 -8.1777344 7
-0.036991 -0.82263201 -8.1640615 7
-0.037037 -0.84533697 -8.1621094 7
-0.035748001 -0.86730999 -8.1542969 7
-0.038440999 -0.89086902 -8.1640615 7
-0.049052 -0.91796899 -8.2080078 7
-0.062325999 -0.946289 -8.2617188 7
-0.057077002 -0.96667498 -8.2363281 7
-0.050508998 -0.98681599 -8.2060547 7
-0.043949001 -1.00647 -8.1748047 7
-0.047961 -1.031006 -8.1894531 7
-0.046672001 -1.052979 -8.1816406 7
-0.052019998 -1.078369 -8.2021484 7
-0.063959002 -1.106689 -8.25 7
-0.056070998 -1.125488 -8.2128906 7
-0.056102 -1.148315 -8.2109385 7
-0.058793999 -1.1726069 -8.2197266 7
-0.057512999 -1.19458 -8.2109385 7
-0.064180002 -1.220825 -8.2363281 7
-0.074814998 -1.24939 -8.2773438 7
-0.078828 -1.274658 -8.2910156 7
-0.09375 -1.467163 -8.328125 7
-0.264202 -4.386353 -8.1826172 7
-0.26292801 -4.4066162 -8.1669922 7
-0.25370499 -4.412354 -8.1201172 7
-0.25112599 -4.4301758 -8.0986328 7
-0.25117999 -4.4526372 -8.0888672 7
-0.25391099 -4.4797359 -8.0888672 7
-0.35661101 -6.0959468 -7.648438 7
-0.35403299 -6.1109619 -7.625 7
-0.34744799 -6.1162109 -7.5869141 7
-0.34354299 -6.1279302 -7.5585942 7
-0.34227699 -6.145874 -7.539062 7
-0.34235999 -6.1669922 -7.5244141 7
-0.341102 -6.1846919 -7.5048828 7
-0.34915 -6.2253418 -7.5185552 7
-0.34789899 -6.2434082 -7.499023 7
-0.35328501 -6.2773442 -7.5019531 7
-0.35735101 -6.3083501 -7.5019531 7
-0.362744 -6.342773 -7.5048828 7
-0.36546001 -6.3703609 -7.5 7
-0.26723 -5.1082759 10.384766 7
-0.26317099 -5.0786128 10.381836 7
-0.26045501 -5.0516362 10.384766 7
-0.25639701 -5.0219731 10.380859 7
-0.25773901 -5.003418 10.397461 7
-0.26179001 -4.9906011 10.424805 7
-0.25908199 -4.963623 10.425781 7
-0.260425 -4.9449458 10.443359 7
-0.264483 -4.9318848 10.469727 7
-0.27124199 -4.9238281 10.506836 7
-0.26446101 -4.8887939 10.493164 7
-0.25498599 -4.8483891 10.469727 7
-0.252285 -4.8214111 10.47168 7
-0.25498599 -4.8052979 10.494141 7
-0.044734001 -1.908936 10.619141 7
-0.044702999 -1.887207 10.623047 7
-0.044688001 -1.865234 10.62793 7
-0.044673 -1.843384 10.632812 7
-0.058161002 -1.832642 10.692383 7
-0.050014 -1.804199 10.663086 7
-0.041880999 -1.775757 10.633789 7
-0.035099 -1.748535 10.610352 7
-0.035069 -1.726685 10.614258 7
-0.032345001 -1.702881 10.607422 7
-0.032313999 -1.681152 10.611328 7
-0.035 -1.661377 10.626953 7
-0.040378001 -1.643555 10.652344 7
-0.040346999 -1.621948 10.65625 7
-0.030619999 0.96606398 10.730469 7
-0.030580999 0.988159 10.728516 7
-0.030534999 1.010254 10.726562 7
-0.027797 1.031128 10.712891 7
-0.027751001 1.0531009 10.709961 7
-0.027713001 1.075073 10.708008 7
-0.031725001 1.098999 10.72168 7
-0.03303 1.1218261 10.724609 7
-0.038392998 1.146729 10.745117 7
-0.036997002 1.167969 10.736328 7
-0.038300999 1.190796 10.739258 7
-0.038270999 1.212891 10.736328 7
-0.040925 1.236572 10.745117 7
-0.040872 1.258545 10.742188 7
-0.23920199 -4.1817632 -7.679688 7
-0.237875 -4.2010498 -7.6650391 7
-0.239325 -4.224731 -7.6601558 7
-0.23937801 -4.2460942 -7.6503911 7
-0.24082799 -4.269897 -7.6445308 7
-0.24642 -4.301147 -7.655273 7
-0.246473 -4.3226318 -7.6455078 7
-0.246534 -4.3439941 -7.6347661 7
-0.250745 -4.3728032 -7.639648 7
-0.24527501 -4.3841548 -7.609375 7
-0.239805 -4.3955078 -7.578125 7
-0.23987401 -4.416748 -7.5673828 7
-0.24545901 -4.447998 -7.578125 7
-0.246923 -4.4718022 -7.5712891 7
-0.261722 -5.1104741 9.8671885 7
-0.25185001 -5.0698242 9.8447266 7
-0.25044599 -5.046875 9.8525391 7
-0.253268 -5.0325928 9.8740234 7
-0.253261 -5.0126948 9.8857422 7
-0.24761599 -4.980957 9.8779297 7
-0.25042301 -4.9665532 9.8994141 7
-0.24760801 -4.9406738 9.9013672 7
-0.25183499 -4.9291992 9.9277344 7
-0.25041601 -4.9061279 9.9345703 7
-0.25464201 -4.8944092 9.9609385 7
-0.261668 -4.888062 9.9970703 7
-0.257442 -4.859375 9.9941406 7
-0.247601 -4.8193359 9.9726562 7
-0.24900401 -4.8018799 9.9882812 7
-0.041735999 -1.911743 10.210938 7
-0.040309001 -1.889771 10.209961 7
-0.031849001 -1.861816 10.181641 7
-0.031826001 -1.841187 10.185547 7
-0.045862999 -1.8319089 10.246094 7
-0.041629001 -1.807373 10.233398 7
-0.037379 -1.783203 10.220703 7
-0.031718999 -1.75769 10.203125 7
-0.024661999 -1.731445 10.179688 7
-0.027454 -1.712891 10.194336 7
-0.018987 -1.6856689 10.164062 7
-0.020391 -1.665771 10.174805 7
-0.030200999 -1.652344 10.21875 7
-0.028767001 -1.630493 10.216797 7
-0.028743999 -1.609619 10.220703 7
-0.26073 -5.0891109 9.4414062 7
-0.24760801 -5.0428472 9.4101562 7
-0.247593 -5.0239258 9.421875 7
-0.247601 -5.0048828 9.4335938 7
-0.24612001 -4.9827881 9.4404297 7
-0.24905699 -4.969727 9.4628906 7
-0.244663 -4.941772 9.4589844 7
-0.244656 -4.922729 9.4707031 7
-0.24612799 -4.9064941 9.4882812 7
-0.249034 -4.893188 9.5087891 7
-0.25195599 -4.8798828 9.5302734 7
-0.246105 -4.848877 9.5224609 7
-0.249026 -4.8354492 9.5439453 7
-0.249019 -4.8162842 9.5546885 7
-0.035815001 -1.894775 9.8466797 7
-0.035785001 -1.874878 9.8505859 7
-0.029934 -1.850098 9.8330078 7
-0.031360999 -1.8312989 9.8427734 7
-0.038630001 -1.817261 9.875 7
-0.041529998 -1.799438 9.890625 7
-0.037135001 -1.775879 9.8779297 7
-0.028362 -1.749023 9.8486328 7
-0.019595999 -1.72229 9.8203115 7
-0.019572999 -1.702271 9.8242188 7
-0.019543 -1.682373 9.828125 7
-0.016605999 -1.6604 9.8212891 7
-0.026775001 -1.647949 9.8632812 7
-0.029681999 -1.630127 9.8789062 7
-0.02383 -1.605713 9.8613281 7
-0.025377 0.97106898 9.9853516 7
-0.016620001 0.98754901 9.9492188 7
-0.016566001 1.00769 9.9462891 7
-0.012172 1.025757 9.9277344 7
-0.013591 1.046631 9.9306641 7
-0.015002 1.067627 9.9335938 7
-0.014972 1.087891 9.9306641 7
-0.023661001 1.112305 9.9628906 7
-0.023630001 1.132568 9.9599609 7
-0.020671001 1.151245 9.9462891 7
-0.022104001 1.172363 9.9501953 7
-0.029337 1.196533 9.9755859 7
-0.030756 1.2175291 9.9785156 7
-0.032159999 1.238525 9.9804688 7
-0.029222 1.257202 9.9667969 7
-0.24050801 -4.428833 -6.704102 7
-0.242057 -4.4508061 -6.6982422 7
-0.245086 -4.4754639 -6.6972661 7
-0.25733399 -5.0845952 8.9882812 7
-0.255824 -5.0635991 8.9951172 7
-0.24977399 -5.0330811 8.9882812 7
-0.251277 -5.018188 9.0048828 7
-0.25126901 -5.0002441 9.0166016 7
-0.248248 -4.9758301 9.0185547 7
-0.24976601 -4.96106 9.0361328 7
-0.25278801 -4.9489751 9.0566406 7
-0.243716 -4.9124761 9.0400391 7
-0.24521901 -4.8973389 9.0566406 7
-0.248248 -4.885376 9.0771484 7
-0.25883701 -4.8884282 9.1220703 7
-0.243701 -4.8399658 9.0869141 7
-0.249751 -4.8338618 9.1171885 7
-0.25732601 -4.8304439 9.1523438 7
-0.043832999 -1.905151 9.5302734 7
-0.048365001 -1.889648 9.5517578 7
-0.045304999 -1.86792 9.5458984 7
-0.046801001 -1.8499759 9.5556641 7
-0.043763999 -1.828125 9.5488281 7
-0.049791001 -1.813599 9.5751953 7
-0.061882999 -1.804077 9.6230469 7
-0.054276001 -1.778564 9.5996094 7
-0.034587 -1.7437741 9.53125 7
-0.028514 -1.719849 9.5136719 7
-0.031520002 -1.702881 9.5283203 7
-0.037555002 -1.6882319 9.5556641 7
-0.037539002 -1.669067 9.5595703 7
-0.034488 -1.6474611 9.5527344 7
-0.046564002 -1.637085 9.6005859 7
-0.045031 -1.616577 9.5986328 7
-0.036217999 0.97741699 9.6884766 7
-0.021067001 0.99011201 9.6298828 7
-0.022546999 1.010254 9.6337891 7
-0.030053999 1.033325 9.6582031 7
-0.023988999 1.049805 9.6337891 7
-0.019410999 1.067261 9.6142578 7
-0.017879 1.085815 9.6064453 7
-0.023867 1.1081541 9.6259766 7
-0.032899 1.132324 9.6572266 7
-0.037385002 1.154175 9.671875 7
-0.031319998 1.1706541 9.6464844 7
-0.035806 1.192505 9.6601562 7
-0.038796 1.213623 9.6689453 7
-0.032708 1.229858 9.6435547 7
-0.034180999 1.250244 9.6464844 7
-0.034141999 1.269775 9.6435547 7
-0.12630001 4.7813721 -5.9511719 7
-0.132219 4.7758789 -5.9824219 7
-0.132219 4.7581792 -5.9931641 7
-0.12629201 4.728394 -5.985352 7
-0.124812 4.7078862 -5.992188 7
-0.127765 4.696167 -6.0126948 7
-0.236274 -4.1707759 -6.4501948 7
-0.231712 -4.181396 -6.4248052 7
-0.231766 -4.1999512 -6.4150391 7
-0.241065 -4.2346191 -6.4355469 7
-0.23650301 -4.2449951 -6.4101558 7
-0.244269 -4.2771001 -6.4248052 7
-0.248945 -4.3035889 -6.4287109 7
-0.245933 -4.316772 -6.4091802 7
-0.24597099 -4.3352051 -6.3994141 7
-0.252195 -4.3647461 -6.4082031 7
-0.25071499 -4.3804932 -6.3935552 7
-0.247687 -4.393188 -6.3730469 7
-0.24928901 -4.4144292 -6.367188 7
-0.24627601 -4.427124 -6.3466802 7
-0.24632899 -4.4455571 -6.335938 7
-0.246383 -4.4638672 -6.3251948 7
-0.24181999 -4.4735112 -6.3007808 7
-0.342044 -6.699707 7.585938 7
-0.34205201 -6.6850591 7.601562 7
-0.34675899 -6.6827388 7.6289058 7
-0.33739099 -6.643311 7.6210942 7
-0.34054199 -6.6367192 7.6455078 7
-0.338985 -6.6177979 7.657227 7
-0.33744401 -6.598877 7.6689448 7
-0.26016399 -5.1176758 8.5888672 7
-0.26172799 -5.1040039 8.6044922 7
-0.26018 -5.0836182 8.6123047 7
-0.253916 -5.0534668 8.6064453 7
-0.24765299 -5.02356 8.5996094 7
-0.239833 -4.9902339 8.5888672 7
-0.241382 -4.976562 8.6044922 7
-0.238262 -4.953125 8.6074219 7
-0.239825 -4.939209 8.6230469 7
-0.241405 -4.9251709 8.640625 7
-0.24296901 -4.9111328 8.6572266 7
-0.242961 -4.8939209 8.6689453 7
-0.241405 -4.8736572 8.6757812 7
-0.24454001 -4.862793 8.6962891 7
-0.24923199 -4.8548579 8.7226562 7
-0.257074 -4.8531489 8.7578115 7
-0.25236699 -4.826416 8.7548828 7
-0.058403999 -1.905762 9.2841797 7
-0.045855001 -1.876709 9.2451172 7
-0.053658001 -1.864502 9.2763672 7
-0.055199999 -1.847168 9.2861328 7
-0.055183999 -1.828613 9.2900391 7
-0.058304999 -1.812378 9.3066406 7
-0.058281999 -1.793823 9.3105469 7
-0.056703001 -1.774048 9.3095703 7
-0.059808001 -1.75769 9.3242188 7
-0.036318999 -1.7205811 9.2460938 7
-0.039430998 -1.704468 9.2607422 7
-0.039391998 -1.685913 9.2646484 7
-0.036265001 -1.664917 9.2587891 7
-0.036249999 -1.64624 9.2626953 7
-0.045609999 -1.634644 9.2998047 7
-0.053406999 -1.621582 9.3310547 7
-0.025705 0.976318 9.3574219 7
-0.027231 0.99572802 9.3603516 7
-0.014705 1.0087889 9.3125 7
-0.017794 1.029053 9.3212891 7
-0.017763 1.047729 9.3193359 7
-0.014598 1.064819 9.3056641 7
-0.019243 1.085693 9.3193359 7
-0.025454 1.107666 9.3398438 7
-0.020746 1.123901 9.3212891 7
-0.012889 1.138672 9.2900391 7
-0.019098001 1.160522 9.3095703 7
-0.02376 1.181885 9.3242188 7
-0.033073999 1.205566 9.3544922 7
-0.031472001 1.223511 9.3457031 7
-0.033006001 1.2431639 9.3486328 7
-0.029847 1.260254 9.3339844 7
-0.15284801 4.6624761 -5.766602 7
-0.131366 4.517334 -5.764648 7
-0.131366 4.5002441 -5.7753911 7
-0.139048 4.4978032 -5.8095698 7
-0.22989701 -4.1712651 -6.0214839 7
-0.229958 -4.1889648 -6.0126948 7
-0.230011 -4.2064209 -6.0029302 7
-0.22526599 -4.2155762 -5.9775391 7
-0.23011801 -4.2414551 -5.9824219 7
-0.238159 -4.2729492 -5.9960942 7
-0.244628 -4.3017578 -6.0058589 7
-0.241469 -4.3135991 -5.985352 7
-0.24153 -4.3310552 -5.976562 7
-0.241576 -4.3485112 -5.9658198 7
-0.24803799 -4.3773189 -5.9746089 7
-0.251288 -4.4006348 -5.9736328 7
-0.24335399 -4.403564 -5.9394531 7
-0.240219 -4.4151611 -5.9189448 7
-0.240265 -4.4324951 -5.9082031 7
-0.237122 -4.4439702 -5.8886719 7
-0.23398601 -4.4552002 -5.8681641 7
-0.25251999 -4.854248 8.3232422 7
-0.051499002 -1.897339 8.9365234 7
-0.054703999 -1.8642581 8.9570312 7
-0.049812999 -1.842407 8.9453115 7
-0.048181001 -1.8232419 8.9443359 7
-0.056274999 -1.81189 8.9755859 7
-0.059494998 -1.796631 8.9902344 7
-0.059487 -1.778687 8.9951172 7
-0.056221999 -1.7581789 8.9882812 7
-0.038332 -1.708496 8.9365234 7
-0.035050999 -1.6882319 8.9287109 7
-0.031794999 -1.6680911 8.921875 7
-0.033397 -1.6513669 8.9316406 7
-0.038240001 -1.637207 8.9511719 7
-0.04307 -1.604858 8.9765615 7
-0.022654001 0.97326702 9.0332031 7
-0.022585001 1.009277 9.0283203 7
-0.014452 1.02356 8.9970703 7
-0.0095619997 1.039307 8.9785156 7
-0.0078689996 1.074097 8.96875 7
-0.014307 1.095215 8.9882812 7
-0.015893999 1.114014 8.9912109 7
-0.020693 1.1524661 9.0029297 7
-0.022249 1.189087 9.0029297 7
-0.028657001 1.228516 9.0195312 7
-0.03672 1.2512209 9.0439453 7
-0.030198 1.265381 9.0185547 7
-0.244194 -4.4979248 -5.4912109 7
-0.247558 -4.5202641 -5.4902339 7
-0.247611 -4.5366211 -5.4794922 7
-0.24268299 -4.543457 -5.454102 7
-0.257842 -4.6365972 -5.453125 7
-0.26287699 -4.662231 -5.4560552 7
-0.271231 -4.6942139 -5.467773 7
-0.26630199 -4.7009282 -5.4433589 7
-0.062073 -1.9198 8.6611328 7
-0.060364 -1.901245 8.6601562 7
-0.053628001 -1.878418 8.6435547 7
-0.051918998 -1.859863 8.6425781 7
-0.051918998 -1.842651 8.6474609 7
-0.048532002 -1.822754 8.640625 7
-0.053552002 -1.809814 8.6621094 7
-0.055238001 -1.793945 8.671875 7
-0.060256999 -1.78064 8.6923828 7
-0.058556002 -1.762207 8.6904297 7
-0.055169001 -1.742188 8.6835938 7
-0.046739001 -1.718384 8.6611328 7
-0.041673999 -1.69751 8.6484385 7
-0.039980002 -1.679077 8.6464844 7
-0.041650999 -1.663208 8.65625 7
-0.036577001 -1.642334 8.6435547 7
-0.034876 -1.623901 8.6416016 7
-0.046624001 -1.615234 8.6845703 7
-0.020586001 0.969971 8.7314453 7
-0.023903999 0.98889202 8.7402344 7
-0.028924 1.008545 8.7558594 7
-0.017130001 1.0205081 8.7138672 7
-0.012056 1.0354 8.6943359 7
-0.012033 1.05249 8.6914062 7
-0.0086390004 1.068115 8.6787109 7
-0.013651 1.087891 8.6933594 7
-0.018641001 1.107666 8.7070312 7
-0.027008999 1.129272 8.7324219 7
-0.03032 1.1480711 8.7402344 7
-0.018541001 1.1594239 8.6982422 7
-0.020197 1.1776119 8.7011719 7
-0.013453 1.19104 8.6767578 7
-0.026834 1.215698 8.7177734 7
-0.030152 1.234863 8.7255859 7
-0.033493001 1.254028 8.7353516 7
-0.035133 1.272339 8.7373047 7
-0.258286 -5.110352 7.3613281 7
-0.26001799 -5.099731 7.3779302 7
-0.256547 -5.0783691 7.3808589 7
-0.25829399 -5.0678711 7.3974609 7
-0.25133699 -5.0393071 7.3925781 7
-0.247858 -5.0179439 7.3955078 7
-0.249598 -5.0073242 7.4111328 7
-0.24264 -4.9787598 7.40625 7
-0.240915 -4.960815 7.414062 7
-0.239169 -4.9429932 7.420898 7
-0.240923 -4.9324951 7.436523 7
-0.240931 -4.9180908 7.4492192 7
-0.237445 -4.896606 7.452148 7
-0.237468 -4.8823242 7.4638672 7
-0.239207 -4.87146 7.4794922 7
-0.232234 -4.8430181 7.4736328 7
-0.24268501 -4.8496089 7.5107422 7
-0.24618 -4.8421631 7.53125 7
-0.240969 -4.8172612 7.530273 7
-0.057137001 -1.910645 8.3613281 7
-0.055374 -1.8927 8.3603516 7
-0.044915002 -1.8675539 8.3330078 7
-0.046647001 -1.8525389 8.3427734 7
-0.050103001 -1.838989 8.3583984 7
-0.046608999 -1.819824 8.3515615 7
-0.051819999 -1.807495 8.3720703 7
-0.04831 -1.78833 8.3652344 7
-0.056999002 -1.778687 8.3974609 7
-0.056984 -1.762085 8.4013672 7
-0.056961 -1.745483 8.4052734 7
-0.049989 -1.723755 8.3876953 7
-0.039530002 -1.698975 8.359375 7
-0.041237999 -1.68396 8.3681641 7
-0.039499 -1.6661381 8.3671885 7
-0.037728999 -1.648315 8.3652344 7
-0.035975002 -1.630615 8.3632812 7
-0.035959002 -1.614136 8.3681641 7
-0.039414998 -1.600098 8.3828115 7
-0.021356 0.968018 8.4599609 7
-0.023065001 0.985596 8.4628906 7
-0.019548001 1.0007319 8.4501953 7
-0.016047001 1.015747 8.4365234 7
-0.014284 1.031372 8.4287109 7
-0.012499 1.047119 8.4199219 7
-0.0072659999 1.0612791 8.4013672 7
-0.0072349999 1.077759 8.3994141 7
-0.0089440001 1.095337 8.4023438 7
-0.0088980002 1.111816 8.3994141 7
-0.010607 1.12915 8.4023438 7
-0.017526999 1.149292 8.4208984 7
-0.012278 1.1630861 8.4023438 7
-0.015726 1.181641 8.4111328 7
-0.026124001 1.2038569 8.4414062 7
-0.027818 1.221313 8.4433594 7
-0.022561001 1.2351069 8.4238281 7
-0.027749 1.254639 8.4375 7
-0.02424 1.269165 8.4228516 7
-0.34980199 -6.2307129 -3.511719 7
-0.35343301 -6.2513428 -3.503906 7
-0.35170099 -6.2585449 -3.485352 7
-0.34641501 -6.2567139 -3.460938 7
-0.34290501 -6.2592769 -3.438477 7
-0.34118101 -6.266479 -3.420898 7
-0.34124199 -6.27771 -3.405273 7
-0.341295 -6.289185 -3.391602 7
-0.341364 -6.300415 -3.375977 7
-0.346766 -6.3250728 -3.371094 7
-0.34859699 -6.3408198 -3.359375 7
-0.35400501 -6.3656011 -3.3544919 7
-0.35049599 -6.3677979 -3.3330081 7
-0.34878701 -6.3743901 -3.3144529 7
-0.062652998 -1.910156 8.1113281 7
-0.057236001 -1.889771 8.0996094 7
-0.062637001 -1.878296 8.1201172 7
-0.057220001 -1.85791 8.1083984 7
-0.062606998 -1.846558 8.1298828 7
-0.057190001 -1.826172 8.1181641 7
-0.057167001 -1.810303 8.1220703 7
-0.057158999 -1.794434 8.1259766 7
-0.062546 -1.782837 8.1474609 7
-0.066137999 -1.769653 8.1621094 7
-0.053505 -1.743896 8.1279297 7
-0.057091001 -1.730835 8.1425781 7
-0.049867 -1.709229 8.125 7
-0.049858999 -1.693359 8.1289062 7
-0.048043001 -1.676147 8.1279297 7
-0.048043001 -1.660156 8.1328115 7
-0.040810999 -1.639038 8.1142578 7
-0.040794998 -1.623047 8.1181641 7
-0.044388998 -1.609863 8.1328115 7
-0.027619001 0.984375 8.2197266 7
-0.018594 0.99646002 8.1904297 7
-0.032944001 1.019043 8.2324219 7
-0.014956 1.026978 8.1748047 7
-0.027504999 1.0487061 8.2109385 7
-0.018479001 1.0606689 8.1806641 7
-0.022058001 1.078491 8.1904297 7
-0.018433999 1.092773 8.1767578 7
-0.021996001 1.110474 8.1845703 7
-0.021965999 1.126343 8.1816406 7
-0.023728 1.143311 8.1845703 7
-0.018312 1.156616 8.1660156 7
-0.021859 1.174438 8.1738281 7
-0.025436999 1.192261 8.1826172 7
-0.016403999 1.203491 8.1513672 7
-0.028953999 1.226318 8.1875 7
-0.023538001 1.2392581 8.1689453 7
-0.03788 1.263428 8.2089844 7
-0.021668 1.270142 8.15625 7
-0.092984997 -1.74762 11.694115 7
-0.13419101 4.303813 11.252027 7
-0.27191001 -4.9931979 11.325875 7
-0.046819001 -1.7591701 10.49415 7
-0.050657 1.083351 10.675896 7
-0.31686199 -6.6779308 9.4098911 7
-0.239021 -4.9360452 10.091558 7
-0.037037998 -1.8265229 9.7868404 7
-0.03906 0.97306299 10.002504 7
-0.034286998 1.213986 9.922987 7
-0.0089619998 1.07695 9.2615452 7
-0.29363099 -4.8926558 9.109024 7
-0.079360001 -1.859771 9.1450872 7
-0.081735998 -1.648908 9.2298651 7
-0.067054003 -1.89715 8.6431255 7
-0.054533001 -1.673858 8.6372662 7
-0.044567 0.97408098 8.7642984 7
-0.039599001 1.163129 8.6916084 7
-0.038571998 -1.705942 8.1817589 7
-0.024231 1.064039 8.2972794 7
-0.032178 1.255335 8.2992163 7
-0.225481 -4.8601151 6.4414468 7
-0.032187998 -1.7472481 7.8273282 7
-0.010497 0.97922599 7.9597759 7
-0.0069769998 1.136731 7.8990998 7
-0.052843001 -1.743125 7.4401488 7
-0.036440998 1.054116 7.6198082 7
-0.037076999 1.204187 7.5784659 7
-0.027925 -1.725557 7.0882912 7
-0.108612 -4.2978969 -12.677836 7
-0.001493 -1.430168 -8.3996744 7
-0.24892101 -4.3620601 -10.152334 7
-0.086629003 -2.2014389 14.106067 7
-0.057707001 -1.732422 13.949888 7
0.023984 -1.373288 -6.8332772 7
-0.23560201 -4.432785 -8.3543043 7
0.028204 -1.33479 -5.7810249 7
0.065135002 -1.29366 -4.6370859 7
-0.356253 -4.922225 11.468462 7
-0.072953001 -1.827271 10.71497 7
-0.029366 -1.575346 -4.0356369 7
-0.375211 -6.6396141 9.4397001 7
-0.31529799 -5.1172872 10.288474 7
-0.025909999 -1.735514 9.8748798 7
-0.002324 -1.520543 -3.3316939 7
-0.26614901 -4.47718 -3.8632691 7
-0.341755 -6.2625532 -2.9272699 7
-0.25739601 -4.9309568 9.3636456 7
-0.013542 -1.678748 9.3584042 7
-0.32307601 -6.2763128 -1.985885 7
-0.33513299 -6.63798 7.5663552 7
-0.24448401 -5.0951958 8.5768127 7
-0.23003 -4.8352981 8.6967449 7
-0.014237 -1.872438 8.9196739 7
0.00063999998 -1.627838 8.8946123 7
-0.21553899 -4.6080599 -2.2552259 7
-0.052455999 -1.804846 8.4833527 7
-0.26324299 -4.5465689 -1.699742 7
-0.254053 -4.851994 7.4731131 7
-0.047696002 -1.759014 8.1832466 7
-0.24634901 -4.4977589 -1.224273 7
-0.233537 -4.6287131 -1.0114959 7
-0.046897002 -1.912532 7.877564 7
-0.02554 -1.705857 7.83286 7
0.011503 -1.358583 -1.270295 7
-0.220402 -4.5684772 -0.602494 7
-0.225712 -4.7289729 -0.45250899 7
-0.22741599 -4.8764658 6.4803472 7
-0.015367 -1.842909 7.519393 7
0.0078090001 -1.650503 7.466567 7
0.015538 -1.339911 -1.031942 7
0.0025549999 -1.522985 -1.053419 7
-0.20903 -4.5095859 -0.23502301 7
-0.20444299 -4.6256952 -0.060929 7
-0.032249 -1.781503 7.2082782 7
-0.018918 -1.6089129 7.198545 7
-0.013698 -1.3184071 -0.76716101 7
-0.027236 -1.490356 -0.78947401 7
-0.25012699 -4.676919 0.41582599 7
-0.00015599999 -1.300959 -0.54162401 7
-0.015346 -1.464105 -0.57035601 7
-0.234238 -4.4830179 0.56491601 7
-0.24024899 -4.5998821 0.70746398 7
-0.25403601 -4.7345982 0.83976799 7
0.013453 -1.284899 -0.333702 7
0.0025460001 -1.437409 -0.34643 7
-0.017501 -1.59667 -0.38562399 7
-0.239842 -4.5484509 0.95950502 7
-0.235863 -4.6202931 1.122202 7
-0.24483299 -4.7243748 1.265703 7
0.0060319998 -1.418607 -0.190437 7
-0.0033539999 -1.5651799 -0.191375 7
0.014334 -1.399299 -0.029355999 7
0.004886 -1.539127 -0.031156 7
-0.274405 -4.537683 1.363986 7
-0.26775599 -4.5867538 1.52652 7
-0.26624399 -4.6438618 1.683201 7
-0.25741801 -4.6730008 1.849744 7
-0.25393701 -4.7111349 2.0104411 7
-0.26258901 -4.7794299 2.1611559 7
-0.25358999 -4.7905641 3.982228 7
-0.25719699 -4.7665 4.1428652 7
-0.25335801 -4.713789 4.2965708 7
-0.254816 -4.6709528 4.4527869 7
-0.245304 -4.5098038 1.911548 7
-0.245188 -4.5560651 2.0618091 7
-0.24665999 -4.6009321 2.212162 7
-0.24069899 -4.6179419 2.369451 7
-0.241983 -4.6501069 2.521965 7
-0.233823 -4.648046 2.679985 7
-0.231141 -4.6561232 2.834641 7
-0.232016 -4.668817 2.9882009 7
-0.23088799 -4.669457 3.142276 7
-0.23524199 -4.6805902 3.2962 7
-0.230249 -4.6546602 3.4876029 7
-0.23615301 -4.6568761 3.6421959 7
-0.23998199 -4.6467819 3.7965441 7
-0.24009401 -4.6196332 3.948699 7
-0.24379399 -4.597055 4.10218 7
-0.239806 -4.5461712 4.248807 7
-0.24133299 -4.505497 4.3980389 7
-0.005082 -1.377548 0.14668199 7
-0.020118 -1.512578 0.12740301 7
-0.22754399 -4.4850721 2.554462 7
-0.224737 -4.4984188 2.70294 7
-0.223773 -4.51122 2.850677 7
-0.21698201 -4.5012589 2.999711 7
-0.223351 -4.5237532 3.1461201 7
-0.227763 -4.5347762 3.293932 7
-0.222565 -4.5092869 3.47771 7
-0.228591 -4.5119281 3.626204 7
-0.001222 -1.362987 0.26770899 7
-0.007427 -1.48865 0.27527499 7
-0.14532401 4.6122022 -5.7634268 7
-0.059505999 1.107536 10.718832 7
-0.038033001 1.097617 10.041699 7
-0.017338 1.089146 9.4583759 7
-0.051821001 1.079401 8.9119959 7
-0.032403 1.073465 8.4927197 7
-0.014856 1.068295 8.1262026 7
-0.032481998 1.275015 8.171072 7
-0.000803 1.063833 7.8121681 7
-0.013581 1.256237 7.8345022 7
-0.036871001 1.058342 7.5399332 7
-0.048533 1.239042 7.5568981 7
-0.13477001 5.008224 -18.054541 7
-0.031583998 1.724059 -15.39574 7
-0.109511 -1.244025 -11.424845 7
-0.33592901 -4.3063412 -15.139668 7
-0.26899299 5.0291762 -13.654321 7
-0.04882 0.048177999 -10.373867 7
-0.036713 -0.59560102 -8.7129211 7
-0.28895801 -4.3509698 -11.965532 7
-0.177825 4.8868561 -9.9247093 7
-0.019300001 -1.024438 -7.4019809 7
-0.037790999 -1.337479 -7.6043811 7
-0.01162 -1.113868 -6.5249152 7
-0.014 -1.347798 -6.5121331 7
-0.23615099 -4.351202 -8.2431831 7
-0.20888001 -4.4873939 -7.8210921 7
-0.162287 4.6512241 -6.0456171 7
-0.049968001 -1.165145 -5.78407 7
-0.053762998 -1.371245 -5.774704 7
-0.272163 -4.4369779 -6.680007 7
-0.037744001 -1.382636 -5.1840868 7
-0.24360301 -4.5102549 -5.512897 7
-0.031073 -1.406692 -4.7538252 7
-0.23241501 -4.415688 -4.7564669 7
-0.30723 -6.2167621 -3.415725 7
-0.304786 -6.3275852 -3.1601169 7
-0.021912999 -1.413932 -4.3670259 7
-0.206595 -4.3465161 -3.8692119 7
-0.21421701 -4.5313969 -3.7271521 7
-0.211105 -4.639503 -3.5371549 7
-0.045917001 -1.410141 -4.0239549 7
-0.243567 -4.4772272 -2.7802429 7
-0.244063 -4.5683279 -2.59972 7
-0.232481 -4.5733829 -2.3931129 7
-0.044573002 -1.432492 -3.783839 7
-0.058793999 -1.5886281 -3.7996759 7
-0.026938999 -1.300452 -3.540951 7
-0.036010999 -1.428687 -3.5328281 7
-0.046944998 -1.564573 -3.5273149 7
-0.014456 -1.289829 -3.301192 7
-0.033884998 -1.4382139 -3.3351691 7
-0.034618001 -1.534613 -3.2813361 7
-0.028408 -1.535545 -1.250373 7
-0.034015998 -1.559967 -1.18643 7
-0.034286998 -1.565042 -1.1209871 7
-0.029268 -1.550752 -1.056249 7
-0.027815999 -1.5449359 -0.99148399 7
-0.027801 -1.539464 -0.91011399 7
-0.024606001 -1.522069 -0.84712499 7
-0.022375001 -1.463784 -1.245595 7
-0.026423 -1.482426 -1.184543 7
-0.024981 -1.481941 -1.1224689 7
-0.019879 -1.467746 -1.061213 7
-0.025803 -1.484381 -0.997567 7
-0.022518 -1.4704829 -0.93650699 7
-0.013611 -1.435097 -0.864398 7
-0.025562 -1.376269 -1.239567 7
-0.026079999 -1.383539 -1.18196 7
-0.024703 -1.383047 -1.124028 7
-0.019423001 -1.369068 -1.0669121 7
-0.022008 -1.374935 -1.008564 7
-0.016736001 -1.356169 -0.95288801 7
-0.017414 -1.3517981 -0.89534402 7
