# .PCD v0.7 - Point Cloud Data file format
VERSION 0.7
FIELDS x y z intensity
SIZE 4 4 4 4
TYPE F F F F
COUNT 1 1 1 1
WIDTH 1366
HEIGHT 1
VIEWPOINT 0 0 0 1 0 0 0
POINTS 1366
DATA ascii
0.114212 -1.412109 -68.676758 7
0.152336 -1.54895 -67.375 7
0.087608002 5.3309331 -69.566406 7
0.053298999 5.24646 -70.733398 7
0.16947199 1.878052 -66.824219 7
0.083610997 -1.578003 -62.009766 7
0.115929 -1.701416 -61.024414 7
0.076332003 -1.884644 -62.207031 7
0.024338 5.362061 -63.753906 7
0.121529 4.9727778 -60.827148 7
-0.003822 5.1179199 -64.620117 7
0.175285 1.526123 -59.255859 7
-0.025878999 -1.766479 -58.167969 7
0.048080001 -1.841309 -56.146484 7
0.080421001 -1.94751 -55.264648 7
0.153603 -2.009155 -53.283203 7
0.070189998 -2.22644 -55.517578 7
0.18067899 5.081543 -52.499023 7
0.15523501 5.0162349 -53.193359 7
0.080025002 5.0672612 -55.226562 7
0.139587 4.7929692 -53.630859 7
0.097672001 4.7574458 -54.766602 7
0.0042719999 4.830811 -57.291992 7
0.16757999 1.367798 -52.954102 7
0.031067001 -1.930786 -51.164062 7
0.055289999 -2.0318601 -50.563477 7
0.087890998 -2.1218259 -49.756836 7
0.042183001 -2.291748 -50.862305 7
0.105621 5.0186772 -49.246094 7
0.066597 4.9899902 -50.207031 7
0.12947799 4.7227778 -48.681641 7
0.084724002 4.7036128 -49.782227 7
0.038734 4.682251 -50.911133 7
-0.050071999 -2.0397949 -47.956055 7
0.016617 -2.0925291 -46.47168 7
0.039436001 -2.1826169 -45.958008 7
0.109871 -2.2314451 -44.492188 7
0.016151 -2.4437261 -46.541992 7
-0.60447699 -0.33483899 57.217773 7
-0.554878 -0.19909699 56.229492 7
-0.56608599 -0.069335997 56.458008 7
0.103798 4.8818359 -44.525391 7
0.06842 4.8536382 -45.31543 7
0.144096 4.572876 -43.651367 7
0.094765 4.5734859 -44.751953 7
0.062004 4.533813 -45.482422 7
0.012917 4.5245361 -46.576172 7
0.108368 1.1574709 -44.568359 7
-0.037453 -2.2023931 -43.933594 7
0.0061869998 -2.2644041 -43.035156 7
0.038070999 -2.334717 -42.374023 7
-0.017960001 -2.5018311 -43.506836 7
0.009056 -2.57605 -42.946289 7
0.069031 -2.6069341 -41.713867 7
-0.50836903 -0.055785999 51.520508 7
-0.53144097 0.063721001 51.954102 7
0.081161 4.755127 -41.388672 7
0.048248 4.7260742 -42.067383 7
0.005905 4.7142329 -42.938477 7
0.083114997 4.445312 -41.373047 7
0.050758 4.4103999 -42.041992 7
0.010132 4.388916 -42.878906 7
-0.014336 -2.3752439 -39.493164 7
-0.00099900004 -2.4569089 -39.236328 7
-0.044174001 -2.603394 -40.029297 7
-0.017677 -2.669189 -39.527344 7
0.01857 -2.7202151 -38.84375 7
0.033790998 -2.7957759 -38.551758 7
0.049346998 -2.8691411 -38.25293 7
-0.511765 -2.8930659 47.363281 7
-0.44303101 -0.056152001 46.350586 7
0.050896 4.869873 -38.132812 7
0.035163999 4.8109131 -38.43457 7
0.020058 4.7492681 -38.724609 7
-0.017258 4.7338872 -39.425781 7
0.014847 4.5689702 -38.838867 7
0.0097500002 4.4837651 -38.943359 7
-0.0084840003 4.4248052 -39.291016 7
0.124741 0.96667498 -36.957031 7
-0.033507999 -2.8405759 -36.609375 7
-0.003548 -2.9794919 -36.078125 7
0.003792 -3.0576169 -35.942383 7
-0.42931399 -2.8988039 42.764648 7
-0.44725001 -2.8200679 43.057617 7
-0.453751 -2.7281489 43.168945 7
-0.409554 0.052611999 42.633789 7
-0.38549 0.148926 42.253906 7
-0.407051 0.247803 42.598633 7
0.01722 4.916748 -35.606445 7
0.001884 4.862915 -35.879883 7
-0.014473 4.809814 -36.168945 7
-0.037262 4.769165 -36.568359 7
-0.055649001 4.7176509 -36.893555 7
0.082787 1.082153 -34.709961 7
0.087769002 0.73718297 -34.624023 7
0.125229 0.55578601 -33.977539 7
0.120537 0.46398899 -34.166016 7
0.140907 0.37695301 -33.804688 7
-0.040534999 -2.942627 -33.523438 7
-0.059982002 -3.0517581 -33.819336 7
-0.041572999 -3.1091311 -33.521484 7
-0.028365999 -3.172852 -33.303711 7
-0.021828 -3.2451169 -33.191406 7
-0.40068799 -2.823364 39.135742 7
-0.39299801 -2.7258301 39.032227 7
-0.401245 -2.645386 39.160156 7
-0.43705699 -2.5914309 39.69043 7
-0.376091 0.13146999 38.945312 7
-0.38060799 0.309937 39.013672 7
-0.34579501 0.39392099 38.504883 7
0.0093609998 4.9277339 -32.584961 7
-0.0058519999 4.8804932 -32.833984 7
-0.025886999 4.842896 -33.158203 7
-0.049995001 4.8126221 -33.545898 7
-0.080734 4.7945561 -34.037109 7
-0.089317001 4.7279048 -34.182617 7
0.104706 1.448853 -31.338867 7
0.112289 1.28833 -31.223633 7
0.064719997 1.159302 -31.977539 7
0.071952999 0.443726 -31.864258 7
0.105919 0.35876501 -31.328125 7
0.085456997 0.28369099 -31.650391 7
0.096481003 0.20410199 -31.476562 7
0.119698 0.124634 -31.107422 7
0.084412001 0.048096001 -31.663086 7
0.105583 -0.034423999 -29.262695 7
-0.083480999 -3.1165769 -31.826172 7
-0.077271 -3.1864009 -31.725586 7
-0.063904002 -3.2453611 -31.520508 7
-0.051727001 -3.3050539 -31.332031 7
-0.061797999 -3.397583 -31.469727 7
-0.0087590003 5.0219731 -30.551758 7
-0.010002 4.9486079 -30.581055 7
-0.029060001 4.9147949 -30.869141 7
-0.047309998 4.877686 -31.146484 7
-0.073494002 4.8565669 -31.540039 7
-0.095298998 4.8243408 -31.868164 7
0.097655997 1.577271 -29.277344 7
0.076987997 1.519287 -29.583984 7
0.074501 1.447144 -29.621094 7
0.094214998 1.3605959 -29.333984 7
0.066009998 1.3050539 -29.75 7
0.066832997 0.26110801 -29.84082 7
0.099189997 0.184204 -29.361328 7
0.068581 0.113037 -29.811523 7
0.081528001 0.038695998 -29.619141 7
0.084793001 -0.026001001 -27.162109 7
0.101814 -0.092896 -26.928711 7
0.065757997 -0.16320799 -27.418945 7
0.087508999 -0.229248 -27.120117 7
0.099403001 -0.295288 -26.956055 7
-0.104546 -3.276855 -29.584961 7
-0.099532999 -3.342773 -29.508789 7
-0.091514997 -3.403687 -29.389648 7
-0.080481999 -3.459717 -29.229492 7
0.022841999 4.9942632 -27.663086 7
0.013824 4.9455571 -27.795898 7
-0.0054549999 4.919312 -28.067383 7
-0.02475 4.8919678 -28.337891 7
-0.047462001 4.870605 -28.654297 7
-0.064613 4.835938 -28.895508 7
0.099257998 1.592896 -26.949219 7
0.076935001 1.54187 -27.256836 7
0.104233 1.45459 -26.886719 7
0.085335001 1.39978 -27.146484 7
0.066832997 1.34375 -27.401367 7
0.066024996 0.042236 -27.419922 7
0.049561001 -0.158691 -25.792969 7
0.046158001 -0.288086 -25.833984 7
0.068069004 -0.34899899 -25.552734 7
0.078391999 -0.47424299 -25.416992 7
-0.12934101 -3.4375 -27.797852 7
-0.12947799 -3.5067141 -27.789062 7
-0.112129 -3.5488279 -27.561523 7
-0.090218 -3.5827639 -27.273438 7
-0.116539 -3.6925049 -27.595703 7
-0.0060120001 4.9854741 -26.039062 7
-0.017052 4.9448242 -26.188477 7
-0.028542001 4.904541 -26.34375 7
-0.046440002 4.877686 -26.580078 7
-0.068916 4.8596191 -26.873047 7
-0.073090002 4.8010249 -26.936523 7
0.086800002 1.686035 -25.205078 7
0.087935999 1.495361 -25.200195 7
0.059746001 1.381714 -25.661133 7
0.056655999 -0.325562 -23.760742 7
0.079262003 -0.381226 -23.492188 7
0.078674003 -0.44018599 -23.49707 7
0.053886 -0.50488299 -23.787109 7
0.074524 -0.55920398 -23.541016 7
0.079369001 -0.61669898 -23.481445 7
-0.119766 -3.5610349 -25.544922 7
-0.111977 -3.6123049 -25.443359 7
-0.097747996 -3.652832 -25.267578 7
-0.090438999 -3.703979 -25.171875 7
-0.081657 -3.752075 -25.05957 7
-0.0086669996 5.0583501 -24.023438 7
-0.017082 5.0169678 -24.131836 7
-0.028937999 4.9829102 -24.282227 7
-0.038849 4.943604 -24.408203 7
-0.062537998 4.9343262 -24.694336 7
-0.070464998 4.8892822 -24.797852 7
0.086510003 1.624512 -23.297852 7
0.056685999 -0.74841303 -22.075195 7
-0.098793 -3.530396 -23.499023 7
-0.115868 -3.615967 -23.674805 7
-0.126045 -3.691406 -23.775391 7
-0.11557 -3.733887 -23.651367 7
-0.108788 -3.7818601 -23.568359 7
-0.104675 -3.8339839 -23.512695 7
-0.044730999 5.0297852 -22.675781 7
-0.050574999 4.985352 -22.750977 7
-0.060112 4.9489751 -22.865234 7
-0.080711 4.9360352 -23.099609 7
-0.082351997 4.881104 -23.12793 7
0.056694001 1.872314 -21.962891 7
0.060867 1.81311 -21.920898 7
0.068649001 1.695801 -21.841797 7
0.059067 1.647949 -21.950195 7
0.044769 1.603027 -22.111328 7
0.043625001 -0.65197802 -20.694336 7
0.052017 -0.70153803 -20.606445 7
0.050804 -0.75402802 -20.616211 7
0.031509001 -0.81347698 -20.8125 7
0.042137001 -0.86181599 -20.699219 7
0.048271 -0.91137701 -20.632812 7
-0.126968 -3.8430181 -22.091797 7
-0.116898 -3.88147 -21.979492 7
-0.109642 -3.9241941 -21.895508 7
-0.10466 -3.9705811 -21.833008 7
-0.112129 -4.0386958 -21.898438 7
-0.124123 -4.1151118 -22.010742 7
-0.037117001 5.060791 -20.956055 7
-0.041664001 5.0179439 -21.013672 7
-0.049033999 4.980835 -21.099609 7
-0.055275001 4.9411621 -21.173828 7
-0.07164 4.9229741 -21.350586 7
-0.085205004 4.8980708 -21.499023 7
-0.078491002 4.8293462 -21.442383 7
0.050682001 1.9124759 -20.496094 7
0.060782999 1.851562 -20.396484 7
0.044357002 1.813599 -20.568359 7
0.063469 1.745361 -20.375 7
0.061172001 1.695435 -20.40332 7
0.049819998 1.652344 -20.523438 7
0.049759001 1.600098 -20.527344 7
0.010704 -0.72167999 -19.682617 7
0.024436999 -0.76672399 -19.546875 7
0.023071 -0.86633301 -19.554688 7
0.0037690001 -0.92431599 -19.738281 7
0.029418999 -1.012085 -19.483398 7
-0.13961001 -3.841675 -20.764648 7
-0.14875799 -3.909302 -20.841797 7
-0.145851 -3.9569089 -20.804688 7
-0.132706 -3.9866941 -20.667969 7
-0.128609 -4.0314941 -20.618164 7
-0.12751 -4.081665 -20.59668 7
-0.142059 -4.1595459 -20.725586 7
-0.051552001 5.0888672 -19.671875 7
-0.058784001 5.0549321 -19.751953 7
-0.068993002 5.026978 -19.861328 7
-0.075026996 4.9898682 -19.929688 7
-0.084641002 4.960083 -20.03125 7
-0.103867 4.950439 -20.224609 7
-0.102104 4.8952641 -20.21875 7
0.039657999 1.905273 -19.272461 7
0.024612 1.869019 -19.421875 7
0.044945002 1.80249 -19.228516 7
0.038887002 1.7581789 -19.291016 7
0.031036001 1.715332 -19.370117 7
0.020775 1.673828 -19.472656 7
0.035712998 1.612793 -19.332031 7
0.0058289999 -0.81567401 -18.336914 7
0.013428 -0.85961902 -18.264648 7
-0.13848101 -3.8980711 -19.336914 7
-0.148186 -3.9633789 -19.414062 7
-0.150856 -4.0172119 -19.426758 7
-0.144547 -4.055542 -19.360352 7
-0.13951901 -4.0955811 -19.304688 7
-0.135765 -4.1376948 -19.261719 7
-0.061843999 5.1278081 -18.382812 7
-0.058692999 5.0736079 -18.366211 7
-0.061912999 5.0336909 -18.40625 7
-0.072792001 5.0106201 -18.513672 7
-0.081749 4.9827881 -18.606445 7
-0.092635997 4.9589839 -18.713867 7
-0.107979 4.9439702 -18.860352 7
-0.100357 4.879395 -18.804688 7
0.011826 1.904907 -18.240234 7
0.037323002 1.8363039 -18.013672 7
0.032799002 1.793823 -18.058594 7
0.02636 1.752808 -18.121094 7
0.012894 1.7169189 -18.246094 7
0.029456999 1.657349 -18.100586 7
0.027481001 1.6125489 -18.121094 7
-0.002808 -0.99902302 -17.380859 7
-0.012367 -1.047974 -17.459961 7
-0.00095399999 -1.086792 -17.356445 7
-0.0023650001 -1.131958 -17.366211 7
-0.0078579998 -1.179199 -17.411133 7
-0.026969999 -1.279297 -17.567383 7
-0.157692 -4.2228999 -18.233398 7
-0.113358 5.0889888 -17.666016 7
-0.113396 5.0437012 -17.678711 7
-0.121536 5.0157471 -17.757812 7
-0.116158 4.9584961 -17.724609 7
0.0041049998 1.8937989 -17.198242 7
0.018928999 1.837036 -17.075195 7
0.016837999 1.794678 -17.09668 7
0.0053099999 1.76001 -17.199219 7
0.0052720001 1.7155761 -17.204102 7
0.010628 1.667358 -17.161133 7
0.032883 1.606445 -16.973633 7
-0.010254 -0.90271002 -16.369141 7
0.00251 -0.98095697 -16.260742 7
0.0060200002 -1.02124 -16.228516 7
-0.021309 -1.0762939 -16.447266 7
-0.0077510001 -1.111694 -16.333984 7
-0.012123 -1.155884 -16.366211 7
-0.0043029999 -1.193604 -16.299805 7
-0.018013 -1.243286 -16.40625 7
-0.164841 -4.1687012 -17.128906 7
-0.161339 -4.2061772 -17.09082 7
-0.159279 -4.2459722 -17.063477 7
-0.163689 -4.297729 -17.086914 7
-0.17887899 -4.3693848 -17.196289 7
-0.184723 -4.4239502 -17.231445 7
-0.18770599 -4.4736328 -17.243164 7
0.013969 1.901978 -16.037109 7
0.015366 1.859131 -16.030273 7
0.015305 1.817871 -16.033203 7
0.011681 1.779175 -16.067383 7
0.019524001 1.7312011 -16.007812 7
0.022324 1.687622 -15.988281 7
0.023727 1.645142 -15.981445 7
0.018661 1.607422 -16.025391 7
-0.0060120001 -0.969971 -15.349609 7
-0.0060879998 -1.009644 -15.34668 7
-0.012985 -1.05249 -15.396484 7
-0.029732 -1.1005861 -15.521484 7
-0.018486001 -1.174683 -15.429688 7
-0.018555 -1.2146 -15.426758 7
-0.033057999 -1.2624511 -15.533203 7
-0.181206 -4.1740718 -16.178711 7
-0.178253 -4.2103271 -16.146484 7
-0.17842101 -4.293457 -16.125977 7
-0.187645 -4.351685 -16.183594 7
-0.19837999 -4.4129639 -16.25293 7
-0.19998901 -4.4576421 -16.253906 7
-0.079375997 5.0595698 -15.154297 7
-0.077904001 5.0168462 -15.154297 7
-0.081717998 4.9858398 -15.193359 7
-0.098389 4.9825439 -15.327148 7
-0.097686999 4.9012451 -15.344727 7
-0.093154997 4.851562 -15.324219 7
0.020027 1.713623 -15.030273 7
0.020607 1.5567631 -15.039062 7
0.027350999 1.473755 -14.995117 7
-0.006821 -0.99145502 -14.425781 7
-0.006081 -1.028564 -14.417969 7
-0.0061340001 -1.066162 -14.415039 7
-0.021446001 -1.111084 -14.522461 7
-0.025528001 -1.150879 -14.547852 7
-0.020004001 -1.1856689 -14.503906 7
-0.019257 -1.222778 -14.495117 7
-0.020119 -1.260986 -14.498047 7
-0.19413 -4.1619868 -15.250977 7
-0.18859901 -4.1915278 -15.201172 7
-0.184654 -4.2235112 -15.164062 7
-0.183929 -4.261353 -15.148438 7
-0.181595 -4.2962651 -15.121094 7
-0.182495 -4.336792 -15.116211 7
-0.19706 -4.4025879 -15.207031 7
-0.201965 -4.4509282 -15.229492 7
-0.082396999 5.0834961 -14.161133 7
-0.076018997 5.032104 -14.128906 7
-0.079246998 5.0023189 -14.163086 7
-0.084868997 4.9775391 -14.213867 7
-0.088881999 4.9489751 -14.25293 7
-0.099303998 4.9342041 -14.336914 7
-0.112129 4.9240718 -14.436523 7
-0.114548 4.891602 -14.46582 7
-0.10257 4.8282471 -14.393555 7
0.0044100001 1.593384 -14.233398 7
0.012383 1.550415 -14.179688 7
0.024360999 1.505005 -14.09668 7
0.025916999 1.4669189 -14.088867 7
0.029877 1.427368 -14.0625 7
0.012222 1.401978 -14.193359 7
0.016991001 1.361694 -14.162109 7
0.027350999 1.318359 -14.089844 7
0.035339002 1.276733 -14.036133 7
0.038490001 1.2381589 -14.015625 7
0.034439001 1.203613 -14.046875 7
-0.014351 -0.98010302 -13.677734 7
-0.010185 -1.013916 -13.646484 7
-0.00856 -1.0487061 -13.632812 7
-0.0052490002 -1.082642 -13.606445 7
-0.014587 -1.122803 -13.666992 7
-0.030701 -1.166748 -13.773438 7
-0.020645 -1.1973881 -13.702148 7
-0.022391999 -1.234009 -13.709961 7
-0.017387001 -1.266968 -13.672852 7
-0.20192 -4.1896968 -14.404297 7
-0.19608299 -4.2165532 -14.355469 7
-0.19532 -4.2524409 -14.339844 7
-0.193703 -4.286499 -14.318359 7
-0.191246 -4.3193359 -14.291992 7
-0.197258 -4.36731 -14.320312 7
-0.201561 -4.412231 -14.337891 7
-0.20929 -4.4637451 -14.376953 7
0.026337 1.252686 -13.311523 7
0.030525001 1.21521 -13.286133 7
0.035530001 1.17749 -13.25293 7
0.019478001 1.151245 -13.366211 7
0.019447001 1.115967 -13.369141 7
0.026138 1.0773931 -13.325195 7
0.03537 1.037842 -13.263672 7
0.038695998 1.0012209 -13.242188 7
0.044555999 0.96386701 -13.204102 7
-0.013565 -0.96435499 -12.915039 7
-0.025177 -1.00354 -12.987305 7
-0.0074769999 -1.029053 -12.869141 7
-0.0093149999 -1.0637209 -12.87793 7
-0.0040509999 -1.0949709 -12.841797 7
-0.019196 -1.136353 -12.936523 7
-0.034332 -1.178467 -13.032227 7
-0.021965001 -1.205811 -12.948242 7
-0.018478001 -1.237671 -12.922852 7
-0.015876999 -1.270142 -12.902344 7
-0.208809 -4.168457 -13.607422 7
-0.21066999 -4.2071528 -13.608398 7
-0.204521 -4.2315669 -13.558594 7
-0.203712 -4.2653809 -13.543945 7
-0.202011 -4.2976069 -13.522461 7
-0.198524 -4.3265381 -13.490234 7
-0.19860099 -4.3615718 -13.479492 7
-0.20936599 -4.416626 -13.535156 7
-0.217476 -4.4669189 -13.574219 7
0.024307 0.95739698 -12.597656 7
0.025154 0.92382801 -12.59375 7
0.030448999 0.888062 -12.5625 7
0.0242 0.85729998 -12.604492 7
0.020622 0.82531703 -12.629883 7
0.026779 0.78955102 -12.59082 7
0.032051001 0.75439501 -12.557617 7
0.041763 0.71789598 -12.496094 7
0.047928002 0.68273902 -12.457031 7
0.050560001 0.64892602 -12.441406 7
0.047851998 0.61669898 -12.460938 7
-0.200974 -4.1928711 -12.779297 7
-0.205788 -4.2684331 -12.787109 7
-0.201195 -4.2937012 -12.749023 7
-0.20593999 -4.3354492 -12.766602 7
-0.203217 -4.3638921 -12.740234 7
-0.207031 -4.4041748 -12.751953 7
-0.19589999 -4.4168701 -12.674805 7
0.047012001 0.616943 -11.892578 7
0.047882002 0.58520502 -11.888672 7
0.047844 0.55383301 -11.889648 7
0.044089999 0.52307099 -11.914062 7
0.036605999 0.49340799 -11.961914 7
0.038414001 0.46130401 -11.951172 7
0.03743 0.429932 -11.958008 7
0.046668999 0.39648399 -11.901367 7
0.048485 0.36486799 -11.890625 7
0.053093001 0.33252001 -11.863281 7
-0.0058820001 -1.083252 -11.496094 7
-0.0069200001 -1.1142581 -11.498047 7
-0.204666 -4.1817632 -12.039062 7
-0.212593 -4.2272949 -12.073242 7
-0.212669 -4.2592769 -12.0625 7
-0.20882399 -4.2840581 -12.030273 7
-0.20693199 -4.3122559 -12.009766 7
-0.203079 -4.3369141 -11.977539 7
-0.202187 -4.3666992 -11.961914 7
-0.20323201 -4.400269 -11.956055 7
-0.21025801 -4.4763179 -11.972656 7
-0.11438 5.0871582 -11.151367 7
-0.116333 5.0614009 -11.173828 7
-0.095863 4.9865718 -11.073242 7
-0.087104999 4.9379878 -11.036133 7
-0.087096997 4.9082031 -11.048828 7
-0.089080997 4.8531489 -11.082031 7
-0.089103997 4.8233638 -11.092773 7
-0.095940001 4.8077388 -11.142578 7
-0.111565 4.8106689 -11.241211 7
0.032012999 0.291504 -11.240234 7
0.031982001 0.26135299 -11.240234 7
0.040725999 0.230103 -11.189453 7
0.047545999 0.199707 -11.149414 7
0.048477001 0.169678 -11.144531 7
0.0504 0.13952599 -11.132812 7
0.042534001 0.110229 -11.179688 7
0.036628999 0.080444001 -11.213867 7
0.032669 0.050415002 -11.236328 7
0.040451001 0.020264 -11.19043 7
-0.014137 -0.98010302 -10.97168 7
-0.018288 -1.01123 -10.993164 7
-0.023429999 -1.042847 -11.019531 7
-0.015305 -1.0682369 -10.970703 7
-0.015366 -1.097656 -10.967773 7
-0.015411 -1.1268311 -10.964844 7
-0.01445 -1.15564 -10.957031 7
-0.027794 -1.192017 -11.02832 7
-0.032974001 -1.224121 -11.053711 7
-0.024826 -1.249023 -11.005859 7
-0.023864999 -1.277832 -10.996094 7
-0.211716 -4.1885991 -11.416992 7
-0.21179201 -4.2191162 -11.407227 7
-0.219032 -4.262085 -11.43457 7
-0.224236 -4.3016362 -11.451172 7
-0.21814001 -4.3210449 -11.40918 7
-0.214119 -4.34375 -11.376953 7
-0.213158 -4.3721919 -11.361328 7
-0.214249 -4.4042969 -11.356445 7
-0.210243 -4.4267578 -11.324219 7
-0.213387 -4.462769 -11.330078 7
-0.116913 5.092773 -10.505859 7
-0.119987 5.071167 -10.533203 7
-0.110825 5.022583 -10.49707 7
-0.092460997 4.9542241 -10.413086 7
-0.087379001 4.9150391 -10.398438 7
-0.094527997 4.9022222 -10.447266 7
-0.096573003 4.87854 -10.46875 7
-0.096596003 4.8502202 -10.480469 7
-0.100677 4.8303218 -10.513672 7
-0.107826 4.8170171 -10.5625 7
-0.11702 4.8074951 -10.623047 7
0.022186 -0.34082001 -10.216797 7
0.026420999 -0.36755401 -10.193359 7
0.029587001 -0.394409 -10.174805 7
0.026329 -0.42236301 -10.191406 7
0.021980001 -0.45068401 -10.211914 7
0.013374 -0.48010299 -10.257812 7
0.014397 -0.50732398 -10.250977 7
0.014336 -0.53491199 -10.249023 7
0.018593 -0.56152302 -10.225586 7
0.020691 -0.58837903 -10.211914 7
0.018494001 -0.61645502 -10.222656 7
-0.015396 -0.98864698 -10.374023 7
-0.015442 -1.0163569 -10.37207 7
-0.016579 -1.0448 -10.375 7
-0.016624 -1.072632 -10.37207 7
-0.0080800001 -1.096069 -10.324219 7
-0.013496 -1.126587 -10.349609 7
-0.01355 -1.1544189 -10.347656 7
-0.013603 -1.182251 -10.344727 7
-0.031883001 -1.220093 -10.44043 7
-0.033011999 -1.2487791 -10.442383 7
-0.025551001 -1.2724611 -10.398438 7
-0.205284 -4.1751709 -10.695312 7
-0.207497 -4.20752 -10.696289 7
-0.211899 -4.2436519 -10.706055 7
-0.21841399 -4.283936 -10.728516 7
-0.219559 -4.3145752 -10.724609 7
-0.21534 -4.3356929 -10.692383 7
-0.215408 -4.3642578 -10.681641 7
-0.216545 -4.3947749 -10.677734 7
-0.214462 -4.419312 -10.65625 7
-0.20914499 -4.4378662 -10.619141 7
0.017662 -0.64221197 -9.7177734 7
0.015396 -0.669312 -9.7285156 7
0.003021 -0.69946301 -9.7890615 7
-0.003731 -0.728149 -9.8222656 7
-0.00041199999 -0.75366199 -9.8037109 7
0.0040210001 -0.77856398 -9.7783203 7
0.0084530003 -0.80322301 -9.7539062 7
0.007278 -0.83007801 -9.7578115 7
0.0038759999 -0.85778803 -9.7714844 7
-0.005142 -0.88781703 -9.8154297 7
-0.014153 -0.91821301 -9.8583984 7
-0.014191 -0.94482398 -9.8564453 7
-0.014252 -0.97143602 -9.8544922 7
-0.015419 -0.99865699 -9.8574219 7
-0.018813999 -1.026855 -9.8730469 7
-0.019981001 -1.053955 -9.875 7
-0.022263 -1.081787 -9.8847656 7
-0.017829999 -1.1062011 -9.859375 7
-0.013405 -1.130615 -9.8339844 7
-0.017929001 -1.159668 -9.8535156 7
-0.016860999 -1.1856689 -9.8457031 7
-0.022514001 -1.21521 -9.8701172 7
-0.031525001 -1.247192 -9.9140615 7
-0.032692 -1.2744139 -9.9160156 7
-0.024894999 -1.296631 -9.8730469 7
-0.027184 -1.324707 -9.8818359 7
-0.029487999 -1.352905 -9.8896484 7
-0.028411999 -1.3787839 -9.8808594 7
-0.0091249999 -0.67272902 -9.3642578 7
-0.003365 -0.721802 -9.3330078 7
0.001259 -0.74560499 -9.3076172 7
0.001213 -0.77087402 -9.3066406 7
0.0070190001 -0.79418898 -9.2763672 7
0.0023040001 -0.82116699 -9.2978516 7
-0.018813999 -0.88024902 -9.3964844 7
-0.0083919996 -0.92688 -9.3398438 7
-0.0084380005 -0.95227098 -9.3378906 7
-0.0038149999 -0.97546399 -9.3125 7
-0.008537 -1.003052 -9.3320312 7
-0.020279 -1.033936 -9.3867188 7
-0.028542001 -1.088989 -9.421875 7
-0.022797 -1.137085 -9.3876953 7
-0.024017001 -1.16333 -9.390625 7
-0.022902999 -1.18811 -9.3818359 7
-0.033463001 -1.2194819 -9.4306641 7
-0.040511999 -1.248901 -9.4628906 7
-0.0089950003 -0.96093798 -8.8847656 7
-0.0066069998 -0.98425299 -8.8710938 7
-0.021300999 -1.039673 -8.9345703 7
-0.0177 -1.062378 -8.9150391 7
-0.021392999 -1.088623 -8.9296885 7
-0.017792 -1.1112061 -8.9091797 7
-0.021477001 -1.137329 -8.9238281 7
-0.028824 -1.165894 -8.9560547 7
-0.023994001 -1.187744 -8.9306641 7
-0.024048001 -1.212036 -8.9267578 7
-0.031410001 -1.240479 -8.9580078 7
-0.099555999 -1.915283 11.738281 7
-0.094543003 -1.886597 11.719727 7
-0.078322999 -1.848877 11.651367 7
-0.087021001 -1.831787 11.695312 7
-0.075774997 -1.798462 11.648438 7
-0.091957003 -1.786865 11.726562 7
-0.088173002 -1.759521 11.713867 7
-0.089394003 -1.7362061 11.723633 7
-0.088142 -1.710693 11.723633 7
-0.078148 -1.678955 11.681641 7
-0.071892001 -1.6500241 11.657227 7
-0.078087002 -1.630249 11.689453 7
-0.003242 -0.98474097 -8.390625 7
-0.003334 -1.030884 -8.3867188 7
-0.012283 -1.058472 -8.4238281 7
-0.028893 -1.1131589 -8.4921885 7
-0.011124 -1.127563 -8.4101562 7
-0.015045 -1.175903 -8.4208984 7
-0.013855 -1.221558 -8.4091797 7
-0.027907999 -1.252808 -8.46875 7
-0.214279 -4.4510498 -8.3818359 7
-0.214348 -4.4741211 -8.3710938 7
-0.073523998 -1.87915 11.157227 7
-0.078720003 -1.860352 11.18457 7
-0.064361997 -1.80249 11.130859 7
-0.060424998 -1.776489 11.118164 7
-0.060378999 -1.7305911 11.126953 7
-0.069420002 -1.6912839 11.174805 7
-0.064200997 -1.664185 11.157227 7
-0.061554 -1.616089 11.15332 7
-0.083801001 4.783936 -7.5566411 7
-0.082526997 4.7597661 -7.563477 7
-0.082526997 4.7169189 -7.585938 7
-0.087600999 4.7060552 -7.617188 7
-0.027817 -0.97729498 -8.0947266 7
-0.025208 -0.99865699 -8.0810547 7
-0.025253 -1.02124 -8.0791016 7
-0.027938999 -1.0448 -8.0878906 7
-0.017395001 -1.062134 -8.0400391 7
-0.018753 -1.085083 -8.0439453 7
-0.017464001 -1.106689 -8.0351562 7
-0.017502001 -1.129028 -8.0332031 7
-0.02417 -1.154907 -8.0576172 7
-0.021561 -1.175781 -8.0439453 7
-0.021614 -1.19812 -8.0410156 7
-0.024292 -1.222168 -8.0498047 7
-0.024344999 -1.244507 -8.046875 7
-0.027031001 -1.268311 -8.0556641 7
-0.22840101 -4.361938 -8.0078115 7
-0.229774 -4.3865972 -8.0029297 7
-0.237801 -4.4234619 -8.0244141 7
-0.084060997 -1.9013669 10.795898 7
-0.086754002 -1.881348 10.811523 7
-0.094818003 -1.865967 10.848633 7
-0.096152999 -1.844604 10.859375 7
-0.090714 -1.817871 10.841797 7
-0.075828999 -1.783691 10.78418 7
-0.075813003 -1.761597 10.789062 7
-0.075790003 -1.73938 10.792969 7
-0.073050998 -1.7149661 10.786133 7
-0.071686 -1.691772 10.78418 7
-0.082474001 -1.6776119 10.833984 7
-0.077033997 -1.6513669 10.814453 7
-0.077018999 -1.62915 10.818359 7
-0.072936997 -1.603882 10.805664 7
-0.094779998 4.7956538 -7.1308589 7
-0.098755002 4.7834468 -7.157227 7
-0.097427003 4.760376 -7.164062 7
-0.098755002 4.7426758 -7.179688 7
-0.098739997 4.7220459 -7.1914058 7
-0.098755002 4.7016602 -7.202148 7
-0.104034 4.691895 -7.233398 7
-0.115929 4.6956792 -7.2880859 7
-0.121216 4.6855469 -7.3193359 7
-0.111977 4.6459961 -7.295898 7
-0.108009 4.617188 -7.2919922 7
-0.109344 4.5991211 -7.3076172 7
-0.105377 4.570312 -7.3027339 7
-0.102745 4.5444341 -7.3037109 7
-0.109337 4.536499 -7.3408198 7
-0.104073 4.5053711 -7.3300781 7
-0.105385 4.487061 -7.3457031 7
-0.079879999 -1.904907 10.37793 7
-0.078460999 -1.882568 10.376953 7
-0.072815001 -1.856812 10.358398 7
-0.079825997 -1.841187 10.391602 7
-0.075576998 -1.81665 10.37793 7
-0.075562 -1.795532 10.382812 7
-0.064292997 -1.765381 10.342773 7
-0.061455 -1.742065 10.334961 7
-0.065642998 -1.723999 10.356445 7
-0.062804997 -1.700928 10.348633 7
-0.072632 -1.687012 10.392578 7
-0.062758997 -1.658447 10.356445 7
-0.065536 -1.639282 10.37207 7
-0.061301999 -1.6151119 10.359375 7
-0.089836001 4.797852 -6.6318359 7
-0.092589997 4.7844238 -6.6523442 7
-0.092589997 4.7651372 -6.664062 7
-0.091224998 4.743042 -6.6699219 7
-0.095352001 4.7322998 -6.6972661 7
-0.095337003 4.7128911 -6.7089839 7
-0.071121 -1.907715 9.9892578 7
-0.068168998 -1.8848881 9.9824219 7
-0.071075 -1.867188 9.9980469 7
-0.069610998 -1.845459 9.9980469 7
-0.076874003 -1.830933 10.03125 7
-0.072471999 -1.807007 10.017578 7
-0.069541998 -1.784546 10.010742 7
-0.059319001 -1.755981 9.9765615 7
-0.056366 -1.733521 9.9697266 7
-0.053436 -1.71106 9.9619141 7
-0.056343 -1.692993 9.9785156 7
-0.059234999 -1.674805 9.9931641 7
-0.069420002 -1.6619869 10.036133 7
-0.060646001 -1.635254 10.006836 7
-0.064994998 -1.618042 10.027344 7
-0.093924999 4.492188 -6.4091802 7
-0.235558 -4.510376 -6.6230469 7
-0.22517399 -4.5098882 -6.578125 7
-0.229706 -4.537231 -6.5820308 7
-0.235718 -4.5673828 -6.5908198 7
-0.235764 -4.5861821 -6.5800781 7
-0.231354 -4.5965581 -6.554688 7
-0.237381 -4.626709 -6.5625 7
-0.238914 -4.64856 -6.5566411 7
-0.24939699 -4.6875 -6.5800781 7
-0.25541699 -4.717896 -6.5888672 7
-0.246529 -4.7194819 -6.5488281 7
-0.251068 -4.7469478 -6.5507808 7
-0.254089 -4.771606 -6.5498052 7
-0.246696 -4.7756348 -6.514648 7
-0.078956999 -1.918213 9.6679688 7
-0.069870003 -1.890869 9.6386719 7
-0.068336003 -1.8701169 9.6376953 7
-0.065284997 -1.848389 9.6308594 7
-0.075859003 -1.837646 9.6748047 7
-0.086425997 -1.826416 9.7167969 7
-0.066742003 -1.7911381 9.6494141 7
-0.071250997 -1.775146 9.6699219 7
-0.068222001 -1.7531739 9.6630859 7
-0.054581001 -1.723145 9.6181641 7
-0.054558001 -1.7038569 9.6220703 7
-0.051521 -1.682129 9.6152344 7
-0.057549 -1.667114 9.6416016 7
-0.062065002 -1.650879 9.6621094 7
-0.060524002 -1.630493 9.6601562 7
-0.065056004 -1.614014 9.6816406 7
-0.052276999 0.96533197 9.7529297 7
-0.049217001 0.983643 9.7392578 7
-0.044654999 1.001343 9.7197266 7
-0.050652001 1.0238039 9.7402344 7
-0.050629001 1.043457 9.7382812 7
-0.046066001 1.061157 9.71875 7
-0.050528999 1.082886 9.7324219 7
-0.053543001 1.104004 9.7421885 7
-0.048973002 1.121582 9.7226562 7
-0.051956002 1.142822 9.7314453 7
-0.059471 1.166382 9.7558594 7
-0.062454 1.187744 9.7646484 7
-0.056389 1.204224 9.7402344 7
-0.060874999 1.22644 9.7529297 7
-0.065375999 1.2487791 9.7675781 7
-0.074386999 1.27356 9.7978516 7
-0.234238 -4.4931641 -6.2470698 7
-0.234283 -4.511353 -6.2363281 7
-0.22822601 -4.5357671 -6.1962891 7
-0.232895 -4.5623779 -6.1992192 7
-0.22834 -4.5717769 -6.1738281 7
-0.228386 -4.5897222 -6.1630859 7
-0.234612 -4.6192632 -6.170898 7
-0.24546801 -4.6577148 -6.1933589 7
-0.25013 -4.6846919 -6.1972661 7
-0.248657 -4.699707 -6.1806641 7
-0.25024399 -4.7207031 -6.1748052 7
-0.25031301 -4.738647 -6.1630859 7
-0.25344801 -4.7624512 -6.1621089 7
-0.25505099 -4.7833252 -6.155273 7
-0.062027 -1.892944 9.3056641 7
-0.065132 -1.876587 9.3212891 7
-0.068236999 -1.8605959 9.3369141 7
-0.068213999 -1.8419189 9.3408203 7
-0.066643 -1.821777 9.3398438 7
-0.068191998 -1.804199 9.3505859 7
-0.074424997 -1.790405 9.3769531 7
-0.061889999 -1.761719 9.3359385 7
-0.044661999 -1.729614 9.2802734 7
-0.060265001 -1.704224 9.3427734 7
-0.057121001 -1.682983 9.3359385 7
-0.053978 -1.662109 9.3291016 7
-0.053963002 -1.643311 9.3330078 7
-0.058623999 -1.628052 9.3535156 7
-0.058609001 -1.609253 9.3574219 7
-0.053337 0.969971 9.4619141 7
-0.048622001 0.986938 9.4423828 7
-0.045464002 1.004395 9.4287109 7
-0.046982002 1.02417 9.4316406 7
-0.042266998 1.041016 9.4121094 7
-0.045364 1.0612791 9.4208984 7
-0.04377 1.07959 9.4130859 7
-0.046852 1.100098 9.421875 7
-0.056189999 1.1237791 9.4521484 7
-0.059264999 1.144287 9.4599609 7
-0.056113999 1.161743 9.4462891 7
-0.048278999 1.176514 9.4160156 7
-0.056053001 1.199707 9.4404297 7
-0.056007002 1.21875 9.4375 7
-0.054405 1.236938 9.4287109 7
-0.059067 1.258423 9.4433594 7
-0.23079699 -4.4981689 -5.8193359 7
-0.22763801 -4.5092769 -5.7988281 7
-0.2341 -4.5380859 -5.8066411 7
-0.23255201 -4.5522461 -5.7910161 7
-0.234207 -4.5722661 -5.7851558 7
-0.231056 -4.583252 -5.765625 7
-0.234283 -4.6063228 -5.7636719 7
-0.23435199 -4.623291 -5.7529302 7
-0.247223 -4.6646729 -5.7792969 7
-0.248878 -4.6846919 -5.773438 7
-0.247337 -4.69873 -5.7568359 7
-0.25218201 -4.724731 -5.7597661 7
-0.247437 -4.7322998 -5.734375 7
-0.25389901 -4.7617192 -5.742188 7
-0.25073999 -4.7723389 -5.7216802 7
-0.25240299 -4.79248 -5.7148442 7
-0.066673003 -1.91272 8.9921885 7
-0.063415997 -1.8918459 8.9863281 7
-0.066643 -1.876709 9.0009766 7
-0.060120001 -1.853516 8.9833984 7
-0.055236999 -1.831543 8.9707031 7
-0.061721999 -1.818848 8.9980469 7
-0.066574 -1.80481 9.0185547 7
-0.069793999 -1.7894289 9.0332031 7
-0.063293003 -1.7663569 9.015625 7
-0.048668001 -1.736816 8.9707031 7
-0.047028001 -1.717651 8.9697266 7
-0.042137001 -1.696045 8.9570312 7
-0.050239999 -1.6843261 8.9882812 7
-0.043731999 -1.661621 8.9707031 7
-0.045334 -1.644775 8.9804688 7
-0.059921 -1.637573 9.0341797 7
-0.056664001 -1.617188 9.0273438 7
-0.054588001 0.969482 9.1474609 7
-0.044845998 0.98339802 9.1132812 7
-0.03833 0.99890101 9.0878906 7
-0.036681999 1.0163569 9.0800781 7
-0.033401001 1.032837 9.0664062 7
-0.033371001 1.051025 9.0634766 7
-0.033333 1.069092 9.0605469 7
-0.038162 1.089478 9.0751953 7
-0.047844 1.1125489 9.1064453 7
-0.051064 1.132202 9.1142578 7
-0.049392998 1.149658 9.1054688 7
-0.050987002 1.168823 9.1083984 7
-0.049316 1.186157 9.0996094 7
-0.047667999 1.203369 9.0917969 7
-0.060593002 1.2286381 9.1328115 7
-0.054085001 1.243286 9.1074219 7
-0.057296999 1.263428 9.1171885 7
-0.052398998 1.278809 9.0966797 7
-0.23893 -4.4859619 -5.4707031 7
-0.237312 -4.4992681 -5.4560552 7
-0.237389 -4.5153809 -5.4443359 7
-0.237434 -4.5314941 -5.4335942 7
-0.24079899 -4.553833 -5.4326172 7
-0.23588599 -4.5606689 -5.407227 7
-0.23925801 -4.5828862 -5.405273 7
-0.237648 -4.5960689 -5.390625 7
-0.23768599 -4.612061 -5.3798828 7
-0.237762 -4.6280522 -5.3681641 7
-0.24276701 -4.653564 -5.3720698 7
-0.252792 -4.6888428 -5.3876948 7
-0.261154 -4.7207031 -5.398438 7
-0.25621799 -4.7271729 -5.374023 7
-0.25296801 -4.7368159 -5.3525391 7
-0.25632501 -4.7591548 -5.3505859 7
-0.25638601 -4.775146 -5.3398442 7
-0.256439 -4.7911382 -5.329102 7
-0.335648 -6.1540532 -4.4755859 7
-0.342361 -6.1843262 -4.476562 7
-0.34574899 -6.2060552 -4.46875 7
-0.35080701 -6.2322998 -4.4658198 7
-0.34253699 -6.225708 -4.4316411 7
-0.33592999 -6.223145 -4.4023442 7
-0.332672 -6.2285161 -4.3798828 7
-0.32939899 -6.2338872 -4.3574219 7
-0.32778201 -6.2434082 -4.3388672 7
-0.32452399 -6.2486572 -4.3164058 7
-0.33121499 -6.2789311 -4.3164058 7
-0.32628599 -6.2799072 -4.2900391 7
-0.32468399 -6.289185 -4.2724609 7
-0.333069 -6.3234859 -4.2753911 7
-0.33477801 -6.341064 -4.264648 7
-0.339836 -6.367188 -4.2607422 7
-0.33989701 -6.3804932 -4.2451172 7
-0.059273001 -1.885254 8.6660156 7
-0.067665003 -1.875244 8.6972656 7
-0.067642003 -1.85791 8.7021484 7
-0.062599003 -1.836426 8.6904297 7
-0.062576003 -1.819214 8.6953115 7
-0.065917999 -1.804688 8.7099609 7
-0.077666998 -1.796875 8.7509766 7
-0.069243997 -1.772827 8.7294922 7
-0.060837001 -1.748901 8.7060547 7
-0.049049001 -1.722656 8.6728516 7
-0.049033999 -1.705444 8.6767578 7
-0.047332998 -1.687012 8.6748047 7
-0.045616001 -1.668457 8.6728516 7
-0.045609001 -1.651245 8.6767578 7
-0.057358 -1.6427 8.7197266 7
-0.065742001 -1.631592 8.7509766 7
-0.059006002 -1.609253 8.7324219 7
-0.045279998 0.96398902 8.8183594 7
-0.046936002 0.98229998 8.8203115 7
-0.051933002 1.002075 8.8349609 7
-0.048537999 1.018066 8.8222656 7
-0.048508 1.035522 8.8193359 7
-0.040084999 1.049072 8.7900391 7
-0.03334 1.063354 8.7646484 7
-0.033325002 1.080933 8.7626953 7
-0.033279002 1.098267 8.7597656 7
-0.041641001 1.119873 8.7851562 7
-0.051681999 1.142334 8.8144531 7
-0.043242998 1.15564 8.7861328 7
-0.063362002 1.183594 8.8486328 7
-0.051575001 1.1949461 8.8076172 7
-0.049872998 1.211426 8.7988281 7
-0.053176999 1.230835 8.8066406 7
-0.056503002 1.250122 8.8144531 7
-0.059836999 1.269653 8.8232422 7
-0.143555 4.2497559 7.984375 7
-0.133469 4.2469478 7.9462891 7
-0.121712 4.2408452 7.9033198 7
-0.118332 4.2501221 7.8837891 7
-0.123299 4.2745361 7.8876948 7
-0.121574 4.2867432 7.874023 7
-0.118179 4.2956538 7.8535161 7
-0.119827 4.314209 7.8486328 7
-0.1231 4.3356929 7.8476558 7
-0.121376 4.3476558 7.8320308 7
-0.11631 4.353271 7.8076172 7
-0.11293 4.362061 7.789062 7
-0.121246 4.3929439 7.8017578 7
-0.122879 4.4112549 7.795898 7
-0.142883 4.4648442 7.8408198 7
-0.243027 -4.4953609 -5.1074219 7
-0.232765 -4.4915771 -5.0693359 7
-0.23281901 -4.5068359 -5.0595698 7
-0.229431 -4.5157471 -5.039062 7
-0.234642 -4.5406489 -5.0419922 7
-0.23125499 -4.5493159 -5.0214839 7
-0.233017 -4.5678711 -5.016602 7
-0.23304699 -4.5830078 -5.0058589 7
-0.233116 -4.598145 -4.9941411 7
-0.240044 -4.6263428 -5.0019531 7
-0.240089 -4.641602 -4.9902339 7
-0.243591 -4.663208 -4.9882808 7
-0.25222 -4.6948242 -5 7
-0.25227401 -4.710083 -4.9882808 7
-0.255768 -4.731812 -4.9863281 7
-0.262703 -4.7602539 -4.9931641 7
-0.252426 -4.755249 -4.9550781 7
-0.25592801 -4.7771001 -4.952148 7
-0.34115601 -6.0944819 -4.0966802 7
-0.33778399 -6.098999 -4.0742192 7
-0.33783701 -6.112061 -4.0605469 7
-0.337883 -6.1248779 -4.045898 7
-0.34139299 -6.1463618 -4.039062 7
-0.341438 -6.1591802 -4.0244141 7
-0.34150699 -6.171875 -4.007812 7
-0.34156799 -6.1846919 -3.9941411 7
-0.343353 -6.2015381 -3.9824221 7
-0.348564 -6.2270508 -3.9794919 7
-0.34863999 -6.2398682 -3.9638669 7
-0.34867901 -6.252563 -3.949219 7
-0.34530601 -6.2565918 -3.9267581 7
-0.345337 -6.269165 -3.9121089 7
-0.33850101 -6.264771 -3.8837891 7
-0.33856201 -6.2771001 -3.8681641 7
-0.33860001 -6.2895508 -3.8535161 7
-0.342125 -6.3105469 -3.8457029 7
-0.078704998 -1.9144289 8.4365234 7
-0.073463 -1.893677 8.4248047 7
-0.069962002 -1.8742681 8.4179688 7
-0.069939002 -1.857666 8.421875 7
-0.069945998 -1.841064 8.4267578 7
-0.073402002 -1.827148 8.4423828 7
-0.071648002 -1.809082 8.4414062 7
-0.071625002 -1.79248 8.4453115 7
-0.076843001 -1.7800291 8.4658203 7
-0.076820001 -1.763306 8.4697266 7
-0.066353001 -1.738403 8.4423828 7
-0.059372 -1.716431 8.4248047 7
-0.059356999 -1.699829 8.4287109 7
-0.062827997 -1.685913 8.4433594 7
-0.057601999 -1.665405 8.4316406 7
-0.057579 -1.648682 8.4365234 7
-0.064537004 -1.637085 8.4619141 7
-0.068001002 -1.622925 8.4755859 7
-0.064507 -1.6036381 8.4697266 7
-0.038231 0.97595203 8.5166016 7
-0.036460999 0.99206501 8.5078115 7
-0.039902002 1.010376 8.5175781 7
-0.029448999 1.0224611 8.4814453 7
-0.029426999 1.039307 8.4794922 7
-0.036339 1.059204 8.4990234 7
-0.036308002 1.075928 8.4960938 7
-0.03627 1.092651 8.4931641 7
-0.037978999 1.110352 8.4960938 7
-0.044907 1.1307369 8.515625 7
-0.043159001 1.146606 8.5087891 7
-0.044853002 1.164307 8.5107422 7
-0.050018001 1.18396 8.5244141 7
-0.039574001 1.1949461 8.4892578 7
-0.043021999 1.213623 8.4970703 7
-0.049942002 1.234253 8.515625 7
-0.053374998 1.25293 8.5234385 7
-0.046394002 1.265747 8.4990234 7
-0.135139 4.1669922 7.6611328 7
-0.14028899 4.1912842 7.6650391 7
-0.13330799 4.193481 7.6367192 7
-0.141945 4.223999 7.6513672 7
-0.145363 4.244873 7.648438 7
-0.145302 4.259644 7.6386719 7
-0.136604 4.2584229 7.6064448 7
-0.127884 4.2570801 7.5732422 7
-0.126122 4.2685552 7.5585942 7
-0.1278 4.2862549 7.5527339 7
-0.120827 4.2878418 7.5244141 7
-0.124245 4.3088379 7.523438 7
-0.124199 4.3232422 7.5126948 7
-0.12588499 4.3408198 7.5068359 7
-0.125824 4.355103 7.4970698 7
-0.125809 4.3696289 7.4882808 7
-0.124031 4.3807368 7.4726558 7
-0.123985 4.39502 7.4628911 7
-0.13605499 4.4324951 7.484375 7
-0.141205 4.456665 7.4863281 7
-0.33449599 -6.179565 -3.4931641 7
-0.34345201 -6.2132568 -3.496094 7
-0.359543 -6.2640381 -3.511719 7
-0.34889999 -6.2495122 -3.476562 7
-0.35431701 -6.274292 -3.472656 7
-0.347229 -6.2679439 -3.4433589 7
-0.34906799 -6.283813 -3.4316411 7
-0.345566 -6.286499 -3.410156 7
-0.33848599 -6.2800288 -3.3818359 7
-0.336761 -6.2868652 -3.3642581 7
-0.335022 -6.2937012 -3.3457029 7
-0.33686101 -6.3093262 -3.3339839 7
-0.33512899 -6.31604 -3.3154299 7
-0.34053001 -6.3406978 -3.3105471 7
-0.33702099 -6.342773 -3.289062 7
-0.34240699 -6.3674321 -3.2841799 7
-0.34246099 -6.378418 -3.2685549 7
-0.077826999 -1.893188 8.1689453 7
-0.079604998 -1.878662 8.1787109 7
-0.081382997 -1.8642581 8.1875 7
-0.077766001 -1.845093 8.1816406 7
-0.083153002 -1.833618 8.2021484 7
-0.079552002 -1.814575 8.1962891 7
-0.077735998 -1.796997 8.1953115 7
-0.084930003 -1.786621 8.2216797 7
-0.081321999 -1.7677 8.2148438 7
-0.072288997 -1.744629 8.1914062 7
-0.065086 -1.7229 8.1748047 7
-0.063277997 -1.705688 8.1728516 7
-0.065056004 -1.69104 8.1816406 7
-0.065033004 -1.6750489 8.1865234 7
-0.065025002 -1.658936 8.1904297 7
-0.065017998 -1.642822 8.1943359 7
-0.063193999 -1.625366 8.1923828 7
-0.072182 -1.615845 8.2246094 7
-0.041572999 0.974976 8.2675781 7
-0.046913002 0.99340802 8.28125 7
-0.048698001 1.01062 8.2851562 7
-0.045074001 1.025146 8.2724609 7
-0.043242998 1.0406491 8.2636719 7
-0.041412 1.05603 8.2558594 7
-0.041374002 1.072144 8.2529297 7
-0.037765998 1.086548 8.2392578 7
-0.039535999 1.1036381 8.2431641 7
-0.041283 1.120605 8.2451172 7
-0.044861 1.138672 8.2539062 7
-0.039429002 1.1521 8.234375 7
-0.03582 1.166382 8.2216797 7
-0.050156001 1.190063 8.2617188 7
-0.037537001 1.1993411 8.2207031 7
-0.046494 1.2205811 8.2451172 7
-0.050055999 1.23877 8.2539062 7
-0.035659999 1.2468261 8.2060547 7
-0.057190001 1.275146 8.2695312 7
-0.132881 4.1689448 7.327148 7
-0.132828 4.1829829 7.3164058 7
-0.139946 4.2099609 7.3251948 7
-0.139908 4.223877 7.3154302 7
-0.13269 4.224731 7.2871089 7
-0.15591399 4.28125 7.3349609 7
-0.15051299 4.2852778 7.311523 7
-0.14150199 4.2827148 7.2783198 7
-0.132507 4.2801509 7.2460942 7
-0.132469 4.2939448 7.2373052 7
-0.12706 4.297729 7.2128911 7
-0.12879901 4.3146968 7.2070308 7
-0.12515999 4.3214111 7.1875 7
-0.12691499 4.338501 7.1816411 7
-0.128654 4.3554692 7.1757808 7
-0.12861601 4.369019 7.1660161 7
-0.128571 4.38269 7.155273 7
-0.123154 4.3859859 7.1318359 7
-0.124893 4.4029541 7.125977 7
-0.128433 4.4230962 7.124023 7
-0.13555101 4.450562 7.1308589 7
-0.124779 4.4433589 7.0957031 7
-0.131889 4.4705811 7.1025391 7
-0.103867 4.797852 -3.933594 7
-0.095016003 4.766602 -3.9238279 7
-0.093239002 4.7501221 -3.9306641 7
-0.089699 4.7298579 -3.933594 7
-0.086150996 4.7098389 -3.936523 7
-0.093208 4.711792 -3.9638669 7
-0.091430999 4.69519 -3.9716799 7
-0.093200997 4.6859131 -3.9863279 7
-0.089653 4.6656489 -3.9892581 7
-0.091407999 4.65625 -4.0048828 7
-0.08963 4.639648 -4.0117192 7
-0.091399997 4.6303711 -4.0263672 7
-0.093147002 4.6210942 -4.0419922 7
-0.094910003 4.6115718 -4.0576172 7
-0.103752 4.6162109 -4.0898442 7
-0.110825 4.61731 -4.117188 7
-0.119644 4.6218262 -4.1494141 7
-0.096663997 4.5625 -4.1044922 7
-0.096657 4.5493159 -4.1142578 7
-0.096657 4.5360112 -4.125977 7
-0.096648999 4.5229492 -4.1357422 7
-0.096634001 4.509644 -4.1464839 7
-0.091759004 -1.722548 10.921198 7
-0.068549998 -1.779469 10.070786 7
-0.036047999 1.175494 9.4521933 7
-0.106313 -1.8135689 9.3598537 7
-0.080885001 -1.832848 8.7639427 7
-0.077201001 -1.625084 8.8095808 7
-0.060943 1.046307 8.8593121 7
-0.077230997 1.274394 8.9182987 7
-0.16179 4.302835 7.81427 7
-0.13818599 4.3431048 7.5404272 7
-0.075173996 -1.882889 8.3521996 7
-0.063676998 -1.674412 8.3577204 7
-0.04366 1.13875 8.4016418 7
-0.12789001 4.2754798 6.9340792 7
-0.119455 4.3574438 6.7314258 7
-0.065862 -1.745069 8.038311 7
-0.025141999 1.041536 8.031292 7
-0.036710002 1.227386 8.0509224 7
-0.097213998 -1.771172 7.6779361 7
-0.053318001 0.96323901 7.73246 7
-0.056265 1.12135 7.7059798 7
-0.069805004 -1.758029 7.3005838 7
-0.043900002 1.044765 7.45717 7
-0.039871 1.180421 7.3947139 7
-0.057774998 -1.770166 7.0204701 7
-0.048615001 -1.623018 7.0521212 7
-0.042220999 -1.765651 6.750772 7
-0.032602001 -1.6282049 6.7835088 7
0.070840999 -1.232627 -11.254133 7
-0.0064969999 -1.1881191 -8.5307722 7
0.0092510004 -1.165125 -7.0450258 7
-0.17644601 -4.5304861 -6.4082069 7
-0.031184999 -1.762765 11.754204 7
0.049079001 -1.4643511 -4.7353921 7
-0.165893 -4.5326161 -5.2886348 7
-0.098095998 -1.688121 10.934219 7
-0.027036 -1.423346 -4.0540409 7
-0.238435 -4.5027418 -4.310173 7
-0.082387 -1.919371 10.209144 7
-0.074437998 -1.625808 10.230438 7
-0.002996 -1.384233 -3.3664939 7
-0.22884201 -4.5068521 -3.5578461 7
-0.050090998 -1.833271 9.5500488 7
0.01328 -1.353014 -2.818835 7
-0.034901001 -1.770372 9.0699234 7
0.028176 -1.326153 -2.3472719 7
0.014158 -1.564644 -2.3798311 7
-0.19341999 -4.6447992 -2.0647891 7
-0.064943001 -1.7045209 8.5747166 7
-0.243754 -4.584538 -1.537517 7
-0.066646002 -1.876007 8.2464914 7
-0.050519999 -1.658427 8.2223349 7
-0.048925001 -1.818361 7.9141159 7
-0.037436999 -1.6176569 7.910603 7
-0.042452 -1.774367 7.6613131 7
0.015738999 -1.428333 -1.014125 7
-0.21531799 -4.5942669 -0.172949 7
-0.227236 -4.7584519 -0.041021999 7
-0.088434003 -1.909559 7.403213 7
-0.077757999 -1.729749 7.409986 7
-0.020168999 -1.403952 -0.77808899 7
-0.042148001 -1.581672 -0.830194 7
-0.263623 -4.546062 0.143273 7
-0.268446 -4.6758299 0.291852 7
-0.063057996 -1.850901 7.1318078 7
-0.047922 -1.67972 7.1197839 7
-0.0081869997 -1.382311 -0.55860299 7
-0.021894 -1.546223 -0.57790798 7
-0.25332999 -4.5886488 0.60105002 7
-0.254628 -4.6900349 0.75766599 7
-0.041283999 -1.799629 6.894619 7
-0.027427999 -1.6393991 6.8863268 7
0.0022130001 -1.3629479 -0.362286 7
-0.016305 -1.520925 -0.39929199 7
-0.240615 -4.506474 0.881253 7
-0.24157099 -4.5961132 1.033883 7
-0.23257101 -4.6497278 1.2064151 7
-0.22997101 -4.715344 1.3693171 7
0.0039559999 -1.3479379 -0.211541 7
-0.003887 -1.494276 -0.210087 7
-0.25658101 -4.5220451 1.466038 7
-0.26212099 -4.6020451 1.6110671 7
-0.25873899 -4.6502562 1.7702 7
-0.256991 -4.6967869 1.928602 7
-0.260436 -4.7525311 2.0833111 7
-0.29514 -4.8608832 4.2515302 7
-0.29308501 -4.8091488 4.410594 7
-0.019141 -1.3291579 -0.028690999 7
-0.028852999 -1.468581 -0.033615999 7
-0.242944 -4.5270882 1.988852 7
-0.246315 -4.5803771 2.1364169 7
-0.241557 -4.666141 2.637779 7
-0.238904 -4.6759372 2.79337 7
-0.24163599 -4.6957941 2.947372 7
-0.24241699 -4.7037392 3.1024721 7
-0.25691801 -4.7275848 3.5710559 7
-0.270114 -4.7481098 3.731853 7
-0.23082501 -4.511157 2.6632349 7
-0.228001 -4.520112 2.8122959 7
-0.23263 -4.544827 2.9592991 7
-0.23336001 -4.552423 3.1080599 7
-0.248109 -4.5765538 3.557595 7
-0.254062 -4.5757031 3.7091849 7
-0.022834999 4.8905692 -10.432149 7
-0.149115 4.4944668 -3.3716459 7
-0.032333001 1.221154 9.5208817 7
-0.078325003 1.2016751 9.0321264 7
-0.176585 4.3738489 7.8580909 7
-0.055548001 0.96205598 8.6330318 7
-0.054347999 1.186048 8.5841475 7
-0.17012399 4.1834989 7.5988069 7
-0.158269 4.3096261 7.3941069 7
-0.037374999 0.96464902 8.2546339 7
-0.029302999 1.17197 8.1773968 7
-0.15634701 4.288435 7.0314012 7
-0.137363 4.3697329 6.8109112 7
-0.02365 0.96678799 7.9345341 7
-0.010674 1.160242 7.8405771 7
-0.053078 0.96744001 7.6219249 7
-0.044502001 1.148699 7.5569959 7
-0.038486 0.96926898 7.3664222 7
0.042553 1.737128 -18.554255 7
0.039092999 -1.223747 -13.408792 7
0.036548 1.228104 -13.45389 7
0.073096 0.65003997 -12.424637 7
0.102981 0.16371299 -11.575369 7
-0.28864399 -4.194335 -14.285075 7
-0.153164 4.928751 -11.478861 7
-0.0076830001 -1.009871 -8.2421503 7
-0.0044849999 -1.120921 -7.1944189 7
-0.001095 -1.366411 -7.11272 7
-0.100106 4.7105799 -7.284606 7
0.016293 -1.155522 -6.1920948 7
0.011411 -1.383994 -6.2058558 7
-0.22246499 -4.4224482 -8.0315771 7
-0.024262 -1.200112 -5.5328321 7
-0.030549999 -1.4037 -5.5442901 7
-0.023324 -1.426437 -5.043952 7
-0.22723199 -4.5060711 -5.3297472 7
-0.091185004 4.595963 -3.3965399 7
-0.099678002 4.5373278 -3.608454 7
-0.013974 -1.432492 -4.6045251 7
-0.212523 -4.5371542 -4.4028869 7
-0.30528101 -6.2674479 -3.286561 7
-0.0099229999 -1.446311 -4.2620478 7
-0.20092601 -4.506825 -3.5897319 7
-0.20083199 -4.6300931 -3.4109681 7
-0.026180999 -1.295876 -3.937578 7
-0.037751999 -1.4482549 -3.9516079 7
-0.24117801 -4.59097 -2.5017321 7
-0.23136599 -4.6032929 -2.298254 7
-0.227503 -4.6464601 -2.1042731 7
-0.016696 -1.299976 -3.6646819 7
-0.036897998 -1.466706 -3.7170789 7
-0.016807999 -1.3239239 -3.4671021 7
-0.031004 -1.4653029 -3.481662 7
-0.01256 -1.330883 -3.2676971 7
-0.025408 -1.460235 -3.2705159 7
-0.027187999 -1.5574501 -3.2201669 7
-0.0037539999 -1.320462 -3.067529 7
-0.044847999 -1.4478689 -3.073848 7
-0.040933002 -1.5192029 -3.0016551 7
-0.016539 -1.3002 -2.8776851 7
-0.026559999 -1.403343 -2.8603539 7
-0.031404 -1.492008 -2.820313 7
-0.038708001 -1.587791 -2.7840619 7
-0.013739 -1.302318 -2.73715 7
-0.014992 -1.374501 -2.68872 7
-0.024098 -1.468716 -2.661447 7
-0.027844001 -1.546479 -2.613337 7
-0.012943 -1.306672 -2.6126161 7
-0.0032220001 -1.342121 -2.531189 7
-0.021063 -1.455806 -2.527406 7
-0.01266 -1.489852 -2.445739 7
-0.022066999 -1.577463 -2.4096701 7
0.0012000001 -1.328294 -2.4068091 7
-0.0045360001 -1.400319 -2.3677759 7
-0.032818001 -1.476408 -2.3284881 7
-0.028272999 -1.514372 -2.2581661 7
-0.012107 -1.307529 -2.28667 7
-0.028574999 -1.59729 -1.221012 7
-0.020151 -1.5757509 -1.154093 7
-0.017112 -1.569132 -1.0223989 7
-0.019029999 -1.572863 -0.95551503 7
-0.019058 -1.565852 -0.872563 7
-0.00066299998 -1.4977109 -0.81963903 7
-0.016488001 -1.494059 -1.279258 7
-0.020336 -1.51407 -1.217243 7
-0.011712 -1.492444 -1.153816 7
-0.024420001 -1.535118 -1.089468 7
-0.012327 -1.497218 -1.02815 7
-0.016204 -1.506843 -0.96355897 7
-0.0095920004 -1.480922 -0.90351897 7
0.0078600002 -1.416519 -0.83750498 7
-0.002629 -1.400371 -1.271158 7
-0.004865 -1.41448 -1.212839 7
0.0039110002 -1.3928601 -1.15359 7
-0.00017499999 -1.407681 -1.0946 7
-0.00062499999 -1.409021 -1.035313 7
0.00075100001 -1.4023449 -0.97652698 7
0.0074399998 -1.377164 -0.920834 7
0.0087320004 -1.3658839 -0.86351401 7
-0.018219 -1.351887 -1.266535 7
-0.014812 -1.349182 -1.2095701 7
-0.0075659999 -1.333202 -1.15306 7
-0.019832 -1.370046 -1.095608 7
-0.010693 -1.343933 -1.040247 7
-0.009362 -1.3375601 -0.98417699 7
-0.002351 -1.31284 -0.93118501 7
-0.001101 -1.3020771 -0.87654501 7
-0.0060800002 -1.287954 -1.098879 7
