# .PCD v0.7 - Point Cloud Data file format
VERSION 0.7
FIELDS x y z intensity
SIZE 4 4 4 4
TYPE F F F F
COUNT 1 1 1 1
WIDTH 919
HEIGHT 1
VIEWPOINT 0 0 0 1 0 0 0
POINTS 919
DATA ascii
-0.30853999 -3.8002319 66.865234 7
-0.358578 -3.7185669 68.194336 7
-0.407951 -3.6296999 69.506836 7
-0.49042499 -3.578979 71.688477 7
-0.25774401 -0.68176299 65.757812 7
-0.26416799 -0.53070098 65.93457 7
-0.309872 -0.38482699 67.148438 7
-0.281445 1.006409 66.451172 7
-0.27786601 1.159119 66.361328 7
-0.22683699 1.2859499 65.018555 7
-0.25042 -0.77612299 -63.753906 7
-0.30308899 -3.990417 60.479492 7
-0.356949 -3.9342041 61.773438 7
-0.40269899 -3.8596189 62.874023 7
-0.46538499 -3.8043211 64.378906 7
-0.28533599 -1.0411381 60.287109 7
-0.27702701 -0.89855999 60.09668 7
-0.328316 -0.77557403 61.326172 7
-0.28255501 1.331665 60.307617 7
-0.248524 1.451233 59.49707 7
-0.24756201 1.588257 59.475586 7
-0.33443499 4.5031738 61.578125 7
-0.28950101 4.563354 60.5 7
-0.25259 2.9530029 -63.957031 7
-0.33715799 2.8942261 -66.233398 7
-0.27904499 2.6699829 -64.666992 7
-0.34757999 2.58252 -66.509766 7
-0.38148901 -4.0378418 57.233398 7
-0.40516701 -3.941895 57.762695 7
-0.43875101 -3.857971 58.506836 7
-0.50422698 -3.8158569 59.946289 7
-0.31345701 -1.2244869 55.970703 7
-0.278999 -1.080139 55.225586 7
-0.28576699 -0.95526099 55.380859 7
-0.24168 -0.81268299 54.422852 7
-0.22195099 -0.681458 53.998047 7
-0.20114499 -0.55206299 53.548828 7
-0.18625601 -0.42578101 53.229492 7
-0.285191 1.604553 55.490234 7
-0.228127 1.692688 54.241211 7
-0.24632999 1.831726 54.640625 7
-0.30774701 4.7290649 55.927734 7
-0.27341101 4.791626 55.170898 7
-0.21723901 4.8070068 53.935547 7
-0.24479701 3.0917971 -57.630859 7
-0.32076299 3.0435181 -59.483398 7
-0.235764 2.8001101 -57.410156 7
-0.31317899 2.7450559 -59.298828 7
-0.40140501 2.692322 -61.449219 7
-0.148582 -0.48950201 -49.913086 7
-0.147781 -0.61126697 -49.888672 7
-0.14698 -0.733154 -49.863281 7
-0.43538299 -4.1439819 53.566406 7
-0.44458401 -4.034729 53.763672 7
-0.25303999 1.220642 50.231445 7
-0.233597 1.325745 49.842773 7
-0.22728001 1.436951 49.717773 7
-0.212502 1.5419919 49.420898 7
-0.23272701 1.669861 49.826172 7
-0.287613 4.6478271 50.880859 7
-0.23969699 4.6730962 49.915039 7
-0.196144 4.7023931 49.036133 7
-0.21506099 3.1465449 -51.458984 7
-0.26466399 3.082947 -52.557617 7
-0.199444 2.875366 -51.116211 7
-0.25064099 2.8092041 -52.250977 7
-0.28705201 2.7214971 -53.057617 7
-0.359402 2.6677251 -54.658203 7
-0.19263101 -0.68518102 -47.667969 7
-0.16776299 -0.90722698 -47.149414 7
-0.373638 -3.9736941 -51.197266 7
-0.342163 -4.0471802 -50.540039 7
-0.31630301 -4.3695679 -49.973633 7
-0.29308301 -4.4490361 -49.485352 7
-0.255207 1.456848 46.871094 7
-0.20015 1.529175 45.844727 7
-0.24167299 1.662964 46.617188 7
-0.188812 1.7316279 45.631836 7
-0.28933299 4.649231 47.40625 7
-0.246902 4.6769409 46.610352 7
-0.21853299 4.7286382 46.075195 7
-0.27499399 3.215332 -48.549805 7
-0.31583801 3.147583 -49.385742 7
-0.36328101 3.0839839 -50.357422 7
-0.36287701 2.7442019 -51.143555 7
-0.16163599 0.000244 -42.021484 7
-0.19924501 -0.104797 -42.717773 7
-0.186249 -0.834167 -43.230469 7
-0.154217 -0.92688 -42.625977 7
-0.17577399 -1.0401 -43.026367 7
-0.146549 -1.130798 -42.474609 7
-0.31905001 -4.4317632 -45.467773 7
-0.29949999 -4.5065918 -45.089844 7
-0.25205201 4.605042 43.010742 7
-0.231796 4.6647949 42.65625 7
-0.199635 4.6995239 42.099609 7
-0.183788 4.7643428 41.821289 7
-0.219193 3.6092529 -43.085938 7
-0.256046 3.5567629 -43.776367 7
-0.28789499 3.494019 -44.374023 7
-0.317249 3.424866 -44.922852 7
-0.367302 3.380676 -45.858398 7
-0.139843 0.20507801 -41.625 7
-0.16394 0.10376 -42.068359 7
-0.171139 -1.053528 -39.505859 7
-0.142147 -1.1359251 -39.000977 7
-0.16619501 -1.243896 -39.412109 7
-0.144299 -1.327698 -39.030273 7
-0.36483401 -4.4734502 -42.594727 7
-0.340572 -4.5335078 -42.166016 7
-0.324112 -4.605957 -41.870117 7
-0.32183099 -4.7037349 -41.818359 7
-0.218033 -1.4866329 39.515625 7
-0.185974 1.387939 39.109375 7
-0.185673 1.5667109 39.103516 7
-0.161659 1.6394041 38.720703 7
-0.216728 4.485229 39.455078 7
-0.242191 4.624146 39.851562 7
-0.21710999 4.6669312 39.446289 7
-0.19899701 4.721436 39.151367 7
-0.195034 3.7823491 -39.191406 7
-0.227448 3.735657 -39.753906 7
-0.249016 3.6699829 -40.129883 7
-0.288555 3.628906 -40.814453 7
-0.32778201 3.5839839 -41.492188 7
-0.12715501 0.29321301 -38.772461 7
-0.192764 0.106384 -39.907227 7
-0.178745 -1.234741 -36.209961 7
-0.17069601 -1.318909 -36.078125 7
-0.13537601 -1.385986 -35.513672 7
-0.163433 -1.491089 -35.955078 7
-0.133278 -1.558777 -35.47168 7
-0.39022401 -4.6201172 -39.275391 7
-0.36080599 -4.6619258 -38.799805 7
-0.33690599 -4.7120972 -38.411133 7
-0.31227499 -4.7590332 -38.011719 7
-0.37810099 -4.5562739 38.591797 7
-0.39197499 -4.4926152 38.806641 7
-0.214687 -1.534912 36.504883 7
-0.221348 -1.455811 36.608398 7
-0.25154501 -1.389709 37.055664 7
-0.15715 1.347595 35.740234 7
-0.13790099 1.4171751 35.457031 7
-0.166821 1.516724 35.878906 7
-0.135628 1.577271 35.420898 7
-0.24175601 4.5172119 36.829102 7
-0.220963 4.5620122 36.517578 7
-0.19976 4.6045532 36.200195 7
-0.183723 4.6557622 35.958008 7
-0.206184 4.7828369 36.276367 7
-0.176376 3.9685061 -35.464844 7
-0.192074 3.906189 -35.717773 7
-0.21221501 3.849792 -36.040039 7
-0.242348 3.8076169 -36.520508 7
-0.27469301 3.7667849 -37.035156 7
-0.30815899 3.724915 -37.567383 7
-0.130913 0.60510302 -34.847656 7
-0.124046 0.51702899 -34.738281 7
-0.159832 0.43762201 -35.300781 7
-0.179913 -1.4840699 -33.730469 7
-0.141426 -1.704163 -33.145508 7
-0.149376 -1.791748 -33.257812 7
-0.335648 -4.7471309 -35.71875 7
-0.31795901 -4.8008418 -35.446289 7
-0.213856 -1.518921 34.34082 7
-0.21586201 -1.442078 34.373047 7
-0.221699 -1.367249 34.458984 7
-0.21776199 -1.2869869 34.410156 7
-0.172451 1.348938 33.863281 7
-0.151985 1.413574 33.580078 7
-0.178555 1.506775 33.943359 7
-0.161465 1.572449 33.707031 7
-0.246235 4.5632319 34.68457 7
-0.227047 4.6055298 34.413086 7
-0.212101 4.6549678 34.200195 7
-0.19292399 4.6951289 33.928711 7
-0.203274 4.0831909 -33.386719 7
-0.222431 4.032104 -33.673828 7
-0.237625 3.973083 -33.904297 7
-0.26508299 3.9329219 -34.314453 7
-0.29888499 3.900635 -34.817383 7
-0.115936 0.73486298 -32.828125 7
-0.177174 0.50573701 -33.738281 7
-0.173309 -1.598511 -31.008789 7
-0.150345 -1.6585079 -30.689453 7
-0.128223 -1.717712 -30.381836 7
-0.16068301 -1.8178101 -30.821289 7
-0.138134 -1.875427 -30.507812 7
-0.171776 -1.599731 31.47168 7
-0.18858001 -1.5394289 31.691406 7
-0.191669 -1.469727 31.735352 7
-0.20983499 -1.408569 31.972656 7
-0.190548 -1.325623 31.730469 7
-0.144871 1.3117681 31.205078 7
-0.13655099 1.37738 31.097656 7
-0.15556701 1.459656 31.338867 7
-0.14724299 1.525269 31.230469 7
-0.232792 4.5108638 32.125 7
-0.21582399 4.5518799 31.901367 7
-0.19978 4.5934448 31.689453 7
-0.187363 4.6410518 31.522461 7
-0.215847 4.7694092 31.875 7
0.34144199 20.196899 15.084961 7
0.41034701 21.22821 11.758789 7
0.40569299 21.310486 11.736328 7
0.399452 21.437927 11.672852 7
-0.17569 4.1888428 -30.352539 7
-0.19377901 4.1446528 -30.604492 7
-0.216572 4.1069951 -30.921875 7
-0.232952 4.0571289 -31.152344 7
-0.257034 4.0189819 -31.486328 7
-0.29052699 3.9945071 -31.948242 7
-0.112698 0.96411097 -29.664062 7
-0.14600401 0.82751501 -30.119141 7
-0.17971 -1.708679 -28.914062 7
-0.1451 -1.824524 -28.462891 7
-0.18261699 -1.925354 -28.936523 7
-0.37979901 -4.594604 31.732422 7
-0.37825 -4.52002 31.725586 7
-0.182705 -1.5747679 29.724609 7
-0.18309399 -1.507996 29.734375 7
-0.179592 -1.438782 29.697266 7
-0.19215 -1.3792109 29.851562 7
-0.168201 -1.298462 29.570312 7
-0.156666 1.3010859 29.5 7
-0.139065 1.357422 29.287109 7
-0.170048 1.442566 29.657227 7
-0.14805999 1.495422 29.391602 7
-0.129963 1.549683 29.171875 7
-0.229877 4.495605 30.139648 7
-0.22343101 4.5516968 30.052734 7
-0.209721 4.5934448 29.881836 7
-0.191654 4.6260381 29.658203 7
-0.19393501 4.6976929 29.674805 7
-0.206402 4.7897339 29.814453 7
0.29803801 18.943909 15.044922 7
-0.243084 4.3874512 -29.029297 7
-0.241055 4.2381592 -29.020508 7
-0.28022799 4.1586299 -29.530273 7
-0.14659099 1.067017 -28.545898 7
-0.172813 -1.846191 -26.655273 7
-0.148808 -1.958069 -26.361328 7
-0.15859599 -1.57605 27.527344 7
-0.163212 -1.517029 27.583008 7
-0.164692 -1.456116 27.604492 7
-0.178699 -1.402283 27.764648 7
-0.159298 -1.329041 27.552734 7
-0.121334 1.317566 27.192383 7
-0.119141 1.37738 27.166016 7
-0.13882101 1.450806 27.383789 7
-0.125172 1.503418 27.228516 7
-0.119343 1.560791 27.162109 7
-0.200222 4.5159912 27.800781 7
-0.18709899 4.5534668 27.646484 7
-0.17813499 4.5983891 27.538086 7
-0.16969299 4.6437988 27.435547 7
-0.18515401 4.7365718 27.597656 7
0.250626 17.572388 15.025391 7
-0.18345299 4.3677979 -26.088867 7
-0.190956 4.3157349 -26.18457 7
-0.195007 4.2568359 -26.241211 7
-0.207932 4.2131958 -26.401367 7
-0.124111 0.90527302 -25.631836 7
-0.103489 0.83306903 -25.389648 7
-0.102634 0.768677 -25.378906 7
-0.107204 0.70629901 -25.432617 7
-0.096969999 0.63928199 -25.311523 7
-0.088692002 0.57318097 -25.214844 7
-0.075484999 0.50671399 -25.058594 7
-0.081046999 0.44445801 -25.123047 7
-0.093529001 0.38330099 -25.270508 7
-0.140347 -1.698975 -24.439453 7
-0.13358299 -1.815369 -24.355469 7
-0.16628601 -1.902405 -24.710938 7
-0.151585 -1.95166 -24.543945 7
-0.094306998 0.36602801 -24.00293 7
-0.098021999 0.30670199 -24.044922 7
-0.142113 -1.817688 -22.777344 7
-0.148357 -1.879517 -22.835938 7
-0.187702 4.39502 -22.532227 7
-0.174839 4.3139648 -22.410156 7
-0.18844999 4.2814941 -22.558594 7
-0.19924501 4.2432251 -22.677734 7
-0.115257 -1.000061 -21.112305 7
-0.111702 -1.051208 -21.074219 7
-0.106354 -1.10144 -21.018555 7
-0.108177 -1.15509 -21.03418 7
-0.111816 -1.209839 -21.06543 7
-0.108261 -1.260803 -21.027344 7
-0.15642899 -1.66394 -21.466797 7
-0.14032 -1.7058721 -21.306641 7
-0.134369 -1.754822 -21.245117 7
-0.17094 -1.836609 -21.59375 7
-0.154819 -1.877808 -21.432617 7
-0.152473 -1.929382 -21.404297 7
-0.84611899 -26.14502 11.857422 7
-0.851273 -26.163147 11.9375 7
-0.84264803 -26.062561 11.967773 7
-0.83278298 -25.951294 11.995117 7
-0.81853098 -25.802185 12.004883 7
-0.80427903 -25.653137 12.015625 7
-0.122482 -1.290344 -19.78418 7
-0.135902 -1.3479 -19.904297 7
-0.132751 -1.396057 -19.871094 7
-0.127693 -1.442749 -19.820312 7
-0.115616 -1.484924 -19.707031 7
-0.124573 -1.540466 -19.785156 7
-0.134178 -1.596985 -19.868164 7
-0.132301 -1.645447 -19.84668 7
-0.13362101 -1.69635 -19.854492 7
-0.127914 -1.741882 -19.796875 7
-0.15920299 -1.816101 -20.077148 7
-0.148407 -1.85791 -19.973633 7
-0.144623 -1.905151 -19.93457 7
-0.14105999 -1.652954 -18.726562 7
-0.139755 -1.6993411 -18.710938 7
-0.14722399 -1.752319 -18.771484 7
-0.156082 -1.853943 -18.835938 7
-0.148697 -1.895386 -18.767578 7
-0.183327 4.413269 -18.311523 7
-0.177322 4.355103 -18.269531 7
-0.18819 4.3275762 -18.371094 7
-0.19569001 4.293457 -18.443359 7
-0.205219 4.2628779 -18.533203 7
-0.225536 4.250916 -18.712891 7
-0.23101 4.2122192 -18.768555 7
-0.14168499 -1.603271 -17.586914 7
-0.12885299 -1.638672 -17.477539 7
-0.124599 -1.679932 -17.439453 7
-0.118916 -1.719849 -17.389648 7
-0.15185501 -1.789368 -17.650391 7
-0.13974001 -1.824524 -17.547852 7
-0.139771 -1.8690799 -17.543945 7
-0.13551299 -1.9100339 -17.504883 7
-0.134296 -1.635254 -16.475586 7
-0.123753 -1.669434 -16.389648 7
-0.123775 -1.7113039 -16.386719 7
-0.122311 -1.751892 -16.370117 7
-0.15109999 -1.81604 -16.583984 7
-0.137512 -1.8475339 -16.476562 7
-0.13679899 -1.888855 -16.466797 7
-0.124554 -1.617065 -15.417969 7
-0.115788 -1.650269 -15.350586 7
-0.117428 -1.6906739 -15.358398 7
-0.118259 -1.730652 -15.359375 7
-0.143898 -1.7896121 -15.540039 7
-0.129536 -1.817932 -15.430664 7
-0.131969 -1.859375 -15.443359 7
-0.131207 -1.898254 -15.433594 7
-0.337093 -4.9464111 -16.31543 7
-0.33876401 -4.9910889 -16.314453 7
-0.34122801 -5.0374761 -16.319336 7
-0.149433 4.400085 -14.741211 7
-0.150288 4.362915 -14.756836 7
-0.15674201 4.3361211 -14.811523 7
-0.16239201 4.3075562 -14.860352 7
-0.167244 4.2770391 -14.905273 7
-0.182495 4.2653809 -15.021484 7
-0.196152 4.2503662 -15.12793 7
-0.184212 4.1895142 -15.052734 7
-0.129665 -1.613098 -14.599609 7
-0.123806 -1.646606 -14.555664 7
-0.125523 -1.685303 -14.5625 7
-0.129765 -1.725891 -14.587891 7
-0.14159 -1.7724 -14.664062 7
-0.138256 -1.807373 -14.635742 7
-0.13914099 -1.84552 -14.637695 7
-0.13579901 -1.880554 -14.610352 7
-0.35027701 -4.838501 -15.472656 7
-0.34865999 -4.874939 -15.450195 7
-0.34450901 -4.906311 -15.410156 7
-0.34286901 -4.9424438 -15.387695 7
-0.343784 -4.9833369 -15.379883 7
-0.34890401 -5.03302 -15.402344 7
-0.35823801 -5.0910029 -15.451172 7
-0.134304 -1.6066279 -13.830078 7
-0.12724701 -1.637512 -13.78125 7
-0.127277 -1.673035 -13.776367 7
-0.153023 -1.763489 -13.933594 7
-0.143314 -1.79187 -13.867188 7
-0.139805 -1.82489 -13.839844 7
-0.138065 -1.859253 -13.824219 7
-0.14341401 -1.899353 -13.853516 7
-0.356731 -4.8336792 -14.613281 7
-0.35767701 -4.8729858 -14.606445 7
-0.34621 -4.8881841 -14.523438 7
-0.34632501 -4.9629521 -14.5 7
-0.34194601 -4.991272 -14.458984 7
-0.35087201 -5.0462041 -14.50293 7
-0.36601299 -5.1138921 -14.583984 7
-0.44305801 -6.44519 -14.611328 7
-0.45734 -6.5178828 -14.680664 7
-0.46185699 -6.5665889 -14.691406 7
-0.45659301 -6.591187 -14.644531 7
-0.44689599 -6.604126 -14.570312 7
-0.43726701 -6.6543579 -14.480469 7
-0.442669 -6.7050781 -14.495117 7
-0.075072996 1.187622 -13.087891 7
-0.127537 -1.62677 -13.053711 7
-0.12199 -1.656616 -13.014648 7
-0.121098 -1.6897579 -13.004883 7
-0.115559 -1.719238 -12.966797 7
-0.13508999 -1.767822 -13.083008 7
-0.133266 -1.800354 -13.067383 7
-0.131451 -1.832642 -13.050781 7
-0.12684201 -1.862915 -13.017578 7
-0.13058899 -1.899719 -13.036133 7
-0.347408 -4.8336792 -13.711914 7
-0.347462 -4.8692632 -13.701172 7
-0.35589999 -4.921021 -13.739258 7
-0.33735299 -4.920105 -13.617188 7
-0.34206 -4.964417 -13.632812 7
-0.33467501 -4.9849849 -13.577148 7
-0.336597 -5.0236821 -13.575195 7
-0.338512 -5.062561 -13.574219 7
-0.076729 1.232361 -12.388672 7
-0.081448004 1.201782 -12.419922 7
-0.075934999 1.165588 -12.386719 7
-0.075995997 1.132385 -12.390625 7
-0.074196003 1.098328 -12.381836 7
-0.091053002 1.039673 -12.490234 7
-0.074447997 0.96575898 -12.389648 7
-0.120266 -1.605225 -12.295898 7
-0.104683 -1.626099 -12.201172 7
-0.109604 -1.661499 -12.224609 7
-0.10865 -1.692627 -12.214844 7
-0.123318 -1.735535 -12.296875 7
-0.131161 -1.773682 -12.338867 7
-0.123386 -1.799805 -12.288086 7
-0.12244 -1.830994 -12.277344 7
-0.122471 -1.863037 -12.274414 7
-0.12639999 -1.898132 -12.291992 7
-0.33175999 -4.8981318 -12.768555 7
-0.32790801 -4.923645 -12.735352 7
-0.33089101 -4.9625239 -12.741211 7
-0.32704201 -4.987793 -12.706055 7
-0.33099699 -5.0288091 -12.716797 7
-0.34376901 -5.0875239 -12.775391 7
-0.142719 4.4257202 -11.451172 7
-0.14373399 4.3965449 -11.466797 7
-0.14571799 4.3692021 -11.489258 7
-0.147709 4.3419189 -11.509766 7
-0.146778 4.309021 -11.513672 7
-0.152668 4.2886958 -11.556641 7
-0.162457 4.2754521 -11.621094 7
-0.17030001 4.2581792 -11.675781 7
-0.15863401 4.205627 -11.620117 7
-0.15769599 4.172729 -11.624023 7
-0.076195002 1.265381 -11.686523 7
-0.068489 1.1982419 -11.646484 7
-0.074417002 1.169861 -11.682617 7
-0.066657998 1.1343991 -11.639648 7
-0.070633002 1.105042 -11.665039 7
-0.074593 1.0753779 -11.69043 7
-0.071777001 1.0109251 -11.678711 7
-0.107841 -1.616028 -11.607422 7
-0.112991 -1.680725 -11.62793 7
-0.120174 -1.71637 -11.662109 7
-0.129383 -1.753967 -11.709961 7
-0.122272 -1.779053 -11.666016 7
-0.123325 -1.810425 -11.666992 7
-0.126423 -1.8434449 -11.679688 7
-0.124409 -1.872314 -11.664062 7
-0.33686399 -4.8147578 -12.121094 7
-0.33794001 -4.8484502 -12.115234 7
-0.33192801 -4.8997798 -12.05957 7
-0.32999399 -4.9588008 -12.024414 7
-0.32698801 -4.9841919 -11.996094 7
-0.33317199 -5.02771 -12.016602 7
-0.34243399 -5.0776982 -12.052734 7
-0.42504099 -6.669189 -11.830078 7
-0.428177 -6.7080688 -11.830078 7
-0.144382 4.4371338 -10.804688 7
-0.141361 4.4021001 -10.798828 7
-0.145466 4.380188 -10.831055 7
-0.15163 4.3623662 -10.873047 7
-0.150639 4.3309331 -10.87793 7
-0.152714 4.3051758 -10.899414 7
-0.155811 4.2810669 -10.925781 7
-0.17011601 4.2773442 -11.012695 7
-0.176273 4.2585449 -11.054688 7
-0.17223001 4.2211909 -11.042969 7
-0.163082 4.1749272 -11.00293 7
-0.083747998 1.273438 -11.12793 7
-0.082778998 1.2427371 -11.125977 7
-0.08794 1.215332 -11.155273 7
-0.067574002 1.174316 -11.042969 7
-0.070694 1.145996 -11.063477 7
-0.072783999 1.117004 -11.078125 7
-0.072838001 1.086853 -11.081055 7
-0.083114997 1.061523 -11.140625 7
-0.081123002 1.030334 -11.131836 7
-0.078125 0.99902302 -11.115234 7
-0.079200998 0.96929902 -11.124023 7
-0.102257 -1.620239 -10.942383 7
-0.104424 -1.6505131 -10.950195 7
-0.10659 -1.680969 -10.958984 7
-0.111977 -1.713806 -10.982422 7
-0.126995 -1.754272 -11.057617 7
-0.117401 -1.775818 -11.001953 7
-0.1185 -1.805847 -11.00293 7
-0.124943 -1.840088 -11.033203 7
-0.120697 -1.8656009 -11.005859 7
-0.13571499 -1.906921 -11.081055 7
-0.32534799 -4.8284302 -11.313477 7
-0.329689 -4.8665161 -11.323242 7
-0.32115901 -4.8795171 -11.268555 7
-0.319069 -4.9050288 -11.246094 7
-0.32019001 -4.936646 -11.240234 7
-0.31702399 -4.9598999 -11.210938 7
-0.32137299 -4.9979858 -11.22168 7
-0.32894099 -5.042603 -11.246094 7
-0.335426 -5.085144 -11.266602 7
-0.33441901 -5.1126709 -11.248047 7
-0.169498 4.464294 -10.260742 7
-0.166325 4.4301758 -10.254883 7
-0.166355 4.401978 -10.265625 7
-0.163166 4.3678589 -10.259766 7
-0.167484 4.3477778 -10.291016 7
-0.170719 4.325439 -10.318359 7
-0.164333 4.285522 -10.295898 7
-0.164364 4.2572021 -10.306641 7
-0.16012999 4.2216191 -10.292969 7
-0.15053201 4.1760859 -10.253906 7
-0.073386997 1.263245 -10.452148 7
-0.074515998 1.235229 -10.458984 7
-0.068145998 1.203247 -10.427734 7
-0.062827997 1.171875 -10.401367 7
-0.061806001 1.142822 -10.398438 7
-0.062927 1.114807 -10.407227 7
-0.065132 1.087585 -10.420898 7
-0.072678 1.062622 -10.463867 7
-0.072746001 1.034058 -10.464844 7
-0.072800003 1.0053101 -10.467773 7
-0.072852999 0.97674602 -10.469727 7
-0.1054 -1.606567 -10.416016 7
-0.103195 -1.632568 -10.401367 7
-0.102112 -1.659302 -10.390625 7
-0.101013 -1.686218 -10.381836 7
-0.109993 -1.7203979 -10.422852 7
-0.13125999 -1.764221 -10.527344 7
-0.123466 -1.786072 -10.483398 7
-0.120148 -1.811157 -10.461914 7
-0.122414 -1.840759 -10.46875 7
-0.121323 -1.867493 -10.458984 7
-0.132534 -1.9044189 -10.510742 7
-0.32260901 -4.8106689 -10.668945 7
-0.328262 -4.849792 -10.68457 7
-0.32720199 -4.875916 -10.666992 7
-0.32276899 -4.8953862 -10.634766 7
-0.32058001 -4.9190669 -10.612305 7
-0.32064101 -4.9472051 -10.599609 7
-0.32181501 -4.977478 -10.59375 7
-0.32074699 -5.0033569 -10.575195 7
-0.326401 -5.04248 -10.59082 7
-0.33654001 -5.0910029 -10.625977 7
-0.33435801 -5.1146851 -10.603516 7
-0.073746003 1.2633671 -9.9199219 7
-0.069312997 1.233704 -9.8994141 7
-0.066001996 1.204651 -9.8857422 7
-0.059340999 1.173889 -9.8535156 7
-0.060516 1.147339 -9.8623047 7
-0.062804997 1.121338 -9.8759766 7
-0.061737001 1.093506 -9.8720703 7
-0.065146998 1.067993 -9.8916016 7
-0.069664001 1.042786 -9.9179688 7
-0.064125001 1.012817 -9.890625 7
-0.066413999 0.98638898 -9.9052734 7
-0.10498 -1.615784 -9.9013672 7
-0.104996 -1.642151 -9.8964844 7
-0.107361 -1.670166 -9.9042969 7
-0.096892998 -1.6887209 -9.8486328 7
-0.116753 -1.72998 -9.9423828 7
-0.129604 -1.766296 -10.000977 7
-0.121475 -1.786499 -9.9570312 7
-0.121498 -1.813293 -9.953125 7
-0.122704 -1.8405761 -9.9521484 7
-0.116898 -1.862488 -9.9199219 7
-0.130924 -1.9003299 -9.9833984 7
-0.069381997 1.258423 -9.3974609 7
-0.057746999 1.225891 -9.34375 7
-0.058968 1.2003779 -9.3515615 7
-0.062514998 1.176331 -9.3710938 7
-0.064888 1.1515501 -9.3857422 7
-0.063766003 1.124878 -9.3828115 7
-0.06498 1.099365 -9.3916016 7
-0.074378997 1.0778199 -9.4384766 7
-0.069756001 1.049561 -9.4179688 7
-0.065125003 1.021301 -9.3974609 7
-0.068680003 0.99670398 -9.4169922 7
-0.068726003 0.97070301 -9.4199219 7
-0.104004 -1.622314 -9.4101562 7
-0.104034 -1.647522 -9.40625 7
-0.102844 -1.671814 -9.3964844 7
-0.108955 -1.701782 -9.4199219 7
-0.11142 -1.72876 -9.4267578 7
-0.115089 -1.756897 -9.4414062 7
-0.112686 -1.780212 -9.4238281 7
-0.112709 -1.8056639 -9.4199219 7
-0.120033 -1.836731 -9.4511719 7
-0.124931 -1.865967 -9.4677734 7
-0.13589901 -1.900146 -9.5136719 7
-0.128639 -1.919678 -9.4765615 7
-0.31589499 -4.8807979 -9.4267578 7
-0.32081601 -4.9156489 -9.4355469 7
-0.31964901 -4.9386601 -9.4179688 7
-0.33067301 -4.9857788 -9.4541016 7
-0.319756 -4.9893799 -9.3945312 7
-0.32711801 -5.0292969 -9.4140615 7
-0.33204699 -5.0643921 -9.4238281 7
-0.343063 -5.111938 -9.4580078 7
-0.33459499 -5.1196899 -9.4082031 7
-0.067635 1.279846 -8.9150391 7
-0.070122004 1.256409 -8.9277344 7
-0.061652999 1.226868 -8.890625 7
-0.064133003 1.203247 -8.9052734 7
-0.066611998 1.179504 -8.9189453 7
-0.061790001 1.1520391 -8.8994141 7
-0.059402 1.125854 -8.890625 7
-0.061882 1.102295 -8.9033203 7
-0.065575004 1.079041 -8.9228516 7
-0.066832997 1.054688 -8.9316406 7
-0.069312997 1.030884 -8.9453115 7
-0.062057 1.002441 -8.9140615 7
-0.062111001 0.97759998 -8.9160156 7
-0.086170003 -1.608826 -8.8427734 7
-0.088737004 -1.634583 -8.8505859 7
-0.091301002 -1.660339 -8.8583984 7
-0.091330998 -1.684387 -8.8544922 7
-0.102791 -1.716797 -8.9003906 7
-0.115524 -1.75061 -8.9521484 7
-0.10157 -1.763855 -8.8857422 7
-0.099051997 -1.7859499 -8.8701172 7
-0.104164 -1.813904 -8.8886719 7
-0.106735 -1.839905 -8.8945312 7
-0.109299 -1.866028 -8.9023438 7
-0.31486499 -4.803894 -8.8769531 7
-0.31365201 -4.825439 -8.8603516 7
-0.31243101 -4.8469238 -8.84375 7
-0.30357701 -4.8535161 -8.7958984 7
-0.30489299 -4.8799438 -8.7900391 7
-0.30748701 -4.9086909 -8.7880859 7
-0.30754101 -4.9324341 -8.7763672 7
-0.30886099 -4.9588008 -8.7705078 7
-0.312729 -4.9901118 -8.7734385 7
-0.31915301 -5.0265498 -8.7861328 7
-0.32302901 -5.0579829 -8.7890615 7
-0.32688901 -5.0896611 -8.7919922 7
-0.328224 -5.1159668 -8.7851562 7
-0.056869999 1.263733 -8.390625 7
-0.056915 1.2401119 -8.3925781 7
-0.054455001 1.191345 -8.3876953 7
-0.046870999 1.1636961 -8.3564453 7
-0.044415001 1.1151119 -8.3505859 7
-0.048266999 1.0934449 -8.3701172 7
-0.059746001 1.0753779 -8.4228516 7
-0.055980999 1.049866 -8.4082031 7
-0.050983001 1.000183 -8.390625 7
-0.053576998 0.97735602 -8.4042969 7
-0.097213998 -1.619568 -8.4658203 7
-0.097244002 -1.642517 -8.4619141 7
-0.102554 -1.669312 -8.4804688 7
-0.105225 -1.694519 -8.4873047 7
-0.118462 -1.7275389 -8.5410156 7
-0.12114 -1.752686 -8.5478516 7
-0.118523 -1.7738039 -8.5322266 7
-0.113251 -1.792847 -8.5039062 7
-0.119896 -1.821106 -8.5283203 7
-0.121239 -1.845276 -8.5302734 7
-0.12655599 -1.8727421 -8.546875 7
-0.13583399 -1.903564 -8.5820312 7
-0.320557 -4.8018188 -8.3935547 7
-0.31928301 -4.822144 -8.3769531 7
-0.32198301 -4.8500981 -8.3759766 7
-0.314087 -4.8574219 -8.3339844 7
-0.31678 -4.8851929 -8.3310547 7
-0.31549799 -4.905457 -8.3154297 7
-0.31291199 -4.9229131 -8.2929688 7
-0.311638 -4.9429932 -8.2753906 7
-0.31433901 -4.9707642 -8.2744141 7
-0.31703201 -4.9986572 -8.2724609 7
-0.31973299 -5.0265498 -8.2705078 7
-0.329063 -5.067749 -8.2929688 7
-0.33573899 -5.1037598 -8.3066406 7
-0.33181 -5.1184082 -8.2792969 7
-0.404331 -6.6366582 -7.65625 7
-0.40439999 -6.6578369 -7.640625 7
-0.40445301 -6.678833 -7.624023 7
-0.40849701 -6.7103271 -7.6220698 7
-0.136406 4.4498291 -7.4003911 7
-0.13511699 4.4046021 -7.4160161 7
-0.139091 4.3909302 -7.4414058 7
-0.143066 4.37677 -7.4667969 7
-0.14046501 4.328918 -7.4775391 7
-0.1418 4.309937 -7.492188 7
-0.14973401 4.302979 -7.5332031 7
-0.153717 4.2885132 -7.5585942 7
-0.073073998 1.26709 -8.046875 7
-0.066513002 1.240662 -8.0205078 7
-0.063904002 1.216309 -8.0126953 7
-0.058658998 1.190735 -7.9931641 7
-0.049442001 1.1630861 -7.9560552 7
-0.052127998 1.1418459 -7.969727 7
-0.056132998 1.120972 -7.9902339 7
-0.054852001 1.097595 -7.9873052 7
-0.060176998 1.077454 -8.0107422 7
-0.066832997 1.057861 -8.0410156 7
-0.066872001 1.034973 -8.0439453 7
-0.065598004 1.011597 -8.0400391 7
-0.061664999 0.98687702 -8.0263672 7
-0.064354002 0.965271 -8.0390615 7
-0.31101999 -4.8430181 -7.820312 7
-0.30695 -4.8565669 -7.7939448 7
-0.30561399 -4.8752441 -7.7773442 7
-0.301525 -4.8885498 -7.750977 7
-0.30300501 -4.9337158 -7.7314448 7
-0.30719399 -4.9634399 -7.735352 7
-0.312805 -5.0170898 -7.7314448 7
-0.32389101 -5.06073 -7.7587891 7
-0.32670599 -5.0875239 -7.7558589 7
-0.30624801 -4.8117681 -7.360352 7
-0.30629301 -4.8323359 -7.3486328 7
-0.30348599 -4.8470459 -7.327148 7
-0.30067101 -4.8618159 -7.3056641 7
-0.30071601 -4.8821411 -7.2939448 7
-0.297901 -4.896606 -7.2724609 7
-0.300816 -4.9224849 -7.2695308 7
-0.30371499 -4.9484248 -7.2685552 7
-0.30234101 -4.9658198 -7.2519531 7
-0.309551 -5.0003662 -7.264648 7
-0.312473 -5.0263672 -7.2607422 7
-0.31394601 -5.049377 -7.2539058 7
-0.31972501 -5.0811162 -7.2617192 7
-0.31977099 -5.1013179 -7.25 7
-0.31441501 -4.8131099 -6.9501948 7
-0.310009 -4.8239751 -6.9238281 7
-0.304104 -4.831604 -6.8925781 7
-0.301182 -4.8452148 -6.8710942 7
-0.30568299 -4.8733521 -6.874023 7
-0.30871201 -4.898376 -6.8720698 7
-0.30132699 -4.9030151 -6.835938 7
-0.30880401 -4.9368291 -6.8486328 7
-0.30588201 -4.9501948 -6.827148 7
-0.305935 -4.9691768 -6.8144531 7
-0.31341201 -5.0032959 -6.827148 7
-0.31049699 -5.016541 -6.8056641 7
-0.32837701 -5.0714722 -6.8505859 7
-0.32395899 -5.0817261 -6.8242192 7
-0.31806901 -5.0889282 -6.7929692 7
-0.30788001 -4.8308721 -6.500977 7
-0.30176899 -4.8372798 -6.4707031 7
-0.29874799 -4.8496699 -6.4492192 7
-0.298794 -4.8678589 -6.4375 7
-0.29422399 -4.8770142 -6.4111328 7
-0.29888499 -4.9042358 -6.414062 7
-0.29739001 -4.9194951 -6.3974609 7
-0.29589501 -4.9345088 -6.3818359 7
-0.29595599 -4.9525762 -6.3681641 7
-0.30061701 -4.979919 -6.3710942 7
-0.311436 -5.0197139 -6.3925781 7
-0.31148899 -5.0379639 -6.3798828 7
-0.31615099 -5.0654302 -6.382812 7
-0.31927899 -5.0896611 -6.3798828 7
-0.317783 -5.1047359 -6.3632808 7
-0.397701 -6.661499 -5.4335942 7
-0.39929599 -6.681519 -5.421875 7
-0.397816 -6.6932979 -5.4023442 7
-0.39788401 -6.7090449 -5.3847661 7
-0.29954901 -4.8156128 -6.0439448 7
-0.29164499 -4.8346558 -5.9980469 7
-0.29169101 -4.8518071 -5.9863281 7
-0.29174399 -4.869019 -5.9746089 7
-0.29018801 -4.8830571 -5.9589839 7
-0.29343799 -4.906311 -5.9550781 7
-0.29188201 -4.9202271 -5.9394531 7
-0.29034001 -4.9342041 -5.921875 7
-0.29043201 -4.9682012 -5.898438 7
-0.30006 -5.0045781 -5.9150391 7
-0.31129101 -5.04425 -5.9355469 7
-0.30655301 -5.051331 -5.9082031 7
-0.30659899 -5.068481 -5.8974609 7
-0.31303799 -5.0984502 -5.9033198 7
-0.31309101 -5.115356 -5.891602 7
-0.297207 -4.806396 -5.6347661 7
-0.29890099 -4.8258061 -5.6279302 7
-0.30061001 -4.84552 -5.6210942 7
-0.29568899 -4.8519292 -5.594727 7
-0.28745699 -4.8518682 -5.5605469 7
-0.28915 -4.8713989 -5.5537109 7
-0.29085201 -4.8908081 -5.546875 7
-0.29255301 -4.9102168 -5.539062 7
-0.290943 -4.9230962 -5.523438 7
-0.289341 -4.935791 -5.5068359 7
-0.29601699 -4.9650879 -5.5117192 7
-0.29937401 -4.9876709 -5.5087891 7
-0.30107501 -5.0072632 -5.5029302 7
-0.307751 -5.0365601 -5.507812 7
-0.314426 -5.0661011 -5.514648 7
-0.31448001 -5.0821528 -5.5019531 7
-0.30790299 -5.0845952 -5.4716802 7
-0.30959699 -5.1040649 -5.4638672 7
-0.29863399 -4.8147578 -5.2412109 7
-0.29867899 -4.8302002 -5.2304692 7
-0.29014999 -4.8286738 -5.195312 7
-0.286762 -4.8373408 -5.1748052 7
-0.28680801 -4.852417 -5.1630859 7
-0.286854 -4.8678589 -5.1513672 7
-0.283474 -4.8763428 -5.1318359 7
-0.28694499 -4.8982539 -5.1289058 7
-0.288708 -4.916687 -5.1210942 7
-0.29219401 -4.9387822 -5.117188 7
-0.29052401 -4.9503779 -5.101562 7
-0.29399499 -4.9724731 -5.0986328 7
-0.29404101 -4.9874272 -5.0869141 7
-0.30437899 -5.0232539 -5.101562 7
-0.30442399 -5.0384521 -5.0888672 7
-0.30104399 -5.0464482 -5.0683589 7
-0.30109799 -5.0613399 -5.054688 7
-0.30285999 -5.079895 -5.047852 7
-0.31148899 -5.1124878 -5.0576172 7
-0.286915 -4.8062739 -4.8251948 7
-0.299389 -4.844727 -4.842773 7
-0.290562 -4.842041 -4.8095698 7
-0.28527501 -4.8459468 -4.7851558 7
-0.28886801 -4.86731 -4.782227 7
-0.29246101 -4.8885498 -4.7792969 7
-0.29250699 -4.9028931 -4.7675781 7
-0.28722799 -4.9066162 -4.7431641 7
-0.29259899 -4.931458 -4.7431641 7
-0.290867 -4.9422002 -4.7275391 7
-0.29091999 -4.9562988 -4.7158198 7
-0.290966 -4.9705811 -4.704102 7
-0.28568599 -4.9741821 -4.6806641 7
-0.28928801 -4.9952388 -4.6757808 7
-0.30531701 -5.0418091 -4.702148 7
-0.29470399 -5.0341802 -4.664062 7
-0.28942499 -5.037415 -4.639648 7
-0.29835099 -5.0695801 -4.648438 7
-0.30548501 -5.098083 -4.6542969 7
-0.30020499 -5.1012568 -4.6289058 7
-0.298489 -5.1113281 -4.6113281 7
-0.113979 4.4547119 -4.1533198 7
-0.112225 4.4378662 -4.1591802 7
-0.039558001 -1.759993 -12.821012 7
-0.25735301 -4.9207692 -14.750808 7
-0.11707 -1.612481 -9.7305269 7
-0.37738901 -4.8555121 -11.474616 7
-0.088607997 -1.530962 -7.9887691 7
-0.343512 -4.8583412 -9.3150339 7
0.004464 -1.398662 -5.1397529 7
-0.022805 -1.763379 -5.2807322 7
-0.22948299 -4.9855371 -5.590425 7
-0.011431 -1.692394 -4.4826641 7
-0.198267 -4.8798809 -4.4760351 7
-0.272899 -4.8363671 -3.6577351 7
-0.0075650001 -1.7094131 -2.123991 7
-0.035128001 -1.770802 -1.161721 7
-0.25416201 -4.6406751 0.678509 7
-0.252619 -4.7303352 0.84253198 7
-0.22457901 -4.4827099 0.95013201 7
-0.169459 4.3792419 -7.3760591 7
-0.151205 1.100336 -12.170891 7
-0.17013 -1.86025 -10.625579 7
-0.45061401 -4.9968791 -14.363226 7
-0.200683 4.3403559 -10.495015 7
-0.056304999 1.11178 -8.9593449 7
-0.12653799 -1.815351 -8.705925 7
-0.326116 -4.984436 -10.555243 7
-0.0093179997 1.130041 -7.2450681 7
-0.077143997 -1.654792 -7.194128 7
-0.30429399 -4.8622522 -8.8925581 7
-0.051077001 -1.621537 -6.2265902 7
-0.28549701 -4.8094559 -7.5472279 7
-0.26625299 -4.9698558 -7.2139511 7
-0.041983999 1.161822 -6.2198281 7
-0.013069 -1.3540829 -5.389142 7
-0.072189003 -1.569468 -5.4339042 7
-0.086603999 -1.799297 -5.488802 7
-0.32282501 -4.8416538 -6.1369271 7
-0.32141399 -5.0633001 -5.9456329 7
-0.105294 4.3411388 -3.9318221 7
-0.110579 4.2349262 -4.121161 7
-0.0025180001 1.242504 -4.904305 7
-0.0035379999 1.084439 -4.9543452 7
-0.040885001 -1.355641 -4.8501039 7
-0.060625002 -1.572306 -4.941205 7
-0.067493998 -1.757107 -4.9305921 7
-0.27332899 -4.900887 -4.7415609 7
-0.049276002 -1.566407 -4.5200429 7
-0.061168 -1.713701 -4.5526271 7
-0.076507002 -1.914399 -4.584549 7
-0.238337 -4.8591771 -3.585932 7
-0.026974 1.108313 -4.498054 7
-0.052285999 -1.697166 -4.1946578 7
-0.058596 -1.850816 -4.1656122 7
-0.026361 -1.38577 -3.9011669 7
-0.036277998 -1.533971 -3.9017129 7
-0.049679998 -1.696599 -3.914079 7
-0.048271 -1.811131 -3.840766 7
-0.033557002 -1.791332 -2.2177551 7
-0.036166001 -1.849673 -2.149904 7
-0.040093001 -1.910661 -2.0815599 7
-0.018755 -1.649435 -2.1567099 7
-0.018844999 -1.695331 -2.089541 7
-0.020307001 -1.743561 -2.0228209 7
-0.021748999 -1.789252 -1.9537489 7
-0.0082820002 -1.627473 -1.964654 7
-0.025439 -1.862818 -1.214053 7
-0.031801 -1.89399 -1.135703 7
-0.033380002 -1.904093 -1.035794 7
-0.001083 -1.688603 -1.279107 7
-0.0078649996 -1.7223361 -1.209233 7
-0.011575 -1.742061 -1.1368819 7
-0.015321 -1.758958 -1.062977 7
-0.026387 -1.799176 -0.96613002 7
-0.0037499999 -1.637876 -1.223397 7
-0.001013 -1.635759 -1.137638 7
-0.023980999 -1.653259 -1.067799 7
-0.021637 -1.6450289 -0.99899 7
