# .PCD v0.7 - Point Cloud Data file format
VERSION 0.7
FIELDS x y z intensity
SIZE 4 4 4 4
TYPE F F F F
COUNT 1 1 1 1
WIDTH 880
HEIGHT 1
VIEWPOINT 0 0 0 1 0 0 0
POINTS 880
DATA ascii
1.340427 41.234741 13.588867 7
1.340694 41.263306 13.491211 7
1.259968 39.709778 13.557617 7
1.259056 39.788696 13.478516 7
1.175819 37.791443 13.654297 7
1.175926 37.825928 13.566406 7
1.172913 37.977112 13.515625 7
1.1693 38.150757 13.47168 7
1.095772 36.511536 13.441406 7
-0.193562 -3.0045781 70.488281 7
-0.27002299 -2.9324951 72.722656 7
-0.30242199 -2.8001101 73.677734 7
-0.191109 -3.3096311 63.856445 7
-0.23782 -3.223999 65.098633 7
-0.28653699 -3.1351321 66.391602 7
-0.36012599 -3.070312 68.339844 7
-0.122337 -0.33764601 62.226562 7
-0.15256099 -0.196106 63.029297 7
-0.149048 -0.049865998 62.942383 7
-0.126663 1.662903 62.458984 7
-0.129803 1.810059 62.542969 7
-0.108128 1.93689 61.970703 7
-0.16953699 4.9398799 63.535156 7
-0.137283 5.0177002 62.677734 7
-0.18772499 -3.3920901 57.838867 7
-0.248428 -3.34198 59.294922 7
-0.27870899 -3.2449341 60.027344 7
-0.33204299 -3.1734011 61.308594 7
-0.15283599 -0.44067401 57.193359 7
-0.145447 2.0671389 57.060547 7
-0.109539 2.165344 56.201172 7
-0.122833 2.308533 56.519531 7
-0.14597701 5.2216191 57.03418 7
-0.115284 5.2832031 56.293945 7
-0.313236 -3.5305181 55.821289 7
-0.33077601 -3.42572 56.214844 7
-0.38714999 -3.369812 57.455078 7
-0.214645 -0.68469203 53.90332 7
-0.141571 1.991394 52.34668 7
-0.104836 2.078918 51.541992 7
-0.124699 2.216614 51.974609 7
-0.15012699 5.151062 52.412109 7
-0.116909 5.197144 51.677734 7
-0.085299999 5.2435908 50.978516 7
0.82130098 29.083008 13.756836 7
-0.399914 2.47052 -62.419922 7
-0.52061099 2.120728 -63.665039 7
-0.56721097 -4.4118042 -58.291992 7
-0.44667399 -4.3530269 -55.668945 7
-0.43022901 -4.459167 -55.296875 7
-0.413784 -4.6963501 -54.908203 7
-0.156078 1.854309 48.30957 7
-0.122097 1.937073 47.62793 7
-0.112328 2.0380859 47.431641 7
-0.109272 2.1442871 47.367188 7
-0.182281 5.1231079 48.736328 7
-0.140228 5.1425171 47.886719 7
-0.106045 5.1757808 47.194336 7
-0.068953998 5.1989751 46.444336 7
0.77622199 28.59137 10.25 7
-0.35226801 2.59729 -55.27832 7
-0.39796799 2.506958 -56.305664 7
-0.32303599 2.300781 -54.628906 7
-0.383591 2.2198491 -55.989258 7
-0.45247999 2.1390381 -57.538086 7
-0.28416401 -1.198486 -48.356445 7
-0.49859199 -4.4801641 -52.361328 7
-0.45653901 -4.5345459 -51.505859 7
-0.51398498 -4.7605591 -52.637695 7
-0.46084201 -4.7913208 -51.55957 7
-0.42490399 -4.8491211 -50.826172 7
-0.397129 -4.9190669 -50.254883 7
-0.139805 1.898193 44.712891 7
-0.13625 1.9977421 44.644531 7
-0.087185003 2.0558469 43.728516 7
-0.153625 5.1094971 44.798828 7
-0.121235 5.1404419 44.188477 7
-0.101078 5.196167 43.805664 7
-0.40835601 2.6976931 -50.956055 7
-0.45589799 2.6209109 -51.914062 7
-0.42276001 2.4634399 -51.249023 7
-0.444199 2.3581541 -51.679688 7
-0.246159 -0.44494599 -43.398438 7
-0.280453 -0.55853301 -44.022461 7
-0.33035299 -0.67926002 -44.933594 7
-0.29595599 -1.316223 -44.262695 7
-0.27924699 -1.414124 -43.949219 7
-0.44137999 -4.9099121 -46.5625 7
-0.423397 -4.9884639 -46.219727 7
-0.060989 1.870422 39.87207 7
-0.1376 4.9498291 41 7
-0.108536 4.9806519 40.495117 7
-0.091389 5.035522 40.193359 7
-0.085129 5.1135859 40.077148 7
-0.30169699 3.138123 -45.167969 7
-0.341755 3.075989 -45.927734 7
-0.38585699 3.0149541 -46.763672 7
-0.41198 2.929749 -47.260742 7
-0.46290201 2.8690801 -48.223633 7
-0.27679399 -0.21759 -40.535156 7
-0.28982899 -1.410706 -40.69043 7
-0.246227 -1.483337 -39.945312 7
-0.24504501 -1.580139 -39.918945 7
-0.24144401 -1.674927 -39.849609 7
-0.215427 -1.75293 -39.401367 7
-0.46909001 -4.9011841 -43.364258 7
-0.44233701 -4.955811 -42.899414 7
-0.135662 -1.163452 38.242188 7
-0.077660002 1.664062 37.391602 7
-0.070929997 1.744141 37.282227 7
-0.055038001 1.816406 37.027344 7
-0.071811996 1.9150389 37.291016 7
-0.141193 4.8643188 38.197266 7
-0.13812999 4.945251 38.139648 7
-0.106853 4.9647832 37.634766 7
-0.092064001 5.01825 37.391602 7
-0.096706003 5.1141362 37.455078 7
-0.27148101 3.364136 -40.966797 7
-0.30851001 3.3122561 -41.615234 7
-0.34151801 3.252197 -42.193359 7
-0.372513 3.187012 -42.737305 7
-0.42768899 3.148315 -43.701172 7
-0.461712 3.0804441 -44.296875 7
-0.223526 0.077514999 -39.641602 7
-0.20992699 -0.019286999 -39.408203 7
-0.25239599 0.024109 -37.155273 7
-0.258423 -1.637939 -36.729492 7
-0.231178 -1.708374 -36.299805 7
-0.206181 -1.778687 -35.904297 7
-0.234547 -1.88855 -36.336914 7
-0.196751 -1.946472 -35.742188 7
-0.135933 -1.233765 35.388672 7
-0.140221 -1.155457 35.456055 7
-0.144913 -1.076965 35.529297 7
-0.16673701 -1.005493 35.853516 7
-0.071177997 1.6105959 34.507812 7
-0.069485001 1.687866 34.480469 7
-0.057053 1.756348 34.295898 7
-0.088771999 1.860413 34.758789 7
-0.061618999 1.916382 34.357422 7
-0.135052 4.8783569 35.208008 7
-0.119835 4.926147 34.976562 7
-0.105427 4.9745479 34.757812 7
-0.087844998 5.014832 34.491211 7
0.52522302 21.984558 13.72168 7
0.52423102 22.028809 13.678711 7
0.52208298 22.088379 13.643555 7
0.52186197 22.122192 13.592773 7
0.52278501 22.140564 13.535156 7
0.52410102 22.153625 13.474609 7
-0.26352701 3.6229861 -37.214844 7
-0.29043999 3.4763179 -37.657227 7
-0.318378 3.421509 -38.107422 7
-0.36135501 3.38446 -38.796875 7
-0.38746601 3.322449 -39.217773 7
-0.213966 0.29510501 -36.546875 7
-0.187611 0.202271 -36.126953 7
-0.21485899 0.114197 -36.55957 7
-0.24205001 -1.687012 -34.021484 7
-0.25064799 -1.776917 -34.140625 7
-0.216461 -1.91687 -33.629883 7
-0.227852 -2.008728 -33.788086 7
-0.211334 -2.1594241 -33.533203 7
-0.14011 -1.236145 33.354492 7
-0.146816 -1.16394 33.451172 7
-0.154369 -1.0914921 33.55957 7
-0.13857301 -1.008545 33.345703 7
-0.095386997 1.6005861 32.800781 7
-0.07621 1.6609499 32.53418 7
-0.060851999 1.723022 32.320312 7
-0.086612999 1.816895 32.671875 7
-0.059383001 1.868469 32.293945 7
-0.147671 4.8275762 33.266602 7
-0.134029 4.8745732 33.071289 7
-0.116989 4.913269 32.828125 7
-0.097000003 4.9447021 32.546875 7
-0.115067 5.0583501 32.782227 7
0.47857299 20.860962 13.755859 7
0.477474 20.905029 13.714844 7
0.47597501 20.954041 13.676758 7
0.47301099 21.052124 13.602539 7
0.47521201 21.05542 13.538086 7
0.53510702 21.788391 10.379883 7
0.52766001 21.933228 10.317383 7
0.52412403 22.002869 10.285156 7
0.52221698 22.05072 10.243164 7
-0.26766199 3.734436 -34.670898 7
-0.294422 3.688293 -35.075195 7
-0.30939099 3.622925 -35.304688 7
-0.34165201 3.5809939 -35.789062 7
-0.370758 3.532593 -36.227539 7
-0.180931 0.63818401 -33.237305 7
-0.206535 0.47991899 -33.608398 7
-0.18864401 0.394348 -33.345703 7
-0.238102 0.319031 -34.064453 7
-0.236771 -1.944641 -31.308594 7
-0.206554 -1.9962161 -30.895508 7
-0.24445701 -2.1051641 -31.398438 7
-0.227257 -2.1668701 -31.160156 7
-0.211357 -2.2286379 -30.939453 7
-0.110939 -1.27301 30.734375 7
-0.125008 -1.210938 30.917969 7
-0.123093 -1.139954 30.897461 7
-0.144463 -1.0802 31.174805 7
-0.122471 -1.000061 30.896484 7
-0.074859999 1.624207 30.308594 7
-0.064285003 1.684692 30.169922 7
-0.089259997 1.772522 30.487305 7
-0.070483997 1.826111 30.244141 7
-0.069016002 1.8933721 30.222656 7
-0.14062101 4.8277588 30.891602 7
-0.123695 4.8621831 30.666992 7
-0.111305 4.9050899 30.5 7
-0.096644998 4.9425049 30.304688 7
-0.116997 5.0556641 30.550781 7
0.43311301 19.516785 13.716797 7
0.49432799 20.466553 10.460938 7
0.49623099 20.466553 10.40332 7
-0.236412 3.9558721 -31.448242 7
-0.23943301 3.8822019 -31.498047 7
-0.25816301 3.8330081 -31.761719 7
-0.28113601 3.789124 -32.084961 7
-0.303684 3.7432251 -32.402344 7
-0.33600199 3.710022 -32.851562 7
-0.352184 3.651917 -33.080078 7
-0.206154 0.565063 -31.223633 7
-0.22024199 0.49011201 -31.416992 7
-0.224415 -2.0209961 -29.00293 7
-0.208313 -2.0784299 -28.794922 7
-0.231804 -2.242126 -29.074219 7
-0.117428 -1.26239 28.969727 7
-0.122704 -1.19989 29.037109 7
-0.139202 -1.1427 29.239258 7
-0.115761 -1.065979 28.961914 7
-0.106922 -0.99682599 28.860352 7
-0.072371997 1.637512 28.479492 7
-0.081988998 1.7088619 28.591797 7
-0.067718998 1.826172 28.415039 7
-0.074432001 1.895813 28.492188 7
-0.125668 4.8174438 28.80957 7
-0.30846801 4.0292969 -30.126953 7
-0.31669599 3.9671631 -30.239258 7
-0.32810199 3.909363 -30.393555 7
-0.33815399 3.8486941 -30.530273 7
-0.202454 0.91485602 -28.858398 7
-0.19378699 0.84051502 -28.749023 7
-0.17725401 0.76391602 -28.541992 7
-0.197304 0.69921899 -28.793945 7
-0.225471 -1.945374 -26.868164 7
-0.209637 -1.998596 -26.677734 7
-0.197289 -2.053833 -26.527344 7
-0.236866 -2.1547849 -26.981445 7
-0.216534 -2.202698 -26.737305 7
-1.527168 -40.417114 11.238281 7
-1.5044169 -40.144531 11.271484 7
-1.486343 -39.922729 11.317383 7
-1.460461 -39.616333 11.34082 7
-1.4434201 -39.406006 11.386719 7
-0.075953998 1.47052 26.688477 7
-0.057918999 1.696411 26.476562 7
-0.051589999 1.751038 26.402344 7
-0.059849001 1.816895 26.491211 7
0.33713499 17.197205 13.738281 7
0.334721 17.249817 13.712891 7
-0.227543 4.0886841 -26.821289 7
-0.240318 4.042419 -26.981445 7
-0.25357401 3.9962771 -27.146484 7
-0.274185 3.961426 -27.398438 7
-0.25853699 3.8677981 -27.222656 7
-0.183323 0.618958 -26.544922 7
-0.169659 0.54907203 -26.382812 7
-0.15352599 0.47930899 -26.192383 7
-0.15603299 0.413818 -26.22168 7
-0.157562 0.34808299 -26.240234 7
-0.128323 0.148193 -25.891602 7
-0.151669 -0.131165 -24.323242 7
-0.12974501 -0.36975101 -24.075195 7
-0.127735 -0.42919901 -24.050781 7
-0.125717 -0.48870799 -24.027344 7
-0.122105 -0.54754603 -23.984375 7
-0.118477 -0.60626203 -23.942383 7
-0.20962501 -1.928528 -24.842773 7
-0.190525 -1.974426 -24.62793 7
-0.189053 -2.034363 -24.605469 7
-0.218014 -2.1207891 -24.915039 7
-0.20479199 -2.170898 -24.764648 7
-0.111069 -1.269775 25.412109 7
-0.108776 -1.211731 25.393555 7
-0.14835 -0.97003198 -22.610352 7
-0.143333 -1.024231 -22.555664 7
-0.143448 -1.080566 -22.552734 7
-0.138428 -1.1343991 -22.498047 7
-0.133991 -1.1882319 -22.448242 7
-0.138653 -1.246704 -22.491211 7
-0.17881399 -1.952454 -22.838867 7
-0.195595 -2.0808721 -22.998047 7
-0.191135 -2.1343379 -22.947266 7
-0.99216098 -28.350098 14.416016 7
-0.98334098 -28.239807 14.447266 7
-0.21350101 4.1881709 -22.954102 7
-0.218014 4.1375122 -23.010742 7
-0.228138 4.096436 -23.123047 7
-0.23376501 4.0469971 -23.19043 7
-0.260712 4.0328369 -23.475586 7
-0.270832 3.9898069 -23.587891 7
-0.22656199 3.8590701 -23.143555 7
-0.85487401 -24.939087 14.391602 7
-0.172451 -1.618958 -19.981445 7
-0.173843 -1.669983 -19.988281 7
-0.19072001 -1.7325439 -20.134766 7
-0.17534301 -1.771484 -19.992188 7
-0.176083 -1.822327 -19.993164 7
-0.178776 -1.874573 -20.010742 7
-0.87748301 -24.941956 10.889648 7
-0.874897 -24.897339 10.941406 7
-0.86830097 -24.820374 10.979492 7
-0.86103398 -24.737854 11.014648 7
-0.84777498 -24.606445 11.030273 7
-0.833157 -24.464478 11.041992 7
-0.20203 4.28479 -19.828125 7
-0.18870901 4.2102661 -19.71875 7
-0.20080601 4.1810298 -19.836914 7
-0.24027599 4.0430908 -20.229492 7
-0.19303501 -1.780701 -18.958008 7
-0.25748399 4.1403809 -19.092773 7
-0.26085299 4.0968628 -19.131836 7
-0.24675401 4.0244751 -19.020508 7
-0.17932101 -1.759338 -17.692383 7
-0.176311 -1.9981689 -16.591797 7
-0.177929 -2.041748 -16.598633 7
-0.180305 -2.085876 -16.611328 7
-0.60211903 -18.195923 10.918945 7
-0.59430701 -18.121887 10.935547 7
-0.584126 -18.032532 10.943359 7
-0.574745 -17.948242 10.954102 7
-0.20943099 4.1248779 -16.350586 7
-0.22000501 4.1001592 -16.439453 7
-0.157124 -1.635559 -15.506836 7
-0.155598 -1.674316 -15.491211 7
-0.168598 -1.723328 -15.580078 7
-0.158985 -1.755798 -15.506836 7
-0.158264 -1.794861 -15.49707 7
-0.155926 -1.832581 -15.473633 7
-0.17619701 -1.888245 -15.614258 7
-0.182739 -1.933533 -15.655273 7
-0.173134 -1.96521 -15.581055 7
-0.17401899 -2.0057981 -15.582031 7
-0.187038 -2.0567629 -15.668945 7
-0.14528701 -1.620178 -14.578125 7
-0.142799 -1.655762 -14.556641 7
-0.165813 -1.710022 -14.708984 7
-0.158245 -1.741943 -14.65332 7
-0.158329 -1.7796021 -14.647461 7
-0.158401 -1.8171999 -14.643555 7
-0.17045601 -1.9021 -14.71582 7
-0.37932199 -4.817627 -15.523438 7
-0.39057201 -4.9180908 -15.572266 7
-0.40268299 -5.0209961 -15.625977 7
-0.39765501 -5.0509028 -15.581055 7
-0.39347801 -5.0822749 -15.541016 7
-0.498631 -6.7485962 -15.680664 7
-0.50054598 -6.8330078 -15.65918 7
-0.50573701 -6.886169 -15.674805 7
-0.524593 -6.9745479 -15.777344 7
-0.15744799 -1.6546021 -13.857422 7
-0.170113 -1.735291 -13.929688 7
-0.154099 -1.758972 -13.821289 7
-0.149708 -1.7911381 -13.788086 7
-0.180222 -1.886719 -13.975586 7
-0.38362101 -4.8101811 -14.646484 7
-0.38918301 -4.8956299 -14.65625 7
-0.401802 -4.957397 -14.72168 7
-0.400105 -4.9916992 -14.698242 7
-0.401981 -5.0328979 -14.697266 7
-0.39129999 -5.049561 -14.619141 7
-0.38788599 -5.1174932 -14.573242 7
-0.51024598 -6.7442021 -14.782227 7
-0.50764102 -6.775208 -14.749023 7
-0.50054598 -6.7950439 -14.691406 7
-0.49712801 -6.8613281 -14.637695 7
-0.51706302 -6.9876099 -14.72168 7
-0.51894403 -7.0300899 -14.71582 7
-0.159233 -1.950806 -13.101562 7
-0.15649 -1.982483 -13.080078 7
-0.369183 -4.8416748 -13.717773 7
-0.37113601 -4.8806152 -13.716797 7
-0.379383 -5.0366821 -13.712891 7
-0.37476701 -5.0626831 -13.672852 7
-0.38423201 -5.1169429 -13.71582 7
-0.17790601 4.4134521 -12.463867 7
-0.162174 4.3509521 -12.380859 7
-0.15383901 4.3026118 -12.339844 7
-0.158474 4.2779541 -12.37793 7
-0.15940499 4.2466431 -12.393555 7
-0.16403601 4.2216802 -12.431641 7
-0.168667 4.1966548 -12.467773 7
-0.13575 -1.612244 -12.291992 7
-0.13974001 -1.647034 -12.311523 7
-0.14571001 -1.683228 -12.34082 7
-0.141853 -1.712585 -12.313477 7
-0.13601699 -1.740234 -12.275391 7
-0.13608199 -1.772278 -12.271484 7
-0.13614701 -1.80426 -12.267578 7
-0.15588801 -1.851624 -12.375977 7
-0.15791699 -1.88562 -12.383789 7
-0.150116 -1.911316 -12.333008 7
-0.36624101 -5.0968022 -12.785156 7
-0.17894401 4.4789429 -11.679688 7
-0.177002 4.4437261 -11.678711 7
-0.178951 4.415833 -11.701172 7
-0.17311101 4.3735352 -11.678711 7
-0.174088 4.343811 -11.694336 7
-0.169228 4.3035278 -11.675781 7
-0.166302 4.2667241 -11.668945 7
-0.165333 4.233582 -11.673828 7
-0.166309 4.2036738 -11.689453 7
-0.175072 4.1876831 -11.749023 7
-0.18578701 4.1748052 -11.819336 7
-0.095352001 1.2562259 -11.837891 7
-0.087627001 1.1565551 -11.799805 7
-0.091536999 1.12677 -11.825195 7
-0.083793998 1.0593261 -11.785156 7
-0.086735003 1.028809 -11.804688 7
-0.085789002 0.99658197 -11.800781 7
-0.13558599 -1.601074 -11.680664 7
-0.133598 -1.630371 -11.665039 7
-0.13886601 -1.69519 -11.685547 7
-0.133789 -1.722046 -11.65332 7
-0.137012 -1.785339 -11.662109 7
-0.13501699 -1.81427 -11.646484 7
-0.16077401 -1.865173 -11.78418 7
-0.15055101 -1.887817 -11.722656 7
-0.35914999 -4.8256841 -12.137695 7
-0.358192 -4.8554082 -12.121094 7
-0.36775199 -4.9998779 -12.121094 7
-0.368938 -5.0653081 -12.103516 7
-0.36740899 -5.0926509 -12.079102 7
-0.36542499 -5.1199341 -12.056641 7
-0.082168996 1.102295 -11.166016 7
-0.086262003 1.0739141 -11.192383 7
-0.086304002 1.013062 -11.197266 7
-0.122486 -1.6019289 -10.977539 7
-0.11932 -1.628601 -10.956055 7
-0.13771801 -1.670471 -11.049805 7
-0.126984 -1.6917109 -10.988281 7
-0.12381 -1.71814 -10.966797 7
-0.12711 -1.749512 -10.980469 7
-0.12717099 -1.778442 -10.974609 7
-0.142334 -1.819214 -11.050781 7
-0.14563 -1.850891 -11.063477 7
-0.14244799 -1.877319 -11.041016 7
-0.14467201 -1.908203 -11.047852 7
-0.35462201 -4.8236079 -11.378906 7
-0.354691 -4.8534551 -11.367188 7
-0.365578 -4.9041748 -11.408203 7
-0.36672601 -4.9362788 -11.402344 7
-0.365711 -4.9640498 -11.385742 7
-0.361462 -4.9855351 -11.351562 7
-0.358284 -5.0088501 -11.323242 7
-0.361595 -5.045105 -11.328125 7
-0.36058801 -5.0726929 -11.310547 7
-0.363895 -5.1088872 -11.313477 7
-0.087536 1.252686 -10.557617 7
-0.080132 1.133728 -10.527344 7
-0.079085998 1.104248 -10.525391 7
-0.079098001 1.075562 -10.527344 7
-0.075916 1.0452271 -10.512695 7
-0.075932004 1.016602 -10.514648 7
-0.082367003 0.99072301 -10.551758 7
-0.12603401 -1.6175539 -10.453125 7
-0.126095 -1.645081 -10.449219 7
-0.138531 -1.681885 -10.507812 7
-0.127335 -1.701172 -10.445312 7
-0.126266 -1.728027 -10.436523 7
-0.12632801 -1.755676 -10.431641 7
-0.134262 -1.7896121 -10.467773 7
-0.142197 -1.8234251 -10.50293 7
-0.152382 -1.859314 -10.549805 7
-0.14119001 -1.878113 -10.488281 7
-0.14575601 -1.909485 -10.505859 7
-0.14580201 -1.937256 -10.500977 7
-0.146988 -1.966064 -10.501953 7
-0.35260001 -4.8096919 -10.739258 7
-0.357182 -4.8465581 -10.749023 7
-0.362885 -4.8858638 -10.763672 7
-0.36408201 -4.9165649 -10.757812 7
-0.365284 -4.947144 -10.75 7
-0.35971099 -4.964478 -10.712891 7
-0.35639599 -4.9862061 -10.68457 7
-0.356457 -5.0144649 -10.672852 7
-0.35652199 -5.0426641 -10.661133 7
-0.35546499 -5.0687261 -10.643555 7
-0.36457101 -5.1149292 -10.672852 7
-0.085674003 1.2527471 -10.007812 7
-0.085712001 1.197693 -10.013672 7
-0.074596003 1.136963 -9.9619141 7
-0.072379999 1.108459 -9.9521484 7
-0.072394997 1.080933 -9.9560547 7
-0.072437003 1.026245 -9.9609385 7
-0.079166003 0.97418201 -9.9990234 7
-0.123363 -1.625183 -9.9267578 7
-0.136326 -1.660767 -9.9853516 7
-0.13285799 -1.6847529 -9.9638672 7
-0.122349 -1.703308 -9.9082031 7
-0.127102 -1.733215 -9.9267578 7
-0.128334 -1.760559 -9.9277344 7
-0.12838399 -1.787109 -9.9248047 7
-0.14724 -1.828186 -10.009766 7
-0.148468 -1.855774 -10.011719 7
-0.141487 -1.876709 -9.9716797 7
-0.145061 -1.906189 -9.9853516 7
-0.36201099 -5.0509639 -10.080078 7
-0.36443299 -5.0822749 -10.078125 7
-0.088490002 1.27832 -9.5126953 7
-0.088512003 1.251892 -9.515625 7
-0.083870001 1.223022 -9.4951172 7
-0.083878003 1.196838 -9.4980469 7
-0.081573002 1.169312 -9.4882812 7
-0.081584997 1.143005 -9.4921885 7
-0.076949999 1.114319 -9.4716797 7
-0.068816997 1.084106 -9.4345703 7
-0.074657001 1.0606689 -9.4658203 7
-0.073504999 1.033875 -9.4619141 7
-0.077014998 1.009277 -9.4804688 7
-0.084018998 0.98608398 -9.5175781 7
-0.117756 -1.628662 -9.4189453 7
-0.121471 -1.656494 -9.4306641 7
-0.117855 -1.679077 -9.4101562 7
-0.115471 -1.702454 -9.3935547 7
-0.119186 -1.730408 -9.4072266 7
-0.12902801 -1.763 -9.4482422 7
-0.13641401 -1.794006 -9.4775391 7
-0.14014401 -1.822327 -9.4892578 7
-0.132851 -1.841797 -9.4511719 7
-0.13168 -1.866089 -9.4414062 7
-0.137859 -1.8965451 -9.4648438 7
-0.13423499 -1.918823 -9.4433594 7
-0.35516399 -4.9286499 -9.5263672 7
-0.34786999 -4.9398799 -9.4824219 7
-0.346706 -4.9628911 -9.4648438 7
-0.355358 -5.0050659 -9.4892578 7
-0.348057 -5.0160518 -9.4472656 7
-0.34689301 -5.0388789 -9.4296885 7
-0.35431701 -5.078979 -9.4492188 7
-0.44280601 -6.7375488 -8.9560547 7
-0.069851004 1.140076 -8.9589844 7
-0.105946 -1.619385 -8.8798828 7
-0.112389 -1.6478879 -8.9042969 7
-0.098373003 -1.661621 -8.8378906 7
-0.099705003 -1.686401 -8.8398438 7
-0.099753998 -1.710266 -8.8349609 7
-0.101082 -1.735168 -8.8359385 7
-0.112637 -1.768005 -8.8828115 7
-0.12547299 -1.801819 -8.9345703 7
-0.126801 -1.826965 -8.9365234 7
-0.112785 -1.839844 -8.8701172 7
-0.115398 -1.865784 -8.8769531 7
-0.118008 -1.891663 -8.8828115 7
-0.119335 -1.916748 -8.8837891 7
-0.33565101 -4.81604 -8.8994141 7
-0.33699799 -4.8425288 -8.8925781 7
-0.340904 -4.8739009 -8.8955078 7
-0.34224701 -4.9005132 -8.8896484 7
-0.33717701 -4.9143682 -8.8564453 7
-0.33083001 -4.9257808 -8.8193359 7
-0.336018 -4.9597778 -8.828125 7
-0.33607501 -4.9837041 -8.8164062 7
-0.33614001 -5.0074458 -8.8046885 7
-0.33876401 -5.036377 -8.8017578 7
-0.34266701 -5.0678711 -8.8046885 7
-0.346573 -5.0994868 -8.8085938 7
-0.43486801 -6.6665039 -8.2988281 7
-0.432365 -6.6826782 -8.2744141 7
-0.066177003 1.277649 -8.4482422 7
-0.063656002 1.25238 -8.4394531 7
-0.064938001 1.2290649 -8.4482422 7
-0.061152998 1.203186 -8.4345703 7
-0.057353999 1.177368 -8.4189453 7
-0.058635999 1.154236 -8.4277344 7
-0.053580999 1.127869 -8.4072266 7
-0.052329998 1.103577 -8.4042969 7
-0.049805 1.078552 -8.3964844 7
-0.052361 1.056091 -8.4101562 7
-0.052375998 1.032288 -8.4121094 7
-0.056189999 1.0103149 -8.4306641 7
-0.063808002 0.98992902 -8.4667969 7
-0.062560998 0.96533197 -8.4638672 7
-0.110012 -1.602051 -8.4775391 7
-0.111393 -1.626099 -8.4794922 7
-0.115433 -1.651917 -8.4921885 7
-0.107491 -1.669312 -8.4541016 7
-0.107548 -1.6923831 -8.4511719 7
-0.11158 -1.718262 -8.4638672 7
-0.110302 -1.740051 -8.453125 7
-0.123642 -1.773132 -8.5048828 7
-0.134323 -1.804565 -8.5458984 7
-0.137032 -1.829895 -8.5527344 7
-0.127773 -1.84552 -8.5087891 7
-0.134472 -1.874023 -8.5322266 7
-0.13586 -1.898438 -8.5332031 7
-0.13589901 -1.921509 -8.5283203 7
-0.151905 -1.9580081 -8.5898438 7
-0.157276 -1.98584 -8.6083984 7
-0.346634 -5.0519409 -8.3164062 7
-0.35070401 -5.0827031 -8.3193359 7
-0.343384 -4.835938 -7.9091802 7
-0.34066001 -4.852356 -7.8886719 7
-0.34078601 -4.8955688 -7.8642578 7
-0.33806601 -4.9117432 -7.84375 7
-0.32838801 -4.9143071 -7.795898 7
-0.32850599 -4.9570308 -7.7724609 7
-0.336891 -4.9950562 -7.7910161 7
-0.33833301 -5.0192261 -7.7832031 7
-0.33845499 -5.0619512 -7.7597661 7
-0.348221 -5.1028442 -7.782227 7
-0.33390799 -4.8198848 -7.422852 7
-0.33107799 -4.8348999 -7.4003911 7
-0.33401501 -4.8608398 -7.398438 7
-0.33694801 -4.8869629 -7.3964839 7
-0.334126 -4.9017329 -7.375 7
-0.33274099 -4.9194951 -7.358398 7
-0.33278301 -4.9398189 -7.3466802 7
-0.328518 -4.9516602 -7.320312 7
-0.33145499 -4.9776611 -7.3173828 7
-0.33294699 -5.000854 -7.3105469 7
-0.33444199 -5.0240479 -7.3037109 7
-0.334492 -5.04425 -7.2919922 7
-0.340305 -5.0762329 -7.2998052 7
-0.34323499 -5.1021729 -7.296875 7
-0.338974 -5.11377 -7.2705078 7
-0.33069199 -4.8001709 -6.9726558 7
-0.32625201 -4.8111572 -6.945312 7
-0.34125099 -4.8592529 -6.983398 7
-0.33083701 -4.8583369 -6.936523 7
-0.33088699 -4.877686 -6.9248052 7
-0.332436 -4.8999629 -6.9189448 7
-0.33247799 -4.919312 -6.907227 7
-0.32207099 -4.9180298 -6.8613281 7
-0.32660699 -4.946228 -6.8642578 7
-0.32666799 -4.9653931 -6.8505859 7
-0.335686 -5.0023189 -6.8681641 7
-0.33424401 -5.0186772 -6.851562 7
-0.33129901 -5.0318599 -6.8300781 7
-0.34929699 -5.0869751 -6.875977 7
-0.352337 -5.1123052 -6.8730469 7
-0.424992 -6.6086431 -6.0537109 7
-0.42205399 -6.6181641 -6.0283198 7
-0.423603 -6.6394038 -6.0175781 7
-0.428139 -6.6679692 -6.0136719 7
-0.43568 -6.7044072 -6.0185552 7
-0.42974499 -6.706543 -5.9863281 7
-0.32289499 -4.8001709 -6.5351558 7
-0.32603499 -4.8245239 -6.532227 7
-0.33227199 -4.85498 -6.5400391 7
-0.32458499 -4.8582759 -6.5048828 7
-0.32772401 -4.8826289 -6.5029302 7
-0.32313901 -4.8920288 -6.4775391 7
-0.31700099 -4.8981318 -6.445312 7
-0.31859201 -4.919373 -6.438477 7
-0.31864899 -4.9376221 -6.4267578 7
-0.31868699 -4.9558721 -6.4150391 7
-0.31874099 -4.9741821 -6.4023442 7
-0.32812101 -5.0288701 -6.407227 7
-0.3344 -5.0776982 -6.4023442 7
-0.33909199 -5.1051641 -6.4042969 7
-0.119339 4.4606929 -5.641602 7
-0.105541 4.4170532 -5.608398 7
-0.107067 4.4029541 -5.6230469 7
-0.100925 4.374023 -5.6142578 7
-0.100918 4.3571172 -5.624023 7
-0.103966 4.3456421 -5.6445308 7
-0.102425 4.325623 -5.6494141 7
-0.099349998 4.3026729 -5.6503911 7
-0.105469 4.2970581 -5.679688 7
-0.122311 4.3113399 -5.742188 7
-0.322292 -4.8370361 -6.078125 7
-0.322395 -4.8717041 -6.054688 7
-0.31922501 -4.88269 -6.0341802 7
-0.317669 -4.8968511 -6.0175781 7
-0.31450701 -4.907959 -5.9960942 7
-0.316154 -4.9282231 -5.9892578 7
-0.31620401 -4.945374 -5.9775391 7
-0.31625 -4.962585 -5.9658198 7
-0.31951499 -4.9860229 -5.9619141 7
-0.31473199 -4.9934082 -5.9375 7
-0.31639099 -5.0137939 -5.929688 7
-0.32446301 -5.0469971 -5.9404302 7
-0.33415201 -5.083313 -5.9560552 7
-0.334198 -5.1004639 -5.9433589 7
-0.117058 4.4584351 -5.2363281 7
-0.101147 4.411499 -5.2001948 7
-0.096363001 4.386353 -5.1943359 7
-0.091578998 4.361145 -5.1904302 7
-0.096329004 4.354187 -5.2148442 7
-0.096321002 4.3381958 -5.2255859 7
-0.096313 4.3218989 -5.235352 7
-0.101074 4.3146362 -5.2617192 7
-0.099468 4.2953491 -5.266602 7
-0.101048 4.2823491 -5.280273 7
-0.102627 4.2688599 -5.2949219 7
-0.105793 4.2584229 -5.3144531 7
-0.113735 4.2568359 -5.3486328 7
-0.123268 4.2580571 -5.3876948 7
-0.115307 4.2268071 -5.374023 7
-0.120064 4.2192378 -5.3974609 7
-0.113697 4.190918 -5.3876948 7
-0.120052 4.1860352 -5.4169922 7
-0.118443 4.1664429 -5.421875 7
-0.316872 -4.8217769 -5.6582031 7
-0.318569 -4.8413701 -5.6513672 7
-0.315285 -4.8513179 -5.6308589 7
-0.30867401 -4.8544922 -5.6005859 7
-0.31205001 -4.877563 -5.5986328 7
-0.30710599 -4.8837891 -5.5722661 7
-0.30714399 -4.9000239 -5.5605469 7
-0.31385401 -4.9293818 -5.5673828 7
-0.31056601 -4.9387212 -5.545898 7
-0.30894899 -4.9517212 -5.530273 7
-0.30399701 -4.9577031 -5.5048828 7
-0.30238 -4.9703979 -5.4882808 7
-0.312408 -5.0064092 -5.5029302 7
-0.31745899 -5.0325322 -5.5039058 7
-0.32250199 -5.0585942 -5.5048828 7
-0.33420199 -5.098145 -5.5253911 7
-0.32925001 -5.104126 -5.5 7
-0.097061001 4.4312739 -4.796875 7
-0.090446003 4.4033198 -4.789062 7
-0.088783003 4.3851318 -4.7939448 7
-0.09042 4.3730469 -4.8095698 7
-0.092055999 4.361084 -4.8232422 7
-0.095344998 4.3522339 -4.842773 7
-0.096980996 4.3401489 -4.8574219 7
-0.095325001 4.3217158 -4.8632808 7
-0.093654998 4.3033452 -4.8691411 7
-0.095294997 4.2911382 -4.8847661 7
-0.095284 4.2759399 -4.8925781 7
-0.100224 4.2695918 -4.9189448 7
-0.110104 4.2727661 -4.9560552 7
-0.123287 4.2817378 -5.0039058 7
-0.128231 4.275208 -5.0292969 7
-0.126572 4.2565918 -5.0341802 7
-0.108414 4.20752 -4.992188 7
-0.11499 4.204041 -5.0205078 7
-0.113335 4.1853638 -5.0253911 7
-0.111675 4.1668091 -5.030273 7
-0.30583599 -4.8070068 -5.2324219 7
-0.30414999 -4.8192749 -5.2167969 7
-0.31626099 -4.8579712 -5.2363281 7
-0.305958 -4.85321 -5.1992192 7
-0.311176 -4.8786621 -5.2001948 7
-0.30432501 -4.880249 -5.1699219 7
-0.30435899 -4.8954468 -5.1582031 7
-0.30612901 -4.914185 -5.1513672 7
-0.30961999 -4.9362178 -5.1494141 7
-0.31139001 -4.9546509 -5.141602 7
-0.309715 -4.9665532 -5.125977 7
-0.30630901 -4.9746699 -5.1044922 7
-0.31841701 -5.0139771 -5.1220698 7
-0.320187 -5.0325928 -5.1152339 7
-0.31678399 -5.0406489 -5.09375 7
-0.32545501 -5.0731201 -5.1035161 7
-0.33066899 -5.0988159 -5.1054692 7
-0.32898301 -5.110229 -5.0888672 7
-0.104721 4.4685059 -4.4462891 7
-0.096759997 4.436707 -4.4326172 7
-0.089905001 4.4091802 -4.4248052 7
-0.091601998 4.3982539 -4.4394531 7
-0.0933 4.3873901 -4.454102 7
-0.091578998 4.3696899 -4.4599609 7
-0.089855 4.3520508 -4.4667969 7
-0.091545001 4.3409419 -4.4814448 7
-0.091536999 4.3265991 -4.4902339 7
-0.091522001 4.3123169 -4.5 7
-0.093223996 4.3010859 -4.515625 7
-0.098334998 4.2962651 -4.539062 7
-0.103447 4.2914429 -4.563477 7
-0.110264 4.2894902 -4.592773 7
-0.115376 4.2846069 -4.6152339 7
-0.120491 4.2793579 -4.6386719 7
-0.110233 4.2454219 -4.6220698 7
-0.111931 4.2340088 -4.6367192 7
-0.111916 4.2192378 -4.6464839 7
-0.115322 4.2105708 -4.6660161 7
-0.110184 4.186523 -4.6621089 7
-0.111877 4.1749272 -4.6757808 7
-0.305702 -4.8222051 -4.8476558 7
-0.31823 -4.8609009 -4.8652339 7
-0.311138 -4.8615112 -4.8369141 7
-0.30226499 -4.858582 -4.8037109 7
-0.30408901 -4.8762822 -4.796875 7
-0.30413401 -4.8907471 -4.7851558 7
-0.30417299 -4.9051509 -4.773438 7
-0.304214 -4.91925 -4.7607422 7
-0.30960801 -4.9441528 -4.7617192 7
-0.30608001 -4.9512939 -4.7412109 7
-0.30968899 -4.9726558 -4.7382808 7
-0.306164 -4.9797969 -4.717773 7
-0.30621001 -4.9937739 -4.7060552 7
-0.31338099 -5.0223999 -4.710938 7
-0.311634 -5.0328979 -4.6943359 7
-0.318813 -5.061584 -4.7001948 7
-0.32243001 -5.0828862 -4.6962891 7
-0.30997801 -5.0715332 -4.6533198 7
-0.31716201 -5.1000981 -4.6591802 7
-0.310101 -5.1134639 -4.6162109 7
-0.117195 4.422791 -4.1826172 7
-0.111874 4.3989868 -4.179688 7
-0.106556 4.3753052 -4.1757808 7
-0.111839 4.371521 -4.2001948 7
-0.117134 4.368042 -4.2226558 7
-0.118893 4.357666 -4.2373052 7
-0.118877 4.3438721 -4.2480469 7
-0.120632 4.333313 -4.2626948 7
-0.10471 4.2896729 -4.233398 7
-0.106461 4.2790532 -4.2480469 7
-0.108215 4.2686772 -4.2617192 7
-0.104671 4.2480469 -4.2626948 7
-0.118797 4.2605591 -4.3076172 7
-0.11171 4.233582 -4.3007808 7
-0.111702 4.2194819 -4.3095698 7
-0.106384 4.1958618 -4.3066411 7
-0.111679 4.1916499 -4.3300781 7
-0.085180998 -1.874212 -7.8482409 7
-0.051277 -1.762998 -6.4257259 7
-0.270978 -5.0180082 -7.0719709 7
-0.013436 -1.669371 -5.225492 7
-0.23655801 -4.9229321 -5.7006168 7
0.0087660002 -1.600621 -4.3457632 7
-0.31182799 -4.8311548 -1.758443 7
-0.045573 -1.721514 -1.459798 7
-0.256605 -4.7512531 -0.24902 7
-0.123017 4.3734579 -5.705512 7
-0.091840997 4.3731999 -4.4563169 7
0.050526001 1.2053829 -4.8243642 7
-0.053121999 4.4230032 -1.525882 7
-0.067029998 4.2830491 -1.762002 7
-0.242318 -1.798828 -13.781857 7
-0.164009 -1.7427779 -10.547044 7
-0.08715 1.264763 -9.4123268 7
-0.108633 -1.6043431 -8.5028791 7
-0.101902 -1.893577 -8.3628292 7
-0.362838 -4.995913 -11.073902 7
-0.036598001 0.99087799 -7.6230779 7
-0.068585001 -1.818539 -7.056694 7
-0.333648 -4.9571128 -9.2302217 7
-0.052896 -1.790339 -6.2014179 7
-0.112053 4.2781572 -5.653348 7
-0.05215 1.020847 -6.3503151 7
-0.3563 -4.9440899 -7.3114719 7
-0.100881 4.3055992 -4.6691952 7
-0.11604 4.2410102 -4.9234848 7
-0.024135999 1.1042629 -5.5434532 7
-0.097158998 -1.786134 -5.5878549 7
-0.30697799 -4.914207 -5.903203 7
-0.0051810001 1.128693 -4.9577422 7
-0.0047030002 0.96555299 -4.9914789 7
-0.091870002 -1.75204 -5.136023 7
-0.27732599 -4.882781 -4.807528 7
-0.0306 4.4239531 -1.354318 7
-0.030343 4.3781042 -1.5364701 7
-0.034609001 4.365016 -1.720359 7
-0.037542 4.3327689 -1.90187 7
-0.040392 4.2925758 -2.0816 7
-0.072609998 -1.7133451 -4.642467 7
-0.077540003 -1.880512 -4.6085019 7
-0.021709001 1.131572 -4.451942 7
-0.048188001 -1.650822 -4.1859589 7
-0.058773998 -1.8184 -4.183671 7
-0.050595 -1.759748 -3.886559 7
-0.036109 -1.831949 -1.565142 7
-0.042307999 -1.876309 -1.4931999 7
-0.044000998 -1.901163 -1.415985 7
-0.040872 -1.908046 -1.31575 7
-0.015088 -1.683948 -1.531639 7
-0.018572999 -1.715796 -1.463897 7
-0.012742 -1.711586 -1.389593 7
-0.013184 -1.726817 -1.318344 7
-0.0079760002 -1.608022 -1.461573 7
-0.0053070001 -1.615054 -1.393276 7
-0.012005 -1.654649 -1.311162 7
