# .PCD v0.7 - Point Cloud Data file format
VERSION 0.7
FIELDS x y z intensity
SIZE 4 4 4 4
TYPE F F F F
COUNT 1 1 1 1
WIDTH 892
HEIGHT 1
VIEWPOINT 0 0 0 1 0 0 0
POINTS 892
DATA ascii
1.5695111 44.620667 12.998047 7
1.569321 44.681702 12.900391 7
1.46701 42.473877 13.092773 7
1.46833 42.439087 12.975586 7
1.467178 42.550903 12.896484 7
1.363457 40.490906 13.063477 7
1.363037 40.551941 12.976562 7
1.36055 40.714355 12.919922 7
1.360817 40.741272 12.823242 7
1.282097 39.190735 12.898438 7
1.282097 39.22876 12.808594 7
1.279892 39.362488 12.74707 7
1.2013021 37.092224 13.050781 7
1.201241 37.130798 12.966797 7
1.198517 37.269653 12.913086 7
1.19754 37.449219 12.868164 7
1.194679 37.59375 12.814453 7
-0.037597999 0.76855499 72.910156 7
1.1272579 35.6698 13.078125 7
1.125015 35.780701 13.018555 7
1.123276 35.874878 12.957031 7
1.122185 35.946655 12.885742 7
-0.121338 -2.7633059 68.266602 7
-0.18324301 -2.674988 70.074219 7
-0.26188701 -2.596252 72.366211 7
-0.070076004 0.39843801 66.956055 7
-0.063629001 0.55224597 66.773438 7
-0.18270101 -3.0114751 63.550781 7
-0.220589 -2.910217 64.556641 7
-0.29319799 -2.844238 66.474609 7
-0.088707 -0.063721001 61.396484 7
-0.076981001 0.077881001 61.092773 7
-0.055939 2.0405879 60.580078 7
-0.05883 2.1838379 60.65625 7
-0.022980001 2.287354 59.710938 7
-0.106224 5.2466431 61.849609 7
-0.073944002 5.31427 60.991211 7
0.99240899 31.957397 13.052734 7
0.99221802 31.995667 12.979492 7
-0.1884 -3.265686 57.769531 7
-0.22782899 -3.1842649 58.71875 7
-0.27167499 -3.1040649 59.772461 7
-0.096588001 -0.56994599 55.757812 7
-0.127838 -0.447144 56.508789 7
-0.121284 -0.315552 56.358398 7
-0.067313999 2.2411499 55.233398 7
-0.079108998 2.381165 55.514648 7
-0.037827 2.463928 54.527344 7
-0.123756 5.3097529 56.491211 7
-0.092789002 5.3677368 55.745117 7
-0.05452 5.4044189 54.824219 7
-0.30062899 -3.2636111 55.491211 7
-0.332138 -3.175415 56.188477 7
-0.096321002 2.1960449 51.348633 7
-0.055573002 2.2731321 50.455078 7
-0.087158002 2.423279 51.145508 7
-0.041336 2.48999 50.140625 7
-0.091849998 5.3848271 51.12207 7
-0.061836001 5.430603 50.458984 7
0.88278198 29.312561 9.875 7
0.88371301 29.31543 9.8027344 7
0.88115698 29.396912 9.75 7
0.87660199 29.52356 9.7099609 7
0.87280297 29.633301 9.6650391 7
-0.52360499 2.1324461 -64.477539 7
-0.454521 1.921692 -62.884766 7
-0.52558899 1.817261 -64.608398 7
-0.61726397 -4.70929 -60.063477 7
-0.102722 2.125488 47.180664 7
-0.078056 2.2098391 46.68457 7
-0.114166 5.3092041 47.34375 7
-0.081992999 5.3427119 46.693359 7
-0.054191999 5.383606 46.128906 7
-0.00721 5.3746338 45.180664 7
0.81494898 27.942505 9.9082031 7
0.81978601 27.86676 9.8134766 7
0.81832099 27.920105 9.7568359 7
0.80999798 28.113525 9.7421885 7
0.80606103 28.217468 9.7011719 7
0.800484 28.354736 9.6689453 7
-0.38493299 2.483093 -55.449219 7
-0.44245899 2.4003301 -56.728516 7
-0.34423101 2.1773069 -54.547852 7
-0.42494199 2.109375 -56.341797 7
-0.47618899 2.0105591 -57.481445 7
-0.357124 -1.142212 -50.375 7
-0.49085999 -4.6600952 -52.755859 7
-0.507851 -4.946228 -53.06543 7
-0.455551 -4.975647 -51.992188 7
-0.058646999 2.0357671 43.197266 7
-0.057243001 2.1335449 43.168945 7
-0.046432 2.221863 42.964844 7
-0.13564301 5.1799321 44.466797 7
-0.113258 5.2312622 44.041992 7
-0.072723001 5.2385859 43.282227 7
-0.045021001 5.272583 42.758789 7
-0.41645101 2.5919189 -51.680664 7
-0.454887 2.502563 -52.462891 7
-0.51371801 2.42804 -53.661133 7
-0.442146 2.236877 -52.206055 7
-0.48289499 2.1428831 -53.03418 7
-0.30897501 -0.58551002 -44.99707 7
-0.34284201 -0.81542999 -45.613281 7
-0.35624701 -1.3768311 -45.827148 7
-0.31166101 -1.461975 -44.994141 7
-0.32418799 -1.579285 -45.217773 7
-0.302948 -1.674988 -44.817383 7
-0.51059002 -4.9880371 -48.316406 7
-0.48900601 -5.0641479 -47.90332 7
-0.031578001 1.940735 39.358398 7
-0.022224 2.022156 39.196289 7
-0.035728 2.1248169 39.424805 7
-0.017859999 2.197083 39.116211 7
-0.090636998 5.131897 40.173828 7
-0.068718001 5.173645 39.791016 7
-0.047805998 5.216187 39.425781 7
-0.038467001 5.2844238 39.257812 7
-0.33524299 2.9423831 -45.421875 7
-0.37571001 2.876343 -46.182617 7
-0.41867799 2.809387 -46.988281 7
-0.453529 2.730103 -47.642578 7
-0.50338697 2.6624761 -48.577148 7
-0.24822199 -0.132019 -40.429688 7
-0.30684701 -0.438171 -41.419922 7
-0.34767899 -1.5734251 -42.051758 7
-0.29148099 -1.638611 -41.083984 7
-0.27938101 -1.730347 -40.870117 7
-0.28744501 -1.835815 -41 7
-0.262344 -1.9161381 -40.563477 7
-0.53105199 -5.0758061 -44.813477 7
-0.506271 -5.1370239 -44.376953 7
-0.114281 -0.90057403 37.880859 7
-0.129639 -0.81964099 38.12793 7
-0.048294 2.068176 36.90918 7
-0.084556997 5.092834 37.268555 7
-0.051681999 5.1869512 36.730469 7
-0.046760999 5.25946 36.642578 7
-0.27349901 3.251343 -40.689453 7
-0.301056 3.186157 -41.168945 7
-0.33707401 3.129333 -41.793945 7
-0.365646 3.060791 -42.291992 7
-0.40066499 2.9971311 -42.899414 7
-0.46006 2.9580691 -43.926758 7
-0.493393 2.8859251 -44.505859 7
-0.25615701 0.032898001 -36.929688 7
-0.28773499 -0.059142999 -37.425781 7
-0.31720001 -1.796753 -37.959961 7
-0.28123501 -1.862183 -37.389648 7
-0.243774 -1.923767 -36.795898 7
-0.27676401 -2.04126 -37.304688 7
-0.237434 -2.0982671 -36.681641 7
-0.283485 -2.229614 -37.394531 7
-0.29715699 -3.8964839 37.480469 7
-0.095519997 -1.060364 34.775391 7
-0.030327 1.816528 33.894531 7
-0.054343998 1.991943 34.241211 7
-0.100067 4.967896 34.680664 7
-0.062743999 5.1199951 34.107422 7
-0.26893601 3.5240481 -37.049805 7
-0.29009199 3.461792 -37.389648 7
-0.324913 3.416687 -37.945312 7
-0.35271499 3.3596189 -38.389648 7
-0.39013699 3.312988 -38.986328 7
-0.41943401 3.2532351 -39.453125 7
-0.21359999 0.30157501 -36.262695 7
-0.247017 0.214783 -36.789062 7
-0.217178 0.122131 -36.316406 7
-0.28614801 -1.913818 -34.926758 7
-0.25283799 -1.9725339 -34.432617 7
-0.263771 -2.0661011 -34.584961 7
-0.26514399 -2.151978 -34.59668 7
-0.244186 -2.2175291 -34.283203 7
-0.117851 -1.080811 33.032227 7
-0.116058 -1.005066 33.011719 7
-0.031075001 1.848816 31.902344 7
-0.097397 4.8771362 32.568359 7
-0.107002 4.9721069 32.689453 7
-0.097999997 5.0264282 32.556641 7
-0.076301999 5.0519409 32.25 7
-0.063492 5.0961909 32.06543 7
0.504852 20.807434 13.205078 7
0.505005 20.835144 13.155273 7
0.50268602 20.893433 13.123047 7
0.56961101 21.519531 9.9179688 7
0.56608599 21.588562 9.8857422 7
0.56214899 21.662781 9.8564453 7
-0.28163901 3.6547239 -34.658203 7
-0.289253 3.5796511 -34.776367 7
-0.31701699 3.5324709 -35.192383 7
-0.33766899 3.4736331 -35.501953 7
-0.37136099 3.4307859 -36.005859 7
-0.39438599 3.371582 -36.351562 7
-0.33481601 3.205627 -35.478516 7
-0.218071 0.30737299 -34.046875 7
-0.236542 0.22552501 -34.31543 7
-0.280487 0.143738 -34.958984 7
-0.238068 0.057128999 -34.333008 7
-0.276108 -2.0800171 -32.072266 7
-0.246704 -2.21051 -31.658203 7
-0.234962 -2.3546751 -31.485352 7
-0.099030003 -1.2713619 30.558594 7
-0.087517001 -1.19635 30.415039 7
-0.097382002 -1.063416 30.548828 7
-0.119698 -1.00415 30.838867 7
-0.045235001 1.662964 29.907227 7
-0.037514001 1.725769 29.84082 7
-0.054267999 1.8065799 30.051758 7
-0.040947001 1.863281 29.87793 7
-0.110687 4.90802 30.493164 7
-0.089530997 4.9996948 30.204102 7
-0.062606998 5.0080571 29.853516 7
0.45668 19.573364 13.120117 7
0.51880598 20.412292 9.8720703 7
-0.249092 3.883667 -31.446289 7
-0.265396 3.83075 -31.676758 7
-0.28427899 3.7805181 -31.941406 7
-0.30229199 3.727905 -32.193359 7
-0.33397701 3.6941531 -32.631836 7
-0.364815 3.6572881 -33.057617 7
-0.37174201 3.584656 -33.15918 7
-0.207497 0.56909198 -31.039062 7
-0.233688 0.497192 -31.395508 7
-0.27180499 -2.0844729 -29.804688 7
-0.295158 -2.2523799 -30.084961 7
-0.091034003 -1.253479 28.636719 7
-0.094887003 -1.192993 28.71582 7
-0.099174 -1.130432 28.772461 7
-0.096169002 -1.06427 28.740234 7
-0.110199 -1.005859 28.911133 7
-0.073325999 1.641785 28.490234 7
-0.052345 1.690063 28.236328 7
-0.041556999 1.745361 28.103516 7
-0.063316002 1.826233 28.361328 7
-0.046218999 1.875671 28.15332 7
-0.114212 4.863647 28.670898 7
-0.104401 4.9072881 28.544922 7
-0.088294998 4.9367681 28.34375 7
-0.077995002 4.9780879 28.211914 7
-0.074005 5.032959 28.154297 7
-0.35080001 3.8551641 -30.519531 7
-0.35225701 3.780884 -30.545898 7
-0.35737601 3.7119751 -30.618164 7
-0.157288 0.024048001 -26.081055 7
-0.148514 -0.041382 -25.975586 7
-0.139236 -0.106506 -25.864258 7
-0.25398299 -2.057373 -27.373047 7
-0.260216 -2.198303 -27.433594 7
-0.236183 -2.3109131 -27.137695 7
-1.5599819 -40.798279 10.918945 7
-1.57943 -40.985413 11.06543 7
-1.561363 -40.763611 11.115234 7
-1.5250551 -40.343628 11.116211 7
-1.50489 -40.099487 11.15625 7
-0.105515 -1.053894 26.964844 7
-0.034798 1.6233521 26.216797 7
-0.029495001 1.678162 26.15625 7
-0.046066001 1.7496949 26.336914 7
-0.038169999 1.8026119 26.246094 7
-0.031837001 1.856079 26.172852 7
-0.029137 1.912659 26.139648 7
-0.092987001 4.851624 26.526367 7
-0.080406003 4.8841548 26.376953 7
-0.073021002 4.9274292 26.286133 7
-0.25882 3.992615 -27.073242 7
-0.26479301 3.9343259 -27.152344 7
-0.30383301 3.858093 -27.625977 7
-0.31178299 3.8009031 -27.727539 7
-0.18009201 0.28942901 -26.353516 7
-0.173775 0.22259501 -26.27832 7
-0.17337 0.156433 -26.273438 7
-0.166573 0.090088002 -26.191406 7
-0.167786 -0.32482901 -24.646484 7
-0.15888999 -0.38470501 -24.545898 7
-0.153175 -0.44445801 -24.480469 7
-0.151169 -0.50494403 -24.456055 7
-0.14704899 -0.56469703 -24.408203 7
-0.14399 -0.624695 -24.371094 7
-0.22886699 -1.963928 -25.207031 7
-0.219437 -2.0184331 -25.09668 7
-0.21426401 -2.0762329 -25.033203 7
-0.24890099 -2.1691279 -25.40625 7
-0.232582 -2.2171631 -25.220703 7
-0.223068 -2.1243899 -23.415039 7
-0.22035199 -2.1799321 -23.379883 7
-0.22048201 -2.238281 -23.374023 7
-0.24966399 4.1221919 -23.246094 7
-0.24353001 4.052856 -23.191406 7
-0.25034299 4.005188 -23.270508 7
-0.25434899 3.9528201 -23.319336 7
-0.274681 3.9260249 -23.535156 7
-0.28037301 3.8752439 -23.602539 7
-0.19823501 -1.650085 -21.734375 7
-0.19292399 -1.700623 -21.676758 7
-0.20449799 -1.7633671 -21.783203 7
-0.202805 -1.816467 -21.760742 7
-0.19747899 -1.86676 -21.705078 7
-0.43509701 -5.3561401 -23.419922 7
-0.91130102 -25.656555 14.082031 7
-0.91201001 -25.631653 14.145508 7
-0.18185399 -1.690369 -20.166016 7
-0.20261399 -1.807251 -20.342773 7
-0.195648 -1.852844 -20.274414 7
-0.19639599 -1.904297 -20.276367 7
-0.19854701 -2.00769 -20.28418 7
-0.208939 -2.067627 -20.373047 7
-0.20967899 -2.119385 -20.37207 7
-0.21440101 -2.2258911 -20.402344 7
-0.42324799 -5.3312378 -21.729492 7
-0.93195301 -25.487244 10.689453 7
-0.92269897 -25.38855 10.72168 7
-0.91010302 -25.262756 10.743164 7
-0.89217401 -25.093262 10.748047 7
-0.87622797 -24.940308 10.758789 7
-0.86230499 -24.803589 10.774414 7
-0.85437 -24.715942 10.808594 7
-0.85379797 -24.687988 10.864258 7
-0.76087999 -22.303772 13.975586 7
-0.75893402 -22.258362 14.020508 7
-0.753654 -22.188049 14.049805 7
-0.74769598 -22.112488 14.077148 7
-0.202003 4.1231079 -19.785156 7
-0.209694 4.0853882 -19.864258 7
-0.221214 4.053833 -19.976562 7
-0.229553 4.016479 -20.060547 7
-0.197777 -1.942871 -19.076172 7
-0.193802 -1.9875489 -19.037109 7
-0.212448 -2.1478879 -19.177734 7
-0.172638 -1.94696 -17.701172 7
-0.20008101 -2.0148931 -17.916016 7
-0.19945499 -2.0596919 -17.905273 7
-0.198837 -2.1043091 -17.894531 7
-0.196053 -2.1470339 -17.867188 7
-0.43134299 -5.1497192 -19.18457 7
-0.42351499 -5.182312 -19.111328 7
-0.41642001 -5.2158809 -19.041016 7
-0.41365099 -5.2580571 -19.006836 7
-0.42169201 -5.3222051 -19.054688 7
-0.43986499 -5.4076538 -19.183594 7
-0.57301301 -17.492371 13.767578 7
-0.573807 -17.467712 13.813477 7
-0.56787902 -17.400269 13.828125 7
-0.56497997 -17.322021 13.897461 7
-0.18283799 4.1765752 -17.168945 7
-0.178589 4.1244512 -17.144531 7
-0.177193 4.0776372 -17.143555 7
-0.180489 -1.930359 -16.709961 7
-0.206467 -1.994507 -16.900391 7
-0.19513699 -2.02771 -16.808594 7
-0.19751699 -2.0723879 -16.821289 7
-0.195328 -2.11322 -16.798828 7
-0.206825 -2.166321 -16.880859 7
-0.21453901 -2.216248 -16.932617 7
-0.42935199 -5.135376 -17.972656 7
-0.42182201 -5.165771 -17.90332 7
-0.42193601 -5.2111821 -17.891602 7
-0.42280599 -5.2579961 -17.884766 7
-0.43360901 -5.3250122 -17.951172 7
-0.43905601 -5.3813481 -17.976562 7
-0.62494701 -18.533508 10.599609 7
-0.61398298 -18.438843 10.608398 7
-0.60774201 -18.375305 10.631836 7
-0.59913599 -18.296509 10.645508 7
-0.18367 4.1572881 -16.089844 7
-0.18824799 4.12323 -16.132812 7
-0.192825 4.0890498 -16.175781 7
-0.20269001 4.0635991 -16.258789 7
-0.22313701 4.055603 -16.421875 7
-0.217125 4.0028691 -16.386719 7
-0.20355199 3.9376831 -16.293945 7
-0.19526701 3.8818359 -16.240234 7
-0.17752101 -1.7815551 -15.707031 7
-0.178413 -1.822327 -15.707031 7
-0.181885 -1.945251 -15.716797 7
-0.19967701 -2.0002439 -15.838867 7
-0.189308 -2.0318601 -15.759766 7
-0.188591 -2.071106 -15.748047 7
-0.195923 -2.1177371 -15.794922 7
-0.210495 -2.171387 -15.893555 7
-0.212189 -2.2132571 -15.898438 7
-0.417328 -5.1278081 -16.746094 7
-0.41340601 -5.1626592 -16.706055 7
-0.415932 -5.2098389 -16.709961 7
-0.419258 -5.2589111 -16.719727 7
-0.43228099 -5.3278198 -16.796875 7
-0.43642399 -5.3786621 -16.810547 7
-0.442177 -5.433167 -16.836914 7
-0.52542102 -6.9067988 -16.9375 7
-0.52554297 -6.9497681 -16.919922 7
-0.533737 -7.0136719 -16.957031 7
-0.11525 0.96075398 -15.008789 7
-0.116158 0.882263 -15.018555 7
-0.178215 -1.9202271 -14.830078 7
-0.19522899 -1.9721071 -14.938477 7
-0.18684401 -2.0031741 -14.875977 7
-0.188622 -2.042908 -14.883789 7
-0.180244 -2.0734861 -14.820312 7
-0.19810501 -2.127502 -14.935547 7
-0.195641 -2.1634519 -14.914062 7
-0.20503999 -2.210449 -14.970703 7
-0.41293299 -5.143188 -15.725586 7
-0.40879101 -5.1750488 -15.686523 7
-0.416527 -5.2305298 -15.722656 7
-0.42340899 -5.2845459 -15.754883 7
-0.430305 -5.338623 -15.786133 7
-0.437195 -5.3928218 -15.817383 7
-0.52760297 -6.7288208 -15.973633 7
-0.53450799 -6.7866211 -16.000977 7
-0.53122699 -6.8190308 -15.963867 7
-0.524544 -6.8423462 -15.902344 7
-0.524643 -6.8831182 -15.886719 7
-0.5205 -6.9127808 -15.84375 7
-0.53250903 -6.9840088 -15.902344 7
-0.17946599 -1.968994 -14.015625 7
-0.180428 -2.005981 -14.016602 7
-0.175163 -2.0374761 -13.977539 7
-0.186821 -2.083801 -14.046875 7
-0.52419299 -6.7290649 -14.950195 7
-0.52787799 -6.7761841 -14.955078 7
-0.522614 -6.80127 -14.90625 7
-0.52003503 -6.832581 -14.874023 7
-0.521034 -6.8731079 -14.863281 7
-0.51934803 -6.9066162 -14.835938 7
-0.51855499 -6.9423218 -14.814453 7
-0.53654498 -7.0266109 -14.904297 7
-0.15663099 4.2373052 -13.110352 7
-0.129822 0.87188703 -13.470703 7
-0.51181799 -6.7427979 -13.951172 7
-0.50921601 -6.8074341 -13.902344 7
-0.51775402 -6.8648682 -13.933594 7
-0.50472301 -6.867065 -13.84375 7
-0.51042902 -6.9173579 -13.859375 7
-0.51146698 -6.9555049 -13.847656 7
-0.180283 4.3790278 -12.458984 7
-0.178452 4.3421631 -12.458008 7
-0.15527301 4.2667851 -12.329102 7
-0.16086601 4.2437739 -12.37207 7
-0.164597 4.2172241 -12.404297 7
-0.17018899 4.1937871 -12.448242 7
-0.17113499 4.1621089 -12.463867 7
-0.1064 0.95776403 -12.59668 7
-0.10923 0.92517102 -12.616211 7
-0.116707 0.89434803 -12.665039 7
-0.089805998 0.85052502 -12.499023 7
-0.114006 0.82574499 -12.650391 7
-0.144333 -1.6272579 -12.387695 7
-0.14537799 -1.660156 -12.389648 7
-0.150345 -1.695984 -12.413086 7
-0.15924101 -1.734863 -12.462891 7
-0.146561 -1.757629 -12.382812 7
-0.147614 -1.790466 -12.383789 7
-0.14769 -1.822876 -12.378906 7
-0.168358 -1.871399 -12.495117 7
-0.175293 -1.909546 -12.530273 7
-0.162605 -1.931641 -12.452148 7
-0.165619 -1.9664921 -12.464844 7
-0.16568799 -1.998901 -12.458984 7
-0.090103 1.030273 -11.789062 7
-0.092101999 0.999268 -11.802734 7
-0.091164 0.96716303 -11.799805 7
-0.175575 -1.917419 -11.904297 7
-0.161285 -1.936584 -11.818359 7
-0.16442899 -1.970276 -11.832031 7
-0.164497 -2.0012209 -11.827148 7
-0.13433801 -1.6181639 -11.078125 7
-0.13762701 -1.649658 -11.091797 7
-0.14199799 -1.681885 -11.109375 7
-0.14852101 -1.715881 -11.139648 7
-0.143204 -1.741089 -11.106445 7
-0.13681801 -1.765503 -11.069336 7
-0.14225 -1.7987061 -11.09375 7
-0.141243 -1.827087 -11.083008 7
-0.153145 -1.86554 -11.140625 7
-0.166115 -1.905212 -11.204102 7
-0.152199 -1.923218 -11.125 7
-0.155495 -1.955322 -11.137695 7
-0.158783 -1.987427 -11.150391 7
-0.162071 -2.01947 -11.163086 7
-0.169662 -2.0553589 -11.199219 7
-0.090103 1.1383671 -10.552734 7
-0.084793001 1.106812 -10.527344 7
-0.083755001 1.077515 -10.523438 7
-0.079506002 1.046631 -10.503906 7
-0.081717998 0.99029499 -10.519531 7
-0.081757002 0.96154797 -10.520508 7
-0.132294 -1.629578 -10.519531 7
-0.135902 -1.743408 -10.519531 7
-0.139397 -1.801636 -10.52832 7
-0.35958901 -4.81073 -10.817383 7
-0.36190799 -4.8435059 -10.81543 7
-0.37097901 -4.8893428 -10.847656 7
-0.380142 -4.9640498 -10.867188 7
-0.38247699 -4.9971309 -10.865234 7
-0.37128401 -5.0037231 -10.798828 7
-0.37033099 -5.0584722 -10.770508 7
-0.371521 -5.0892329 -10.763672 7
-0.170311 4.4677119 -9.6621094 7
-0.169205 4.4389648 -9.6679688 7
-0.16922 4.412231 -9.6777344 7
-0.15694401 4.3626099 -9.6298828 7
-0.145798 4.3152471 -9.5849609 7
-0.14469101 4.2867432 -9.5898438 7
-0.146935 4.2640991 -9.6113281 7
-0.149178 4.2416992 -9.6318359 7
-0.149185 4.2150879 -9.6416016 7
-0.151436 4.1925049 -9.6621094 7
-0.15479299 4.171875 -9.6875 7
-0.165977 4.1647949 -9.7519531 7
-0.13613901 -1.614868 -10.025391 7
-0.133858 -1.6398931 -10.009766 7
-0.140938 -1.671509 -10.039062 7
-0.144508 -1.700806 -10.052734 7
-0.13402601 -1.719666 -9.9970703 7
-0.13407899 -1.7462161 -9.9931641 7
-0.138832 -1.776428 -10.011719 7
-0.143585 -1.806702 -10.029297 7
-0.15536501 -1.84259 -10.081055 7
-0.16010299 -1.873108 -10.099609 7
-0.14961199 -1.891235 -10.043945 7
-0.150841 -1.919006 -10.045898 7
-0.37389401 -5.0896001 -10.161133 7
-0.089042999 1.278015 -9.4921885 7
-0.086739004 1.2503051 -9.4833984 7
-0.090271004 1.225952 -9.5039062 7
-0.087958999 1.198303 -9.4951172 7
-0.087990001 1.172119 -9.4960938 7
-0.086860999 1.145142 -9.4941406 7
-0.084556997 1.117859 -9.4853516 7
-0.071746998 1.085266 -9.4248047 7
-0.071777001 1.059021 -9.4277344 7
-0.076485001 1.034973 -9.4521484 7
-0.075347997 1.008423 -9.4482422 7
-0.077712998 0.983154 -9.4619141 7
-0.117065 -1.609863 -9.4482422 7
-0.124451 -1.6403199 -9.4785156 7
-0.122063 -1.66394 -9.4628906 7
-0.133102 -1.6973881 -9.5097656 7
-0.122177 -1.7146 -9.4541016 7
-0.124664 -1.74176 -9.4609385 7
-0.13204999 -1.772766 -9.4902344 7
-0.124779 -1.792419 -9.4521484 7
-0.143143 -1.832153 -9.5332031 7
-0.14929999 -1.8625489 -9.5576172 7
-0.14814 -1.887085 -9.546875 7
-0.142097 -1.907593 -9.5126953 7
-0.36047399 -4.979248 -9.5634766 7
-0.36299899 -5.0097051 -9.5615234 7
-0.36673701 -5.042419 -9.5644531 7
-0.359474 -5.0535889 -9.5214844 7
-0.360771 -5.081665 -9.5146484 7
-0.36695901 -5.1193848 -9.5292969 7
-0.103142 -1.600098 -8.8994141 7
-0.109566 -1.628601 -8.9228516 7
-0.118546 -1.65918 -8.9580078 7
-0.102028 -1.671082 -8.8808594 7
-0.102081 -1.695068 -8.8759766 7
-0.104683 -1.720886 -8.8837891 7
-0.107292 -1.7468261 -8.890625 7
-0.113716 -1.775696 -8.9150391 7
-0.126526 -1.809692 -8.9658203 7
-0.13677999 -1.84198 -9.0068359 7
-0.11898 -1.851746 -8.9238281 7
-0.119034 -1.875977 -8.9189453 7
-0.122917 -1.902954 -8.9316406 7
-0.124245 -1.928223 -8.9326172 7
-0.346939 -4.9235229 -8.9316406 7
-0.347069 -4.9716802 -8.9082031 7
-0.344574 -4.9907231 -8.8867188 7
-0.34719801 -5.019958 -8.8847656 7
-0.348557 -5.0465088 -8.8789062 7
-0.35636899 -5.1095581 -8.8837891 7
-0.111572 -1.609741 -8.5107422 7
-0.119637 -1.661621 -8.5361328 7
-0.122345 -1.686584 -8.5419922 7
-0.111786 -1.701965 -8.4941406 7
-0.115814 -1.728027 -8.5058594 7
-0.115929 -1.7739871 -8.4980469 7
-0.134537 -1.811584 -8.5712891 7
-0.14393599 -1.865417 -8.6015615 7
-0.13470501 -1.881104 -8.5576172 7
-0.142708 -1.910889 -8.5869141 7
-0.14542399 -1.936462 -8.59375 7
-0.161461 -1.996521 -8.6503906 7
-0.157524 -2.016541 -8.6289062 7
-0.16825099 -2.07251 -8.6640615 7
-0.35403401 -4.8293462 -8.5 7
-0.350113 -4.8447881 -8.4726562 7
-0.358154 -4.8831792 -8.4921885 7
-0.35955799 -4.908813 -8.4863281 7
-0.36626399 -4.9447021 -8.4990234 7
-0.36234301 -4.960083 -8.4716797 7
-0.35575101 -4.9699712 -8.4335938 7
-0.35448501 -4.990356 -8.4169922 7
-0.35588801 -5.0159302 -8.4111328 7
-0.357292 -5.0414429 -8.4033203 7
-0.354698 -5.0588989 -8.3808594 7
-0.35607901 -5.0844121 -8.375 7
-0.34375 -4.8058472 -7.9560552 7
-0.34796101 -4.8355708 -7.9589839 7
-0.353569 -4.868042 -7.9667969 7
-0.35363799 -4.8898931 -7.9560552 7
-0.35092899 -4.9061279 -7.9335942 7
-0.349617 -4.925354 -7.9169922 7
-0.34412399 -4.9362178 -7.8857422 7
-0.34280401 -4.9550781 -7.8691411 7
-0.34287301 -4.976685 -7.8574219 7
-0.34293401 -4.9981079 -7.844727 7
-0.34854901 -5.0307012 -7.851562 7
-0.35275999 -5.0604858 -7.8544922 7
-0.35144001 -5.0793462 -7.8378911 7
-0.35565901 -5.1092529 -7.8417969 7
-0.33633399 -4.81073 -7.4570308 7
-0.33640301 -4.8314209 -7.445312 7
-0.34220901 -4.8629761 -7.453125 7
-0.34658799 -4.8919072 -7.4560552 7
-0.34520701 -4.909729 -7.4394531 7
-0.34095001 -4.921936 -7.4130859 7
-0.34101099 -4.9423828 -7.4013672 7
-0.34108001 -4.9628911 -7.389648 7
-0.34257501 -4.986145 -7.382812 7
-0.344078 -5.0093989 -7.375 7
-0.34269699 -5.026978 -7.3574219 7
-0.34419999 -5.050293 -7.3505859 7
-0.34570301 -5.0735469 -7.34375 7
-0.35151699 -5.1054692 -7.351562 7
-0.44198599 -6.5809331 -6.71875 7
-0.44637299 -6.6105351 -6.7148442 7
-0.44499999 -6.625916 -6.6943359 7
-0.445061 -6.6448359 -6.6787109 7
-0.44081101 -6.6526489 -6.6494141 7
-0.442314 -6.6751099 -6.6386719 7
-0.44238299 -6.6937871 -6.6230469 7
-0.43956801 -6.7051392 -6.5986328 7
-0.33805099 -4.8255 -7.0136719 7
-0.339607 -4.8477778 -7.0068359 7
-0.34861001 -4.884644 -7.0244141 7
-0.35166201 -4.9100952 -7.0224609 7
-0.34276599 -4.9121699 -6.9804692 7
-0.34281901 -4.9315801 -6.96875 7
-0.342888 -4.9511719 -6.9570308 7
-0.33696699 -4.9587402 -6.9257808 7
-0.33554101 -4.9752202 -6.9091802 7
-0.34156001 -5.0064092 -6.9169922 7
-0.344612 -5.0316768 -6.9150391 7
-0.340195 -5.0418701 -6.8876948 7
-0.34472701 -5.0701289 -6.889648 7
-0.361092 -5.1175542 -6.9267578 7
-0.434441 -6.6564331 -6.0732422 7
-0.436005 -6.6776729 -6.0625 7
-0.43613401 -6.7122798 -6.030273 7
-0.12911201 4.4645391 -6.0488281 7
-0.124664 4.4379268 -6.0439448 7
-0.112823 4.3972778 -6.014648 7
-0.103935 4.3622441 -5.9951172 7
-0.109856 4.3554692 -6.0263672 7
-0.103928 4.3261719 -6.016602 7
-0.109856 4.3193359 -6.045898 7
-0.108376 4.2984619 -6.0507808 7
-0.100952 4.266541 -6.0361328 7
-0.108368 4.2622681 -6.0712891 7
-0.118736 4.2633061 -6.1152339 7
-0.123184 4.2531128 -6.140625 7
-0.121704 4.2320561 -6.1455078 7
-0.123184 4.2165532 -6.1611328 7
-0.132072 4.214294 -6.2011719 7
-0.121704 4.177124 -6.1748052 7
-0.129105 4.1721191 -6.2089839 7
-0.13948099 4.1721802 -6.2548828 7
-0.336952 -4.8143311 -6.6025391 7
-0.329353 -4.8366089 -6.554688 7
-0.33713499 -4.8701172 -6.5673828 7
-0.33873701 -4.891479 -6.5605469 7
-0.33261099 -4.8980098 -6.530273 7
-0.33266401 -4.9163818 -6.5175781 7
-0.32964301 -4.9285889 -6.4960942 7
-0.33123001 -4.9500728 -6.4892578 7
-0.32517201 -4.9744868 -6.4462891 7
-0.32528701 -5.0109248 -6.422852 7
-0.33616599 -5.0507808 -6.4433589 7
-0.34085101 -5.0782471 -6.445312 7
-0.34863999 -5.1121221 -6.4570308 7
-0.11747 4.4553218 -5.6279302 7
-0.106743 4.417603 -5.6044922 7
-0.103661 4.3945308 -5.6054692 7
-0.099068001 4.3685908 -5.601562 7
-0.091399997 4.3369141 -5.5878911 7
-0.095992997 4.3287349 -5.6113281 7
-0.097526997 4.3145752 -5.6269531 7
-0.111313 4.3233638 -5.6806641 7
-0.099059999 4.2832642 -5.6513672 7
-0.103653 4.2746582 -5.6757808 7
-0.102119 4.254395 -5.6816411 7
-0.100586 4.234436 -5.6855469 7
-0.106712 4.2285161 -5.7158198 7
-0.111313 4.219543 -5.7402339 7
-0.123573 4.224731 -5.789062 7
-0.12510701 4.2099609 -5.8037109 7
-0.120499 4.184082 -5.7998052 7
-0.32108301 -4.805542 -6.109375 7
-0.32274601 -4.8261108 -6.1025391 7
-0.33241999 -4.861938 -6.1191411 7
-0.327667 -4.8700562 -6.092773 7
-0.32612601 -4.8842769 -6.0761719 7
-0.32295999 -4.8956299 -6.0556641 7
-0.32141101 -4.909729 -6.0400391 7
-0.32146499 -4.9269409 -6.0283198 7
-0.324738 -4.9505 -6.0253911 7
-0.324783 -4.9677119 -6.0126948 7
-0.324844 -4.9849238 -6.000977 7
-0.32329601 -4.9987788 -5.984375 7
-0.32655299 -5.0223999 -5.9814448 7
-0.33142099 -5.0491939 -5.984375 7
-0.33789101 -5.0793462 -5.9902339 7
-0.342758 -5.1061401 -5.9912109 7
-0.41288799 -6.4859619 -5.108398 7
-0.41294101 -6.500854 -5.092773 7
-0.41301 -6.5160518 -5.077148 7
-0.41468 -6.5352168 -5.0654302 7
-0.41632801 -6.5543208 -5.0537109 7
-0.41960099 -6.577332 -5.045898 7
-0.42126501 -6.596252 -5.0341802 7
-0.42614701 -6.6233521 -5.0292969 7
-0.418167 -6.6178589 -4.9951172 7
-0.413414 -6.6204219 -4.9667969 7
-0.418282 -6.6474609 -4.9638672 7
-0.41674 -6.65802 -4.9443359 7
-0.41518399 -6.6688228 -4.9238281 7
-0.418457 -6.691772 -4.9160161 7
-0.42333999 -6.71875 -4.9101558 7
-0.116508 4.4718628 -5.217773 7
-0.108536 4.4404302 -5.204102 7
-0.095810004 4.3997192 -5.1767578 7
-0.087844998 4.3683472 -5.164062 7
-0.087837003 4.352356 -5.1738281 7
-0.091018997 4.3423462 -5.1933589 7
-0.092606001 4.3294072 -5.2080078 7
-0.092612997 4.3131709 -5.21875 7
-0.092606001 4.2971191 -5.2285161 7
-0.094185002 4.283875 -5.2431641 7
-0.094185002 4.2677612 -5.2529302 7
-0.094177 4.2515869 -5.2636719 7
-0.095771998 4.2382202 -5.2783198 7
-0.102127 4.2338262 -5.3066411 7
-0.111679 4.235168 -5.3457031 7
-0.122818 4.2391362 -5.3886719 7
-0.121231 4.2194819 -5.3935552 7
-0.119629 4.2000122 -5.3994141 7
-0.121216 4.1864009 -5.414062 7
-0.327492 -4.8312378 -5.7099609 7
-0.32589 -4.8444819 -5.6943359 7
-0.32260901 -4.8544922 -5.672852 7
-0.32765999 -4.8806758 -5.6757808 7
-0.322716 -4.8873901 -5.6503911 7
-0.32110599 -4.9004521 -5.6337891 7
-0.31616199 -4.9067988 -5.608398 7
-0.31787899 -4.9263921 -5.6005859 7
-0.32459301 -4.9555659 -5.6064448 7
-0.31798601 -4.9587402 -5.577148 7
-0.31476599 -4.984375 -5.5439448 7
-0.318138 -5.0071411 -5.5419922 7
-0.32819399 -5.043335 -5.5556641 7
-0.32823199 -5.0593872 -5.5429692 7
-0.34159899 -5.102356 -5.5673828 7
-0.42150101 -6.6342769 -4.46875 7
-0.419891 -6.6436772 -4.4492192 7
-0.419945 -6.657043 -4.4326172 7
-0.41834301 -6.6663208 -4.4121089 7
-0.420059 -6.684021 -4.4003911 7
-0.413452 -6.6802979 -4.3701172 7
-0.421837 -6.71521 -4.3720698 7
-0.111137 4.4570918 -4.8310552 7
-0.092972003 4.4067378 -4.7910161 7
-0.088019997 4.3821411 -4.7861328 7
-0.088013001 4.367126 -4.796875 7
-0.089661002 4.355042 -4.8125 7
-0.091301002 4.3430181 -4.827148 7
-0.097900003 4.3404541 -4.8564448 7
-0.096244998 4.3218989 -4.8613281 7
-0.089638002 4.294373 -4.851562 7
-0.092933998 4.2853389 -4.8710942 7
-0.094573997 4.2730708 -4.8867192 7
-0.092918001 4.2546391 -4.891602 7
-0.102821 4.25769 -4.9306641 7
-0.112724 4.260498 -4.967773 7
-0.122612 4.2633672 -5.0058589 7
-0.114365 4.2325439 -4.992188 7
-0.107758 4.2049561 -4.983398 7
-0.107758 4.18927 -4.9931641 7
-0.109406 4.1767578 -5.007812 7
-0.31542999 -4.815125 -5.2792969 7
-0.31720001 -4.8339839 -5.2724609 7
-0.31380501 -4.842773 -5.2519531 7
-0.32074001 -4.871521 -5.2587891 7
-0.30873901 -4.8634028 -5.2148442 7
-0.31222501 -4.885376 -5.2119141 7
-0.31228599 -4.9006348 -5.2011719 7
-0.312332 -4.915833 -5.188477 7
-0.308945 -4.924377 -5.1679692 7
-0.31243101 -4.9463501 -5.1650391 7
-0.31248501 -4.9616089 -5.1533198 7
-0.314255 -4.9802251 -5.1445308 7
-0.31258401 -4.9919429 -5.1289058 7
-0.31781 -5.0174561 -5.1308589 7
-0.328201 -5.0534668 -5.1445308 7
-0.324806 -5.061523 -5.124023 7
-0.32658401 -5.0802002 -5.1162109 7
-0.321457 -5.0847778 -5.0917969 7
-0.32495099 -5.1066279 -5.0869141 7
-0.116287 4.4590449 -4.4902339 7
-0.11628 4.4447021 -4.5 7
-0.11628 4.4302979 -4.5117192 7
-0.116264 4.41571 -4.5214839 7
-0.109428 4.3882451 -4.5136719 7
-0.109421 4.3739009 -4.523438 7
-0.112831 4.3659668 -4.5429692 7
-0.104271 4.335022 -4.53125 7
-0.10598 4.323792 -4.5449219 7
-0.10939 4.3157349 -4.5644531 7
-0.105965 4.2948608 -4.5644531 7
-0.111092 4.289856 -4.5878911 7
-0.109375 4.2719121 -4.594727 7
-0.105957 4.250916 -4.594727 7
-0.109367 4.2427979 -4.6142578 7
-0.109367 4.2278442 -4.624023 7
-0.111069 4.2164922 -4.6376948 7
-0.105934 4.1921391 -4.6337891 7
-0.102524 4.1711431 -4.6347661 7
-0.105927 4.1628418 -4.6533198 7
-0.310532 -4.8069458 -4.891602 7
-0.31593299 -4.8318481 -4.8925781 7
-0.31241599 -4.839355 -4.8720698 7
-0.31958801 -4.8676758 -4.8779302 7
-0.3125 -4.8683472 -4.8496089 7
-0.30721301 -4.8726201 -4.8251948 7
-0.31082201 -4.8939209 -4.8212891 7
-0.30731201 -4.9012451 -4.8007808 7
-0.31092101 -4.9226069 -4.796875 7
-0.30741099 -4.92981 -4.7773442 7
-0.311028 -4.9511108 -4.773438 7
-0.309288 -4.9619751 -4.757812 7
-0.312897 -4.9832759 -4.7548828 7
-0.311165 -4.993958 -4.7382808 7
-0.31121099 -5.0081792 -4.726562 7
-0.31126401 -5.0222778 -4.7138672 7
-0.32379201 -5.061646 -4.7314448 7
-0.318497 -5.065063 -4.7070308 7
-0.31141701 -5.0647578 -4.6787109 7
-0.31680301 -5.0896611 -4.6787109 7
-0.31864199 -5.1072388 -4.6689448 7
-0.064370997 -1.872916 -6.5183439 7
-0.35066399 -4.9509368 -7.929369 7
-0.047727998 -1.7817481 -5.4928322 7
-0.40192401 -6.6525002 -5.9933939 7
-0.011142 -1.6921999 -4.4804111 7
-0.32225999 -4.89782 -4.7245178 7
-0.049798001 -1.6156681 -3.6328981 7
-0.295746 -4.8377962 -3.8346319 7
-0.284026 -4.812119 -3.1349859 7
-0.26462701 -4.755301 -2.48125 7
-0.102058 4.2264309 -5.5937848 7
-0.152522 -1.963196 -18.927999 7
-0.384249 4.0685902 -16.014696 7
-0.14570899 -1.78861 -10.260855 7
-0.118842 4.2576962 -9.1871223 7
-0.103092 -1.666069 -8.4192667 7
-0.42743599 -5.028944 -11.973426 7
-0.075282998 -1.649101 -7.1733608 7
-0.055739 -1.6362129 -6.272491 7
-0.121198 4.2917352 -5.7634258 7
-0.078034997 1.014408 -6.6199288 7
-0.39696401 -4.965271 -7.752624 7
-0.112595 4.3505492 -4.7825341 7
-0.119448 4.2199211 -4.9846692 7
-0.043322999 1.099311 -5.7258792 7
-0.09764 -1.6439641 -5.6370058 7
-0.117408 -1.899961 -5.7312622 7
-0.34025601 -4.9489121 -6.247292 7
-0.41674 -6.4140329 -5.8505278 7
-0.016551999 1.114626 -5.0601072 7
-0.089721002 -1.659505 -5.151186 7
-0.100561 -1.822986 -5.1820812 7
-0.29299399 -4.84689 -5.02425 7
-0.27269599 -4.8966808 -4.738483 7
-0.076962002 -1.61256 -4.7164149 7
-0.082790002 -1.784258 -4.692513 7
-0.244403 -4.868341 -3.6546521 7
-0.033427 1.1228811 -4.541996 7
-0.031902999 0.97517002 -4.5701981 7
-0.016057 1.006659 -4.1908269 7
-0.038004 -1.628523 -3.866755 7
-0.049348999 -1.785284 -3.863332 7
-0.28686199 -4.8444562 -2.6870451 7
-0.066996001 -1.732657 -3.556365 7
