# .PCD v0.7 - Point Cloud Data file format
VERSION 0.7
FIELDS x y z intensity
SIZE 4 4 4 4
TYPE F F F F
COUNT 1 1 1 1
WIDTH 855
HEIGHT 1
VIEWPOINT 0 0 0 1 0 0 0
POINTS 855
DATA ascii
2.060715 62.757782 8.9804688 7
2.0600741 63.345245 8.8984385 7
1.904785 59.541016 9.1816406 7
1.9048001 59.651825 9.0527344 7
1.901886 60.396057 9.0019531 7
1.4124759 45.826691 9.7402344 7
1.3136441 43.226501 9.9013672 7
1.311554 43.367065 9.8222656 7
1.311523 43.404053 9.7236328 7
1.308609 43.584442 9.6503906 7
1.319855 44.005646 6.4326172 7
1.311844 44.442078 6.375 7
1.2292939 41.67627 10.12207 7
1.228699 41.736572 10.03125 7
1.2262419 41.877167 9.9560547 7
1.224594 41.983185 9.875 7
1.222687 42.100555 9.7949219 7
1.224838 42.039642 9.6806641 7
0.30069 -0.67483503 68.535156 7
0.240051 -0.53265399 70.701172 7
0.20733599 -0.37521401 71.87207 7
0.32125899 2.635834 67.856445 7
0.32171601 2.79245 67.837891 7
0.302582 3.6166379 68.508789 7
0.34895301 3.6826169 66.852539 7
0.33778399 3.8612671 67.24707 7
1.140884 40.015656 10.061523 7
1.138489 40.138885 9.9892578 7
0.21827701 -0.95526099 64.591797 7
0.17451499 -0.82382202 66.003906 7
0.11998 -0.68917799 67.760742 7
0.299896 1.952576 62.006836 7
0.256897 2.144012 63.389648 7
0.26664701 2.279175 63.075195 7
0.23939499 3.6446531 63.918945 7
0.27821401 3.7168579 62.665039 7
0.27287301 3.8731079 62.833008 7
1.060257 38.50882 10.040039 7
1.057556 38.631805 9.9707031 7
0.204422 -1.26886 59.219727 7
0.174484 -1.149292 60.100586 7
0.135727 -1.029938 61.238281 7
0.25231901 1.567444 57.880859 7
0.23593099 1.838837 58.258789 7
0.24583399 3.8384399 57.915039 7
0.27717599 3.908325 56.99707 7
0.26686099 4.0617681 57.290039 7
0.29280099 4.1375728 56.52832 7
0.22241201 7.1342769 58.365234 7
0.25071701 7.1646419 57.530273 7
1.029678 36.274231 6.9638672 7
1.029587 36.298523 6.8798828 7
1.0274661 36.386475 6.804688 7
0.183212 -1.662537 54.262695 7
0.152969 -1.560791 55.068359 7
0.124954 -1.453674 55.814453 7
0.077454001 -1.355682 57.076172 7
0.219482 1.307556 53.292969 7
0.224014 3.877991 53.097656 7
0.25375399 3.939636 52.306641 7
0.243881 4.0810852 52.560547 7
0.199936 7.020844 53.477539 7
0.225464 7.0525818 52.793945 7
0.245682 7.1005859 52.250977 7
0.21269201 3.6482241 48.486328 7
0.21922299 3.858398 48.317383 7
0.16568001 6.8135991 49.336914 7
0.194565 6.828033 48.637695 7
0.221008 6.848083 47.99707 7
0.86804199 32.114685 10.46875 7
0.86527997 32.209137 10.414062 7
0.86595201 32.218903 10.334961 7
0.86087 32.36969 10.293945 7
0.21467599 3.4313049 44.433594 7
0.189835 3.6815491 44.96582 7
0.145523 6.7104192 45.642578 7
0.174133 6.719604 45.008789 7
0.201157 6.7311711 44.408203 7
-0.96386701 -6.960999 -64.115234 7
0.19229101 3.28302 41.299805 7
0.179855 3.3986821 41.541992 7
0.194763 3.4676509 41.236328 7
0.116577 6.4411931 42.510742 7
0.139633 6.4658198 42.038086 7
0.157166 6.505981 41.676758 7
0.19009399 6.4942021 41.009766 7
0.76222199 29.572235 7.3183589 7
0.76271099 29.580078 7.2480469 7
0.75904799 29.67392 7.1933589 7
0.75100702 29.85968 7.155273 7
0.74708599 29.95929 7.1005859 7
-0.97789001 -6.4751282 -59.654297 7
-0.89222699 -6.4389038 -57.982422 7
-0.816513 -6.4161682 -56.501953 7
-0.872482 -6.6742549 -57.554688 7
-0.81124902 -6.6758418 -56.353516 7
0.185425 3.2250979 38.533203 7
0.1698 3.3388059 38.817383 7
0.192459 3.3887939 38.389648 7
0.104431 6.3656011 39.708984 7
0.149399 6.4057622 38.854492 7
0.163574 6.4494019 38.580078 7
0.68132001 27.695984 10.818359 7
0.68513501 27.651245 10.730469 7
0.68832397 27.617493 10.646484 7
0.68463099 27.711121 10.605469 7
0.70860302 28.314453 7.2919922 7
0.70553601 28.390991 7.2373052 7
0.69950902 28.525146 7.195312 7
0.68777502 28.767914 7.171875 7
-0.76632702 0.711761 -56.28418 7
-0.83872998 0.58960003 -57.689453 7
-0.74250799 0.435913 -55.807617 7
-0.81343102 0.30816701 -57.181641 7
-0.89186102 0.17437699 -58.702148 7
-0.86633301 0.26458699 -58.087891 7
-0.605331 -2.089752 -48.365234 7
-0.59387201 -2.779968 -48.089844 7
-0.612625 -2.9160769 -48.410156 7
-0.57843 -2.9961851 -47.791016 7
-0.038849 -2.5454099 39.412109 7
0.126205 0.145721 36.707031 7
0.122528 0.22976699 36.771484 7
0.163895 3.0036621 35.93457 7
0.153809 3.1828001 36.09375 7
0.097701997 6.2155151 36.708984 7
0.119568 6.2330928 36.324219 7
0.13258401 6.276093 36.091797 7
0.142868 6.326324 35.904297 7
-0.74314898 0.79602098 -55.667969 7
-0.80911303 0.67550701 -56.961914 7
-0.72991902 0.52249098 -55.414062 7
-0.79797399 0.39682001 -56.74707 7
-0.51466399 -1.450287 -43.253906 7
-0.55290198 -1.577484 -43.875 7
-0.53619403 -1.673553 -43.59082 7
-0.58932501 -1.81427 -44.456055 7
-0.63467401 -1.953766 -45.193359 7
-0.616974 -2.8117981 -44.813477 7
-0.56044 -2.967468 -43.860352 7
0.13519301 2.9807739 33.904297 7
0.081344999 6.126678 34.382812 7
0.113022 6.188385 33.859375 7
0.12628201 6.2250061 33.637695 7
-0.72769201 1.225677 -50.769531 7
-0.773422 1.119019 -51.59668 7
-0.80326802 1.003082 -52.136719 7
-0.55105603 -2.9165339 -40.081055 7
-0.50039703 -2.9580081 -39.303711 7
-0.484451 -3.0354609 -39.051758 7
-0.50750703 -3.1573789 -39.387695 7
-0.46105999 -3.1969299 -38.674805 7
0.107727 -0.161255 31.916992 7
0.094254002 -0.089722 32.115234 7
0.092331 -0.01712 32.144531 7
0.125793 2.6946721 31.541016 7
0.090668 5.7746582 31.675781 7
0.068099998 5.9094849 31.991211 7
0.076903999 5.9570308 31.849609 7
0.088881999 5.9949651 31.663086 7
0.102448 6.0273442 31.454102 7
-0.58070397 1.91745 -43.751953 7
-0.63330102 1.8445131 -44.620117 7
-0.69271898 1.659851 -45.604492 7
-0.73358202 1.5702209 -46.280273 7
-0.78369099 1.482056 -47.107422 7
-0.82775903 1.38736 -47.833984 7
-0.45399499 -0.68682897 -36.280273 7
-0.44314599 -0.77240002 -36.120117 7
-0.475052 -0.871185 -36.568359 7
-0.51599097 -0.975281 -37.143555 7
-0.50360101 -2.9503479 -36.780273 7
-0.46843001 -3.0001221 -36.272461 7
-0.46853599 -3.177155 -36.251953 7
-0.45436099 -3.247925 -36.040039 7
-0.052581999 -3.2205811 32.02832 7
-0.076995999 -3.03598 32.387695 7
0.069656 -0.29919401 30.518555 7
0.077347003 -0.229462 30.414062 7
0.076964997 -0.16085801 30.421875 7
0.080398999 -0.092072003 30.375 7
0.069412 -0.023804 30.527344 7
0.125992 2.590759 29.662109 7
0.114182 2.6729431 29.818359 7
0.12907401 2.720428 29.608398 7
0.107925 2.815887 29.892578 7
0.116455 2.871521 29.770508 7
0.044815 5.8738399 30.354492 7
0.047835998 5.934052 30.301758 7
0.063979998 5.9571838 30.070312 7
0.078018002 5.985291 29.867188 7
0.079773001 6.047729 29.830078 7
0.52276599 22.859772 7.657227 7
0.52560401 22.854919 7.5410161 7
0.52534503 22.874756 7.4882808 7
0.51484698 23.035675 7.4716802 7
-0.552338 2.2688601 -40.220703 7
-0.56907701 2.1832891 -40.482422 7
-0.60142499 2.1083679 -40.984375 7
-0.63571203 2.032227 -41.513672 7
-0.67875701 1.959839 -42.177734 7
-0.72181702 1.884064 -42.842773 7
-0.43350199 -0.54022199 -35.329102 7
-0.43850699 -0.71658301 -35.396484 7
-0.46165499 -0.81112701 -35.720703 7
-0.45825201 -0.89840698 -35.671875 7
-0.47145101 -3.0348821 -33.558594 7
-0.46125799 -3.186554 -33.404297 7
-0.450394 -3.254669 -33.250977 7
-0.428848 -3.3086851 -32.958984 7
0.068726003 -0.14212 28.530273 7
0.12735 2.6000371 27.662109 7
0.099182002 2.6985779 28.015625 7
0.1147 2.740967 27.8125 7
0.119766 2.7966001 27.742188 7
0.106613 2.877228 27.904297 7
0.045929 5.7857971 28.262695 7
0.055542 5.8231812 28.129883 7
0.066970997 5.854919 27.973633 7
0.069305003 5.9112549 27.930664 7
0.048920002 6.0319209 28.172852 7
0.487488 21.534363 7.6757808 7
0.49028 21.515167 7.6152339 7
0.48602301 21.585876 7.5820308 7
0.48219299 21.650818 7.5449219 7
-0.496277 2.6671751 -36.114258 7
-0.52311701 2.6039729 -36.498047 7
-0.58055103 2.4750061 -37.320312 7
-0.604904 2.4038999 -37.670898 7
-0.65577698 2.25824 -38.399414 7
-0.439697 -3.02951 -30.923828 7
-1.246887 -39.958282 10.592773 7
-0.092528999 -3.4980161 28.485352 7
-0.083724998 -3.4207151 28.390625 7
-0.086608998 -3.361176 28.432617 7
-0.096786 -3.312012 28.5625 7
-0.105026 -3.2597351 28.667969 7
-0.50776702 2.8383181 -33.679688 7
-0.52767903 2.775085 -33.948242 7
-0.54670697 2.7099609 -34.205078 7
-0.579041 2.6564031 -34.635742 7
-0.61889601 2.6077881 -35.166016 7
-0.37680101 -0.39871201 -28.181641 7
-0.36328101 -0.465637 -28.023438 7
-0.353302 -0.532745 -27.905273 7
-0.34741199 -0.60018897 -27.833984 7
-0.34304801 -0.66769397 -27.779297 7
-0.335098 -0.73394799 -27.68457 7
-0.32664499 -0.799438 -27.583008 7
-0.40519699 -2.8527219 -28.285156 7
-0.375824 -2.8891301 -27.941406 7
-0.42750499 -3.0175481 -28.520508 7
-0.40222201 -3.0578001 -28.222656 7
-0.38713101 -3.1090701 -28.041992 7
-0.60259998 -6.1864929 -29.96582 7
-0.59258997 -6.2372131 -29.835938 7
-0.939026 -32.531616 13.685547 7
0.058228001 -0.63247699 25.204102 7
0.058777001 -0.57608002 25.199219 7
0.062987998 -0.51882899 25.154297 7
0.080231003 -0.45898399 24.962891 7
0.070891999 -0.40499899 25.068359 7
0.070937999 -0.34906 25.069336 7
0.101151 2.572906 24.606445 7
0.106415 2.6212461 24.541992 7
0.111664 2.669189 24.478516 7
0.04538 5.4403691 24.786133 7
0.040236998 5.5088501 24.830078 7
0.030929999 5.5887151 24.918945 7
0.032547001 5.6400452 24.888672 7
0.042998999 5.6679692 24.761719 7
0.049819998 5.7051091 24.674805 7
0.052475002 5.7532349 24.633789 7
-0.36097699 -2.6221011 -25.917969 7
-0.36021399 -2.7494199 -25.893555 7
-0.355499 -2.8082581 -25.834961 7
-0.59553498 -6.1157842 -27.811523 7
-0.58699 -6.164917 -27.705078 7
-0.57954401 -6.2163701 -27.610352 7
-0.60263097 -6.3366089 -27.834961 7
0.061218001 -0.53982502 23.671875 7
0.060699001 -0.48727399 23.678711 7
0.063522004 -0.43389899 23.651367 7
0.062438998 -0.38150001 23.664062 7
0.087769002 2.2697749 23.296875 7
0.091141 2.317627 23.255859 7
0.093964003 2.366302 23.22168 7
0.099564001 2.411438 23.158203 7
0.081253 2.484467 23.342773 7
0.091309004 2.5242 23.233398 7
0.031296 5.5978389 23.344727 7
0.033569001 5.6438899 23.30957 7
0.036956999 5.686646 23.261719 7
0.03035 5.756165 23.31543 7
-0.49975601 3.155762 -28.676758 7
-0.50999498 3.0960081 -28.798828 7
-0.52586401 3.0420229 -28.986328 7
-0.54277003 2.9880371 -29.185547 7
-0.311737 -2.2919619 -23.729492 7
-0.31771901 -2.3564451 -23.782227 7
-0.313232 -2.4112549 -23.729492 7
-0.3134 -2.4703369 -23.723633 7
-0.31646699 -2.532227 -23.74707 7
-0.34742701 -2.623322 -24.047852 7
-0.33772299 -2.6724851 -23.942383 7
-0.33381701 -2.7275391 -23.894531 7
-0.36187699 -2.8178711 -24.166992 7
-0.35159299 -2.8661799 -24.055664 7
-0.346542 -2.9199829 -23.996094 7
-0.57978803 -5.9532781 -25.767578 7
-0.57589698 -6.0083919 -25.714844 7
-0.552948 -6.0838618 -25.457031 7
-0.55604601 -6.1534419 -25.470703 7
-0.69590801 -25.6604 13.155273 7
-0.68522602 -25.53714 13.171875 7
-0.67335498 -25.403442 13.18457 7
-0.67040998 -25.34906 13.231445 7
-0.66804498 -25.299652 13.282227 7
-0.407684 3.3573911 -25.625 7
-0.415344 3.3027339 -25.713867 7
-0.42793301 3.2538149 -25.854492 7
-0.33429 -2.342926 -22.464844 7
-0.347397 -2.4112239 -22.581055 7
-0.33337399 -2.453552 -22.44043 7
-0.33245799 -2.56427 -22.416016 7
-0.33323699 -2.6208191 -22.416016 7
-0.32785001 -2.671082 -22.358398 7
-0.350815 -2.751617 -22.56543 7
-0.34542799 -2.801636 -22.505859 7
-0.34188801 -2.8536379 -22.464844 7
-0.55358899 -5.7880859 -23.896484 7
-0.57786602 -5.8989868 -24.104492 7
-0.56259203 -5.9255371 -23.948242 7
-0.55719 -5.9729919 -23.881836 7
-0.54869097 -6.0132451 -23.788086 7
-0.71841401 -25.43457 9.8349609 7
-0.60530102 -23.03183 12.956055 7
-0.59964001 -22.957489 12.987305 7
-0.59588599 -22.898865 13.025391 7
-0.59086603 -22.829651 13.058594 7
-0.591492 -22.806946 13.116211 7
-0.318726 -2.4505 -20.866211 7
-0.29623401 -2.583374 -20.644531 7
-0.33702099 -2.6782229 -20.99707 7
-0.31816101 -2.7102971 -20.823242 7
-0.31044 -2.7536011 -20.74707 7
-0.33485401 -2.832886 -20.954102 7
-0.53176898 -5.8927612 -22.066406 7
-0.52337599 -5.9291081 -21.978516 7
-0.35769701 3.5031741 -21.789062 7
-0.37077299 3.465637 -21.917969 7
-0.386978 3.4316101 -22.076172 7
-0.39444 3.3855591 -22.152344 7
-0.413147 3.353333 -22.333984 7
-0.41934201 3.304718 -22.399414 7
-0.390549 3.211884 -22.141602 7
-0.28010601 -2.2784419 -19.345703 7
-0.30864 -2.3539431 -19.577148 7
-0.31292701 -2.407166 -19.606445 7
-0.30129999 -2.444885 -19.50293 7
-0.29174799 -2.484283 -19.416016 7
-0.53379798 -5.783112 -20.764648 7
-0.52491802 -5.8157959 -20.678711 7
-0.52020299 -5.8570251 -20.625977 7
-0.52102703 -5.9101262 -20.617188 7
-0.27781701 -2.240814 -18.161133 7
-0.27793899 -2.2865911 -18.155273 7
-0.29273999 -2.346436 -18.266602 7
-0.28041101 -2.380615 -18.162109 7
-0.28054801 -2.4263921 -18.15625 7
-0.298264 -2.4898989 -18.288086 7
-0.29692101 -2.5345459 -18.270508 7
-0.290604 -2.619781 -18.207031 7
-0.50125098 -5.4909358 -19.258789 7
-0.513901 -5.565063 -19.34082 7
-0.52064502 -5.627686 -19.37793 7
-0.51710498 -5.668427 -19.335938 7
-0.51063502 -5.703094 -19.271484 7
-0.50781202 -5.7452092 -19.235352 7
-0.32438701 3.6521001 -18.798828 7
-0.322891 3.601898 -18.795898 7
-0.327057 3.5111079 -18.847656 7
-0.278519 -2.2923579 -17.094727 7
-0.2771 -2.334106 -17.077148 7
-0.27253699 -2.372803 -17.037109 7
-0.29589799 -2.4389949 -17.204102 7
-0.29075599 -2.520905 -17.152344 7
-0.28465301 -2.55777 -17.099609 7
-0.49443099 -5.4533081 -18.024414 7
-0.49766499 -5.505188 -18.033203 7
-0.50944501 -5.5749211 -18.103516 7
-0.51889002 -5.6400762 -18.15625 7
-0.50659198 -5.659729 -18.053711 7
-0.50206 -5.6954651 -18.006836 7
-0.50062603 -5.737946 -17.982422 7
-0.60179102 -7.3885188 -18.181641 7
-0.59803802 -7.4241638 -18.136719 7
-0.60051 -7.4764099 -18.135742 7
-0.615417 -7.5619512 -18.219727 7
-0.44291699 -17.585907 9.4375 7
-0.431122 -17.487732 9.4433594 7
-0.42324799 -17.415894 9.4599609 7
-0.41537499 -17.343994 9.4775391 7
-0.350189 3.804657 -17.789062 7
-0.338974 3.742126 -17.711914 7
-0.32850599 3.6812129 -17.640625 7
-0.329956 3.6376951 -17.660156 7
-0.33436599 3.5986021 -17.702148 7
-0.35142499 3.5769651 -17.842773 7
-0.364777 3.5495911 -17.954102 7
-0.25086999 -2.2649839 -15.889648 7
-0.24934401 -2.303833 -15.871094 7
-0.263367 -2.3575439 -15.962891 7
-0.27493301 -2.409668 -16.038086 7
-0.26769999 -2.4429929 -15.980469 7
-0.26780701 -2.4837649 -15.974609 7
-0.27038601 -2.5270081 -15.985352 7
-0.500763 -5.5127869 -16.916992 7
-0.495956 -5.5456238 -16.870117 7
-0.48786899 -5.5713811 -16.800781 7
-0.48142999 -5.6001592 -16.744141 7
-0.480728 -5.6409302 -16.725586 7
-0.483307 -5.6886601 -16.727539 7
-0.490814 -5.7468872 -16.762695 7
-0.24124099 -2.2575381 -14.960938 7
-0.24565101 -2.2998049 -14.984375 7
-0.26382399 -2.3556819 -15.098633 7
-0.25791901 -2.388397 -15.052734 7
-0.256302 -2.4250181 -15.035156 7
-0.25555399 -2.462769 -15.023438 7
-0.26769999 -2.513397 -15.097656 7
-0.27298 -2.5574951 -15.125977 7
-0.48358199 -5.4882808 -15.818359 7
-0.47334301 -5.5072331 -15.739258 7
-0.467545 -5.5749512 -15.673828 7
-0.46591201 -5.6109619 -15.649414 7
-0.466019 -5.65097 -15.634766 7
-0.28015101 3.790283 -15.174805 7
-0.278458 3.747894 -15.171875 7
-0.27841201 3.7080691 -15.181641 7
-0.28582799 3.6795039 -15.241211 7
-0.23191801 -2.0661931 -14.116211 7
-0.241974 -2.111237 -14.173828 7
-0.23754901 -2.1434629 -14.139648 7
-0.233124 -2.1755681 -14.105469 7
-0.23142999 -2.2102361 -14.088867 7
-0.235153 -2.2497859 -14.106445 7
-0.26869199 -2.317749 -14.3125 7
-0.24890099 -2.33548 -14.180664 7
-0.251724 -2.3744199 -14.191406 7
-0.243698 -2.402863 -14.134766 7
-0.265488 -2.460938 -14.266602 7
-0.26831099 -2.500366 -14.277344 7
-0.27203399 -2.540894 -14.294922 7
-0.46769699 -5.4515691 -14.788086 7
-0.45874 -5.470612 -14.720703 7
-0.45884699 -5.5083008 -14.708008 7
-0.455338 -5.5386052 -14.672852 7
-0.45179701 -5.568481 -14.637695 7
-0.46551499 -5.6349788 -14.706055 7
-0.46652201 -5.67453 -14.698242 7
-0.56335402 -7.1051331 -14.759766 7
-0.56541401 -7.185699 -14.737305 7
-0.56370503 -7.2185359 -14.708984 7
-0.55926502 -7.2442632 -14.666016 7
-0.55755597 -7.2771912 -14.637695 7
-0.55491602 -7.30722 -14.603516 7
-0.269669 3.839081 -14.1875 7
-0.27485701 3.8097839 -14.229492 7
-0.28355399 3.785583 -14.295898 7
-0.28962699 3.757385 -14.34375 7
-0.292191 3.7236631 -14.368164 7
-0.215546 0.63101202 -14.280273 7
-0.201584 0.589966 -14.188477 7
-0.205933 0.55343598 -14.21875 7
-0.211151 0.51718098 -14.254883 7
-0.219864 0.48129299 -14.314453 7
-0.20152301 0.44012499 -14.193359 7
-0.20761099 0.40386999 -14.234375 7
-0.205856 0.36614999 -14.223633 7
-0.207596 0.32876599 -14.235352 7
-0.228531 -2.2402339 -13.333984 7
-0.23431399 -2.2800291 -13.362305 7
-0.237244 -2.3173521 -13.374023 7
-0.238281 -2.352783 -13.374023 7
-0.231766 -2.3808589 -13.329102 7
-0.24038699 -2.4237981 -13.374023 7
-0.249954 -2.467865 -13.424805 7
-0.25004601 -2.5024109 -13.417969 7
-0.43684399 -5.4906621 -13.733398 7
-0.436005 -5.5241089 -13.71582 7
-0.440842 -5.5696111 -13.729492 7
-0.43904099 -5.6008611 -13.704102 7
-0.44769299 -5.654541 -13.739258 7
-0.203384 -2.1087649 -12.479492 7
-0.195374 -1.977661 -11.837891 7
-0.198746 -2.072845 -11.839844 7
-0.197891 -2.1339109 -11.824219 7
-0.42671201 -5.417572 -12.146484 7
-0.51275599 -7.1846008 -11.8125 7
-0.51908898 -7.2322998 -11.825195 7
-0.166504 0.69332898 -11.811523 7
-0.16648901 0.66159099 -11.813477 7
-0.181778 -1.930542 -11.133789 7
-0.186203 -1.963379 -11.151367 7
-0.197189 -2.0019231 -11.203125 7
-0.180939 -2.017334 -11.113281 7
-0.18319701 -2.048218 -11.119141 7
-0.18219 -2.076416 -11.108398 7
-0.189896 -2.112396 -11.142578 7
-0.20521501 -2.155457 -11.216797 7
-0.20422401 -2.184021 -11.207031 7
-0.19995099 -2.2094419 -11.178711 7
-0.201111 -2.239594 -11.177734 7
-0.19902 -2.266907 -11.161133 7
-0.40371701 -5.1429749 -11.384766 7
-0.40270999 -5.1706848 -11.367188 7
-0.40934801 -5.2138672 -11.386719 7
-0.41380301 -5.2524109 -11.395508 7
-0.40843201 -5.2712102 -11.355469 7
-0.40631101 -5.2965088 -11.333008 7
-0.40312201 -5.319427 -11.304688 7
-0.40321401 -5.3490911 -11.291992 7
-0.40329 -5.3787231 -11.279297 7
-0.407745 -5.417542 -11.287109 7
-0.253281 4.121521 -10.980469 7
-0.23417699 4.0596619 -10.891602 7
-0.229904 4.0228882 -10.878906 7
-0.23196401 3.996979 -10.898438 7
-0.23616 3.9742739 -10.930664 7
-0.23611499 3.9447019 -10.939453 7
-0.237122 3.916718 -10.954102 7
-0.241318 3.8937681 -10.986328 7
-0.26876801 3.8777161 -11.146484 7
-0.16429099 0.92895502 -11.121094 7
-0.16532899 0.89904797 -11.129883 7
-0.165314 0.86886603 -11.131836 7
-0.16212501 0.83749402 -11.117188 7
-0.15150499 0.80377197 -11.061523 7
-0.150436 0.77346802 -11.056641 7
-0.15042099 0.71350098 -11.05957 7
-0.15145899 0.68359399 -11.066406 7
-0.15780599 0.65542603 -11.103516 7
-0.17216501 -1.922394 -10.539062 7
-0.175644 -1.953125 -10.551758 7
-0.17572001 -1.981079 -10.547852 7
-0.17012 -2.003937 -10.513672 7
-0.17361499 -2.034821 -10.526367 7
-0.173691 -2.062408 -10.520508 7
-0.18284599 -2.0983889 -10.560547 7
-0.195435 -2.137543 -10.618164 7
-0.19210801 -2.1624451 -10.595703 7
-0.18991099 -2.1882019 -10.579102 7
-0.19113199 -2.2172551 -10.580078 7
-0.388596 -5.1239929 -10.685547 7
-0.39321899 -5.1611629 -10.694336 7
-0.39442399 -5.1916809 -10.686523 7
-0.39677399 -5.224731 -10.685547 7
-0.399124 -5.2575679 -10.683594 7
-0.395767 -5.278687 -10.655273 7
-0.39357001 -5.302124 -10.630859 7
-0.391357 -5.325562 -10.608398 7
-0.38914499 -5.3487549 -10.584961 7
-0.39489701 -5.3886409 -10.597656 7
-0.40068099 -5.4286499 -10.611328 7
-0.25602701 4.1452332 -10.371094 7
-0.24714699 4.1019292 -10.337891 7
-0.248199 4.0753169 -10.353516 7
-0.24704 4.045258 -10.356445 7
-0.25253299 4.026093 -10.393555 7
-0.24916101 3.992249 -10.385742 7
-0.25132799 3.9675601 -10.40625 7
-0.250168 3.9372859 -10.410156 7
-0.25344801 3.914185 -10.436523 7
-0.26225299 3.899811 -10.488281 7
-0.25778201 3.8642271 -10.475586 7
-0.151932 0.94201702 -10.491211 7
-0.154129 0.91418499 -10.505859 7
-0.153015 0.88497901 -10.501953 7
-0.150787 0.85556 -10.492188 7
-0.14965799 0.82650799 -10.488281 7
-0.14523301 0.79620397 -10.467773 7
-0.143005 0.76699799 -10.457031 7
-0.14518701 0.73916602 -10.470703 7
-0.146286 0.71084601 -10.477539 7
-0.15069599 0.68338001 -10.50293 7
-0.150681 0.65469402 -10.503906 7
-0.172241 -1.92038 -10.024414 7
-0.178253 -1.951843 -10.047852 7
-0.16766401 -1.969543 -9.9921885 7
-0.16537499 -1.993988 -9.9755859 7
-0.17135599 -2.025574 -9.9990234 7
-0.163147 -2.045013 -9.9550781 7
-0.178635 -2.085022 -10.023438 7
-0.192917 -2.1242681 -10.084961 7
-0.18707301 -2.1456299 -10.051758 7
-0.184769 -2.170197 -10.036133 7
-0.18603501 -2.197906 -10.036133 7
-0.177811 -2.2168579 -9.9912109 7
-0.39289901 -5.1494751 -10.077148 7
-0.40962201 -5.2098389 -10.137695 7
-0.400177 -5.2172852 -10.083008 7
-0.396698 -5.2368469 -10.054688 7
-0.39082301 -5.2514949 -10.016602 7
-0.38731399 -5.2706299 -9.9873047 7
-0.38857999 -5.2996831 -9.9804688 7
-0.38748199 -5.3237 -9.9628906 7
-0.38636801 -5.3477778 -9.9443359 7
-0.39474499 -5.391541 -9.9667969 7
-0.40196201 -5.4330139 -9.9853516 7
-0.491135 -6.9746399 -9.5976562 7
-0.48524499 -6.9846501 -9.5566406 7
-0.491272 -7.0258479 -9.5644531 7
-0.136032 0.83779901 -9.8867188 7
-0.133698 0.80972302 -9.8769531 7
-0.137146 0.783813 -9.8955078 7
-0.13829 0.756836 -9.9023438 7
-0.14059401 0.73022503 -9.9160156 7
-0.151871 -1.9241641 -9.4433594 7
-0.15933201 -1.955536 -9.4716797 7
-0.158188 -1.979797 -9.4619141 7
-0.15332 -2.000946 -9.4345703 7
-0.16325399 -2.034729 -9.4746094 7
-0.17567401 -2.0709231 -9.5253906 7
-0.18067899 -2.1005859 -9.5429688 7
-0.17333999 -2.1196589 -9.5048828 7
-0.173416 -2.1447749 -9.4990234 7
-0.177185 -2.173584 -9.5097656 7
-0.172318 -2.1946111 -9.4824219 7
-0.185959 -2.232635 -9.5390615 7
-0.38632199 -5.1312871 -9.4892578 7
-0.38145399 -5.14679 -9.4570312 7
-0.38645899 -5.1821589 -9.4648438 7
-0.38156101 -5.1972961 -9.4316406 7
-0.38162199 -5.2226868 -9.4199219 7
-0.38417101 -5.2530522 -9.4179688 7
-0.38670301 -5.2832952 -9.4150391 7
-0.37933299 -5.2930908 -9.3710938 7
-0.38558999 -5.3310242 -9.3837891 7
-0.379471 -5.3433528 -9.3457031 7
-0.385712 -5.3814092 -9.359375 7
-0.38330099 -5.4011841 -9.3359385 7
-0.130188 0.93246502 -9.3564453 7
-0.128967 0.90597498 -9.3535156 7
-0.136169 0.85650599 -9.3925781 7
-0.136154 0.83050501 -9.3945312 7
-0.127716 0.80154401 -9.3554688 7
-0.132507 0.75112897 -9.3818359 7
-0.134903 0.72595203 -9.3945312 7
-0.122833 0.69601399 -9.3398438 7
-0.12974501 -1.94046 -8.8505859 7
-0.129807 -1.964264 -8.8457031 7
-0.141479 -1.998047 -8.8916016 7
-0.150574 -2.0298769 -8.9257812 7
-0.155792 -2.0584109 -8.9433594 7
-0.141693 -2.0697939 -8.8759766 7
-0.141754 -2.093719 -8.8710938 7
-0.14827 -2.123383 -8.8935547 7
-0.148331 -2.1474299 -8.8886719 7
-0.16514599 -2.187012 -8.9570312 7
-0.36798099 -5.1305542 -8.8085938 7
-0.37191799 -5.1619868 -8.8115234 7
-0.36421201 -5.170197 -8.7685547 7
-0.36169401 -5.1885071 -8.7470703 7
-0.36045799 -5.2095032 -8.7285156 7
-0.36051899 -5.2330632 -8.7158203 7
-0.365738 -5.2671809 -8.7226562 7
-0.36709601 -5.2935181 -8.7158203 7
-0.36973599 -5.3224492 -8.7128906 7
-0.37239099 -5.3514709 -8.7109385 7
-0.373734 -5.3774409 -8.7021484 7
-0.38154599 -5.41745 -8.7197266 7
-0.38031 -5.438293 -8.7011719 7
-0.117889 0.93286097 -8.7998047 7
-0.117874 0.90829498 -8.8017578 7
-0.110321 0.88079798 -8.7695312 7
-0.107788 0.85525501 -8.7607422 7
-0.107773 0.830688 -8.7607422 7
-0.107758 0.80615199 -8.7636719 7
-0.111511 0.782745 -8.7822266 7
-0.119049 0.76065099 -8.8183594 7
-0.115265 0.73474097 -8.8027344 7
-0.115234 0.71008301 -8.8046885 7
-0.120255 0.68701202 -8.828125 7
-0.11647 0.661102 -8.8134766 7
-0.147995 -1.945465 -8.5058594 7
-0.14807101 -1.968536 -8.5019531 7
-0.15884399 -2.0007019 -8.5410156 7
-0.165604 -2.029633 -8.5654297 7
-0.37266499 -5.137146 -8.3125 7
-0.368698 -5.1515498 -8.2851562 7
-0.36605799 -5.1686401 -8.2626953 7
-0.36476099 -5.188293 -8.2451172 7
-0.364822 -5.2106018 -8.2324219 7
-0.36488301 -5.2331848 -8.2197266 7
-0.360901 -5.247345 -8.1914062 7
-0.36499 -5.2781072 -8.1943359 7
-0.373108 -5.3169861 -8.2119141 7
-0.37451199 -5.3421021 -8.203125 7
-0.383957 -5.3842769 -8.2255859 7
-0.384018 -5.4065862 -8.2128906 7
-0.382736 -5.42627 -8.1943359 7
-0.117371 0.94195598 -8.3642578 7
-0.112122 0.91616797 -8.34375 7
-0.112091 0.89273101 -8.3447266 7
-0.109482 0.86804199 -8.3359385 7
-0.108154 0.84396398 -8.3320312 7
-0.110748 0.82125902 -8.3457031 7
-0.108124 0.79681402 -8.3359385 7
-0.122498 0.778198 -8.4003906 7
-0.117249 0.75277698 -8.3779297 7
-0.117233 0.72921801 -8.3798828 7
-0.115921 0.70501697 -8.3759766 7
-0.115906 0.68118298 -8.3779297 7
-0.115891 0.65762299 -8.3798828 7
-0.354233 -5.12323 -7.719727 7
-0.423904 -6.740509 -6.3818359 7
-0.422546 -6.7728271 -6.34375 7
-0.41827399 -6.7974548 -6.2998052 7
-0.424164 -6.8483891 -6.2841802 7
-0.42572001 -6.8877869 -6.2548828 7
-0.43450901 -6.9464111 -6.2470698 7
-0.447678 -7.0167241 -6.250977 7
-0.16861001 4.150177 -6.859375 7
-0.16716 4.127533 -6.8642578 7
-0.167114 4.1073909 -6.875 7
-0.165649 4.0848689 -6.8789058 7
-0.17126501 4.074646 -6.9082031 7
-0.18257099 4.0740662 -6.9589839 7
-0.33801299 -5.126862 -6.7304692 7
-0.41851801 -6.8011169 -5.7519531 7
-0.423096 -6.8296199 -5.7480469 7
-0.42312601 -6.8461909 -5.7324219 7
-0.41863999 -6.850739 -5.703125 7
-0.42019701 -6.8711848 -5.6914058 7
-0.423264 -6.8956909 -5.6826172 7
-0.418762 -6.8998718 -5.6533198 7
-0.426346 -6.9362788 -5.657227 7
-0.43090799 -6.9648132 -5.6533198 7
-0.441513 -7.0092769 -5.664062 7
-0.441544 -7.0256038 -5.6474609 7
-0.43705699 -7.0298772 -5.6191411 7
-0.31274399 -4.8779602 -6.3789058 7
-0.31590301 -4.9021001 -6.3769531 7
-0.320618 -4.9292908 -6.3798828 7
-0.325333 -4.9567261 -6.3818359 7
-0.320694 -4.965302 -6.3554692 7
-0.325409 -4.9925842 -6.3574219 7
-0.32702601 -5.013916 -6.351562 7
-0.32550001 -5.028687 -6.3349609 7
-0.31776401 -5.0309138 -6.2988281 7
-0.31781 -5.048737 -6.2861328 7
-0.31941199 -5.0697021 -6.2792969 7
-0.32257101 -5.093842 -6.2763672 7
-0.32106 -5.1086121 -6.2597661 7
-0.31797799 -5.1199651 -6.2373052 7
-0.31054699 -5.0209351 -5.429688 7
-0.312271 -5.0401001 -5.421875 7
-0.30895999 -5.0490112 -5.4003911 7
-0.314026 -5.0749512 -5.4013672 7
-0.31405601 -5.0905762 -5.389648 7
-0.31576499 -5.1099548 -5.3818359 7
-0.30743399 -5.108429 -5.3476558 7
-0.29753101 -4.8094182 -5.1474609 7
-0.30796799 -4.844727 -5.1630859 7
-0.306274 -4.8565669 -5.1464839 7
-0.30804399 -4.8753362 -5.140625 7
-0.29247999 -4.8595581 -5.0878911 7
-0.315063 -4.9189758 -5.1337891 7
-0.31683299 -4.9373779 -5.125977 7
-0.309921 -4.9387512 -5.0966802 7
-0.31516999 -4.9642029 -5.0986328 7
-0.31867999 -4.986145 -5.0957031 7
-0.30484 -4.9732971 -5.047852 7
-0.30313101 -4.9846501 -5.03125 7
-0.30838001 -5.0101008 -5.032227 7
-0.29974401 -5.0074458 -4.9980469 7
-0.303253 -5.0291438 -4.9960942 7
-0.308487 -5.054626 -4.9960942 7
-0.31025699 -5.072876 -4.9892578 7
-0.30856299 -5.0840149 -4.9716802 7
-0.313797 -5.109467 -4.9726558 7
-0.31036401 -5.1170349 -4.952148 7
-0.30311599 -4.8190608 -4.7919922 7
-0.297775 -4.822998 -4.7675781 7
-0.299606 -4.8407588 -4.7607422 7
-0.312195 -4.8795171 -4.7792969 7
-0.299667 -4.8691711 -4.7373052 7
-0.29971299 -4.8834529 -4.7255859 7
-0.30691499 -4.9115911 -4.7304692 7
-0.30874601 -4.9291382 -4.7226558 7
-0.31057701 -4.9469299 -4.7158198 7
-0.30880699 -4.957428 -4.6992192 7
-0.301682 -4.9572449 -4.670898 7
-0.30888399 -4.9857178 -4.6757808 7
-0.301743 -4.9851379 -4.6455078 7
-0.308945 -5.0135188 -4.6513672 7
-0.31256101 -5.0348511 -4.648438 7
-0.309021 -5.0415649 -4.6279302 7
-0.30905199 -5.0553279 -4.6152339 7
-0.30549601 -5.0621948 -4.594727 7
-0.309113 -5.0830078 -4.5898442 7
-0.30557299 -5.0897522 -4.570312 7
-0.305603 -5.1035461 -4.5576172 7
-0.42056999 -5.2105899 -9.9719162 7
-0.077155001 -1.984529 -6.6063342 7
-0.073885001 -1.756047 -4.31703 7
-0.30130801 -4.911046 -4.543117 7
-0.046967998 -1.684708 -3.596349 7
-0.27821001 -4.8525391 -3.687022 7
-0.025849 -1.827049 -2.5512569 7
-0.20531601 -4.8338518 -1.981064 7
-0.137527 4.0019302 -10.56855 7
-0.039742999 1.033579 -4.908988 7
-0.29495701 3.6130829 -17.71553 7
-0.31905699 -2.290071 -15.126103 7
-0.21612 -2.102926 -11.297669 7
-0.147819 -1.880767 -8.9780235 7
-0.37137499 -5.2699528 -11.093706 7
-0.31149399 3.9421339 -10.659755 7
-0.162956 0.728113 -9.3050709 7
-0.18060599 4.0585418 -7.6141639 7
-0.080241002 0.81667697 -7.3503819 7
-0.16936401 -1.793299 -7.4388518 7
-0.438694 -5.1669402 -9.1872377 7
-0.536412 -6.9048061 -9.3952065 7
-0.139419 -1.7698801 -6.495564 7
-0.138523 -1.994666 -6.42275 7
-0.095624 0.89125597 -6.253037 7
-0.098853998 0.679838 -6.310564 7
-0.098298997 4.287797 -3.897701 7
-0.11012 4.1941528 -4.158628 7
-0.057071 0.98298597 -5.4386182 7
-0.050841998 -1.702054 -4.8122959 7
-0.058238 -1.886113 -4.799705 7
-0.27239701 -4.9387012 -4.6903319 7
-0.26543501 -5.0626121 -4.4671359 7
-0.049582999 1.214766 -4.952877 7
-0.031785998 1.016095 -4.8611231 7
-0.041161999 -1.683791 -4.4079728 7
-0.052446999 -1.8648649 -4.4149551 7
-0.034217998 -1.669631 -4.0729651 7
-0.041292999 -1.821348 -4.0491552 7
-0.058929998 -1.7314219 -3.721915 7
-0.066115998 -1.868246 -3.6884739 7
-0.044287 -1.683763 -3.4377079 7
-0.060252 -1.839213 -3.440968 7
-0.03675 -1.633841 -3.2293799 7
-0.052632999 -1.77904 -3.2283649 7
-0.042477999 -1.737974 -2.5082591 7
-0.038240001 -1.783505 -2.427171 7
-0.036582001 -1.834857 -2.3508971 7
-0.041386001 -1.907481 -2.287132 7
-0.0297 -1.672786 -2.34776 7
-0.026751 -1.716107 -2.273067 7
