# .PCD v0.7 - Point Cloud Data file format
VERSION 0.7
FIELDS x y z intensity
SIZE 4 4 4 4
TYPE F F F F
COUNT 1 1 1 1
WIDTH 1284
HEIGHT 1
VIEWPOINT 0 0 0 1 0 0 0
POINTS 1284
DATA ascii
0.113503 -1.418457 -68.87207 7
0.144936 -1.560791 -67.791992 7
0.112175 -1.752075 -68.887695 7
0.067809999 5.5255132 -69.956055 7
0.092361003 5.293457 -69.135742 7
0.047355998 5.2359619 -70.658203 7
0.16316999 1.87146 -66.779297 7
0.084747002 -1.582764 -62.110352 7
0.13913 -1.834595 -60.441406 7
0.13357501 5.0690918 -60.245117 7
0.048698001 5.125977 -62.806641 7
-0.0076979999 5.1043701 -64.510742 7
-0.02916 -1.767822 -58.362305 7
0.052650001 -1.8430181 -56.135742 7
0.083832003 -1.9499511 -55.283203 7
0.149048 -2.019531 -53.511719 7
0.068122998 -2.234741 -55.682617 7
-0.76325202 -3.0688479 71.416016 7
-0.77717602 -0.91552699 71.888672 7
-0.73819703 -0.73962402 70.96582 7
-0.721466 -0.57153302 70.575195 7
0.188721 5.0422359 -52.12207 7
0.150177 5.0097661 -53.166016 7
0.090134002 5.0238042 -54.785156 7
0.14011399 4.773438 -53.451172 7
0.102417 4.7285161 -54.470703 7
0.016113 4.7861328 -56.796875 7
0.169746 1.358276 -52.732422 7
-0.031592999 -1.864136 -52.793945 7
0.021507001 -1.94458 -51.486328 7
0.054749001 -2.0379641 -50.663086 7
0.020781999 -2.195435 -51.482422 7
-0.70622301 -0.52099597 64.469727 7
-0.661789 -0.218628 63.513672 7
0.106247 4.9993901 -49.09082 7
0.070464998 4.9631348 -49.969727 7
0.131836 4.700439 -48.484375 7
0.097717002 4.6578369 -49.323242 7
0.052345 4.6356201 -50.43457 7
-0.046234 -2.0350339 -47.751953 7
0.001801 -2.1053469 -46.683594 7
0.034743998 -2.185791 -45.947266 7
0.104767 -2.2371831 -44.673828 7
0.016129 -2.449219 -46.618164 7
-0.62047601 -0.32910201 57.461914 7
-0.55996698 -0.19189499 56.259766 7
-0.582008 -0.062378 56.704102 7
0.106834 4.8596191 -44.345703 7
0.071631998 4.8312988 -45.129883 7
0.150925 4.5432129 -43.390625 7
0.104897 4.5371089 -44.414062 7
0.073371999 4.4952388 -45.116211 7
0.015999001 4.5036621 -46.390625 7
0.104324 1.153809 -44.545898 7
-0.037574999 -2.20752 -43.999023 7
0.0034099999 -2.2719729 -43.151367 7
0.034111001 -2.3439939 -42.515625 7
-0.020195 -2.509521 -43.613281 7
0.0099330004 -2.5802 -42.989258 7
0.040054001 -2.6480711 -42.363281 7
0.034690998 -2.7584231 -42.461914 7
-0.52523798 -0.057495002 51.753906 7
-0.55745697 0.062622003 52.355469 7
0.082480997 4.737793 -41.260742 7
0.053764001 4.6994629 -41.853516 7
0.0099029997 4.6911621 -42.754883 7
0.086998001 4.4234619 -41.194336 7
0.062592 4.372437 -41.700195 7
0.0087130005 4.3782959 -42.804688 7
-0.013672 -2.3790281 -39.53418 7
-0.001633 -2.462158 -39.300781 7
-0.043549001 -2.6074221 -40.071289 7
-0.020843999 -2.677979 -39.638672 7
0.018471001 -2.725708 -38.897461 7
0.03334 -2.8015139 -38.609375 7
0.047286998 -2.8773191 -38.34082 7
-0.50515699 -2.9851069 47.186523 7
-0.51939398 -2.8918459 47.438477 7
-0.53706402 -2.80127 47.749023 7
-0.45324701 -0.050903 46.47168 7
0.055176001 4.84729 -37.97168 7
0.033767998 4.8013921 -38.376953 7
0.018013 4.7409668 -38.679688 7
-0.016883999 4.720459 -39.334961 7
-0.0059199999 4.4074712 -39.158203 7
0.123238 0.96264601 -36.90332 7
0.164223 0.58654797 -36.139648 7
-0.030144 -2.7512209 -36.606445 7
-0.038139001 -2.8511961 -36.733398 7
-0.0055470001 -2.986938 -36.154297 7
6.9000002e-05 -3.0679929 -36.047852 7
-0.458244 -2.823364 43.18457 7
-0.46070901 -2.7269289 43.233398 7
0.023148 4.8912349 -35.433594 7
0.0030360001 4.848145 -35.787109 7
-0.011993 4.79248 -36.054688 7
-0.040947001 4.7652588 -36.557617 7
-0.052887 4.7000728 -36.772461 7
-0.010216 4.5212402 -36.052734 7
0.126488 1.222778 -33.886719 7
0.116531 1.144165 -34.058594 7
0.087196 1.075073 -34.564453 7
0.110542 0.97863799 -34.163086 7
0.100685 0.72839397 -34.332031 7
0.13380399 0.54968297 -33.762695 7
0.115929 0.46826199 -34.294922 7
0.138329 0.376831 -33.905273 7
-0.050774001 -2.9606929 -33.723633 7
-0.062798001 -3.0600591 -33.902344 7
-0.041847002 -3.1142581 -33.563477 7
-0.02829 -3.1773679 -33.339844 7
-0.394867 -2.7205811 39.019531 7
-0.43297601 -2.5799561 39.591797 7
-0.38788599 0.13659699 39.078125 7
-0.358612 0.223267 38.651367 7
-0.399178 0.31652799 39.24707 7
-0.36232799 0.40039101 38.708008 7
-0.023254 5.0723882 -33.026367 7
0.01329 4.9078369 -32.46582 7
-0.0034409999 4.8643799 -32.737305 7
-0.025359999 4.8310552 -33.088867 7
-0.042847 4.786377 -33.37207 7
-0.072913997 4.7670898 -33.852539 7
-0.081146002 4.7001948 -33.991211 7
0.112556 1.4387209 -31.160156 7
0.100952 1.368896 -31.34375 7
0.116425 1.281372 -31.101562 7
0.094100997 1.2169189 -31.456055 7
0.068039 1.152954 -31.867188 7
0.095375001 1.060059 -31.4375 7
0.072708003 0.440308 -31.796875 7
0.12146 0.27600101 -31.025391 7
0.090942003 0.20202599 -31.505859 7
0.105164 -0.035645001 -29.310547 7
-0.091309004 -3.1317141 -31.97168 7
-0.080375999 -3.1950679 -31.800781 7
-0.069420002 -3.2575679 -31.630859 7
-0.057677999 -3.3182371 -31.448242 7
-0.34270501 0.290894 36.152344 7
0.016052 4.9545898 -30.136719 7
-0.001831 4.9199219 -30.40918 7
-0.023682 4.8924561 -30.738281 7
-0.050696999 4.8747559 -31.141602 7
-0.078475997 4.8569341 -31.558594 7
-0.087677002 4.797852 -31.702148 7
0.106041 1.56604 -29.102539 7
0.088500999 1.506104 -29.363281 7
0.085243002 1.435181 -29.413086 7
0.097434998 1.354126 -29.234375 7
0.065223999 1.300903 -29.710938 7
0.071686 0.25952101 -29.8125 7
0.096855 0.18347199 -29.438477 7
0.082480997 0.111084 -29.649414 7
0.083526999 0.037475999 -29.632812 7
0.082488999 -0.028076001 -27.152344 7
0.101685 -0.094848998 -26.888672 7
0.071152002 -0.164551 -27.302734 7
0.084784999 -0.231323 -27.115234 7
0.099716 -0.296875 -26.911133 7
-0.10376 -3.2797849 -29.604492 7
-0.103493 -3.3525391 -29.589844 7
-0.094635002 -3.41272 -29.459961 7
-0.078491002 -3.460938 -29.230469 7
-0.080367997 -3.5361331 -29.245117 7
-0.325737 0.57299799 33.500977 7
-0.31556699 0.64660603 33.371094 7
-0.30996701 0.72082502 33.299805 7
-0.0020600001 5.1177979 -27.973633 7
0.026923999 4.9812012 -27.594727 7
0.0149 4.9394531 -27.767578 7
0.00073199999 4.9016109 -27.96875 7
-0.018562 4.8743901 -28.239258 7
-0.045127999 4.8615718 -28.609375 7
-0.051178001 4.8032231 -28.701172 7
0.102562 1.5863039 -26.863281 7
0.079323001 1.535889 -27.181641 7
0.107529 1.4482419 -26.800781 7
0.090714 1.392334 -27.029297 7
0.070083998 1.337891 -27.313477 7
0.049750999 -0.160034 -25.823242 7
0.066588998 -0.2229 -25.607422 7
0.068062 -0.41442901 -25.582031 7
0.079383999 -0.47582999 -25.435547 7
-0.123489 -3.432739 -27.74707 7
-0.127762 -3.5080571 -27.791016 7
-0.117363 -3.5609131 -27.647461 7
-0.102333 -3.6057129 -27.449219 7
-0.099724002 -3.669678 -27.405273 7
-0.115051 -3.7626951 -27.586914 7
-0.017867999 5.0689702 -26.136719 7
-0.002357 4.9681401 -25.954102 7
-0.016151 4.9337158 -26.138672 7
-0.025832999 4.889648 -26.269531 7
-0.042374 4.8598628 -26.488281 7
-0.048401002 4.806396 -26.575195 7
0.080139004 1.750488 -25.249023 7
0.087844998 1.680908 -25.154297 7
0.091751002 1.488525 -25.113281 7
0.058502 1.383301 -25.713867 7
0.059052002 -0.32666001 -23.761719 7
0.077689998 -0.38269001 -23.539062 7
0.052795 -0.50671399 -23.829102 7
0.071921997 -0.561279 -23.599609 7
0.077728003 -0.61901897 -23.52832 7
-0.114792 -3.6204829 -25.49707 7
-0.101578 -3.6629641 -25.332031 7
-0.092316002 -3.710815 -25.213867 7
-0.085525997 -3.7624509 -25.123047 7
-0.0041660001 5.0445561 -23.960938 7
-0.014069 5.0067139 -24.087891 7
-0.021515001 4.962769 -24.185547 7
-0.036835 4.935791 -24.375 7
-0.058571 4.9219971 -24.637695 7
-0.060104001 4.8631592 -24.666992 7
0.079971001 1.802368 -23.333008 7
0.088653997 1.619141 -23.239258 7
-0.124588 -3.692627 -23.776367 7
-0.118355 -3.7419429 -23.698242 7
-0.106964 -3.841187 -23.552734 7
-0.107628 -3.9012451 -23.549805 7
-0.027054001 5.1003418 -22.453125 7
-0.029755 5.049561 -22.493164 7
-0.038231 5.0115972 -22.597656 7
-0.044608999 4.9686279 -22.677734 7
-0.058371998 4.9416499 -22.837891 7
-0.075813003 4.9219971 -23.038086 7
-0.071144 4.8535161 -22.998047 7
0.061377998 1.808838 -21.886719 7
0.058136001 1.755981 -21.925781 7
0.074988998 1.68689 -21.743164 7
0.066482998 1.63855 -21.841797 7
0.040702999 -0.654419 -20.748047 7
0.051895 -0.70300299 -20.630859 7
0.056862 -0.75341803 -20.576172 7
0.029663 -0.81579602 -20.853516 7
0.041412 -0.86377001 -20.729492 7
0.049782 -0.912476 -20.639648 7
-0.130127 -3.851685 -22.138672 7
-0.119492 -3.889282 -22.019531 7
-0.112259 -3.932251 -21.935547 7
-0.1073 -3.9786379 -21.874023 7
-0.113655 -4.0446782 -21.927734 7
-0.12960801 -4.1281738 -22.079102 7
-0.028876999 5.0394292 -20.866211 7
-0.035126001 5.0002441 -20.94043 7
-0.042495999 4.963501 -21.025391 7
-0.050987002 4.928833 -21.12207 7
-0.070183001 4.9168701 -21.329102 7
-0.078674003 4.881104 -21.425781 7
0.053307001 1.906616 -20.444336 7
0.062858999 1.846191 -20.350586 7
0.048126001 1.806885 -20.506836 7
0.067824997 1.738403 -20.306641 7
0.061562002 1.691772 -20.375 7
0.053589001 1.646118 -20.459961 7
0.029579001 -0.66747999 -19.520508 7
0.01088 -0.72338903 -19.701172 7
0.022797 -0.76904303 -19.581055 7
0.031105001 -0.81542999 -19.499023 7
0.023810999 -0.86791998 -19.566406 7
0.0074999998 -0.92431599 -19.722656 7
-0.15357199 -3.920532 -20.900391 7
-0.14285301 -3.954834 -20.786133 7
-0.138161 -3.9992681 -20.731445 7
-0.132263 -4.0411382 -20.665039 7
-0.124565 -4.0794678 -20.581055 7
-0.043334998 5.0671391 -19.588867 7
-0.054756001 5.0429692 -19.708008 7
-0.062583998 5.0100098 -19.792969 7
-0.071608998 4.9794922 -19.891602 7
-0.087844998 4.9641109 -20.055664 7
-0.100456 4.940186 -20.186523 7
-0.088509001 4.8632808 -20.084961 7
0.038490001 1.902832 -19.260742 7
0.023414999 1.866577 -19.410156 7
0.047378998 1.796875 -19.182617 7
0.039519999 1.754395 -19.262695 7
0.030456999 1.712158 -19.354492 7
0.027389999 1.665405 -19.386719 7
0.037544001 1.6081541 -19.291016 7
0.0087280003 -0.86206102 -18.289062 7
0.026329 -0.951294 -18.249023 7
-0.001427 -1.012207 -18.49707 7
0.0093459999 -1.053955 -18.395508 7
0.015007 -1.098022 -18.34082 7
0.01619 -1.144043 -18.327148 7
0.0020290001 -1.198486 -18.451172 7
0.0032200001 -1.244751 -18.4375 7
-0.13266 -3.8426509 -19.307617 7
-0.139175 -3.902344 -19.355469 7
-0.15276299 -3.974365 -19.46582 7
-0.15671501 -4.030396 -19.490234 7
-0.145294 -4.0596919 -19.37793 7
-0.141563 -4.1021729 -19.333984 7
-0.137825 -4.1444092 -19.291016 7
-0.048447002 5.094727 -18.260742 7
-0.052956 5.058228 -18.311523 7
-0.061287001 5.0299072 -18.396484 7
-0.068336003 4.9981689 -18.470703 7
-0.076049998 4.967896 -18.548828 7
0.014771 1.899292 -18.196289 7
0.040916 1.8302 -17.961914 7
0.035758998 1.788452 -18.012695 7
0.028679 1.747803 -18.081055 7
0.017746 1.710083 -18.183594 7
0.036880001 1.648682 -18.013672 7
0.034912001 1.604004 -18.035156 7
-0.0024260001 -1.000366 -17.392578 7
-0.022803999 -1.054688 -17.56543 7
-0.005295 -1.09082 -17.411133 7
-0.0074160001 -1.136475 -17.425781 7
-9.2000002e-05 -1.177002 -17.358398 7
-0.013039 -1.228516 -17.464844 7
-0.017852999 -1.276001 -17.50293 7
-0.15672299 -4.2242432 -18.234375 7
-0.01133 -0.90478498 -16.394531 7
0.0021210001 -0.98290998 -16.280273 7
0.0034479999 -1.023926 -16.263672 7
-0.013824 -1.074097 -16.401367 7
-0.01033 -1.114624 -16.369141 7
-0.011139 -1.1569819 -16.373047 7
-0.0026169999 -1.19458 -16.300781 7
-0.023491001 -1.248047 -16.464844 7
-0.16677099 -4.1748052 -17.152344 7
-0.163994 -4.2137451 -17.120117 7
-0.16194201 -4.25354 -17.092773 7
-0.16925 -4.3105469 -17.138672 7
-0.17941301 -4.3730469 -17.208008 7
-0.18815599 -4.433105 -17.264648 7
-0.188263 -4.477417 -17.254883 7
0.017014001 1.896606 -15.99707 7
0.019119 1.853271 -15.984375 7
0.022667 1.808838 -15.960938 7
0.020470001 1.769287 -15.982422 7
0.022575 1.7261961 -15.967773 7
0.022514001 1.684814 -15.97168 7
0.028229 1.63916 -15.930664 7
0.020981001 1.6031491 -15.990234 7
-0.0089039998 -0.97289997 -15.384766 7
-0.005264 -1.050537 -15.351562 7
-0.028839 -1.101685 -15.52832 7
-0.018310999 -1.136353 -15.444336 7
-0.016197 -1.214844 -15.421875 7
-0.026131 -1.260498 -15.494141 7
-0.18718 -4.1872559 -16.231445 7
-0.18121301 -4.2181401 -16.175781 7
-0.18215901 -4.3027339 -16.161133 7
-0.19062801 -4.3597412 -16.211914 7
-0.19909699 -4.4168701 -16.264648 7
-0.20071401 -4.4615479 -16.264648 7
-0.073867999 5.0845952 -15.097656 7
-0.078429997 5.0554199 -15.143555 7
-0.079231001 5.0178218 -15.160156 7
-0.078483999 4.976685 -15.166992 7
-0.084572002 4.950439 -15.223633 7
-0.094429001 4.932251 -15.307617 7
-0.089934997 4.842896 -15.296875 7
0.020439001 1.710815 -15.013672 7
0.024178 1.668945 -14.988281 7
0.020354999 1.63269 -15.022461 7
-0.0075679999 -0.993164 -14.444336 7
-0.0044399998 -1.029175 -14.418945 7
-0.0029219999 -1.065918 -14.404297 7
-0.019035 -1.111328 -14.517578 7
-0.026320999 -1.152832 -14.566406 7
-0.018378999 -1.186157 -14.505859 7
-0.016860999 -1.223022 -14.491211 7
-0.019347999 -1.2618411 -14.504883 7
-0.194084 -4.1644292 -15.256836 7
-0.189354 -4.195312 -15.213867 7
-0.185425 -4.2272949 -15.175781 7
-0.184723 -4.2651372 -15.160156 7
-0.181602 -4.298584 -15.126953 7
-0.18491399 -4.3436279 -15.139648 7
-0.19787601 -4.4064941 -15.21875 7
-0.202812 -4.4549561 -15.241211 7
-0.091689996 5.102417 -14.222656 7
-0.074905001 5.02771 -14.118164 7
-0.078139998 4.9978032 -14.15332 7
-0.082153 4.969727 -14.193359 7
-0.083770998 4.9359131 -14.21582 7
-0.094208002 4.9212651 -14.298828 7
-0.109421 4.9165039 -14.416016 7
-0.107056 4.8737788 -14.411133 7
0.013084 1.584839 -14.15918 7
0.0090260003 1.5506589 -14.191406 7
0.016205 1.508545 -14.143555 7
0.026588 1.464355 -14.072266 7
0.032967001 1.423218 -14.029297 7
0.036942001 1.383911 -14.003906 7
0.016052 1.360474 -14.158203 7
0.016807999 1.322876 -14.155273 7
-0.0077289999 -0.97863799 -13.644531 7
-0.0086519998 -1.014526 -13.647461 7
-0.0061869998 -1.049072 -13.62793 7
-0.0028919999 -1.082886 -13.601562 7
-0.014778 -1.124512 -13.679688 7
-0.030037001 -1.168213 -13.78125 7
-0.019974001 -1.198608 -13.709961 7
-0.018363999 -1.233398 -13.695312 7
-0.017601 -1.268677 -13.685547 7
-0.20458999 -4.1968989 -14.428711 7
-0.195381 -4.217773 -14.356445 7
-0.19377901 -4.2521968 -14.335938 7
-0.19473299 -4.290894 -14.331055 7
-0.19313 -4.3250728 -14.30957 7
-0.19998901 -4.3747559 -14.342773 7
-0.202629 -4.416626 -14.349609 7
-0.210335 -4.4681401 -14.389648 7
0.017921001 1.255615 -13.359375 7
0.025474999 1.216064 -13.308594 7
0.033859 1.176514 -13.253906 7
0.036354002 1.140259 -13.240234 7
0.033775002 1.106689 -13.259766 7
0.024475001 1.076416 -13.325195 7
0.028664 1.039185 -13.299805 7
0.037041001 1.000366 -13.243164 7
0.042892002 0.96264601 -13.205078 7
-0.007553 -0.963135 -12.886719 7
-0.020943001 -1.00293 -12.97168 7
-0.0076979999 -1.03064 -12.880859 7
-0.0095370002 -1.065308 -12.890625 7
-0.006058 -1.09729 -12.865234 7
-0.018547 -1.137573 -12.943359 7
-0.032822002 -1.179077 -13.033203 7
-0.020470001 -1.206421 -12.949219 7
-0.020523001 -1.240479 -12.947266 7
-0.017052 -1.272217 -12.920898 7
-0.209831 -4.1723628 -13.619141 7
-0.21615601 -4.2189941 -13.648438 7
-0.205566 -4.2354741 -13.571289 7
-0.20475 -4.2695308 -13.555664 7
-0.20395701 -4.3032231 -13.540039 7
-0.198715 -4.328979 -13.496094 7
-0.201462 -4.369019 -13.50293 7
-0.210457 -4.4207759 -13.547852 7
-0.218575 -4.4709468 -13.586914 7
0.019218 0.95813 -12.62207 7
0.022736 0.923096 -12.601562 7
0.024483001 0.88915998 -12.591797 7
0.032432999 0.85266101 -12.541992 7
0.034157 0.818726 -12.532227 7
0.034995999 0.78515601 -12.52832 7
0.026977999 0.75476098 -12.582031 7
0.028709 0.72082502 -12.572266 7
0.036651999 0.68505901 -12.521484 7
0.044594001 0.64953601 -12.470703 7
0.050765999 0.61462402 -12.431641 7
0.052498002 0.581177 -12.421875 7
0.047134001 0.54968297 -12.458008 7
-0.016518001 -1.017944 -12.254883 7
-0.023094 -1.053223 -12.292969 7
-0.0073469998 -1.078003 -12.192383 7
-0.010193 -1.111572 -12.207031 7
-0.010338 -1.175781 -12.201172 7
-0.029937999 -1.218872 -12.320312 7
-0.021637 -1.246582 -12.265625 7
-0.01519 -1.275146 -12.22168 7
-0.188293 -4.1726069 -12.708008 7
-0.209831 -4.244019 -12.825195 7
-0.213661 -4.2844238 -12.836914 7
-0.202538 -4.297852 -12.761719 7
-0.20729101 -4.3398442 -12.77832 7
-0.20364401 -4.3666992 -12.746094 7
-0.200928 -4.394897 -12.719727 7
-0.205696 -4.4371338 -12.735352 7
-0.102791 5.0732422 -11.839844 7
-0.074965999 4.9489751 -11.702148 7
-0.080550998 4.9299321 -11.746094 7
-0.077774003 4.8925781 -11.742188 7
-0.076858997 4.8591309 -11.748047 7
-0.081519999 4.8378911 -11.786133 7
0.035843 0.62011701 -11.974609 7
0.034859002 0.588745 -11.981445 7
0.045028999 0.55419898 -11.919922 7
0.055199001 0.52026403 -11.858398 7
0.046783 0.49084499 -11.911133 7
0.045791999 0.45959499 -11.917969 7
0.0383 0.42956501 -11.964844 7
0.045669999 0.396606 -11.918945 7
0.046546999 0.36486799 -11.915039 7
0.052062999 0.33239701 -11.880859 7
0.041862 -0.070556998 -11.173828 7
-0.006424 -1.0849611 -11.508789 7
-0.0084459996 -1.116455 -11.516602 7
-0.0085140001 -1.146973 -11.514648 7
-0.20314001 -4.1809082 -12.03418 7
-0.212051 -4.2285161 -12.073242 7
-0.215065 -4.2653809 -12.080078 7
-0.21417999 -4.2955322 -12.064453 7
-0.20935801 -4.3187261 -12.027344 7
-0.206497 -4.3450928 -12 7
-0.20462801 -4.3730469 -11.978516 7
-0.205681 -4.4066162 -11.973633 7
-0.20872501 -4.4438481 -11.978516 7
-0.110832 5.1079102 -11.118164 7
-0.110847 5.078125 -11.129883 7
-0.105972 5.0374761 -11.115234 7
-0.086479001 4.9648442 -11.020508 7
-0.07869 4.918335 -10.989258 7
-0.082595997 4.8972168 -11.022461 7
-0.086533003 4.846313 -11.067383 7
-0.083626002 4.8103032 -11.0625 7
-0.096313 4.807373 -11.143555 7
-0.107056 4.7999272 -11.213867 7
-0.11293 4.782104 -11.258789 7
0.036469001 0.28991699 -11.205078 7
0.034469999 0.260254 -11.217773 7
0.035416 0.22998001 -11.211914 7
0.036346 0.199829 -11.207031 7
0.036118001 0.019409001 -11.208008 7
0.022857999 -0.012085 -10.823242 7
0.02076 -0.041016001 -10.834961 7
0.025818 -0.069824003 -10.805664 7
0.032912999 -0.098266996 -10.765625 7
0.033867002 -0.127075 -10.759766 7
0.038918 -0.155518 -10.730469 7
0.036827002 -0.184448 -10.742188 7
0.024521001 -0.214233 -10.80957 7
0.020385999 -0.243652 -10.833008 7
0.022361999 -0.272461 -10.820312 7
0.029464999 -0.300293 -10.779297 7
-0.013771 -0.98120099 -10.978516 7
-0.016891001 -1.0118411 -10.993164 7
-0.024094 -1.044678 -11.03125 7
-0.015999001 -1.0699461 -10.982422 7
-0.012978 -1.0979 -10.963867 7
-0.014069 -1.127563 -10.96582 7
-0.011063 -1.155273 -10.946289 7
-0.027473001 -1.1932369 -11.035156 7
-0.036727998 -1.227905 -11.084961 7
-0.027588001 -1.252075 -11.029297 7
-0.20814499 -4.1842041 -11.401367 7
-0.215416 -4.2271729 -11.429688 7
-0.22164901 -4.2684331 -11.451172 7
-0.222755 -4.3006592 -11.447266 7
-0.217705 -4.3218989 -11.410156 7
-0.215721 -4.3483891 -11.388672 7
-0.21273801 -4.3730469 -11.362305 7
-0.21588901 -4.408936 -11.368164 7
-0.209831 -4.4277339 -11.324219 7
-0.21606401 -4.4693599 -11.34668 7
-0.115219 5.1160889 -10.483398 7
-0.11216 5.0810552 -10.479492 7
-0.113197 5.0549321 -10.49707 7
-0.113213 5.0266109 -10.508789 7
-0.107101 4.9848628 -10.488281 7
-0.093856998 4.9277339 -10.431641 7
-0.090813003 4.8929439 -10.426758 7
-0.093864001 4.87146 -10.454102 7
-0.09082 4.8365479 -10.450195 7
-0.096946999 4.8212891 -10.494141 7
-0.104103 4.8078609 -10.541992 7
-0.114311 4.8006592 -10.607422 7
0.017295999 -0.34228501 -10.251953 7
0.019378999 -0.369385 -10.240234 7
0.025764 -0.39587399 -10.204102 7
0.026772 -0.423096 -10.197266 7
0.026718 -0.450562 -10.196289 7
0.020241 -0.47937 -10.229492 7
0.016960001 -0.50769001 -10.246094 7
0.010483 -0.53698701 -10.279297 7
0.012573 -0.56384301 -10.266602 7
0.016807999 -0.59033197 -10.241211 7
0.019981001 -0.61706501 -10.223633 7
0.017761 -0.64489698 -10.233398 7
0.018784 -0.67236298 -10.225586 7
-0.012878 -0.960693 -10.37207 7
-0.011864 -0.98803699 -10.363281 7
-0.020508001 -1.019897 -10.407227 7
-0.019493001 -1.047485 -10.398438 7
-0.017402999 -1.0743411 -10.384766 7
-0.0121 -1.0994869 -10.353516 7
-0.011078 -1.126587 -10.344727 7
-0.014351 -1.15625 -10.360352 7
-0.014412 -1.184082 -10.356445 7
-0.028418999 -1.219604 -10.428711 7
-0.0317 -1.24939 -10.442383 7
-0.026389999 -1.274292 -10.411133 7
-0.203751 -4.1743159 -10.689453 7
-0.208122 -4.2102051 -10.702148 7
-0.210365 -4.2427979 -10.702148 7
-0.217979 -4.2849121 -10.730469 7
-0.21805599 -4.313477 -10.719727 7
-0.220291 -4.3461909 -10.720703 7
-0.21607199 -4.3669429 -10.688477 7
-0.215057 -4.3935552 -10.671875 7
-0.215157 -4.4221191 -10.661133 7
-0.213066 -4.4466548 -10.640625 7
0.014587 -0.64416498 -9.7421885 7
0.012299 -0.67126501 -9.7519531 7
0.012245 -0.69775403 -9.75 7
0.001007 -0.72766101 -9.8056641 7
-0.0057600001 -0.75659198 -9.8388672 7
-0.0035860001 -0.782471 -9.8251953 7
0.00309 -0.80651897 -9.7890615 7
0.0052720001 -0.83215302 -9.7763672 7
0.0029829999 -0.85949701 -9.7851562 7
-0.00042699999 -0.88745099 -9.8007812 7
-0.010567 -0.91796899 -9.8486328 7
-0.015106 -0.94641101 -9.8691406 7
-0.028152 -1.299927 -9.8974609 7
-0.029327 -1.3273931 -9.9003906 7
-0.030494999 -1.354614 -9.9023438 7
-0.030556001 -1.381592 -9.8994141 7
0.0028609999 -0.64465302 -9.3164062 7
0.000481 -0.67089802 -9.3261719 7
-0.0019 -0.69677699 -9.3359385 7
-0.0077900002 -0.72424299 -9.3632812 7
-0.011353 -0.75085402 -9.3779297 7
-0.0043950002 -0.77392602 -9.3417969 7
0.002563 -0.79663098 -9.3056641 7
0.0025180001 -0.82202101 -9.3046885 7
0.0036160001 -0.84704602 -9.2958984 7
0.0024029999 -0.87268102 -9.2998047 7
-0.014015 -0.90466303 -9.3779297 7
-0.019912999 -0.93273902 -9.4033203 7
-0.011772 -0.95471197 -9.3623047 7
-0.010651 -0.97949201 -9.3544922 7
-0.0095210001 -1.004639 -9.3457031 7
-0.0049129999 -1.027832 -9.3203115 7
-0.0096509997 -1.05542 -9.3408203 7
-0.022568 -1.087036 -9.3994141 7
-0.030792 -1.1168211 -9.4375 7
-0.022675 -1.138306 -9.3945312 7
-0.020385999 -1.162598 -9.3798828 7
-0.023956001 -1.189941 -9.3945312 7
-0.022826999 -1.2149661 -9.3867188 7
-0.032242 -1.245728 -9.4287109 7
-0.043976001 -1.2780761 -9.4833984 7
-0.007797 -0.98584002 -8.8837891 7
-0.018805999 -1.015259 -8.9316406 7
-0.040778998 -1.0500489 -9.0322266 7
-0.026207 -1.067627 -8.9619141 7
-0.015297 -1.086792 -8.9082031 7
-0.025101 -1.116089 -8.9501953 7
-0.020287 -1.137939 -8.9248047 7
-0.022766 -1.1636961 -8.9335938 7
-0.025253 -1.189453 -8.9423828 7
-0.024086 -1.213379 -8.9335938 7
-0.032669 -1.2425539 -8.9707031 7
-0.036362 -1.269043 -8.9853516 7
-0.013405 -0.96704102 -8.4453115 7
-0.0096359998 -0.98877001 -8.4257812 7
-0.0033189999 -1.009033 -8.3955078 7
-0.00082399999 -1.030884 -8.3818359 7
-0.005959 -1.056641 -8.4023438 7
-0.0060120001 -1.079712 -8.3994141 7
-0.013687 -1.106689 -8.4306641 7
-0.026458999 -1.136475 -8.4853516 7
-0.011253 -1.151855 -8.4140615 7
-0.011292 -1.175171 -8.4111328 7
-0.013893 -1.199585 -8.4189453 7
-0.013931 -1.2229 -8.4169922 7
-0.017821999 -1.248291 -8.4296885 7
-0.022957001 -1.274536 -8.4501953 7
-0.21921501 -4.4614258 -8.4033203 7
-0.216736 -4.4797359 -8.3828115 7
-0.145317 4.1342769 10.839844 7
-0.128372 4.1488042 10.75293 7
-0.080200002 4.7967529 -7.53125 7
-0.078948997 4.7513428 -7.547852 7
-0.077682003 4.727417 -7.554688 7
-0.085303999 4.7003169 -7.6064448 7
-0.086600997 4.5733638 -7.6777339 7
-0.029243 -0.97924799 -8.1074219 7
-0.026642 -1.000488 -8.09375 7
-0.026695 -1.022949 -8.0917969 7
-0.033363 -1.048584 -8.1171885 7
-0.029426999 -1.069214 -8.0986328 7
-0.020226 -1.087036 -8.0556641 7
-0.017624 -1.10791 -8.0419922 7
-0.018990001 -1.130981 -8.0449219 7
-0.02565 -1.15686 -8.0703115 7
-0.024383999 -1.178589 -8.0615234 7
-0.024429001 -1.20105 -8.0595703 7
-0.02977 -1.2261961 -8.0791016 7
-0.028496001 -1.248047 -8.0703115 7
-0.033836 -1.273315 -8.0898438 7
-0.21615601 -4.296875 -7.983398 7
-0.222855 -4.3310552 -7.999023 7
-0.228241 -4.362915 -8.0097656 7
-0.230965 -4.3898931 -8.0087891 7
-0.237671 -4.4243159 -8.0244141 7
-0.229782 -4.4320068 -7.9824219 7
-0.225853 -4.4468989 -7.9570308 7
-0.223267 -4.4639888 -7.9355469 7
-0.093681 4.79248 -7.125977 7
-0.096336 4.77771 -7.1464839 7
-0.096336 4.7572021 -7.1582031 7
-0.096329004 4.7368159 -7.1699219 7
-0.095016003 4.713501 -7.1748052 7
-0.098984003 4.7012939 -7.2011719 7
-0.106903 4.6968989 -7.2441411 7
-0.113518 4.6896968 -7.2792969 7
-0.117485 4.677002 -7.3056641 7
-0.110886 4.6429439 -7.2919922 7
-0.106918 4.6141362 -7.2871089 7
-0.106926 4.5935059 -7.297852 7
-0.105621 4.5699458 -7.3037109 7
-0.099007003 4.5361328 -7.289062 7
-0.100334 4.5178218 -7.304688 7
-0.101654 4.4996338 -7.3212891 7
-0.20845801 -4.1679692 -7.5351558 7
-0.209885 -4.1914058 -7.53125 7
-0.216866 -4.224731 -7.545898 7
-0.219688 -4.2507319 -7.546875 7
-0.21283001 -4.2597661 -7.5107422 7
-0.21566001 -4.285645 -7.5107422 7
-0.215729 -4.3066411 -7.500977 7
-0.218559 -4.3327641 -7.500977 7
-0.222771 -4.3614502 -7.5058589 7
-0.22422799 -4.3850098 -7.5 7
-0.232582 -4.4211431 -7.5205078 7
-0.218826 -4.4168701 -7.4589839 7
-0.214737 -4.4300542 -7.4335942 7
-0.214798 -4.4510498 -7.4238281 7
-0.216263 -4.4744868 -7.4169922 7
-0.075080998 -1.89978 10.354492 7
-0.075072996 -1.878418 10.359375 7
-0.075034998 -1.8573 10.363281 7
-0.083466001 -1.842896 10.401367 7
-0.08625 -1.823853 10.416016 7
-0.073569998 -1.79248 10.370117 7
-0.070724003 -1.769043 10.363281 7
-0.072113 -1.748901 10.373047 7
-0.063637003 -1.721313 10.34375 7
-0.063629001 -1.6999511 10.348633 7
-0.076256 -1.688354 10.402344 7
-0.079048 -1.669189 10.416992 7
-0.069176003 -1.640503 10.382812 7
-0.064934 -1.616333 10.369141 7
-0.109299 4.799438 -6.7236328 7
-0.099655002 4.7600098 -6.7001948 7
-0.092781 4.7263179 -6.686523 7
-0.094162002 4.7098389 -6.703125 7
-0.092789002 4.6877441 -6.7089839 7
-0.094154 4.6711431 -6.7255859 7
-0.105171 4.6741939 -6.7753911 7
-0.103798 4.651855 -6.782227 7
-0.106537 4.6378169 -6.8037109 7
-0.101059 4.6070561 -6.7939448 7
-0.094162002 4.57373 -6.780273 7
-0.098311998 4.5625 -6.804688 7
-0.094177 4.5345459 -6.8017578 7
-0.094169997 4.5150151 -6.8125 7
-0.091430999 4.4899902 -6.813477 7
-0.079216003 -1.91333 10.017578 7
-0.071898997 -1.8868411 9.9941406 7
-0.074790999 -1.8687741 10.009766 7
-0.079147004 -1.8519289 10.03125 7
-0.084953003 -1.836182 10.057617 7
-0.084937997 -1.815796 10.061523 7
-0.077614002 -1.789551 10.038086 7
-0.065940998 -1.7598881 9.9980469 7
-0.063004002 -1.737427 9.9912109 7
-0.060059 -1.714844 9.984375 7
-0.060036 -1.694458 9.9882812 7
-0.062919997 -1.676392 10.00293 7
-0.077483997 -1.666748 10.063477 7
-0.067253001 -1.638916 10.027344 7
-0.067222998 -1.61853 10.03125 7
-0.094139002 4.4919429 -6.4091802 7
-0.33156601 -6.1112061 -5.9335942 7
-0.33909601 -6.1468511 -5.9404302 7
-0.34513101 -6.1787109 -5.9433589 7
-0.33923301 -6.181519 -5.9111328 7
-0.34228501 -6.2061772 -5.905273 7
-0.33638 -6.2087402 -5.874023 7
-0.32897899 -6.20752 -5.8378911 7
-0.32756001 -6.2209468 -5.8183589 7
-0.329124 -6.2418208 -5.8076172 7
-0.33814999 -6.2810059 -5.8183589 7
-0.33971399 -6.3017578 -5.8076172 7
-0.339775 -6.3189702 -5.7929692 7
-0.351807 -6.3658452 -5.811523 7
-0.35336301 -6.3867192 -5.8007808 7
-0.076743998 -1.915161 9.65625 7
-0.073684998 -1.893066 9.6494141 7
-0.079735003 -1.878662 9.6757812 7
-0.072136 -1.852661 9.6533203 7
-0.073631003 -1.834473 9.6630859 7
-0.087242 -1.825928 9.7167969 7
-0.082663998 -1.8026119 9.7041016 7
-0.073569998 -1.775757 9.6757812 7
-0.067505002 -1.751465 9.6572266 7
-0.058394998 -1.7249759 9.6279297 7
-0.065932997 -1.711182 9.6591797 7
-0.065932997 -1.691528 9.6650391 7
-0.056830999 -1.665283 9.6357422 7
-0.071929999 -1.6569819 9.6953115 7
-0.074936002 -1.639648 9.7099609 7
-0.062798001 -1.611328 9.6689453 7
-0.065886997 -1.894897 9.3154297 7
-0.067459002 -1.877441 9.3261719 7
-0.068993002 -1.8601069 9.3369141 7
-0.068962 -1.841309 9.3408203 7
-0.07209 -1.825073 9.3564453 7
-0.072059996 -1.8062741 9.3603516 7
-0.075172 -1.789795 9.3759766 7
-0.072021 -1.768677 9.3691406 7
-0.061043002 -1.7412111 9.3349609 7
-0.048508 -1.712769 9.2939453 7
-0.064133003 -1.706055 9.3535156 7
-0.062553003 -1.685913 9.3525391 7
-0.057822999 -1.663818 9.3398438 7
-0.060943998 -1.647217 9.3544922 7
-0.060920998 -1.628418 9.3583984 7
-0.064018004 -1.611816 9.3730469 7
-0.054062001 0.96935999 9.4599609 7
-0.050896 0.98718297 9.4472656 7
-0.047745001 1.004517 9.4335938 7
-0.044578999 1.022217 9.4199219 7
-0.042975999 1.040283 9.4111328 7
-0.049187001 1.062378 9.4316406 7
-0.046036001 1.079834 9.4179688 7
-0.052200001 1.120728 9.4345703 7
-0.058371998 1.161865 9.4521484 7
-0.061469998 1.182739 9.4609385 7
-0.056740001 1.198975 9.4404297 7
-0.058272999 1.218994 9.4443359 7
-0.056685999 1.236938 9.4355469 7
-0.056648001 1.256104 9.4326172 7
-0.055054002 1.274292 9.4248047 7
-0.23127 -4.4812012 -5.8310552 7
-0.23300201 -4.518188 -5.813477 7
-0.23304699 -4.5351558 -5.8027339 7
-0.233109 -4.5522461 -5.7929692 7
-0.238129 -4.629395 -5.7636719 7
-0.25425699 -4.6939702 -5.7880859 7
-0.25433299 -4.71106 -5.7763672 7
-0.33692899 -6.3286128 -4.7871089 7
-0.336983 -6.3431401 -4.773438 7
-0.346672 -6.3820801 -4.78125 7
-0.069038004 -1.913574 8.9970703 7
-0.065765001 -1.8927 8.9902344 7
-0.068999998 -1.877563 9.0058594 7
-0.064110003 -1.8555911 8.9931641 7
-0.060851999 -1.834839 8.9873047 7
-0.068947002 -1.823608 9.0185547 7
-0.065673999 -1.802856 9.0117188 7
-0.065651 -1.784912 9.015625 7
-0.067261003 -1.768433 9.0263672 7
-0.049385 -1.736328 8.9697266 7
-0.049377002 -1.718384 8.9746094 7
-0.050980002 -1.701782 8.984375 7
-0.049332 -1.6826169 8.9824219 7
-0.049316 -1.664673 8.9863281 7
-0.049300998 -1.646729 8.9902344 7
-0.063896 -1.6394041 9.0439453 7
-0.057381 -1.616577 9.0263672 7
-0.048813 0.966187 9.125 7
-0.045524999 0.98303199 9.1113281 7
-0.037384 0.997437 9.0810547 7
-0.035735998 1.0148931 9.0732422 7
-0.034072999 1.032349 9.0654297 7
-0.035666998 1.05127 9.0683594 7
-0.035613999 1.0693361 9.0654297 7
-0.038826 1.0888669 9.0742188 7
-0.048523001 1.111938 9.1054688 7
-0.042006999 1.126953 9.0800781 7
-0.043586999 1.145996 9.0830078 7
-0.048416 1.166626 9.0966797 7
-0.051612999 1.186401 9.1054688 7
-0.054825 1.206421 9.1142578 7
-0.054802001 1.224609 9.1113281 7
-0.054756001 1.242676 9.1074219 7
-0.059578001 1.2637939 9.1220703 7
-0.33470899 -6.0802002 -4.546875 7
-0.34141499 -6.110229 -4.547852 7
-0.33814999 -6.1162109 -4.5253911 7
-0.341553 -6.1384282 -4.5185552 7
-0.338287 -6.1442871 -4.4951172 7
-0.35166901 -6.1905522 -4.5117192 7
-0.35173801 -6.2044678 -4.4960942 7
-0.34513101 -6.202148 -4.4667969 7
-0.348526 -6.2242432 -4.4589839 7
-0.34692401 -6.2340088 -4.4414058 7
-0.34364301 -6.239624 -4.4179692 7
-0.33371699 -6.2286382 -4.3808589 7
-0.33044401 -6.2341309 -4.359375 7
-0.33882901 -6.268311 -4.3632808 7
-0.33723399 -6.2779541 -4.34375 7
-0.32731599 -6.2663569 -4.3066411 7
-0.332367 -6.292603 -4.3037109 7
-0.33242801 -6.3060298 -4.2880859 7
-0.332504 -6.319458 -4.2724609 7
-0.33254999 -6.3328862 -4.2587891 7
-0.34427601 -6.3754878 -4.2685552 7
-0.34433699 -6.388916 -4.2539058 7
-0.075165004 -1.914917 8.7099609 7
-0.063377 -1.887939 8.6757812 7
-0.065033004 -1.87207 8.6855469 7
-0.065040998 -1.854858 8.6914062 7
-0.061638001 -1.834717 8.6845703 7
-0.061629999 -1.817505 8.6884766 7
-0.064963996 -1.8031009 8.703125 7
-0.069991998 -1.789795 8.7236328 7
-0.064940996 -1.768433 8.7119141 7
-0.058189001 -1.74585 8.6943359 7
-0.051445 -1.723511 8.6767578 7
-0.049736001 -1.705078 8.6748047 7
-0.046356 -1.685303 8.6679688 7
-0.053061999 -1.672974 8.6933594 7
-0.049683001 -1.65332 8.6865234 7
-0.048004001 -1.634766 8.6865234 7
-0.063125998 -1.62854 8.7392578 7
-0.053001001 -1.604004 8.7109385 7
-0.049316 0.96484399 8.8291016 7
-0.054329 0.98461902 8.8427734 7
-0.054297999 1.002197 8.8408203 7
-0.050896 1.018188 8.8271484 7
-0.042465001 1.03186 8.7978516 7
-0.039062001 1.047852 8.7832031 7
-0.040709998 1.065918 8.7861328 7
-0.039000999 1.082764 8.7783203 7
-0.040649001 1.100952 8.78125 7
-0.049004 1.122559 8.8066406 7
-0.045623999 1.138428 8.7929688 7
-0.047256 1.156738 8.7949219 7
-0.042190999 1.171387 8.7753906 7
-0.052230999 1.194458 8.8066406 7
-0.053870998 1.212769 8.8085938 7
-0.053833 1.230225 8.8056641 7
-0.050461002 1.245972 8.7929688 7
-0.058807001 1.267944 8.8173828 7
-0.135628 4.1870122 7.9902339 7
-0.142281 4.2146001 7.999023 7
-0.14056399 4.2271729 7.985352 7
-0.13717701 4.2365718 7.9648442 7
-0.13042399 4.2398682 7.936523 7
-0.122009 4.2399902 7.9033198 7
-0.116951 4.2459722 7.8789058 7
-0.118568 4.2644038 7.874023 7
-0.120193 4.2825928 7.8681641 7
-0.121811 4.3009028 7.8623052 7
-0.12178 4.3162842 7.8525391 7
-0.116699 4.322144 7.828125 7
-0.116653 4.3372798 7.8173828 7
-0.118294 4.3555908 7.8125 7
-0.11322 4.3609619 7.7880859 7
-0.118179 4.3856201 7.7919922 7
-0.128181 4.4200439 7.8095698 7
-0.14150199 4.460815 7.835938 7
-0.245323 -4.4986572 -5.1132808 7
-0.240234 -4.504395 -5.0888672 7
-0.23340601 -4.506958 -5.0605469 7
-0.235184 -4.5255132 -5.0537109 7
-0.236946 -4.5440669 -5.047852 7
-0.240448 -4.5656738 -5.045898 7
-0.237076 -4.574585 -5.0263672 7
-0.240555 -4.5960689 -5.0244141 7
-0.242332 -4.614502 -5.0175781 7
-0.24066199 -4.6263428 -5.0029302 7
-0.24587999 -4.6514888 -5.0058589 7
-0.249367 -4.6733398 -5.0029302 7
-0.25114399 -4.6916499 -4.9970698 7
-0.254639 -4.7133789 -4.9941411 7
-0.25469199 -4.7285161 -4.983398 7
-0.26506799 -4.763916 -4.999023 7
-0.25997901 -4.7689209 -4.9746089 7
-0.26003301 -4.783813 -4.9628911 7
-0.332863 -6.2723389 -3.839844 7
-0.3312 -6.2805181 -3.8222661 7
-0.33298501 -6.2972412 -3.8105471 7
-0.34165201 -6.3311772 -3.813477 7
-0.33998901 -6.3389888 -3.7949221 7
-0.34005699 -6.3513179 -3.7792971 7
-0.34355199 -6.3721919 -3.7714839 7
-0.343613 -6.384521 -3.7558589 7
-0.343674 -6.396729 -3.7412109 7
-0.074173003 -1.893433 8.4238281 7
-0.075897001 -1.878052 8.4335938 7
-0.074150003 -1.859985 8.4335938 7
-0.068901002 -1.839111 8.4208984 7
-0.068885997 -1.82251 8.4257812 7
-0.072356999 -1.8087161 8.4414062 7
-0.074074 -1.793579 8.4501953 7
-0.075805999 -1.7780761 8.4599609 7
-0.079262003 -1.764038 8.4755859 7
-0.067078002 -1.737915 8.4423828 7
-0.063591003 -1.71875 8.4355469 7
-0.060081001 -1.699463 8.4287109 7
-0.060066 -1.682739 8.4335938 7
-0.056564 -1.663452 8.4267578 7
-0.058281001 -1.648193 8.4355469 7
-0.065223999 -1.636597 8.4609385 7
-0.063469 -1.618652 8.4589844 7
-0.065186001 -1.603271 8.46875 7
-0.045844998 0.97839397 8.5380859 7
-0.044052001 0.99450701 8.5292969 7
-0.042289998 1.01062 8.5214844 7
-0.037048001 1.025146 8.5029297 7
-0.03875 1.042725 8.5058594 7
-0.036986999 1.058594 8.4980469 7
-0.040436 1.077148 8.5078115 7
-0.035193998 1.091309 8.4882812 7
-0.035149001 1.108032 8.4853516 7
-0.035126001 1.124878 8.4824219 7
-0.040305998 1.144287 8.4960938 7
-0.038536001 1.1600339 8.4892578 7
-0.043715999 1.179565 8.5029297 7
-0.043678001 1.1962889 8.5 7
-0.047118999 1.215088 8.5078115 7
-0.041878 1.228882 8.4882812 7
-0.04879 1.249512 8.5078115 7
-0.048744 1.266235 8.5039062 7
-0.14065599 4.1607671 7.6845698 7
-0.13542201 4.1660161 7.6611328 7
-0.13884 4.1870122 7.6601558 7
-0.14051799 4.2050781 7.655273 7
-0.142212 4.223022 7.6503911 7
-0.14563 4.244019 7.6494141 7
-0.14386 4.2556152 7.6347661 7
-0.136871 4.2573242 7.6054692 7
-0.128151 4.2562261 7.5722661 7
-0.124649 4.2642822 7.5527339 7
-0.121147 4.2724609 7.5341802 7
-0.121109 4.2868652 7.523438 7
-0.119331 4.2982178 7.5107422 7
-0.121025 4.3157959 7.5048828 7
-0.120972 4.3302002 7.4941411 7
-0.126114 4.3543701 7.4980469 7
-0.127808 4.3719478 7.492188 7
-0.122559 4.3764648 7.467773 7
-0.127716 4.4006348 7.4707031 7
-0.131119 4.4215088 7.46875 7
-0.138016 4.4490972 7.4775391 7
-0.14489 4.476685 7.485352 7
-0.099578999 4.79248 -4.273438 7
-0.092743002 4.7645259 -4.2675781 7
-0.084174998 4.7332759 -4.2568359 7
-0.092712 4.7373052 -4.2900391 7
-0.085868999 4.7095952 -4.2841802 7
-0.087577999 4.699585 -4.2988281 7
-0.084137 4.6787109 -4.3017578 7
-0.084128998 4.6651611 -4.313477 7
-0.084122002 4.6513672 -4.3242192 7
-0.082428001 4.6341548 -4.329102 7
-0.085837997 4.6274409 -4.3496089 7
-0.089256003 4.6204829 -4.3681641 7
-0.101212 4.631104 -4.4101558 7
-0.102913 4.6204829 -4.4257808 7
-0.097793996 4.596436 -4.422852 7
-0.099480003 4.585815 -4.4394531 7
-0.097763002 4.5683589 -4.445312 7
-0.097763002 4.5543208 -4.4560552 7
-0.097747996 4.5402832 -4.4667969 7
-0.094315 4.5054932 -4.4794922 7
-0.25615701 -4.5013428 -4.797852 7
-0.250862 -4.5062261 -4.7744141 7
-0.24736799 -4.5141602 -4.7539058 7
-0.243874 -4.5220952 -4.734375 7
-0.24570499 -4.5400391 -4.7285161 7
-0.247528 -4.5578609 -4.7216802 7
-0.24758101 -4.5722661 -4.710938 7
-0.245865 -4.583374 -4.6962891 7
-0.247704 -4.6011958 -4.6894531 7
-0.25130501 -4.622314 -4.6875 7
-0.24958 -4.6333008 -4.671875 7
-0.246071 -4.6408691 -4.6523442 7
-0.249687 -4.6619868 -4.6503911 7
-0.249741 -4.67627 -4.6386719 7
-0.25157899 -4.6939702 -4.6318359 7
-0.258751 -4.7219238 -4.6386719 7
-0.271263 -4.760376 -4.6582031 7
-0.267746 -4.7678218 -4.6376948 7
-0.26068899 -4.7680659 -4.608398 7
-0.26786 -4.7962651 -4.6152339 7
-0.25900999 -4.7930908 -4.5820308 7
-0.33873001 -6.094604 -3.6191411 7
-0.33164999 -6.089355 -3.5908201 7
-0.342415 -6.1270752 -3.5966799 7
-0.34602401 -6.1474609 -3.589844 7
-0.34610701 -6.1591802 -3.574219 7
-0.33902001 -6.1534419 -3.545898 7
-0.342659 -6.1739502 -3.5380859 7
-0.339149 -6.1768799 -3.516602 7
-0.34989899 -6.2147222 -3.5224609 7
-0.34996 -6.2263179 -3.507812 7
-0.3536 -6.246582 -3.499023 7
-0.35900101 -6.2714839 -3.4951169 7
-0.34658101 -6.2521968 -3.4560549 7
-0.35197401 -6.276978 -3.4511721 7
-0.35023499 -6.2841802 -3.433594 7
-0.34851801 -6.2910161 -3.4150391 7
-0.34679401 -6.2980962 -3.3964839 7
-0.341499 -6.296021 -3.371094 7
-0.33620501 -6.2940669 -3.3466799 7
-0.33805099 -6.3096919 -3.335938 7
-0.33810401 -6.3208008 -3.320312 7
-0.347076 -6.3543701 -3.3212891 7
-0.35070801 -6.3743901 -3.3125 7
-0.352539 -6.3901372 -3.3017581 7
-0.34903699 -6.3922119 -3.2792971 7
-0.34375 -6.389648 -3.2548831 7
-0.049392998 0.96130401 8.2919922 7
-0.047577001 0.976807 8.2841797 7
-0.043953001 0.99133301 8.2705078 7
-0.042121999 1.0068361 8.2626953 7
-0.045676999 1.02478 8.2714844 7
-0.043853998 1.0400389 8.2626953 7
-0.045609001 1.057129 8.2666016 7
-0.041992001 1.071533 8.2529297 7
-0.045554999 1.0896 8.2617188 7
-0.043731999 1.10498 8.2529297 7
-0.045485999 1.12207 8.2558594 7
-0.050841998 1.140869 8.2695312 7
-0.049019001 1.15625 8.2626953 7
-0.045387 1.170532 8.2480469 7
-0.043570999 1.185791 8.2392578 7
-0.045325998 1.202881 8.2421885 7
-0.050689999 1.222046 8.2558594 7
-0.048850998 1.236938 8.2470703 7
-0.04882 1.2531739 8.2451172 7
-0.041611001 1.265381 8.2197266 7
-0.14208201 4.1842041 7.3486328 7
-0.136665 4.188477 7.3251948 7
-0.141991 4.2121582 7.329102 7
-0.143723 4.2293701 7.3232422 7
-0.145485 4.24646 7.3183589 7
-0.15081801 4.2702641 7.3222661 7
-0.152565 4.2875981 7.3164058 7
-0.147148 4.291626 7.2929692 7
-0.138138 4.28894 7.2597661 7
-0.129143 4.2860112 7.226562 7
-0.13089 4.3031011 7.2207031 7
-0.127258 4.3103032 7.202148 7
-0.127213 4.323853 7.1914058 7
-0.130753 4.3441162 7.1904302 7
-0.128914 4.3543701 7.1757808 7
-0.127075 4.364624 7.1611328 7
-0.128822 4.3815918 7.155273 7
-0.12699901 4.3918462 7.141602 7
-0.12515999 4.401978 7.125977 7
-0.130501 4.4257808 7.1298828 7
-0.13223299 4.442627 7.1230469 7
-0.12861601 4.4492192 7.1044922 7
-0.10228 4.7912598 -3.925781 7
-0.093429998 4.7598882 -3.9160161 7
-0.09166 4.7434082 -3.922852 7
-0.084556997 4.7159419 -3.917969 7
-0.086327001 4.7069092 -3.9326169 7
-0.088081002 4.6977539 -3.9482419 7
-0.088081002 4.684937 -3.9589839 7
-0.089836001 4.6756592 -3.9746089 7
-0.089836001 4.6628418 -3.985352 7
-0.088042997 4.6462402 -3.992188 7
-0.089813001 4.6368408 -4.007812 7
-0.089821003 4.624146 -4.0175781 7
-0.091568001 4.614624 -4.0332031 7
-0.093337998 4.605103 -4.047852 7
-0.098640002 4.6027832 -4.0712891 7
-0.116325 4.6252441 -4.125 7
-0.107468 4.5942378 -4.1152339 7
-0.10923 4.5844731 -4.1298828 7
-0.098609999 4.5500488 -4.1152339 7
-0.089745 4.5192871 -4.1044922 7
-0.089752004 4.506104 -4.1142578 7
-0.091514997 4.49646 -4.1298828 7
-0.13320801 -1.92184 12.068237 7
-0.047616001 -1.668654 9.9214849 7
-0.053479001 1.26177 9.5699291 7
-0.076007001 -1.69063 9.1751595 7
-0.097401999 1.008485 9.5010777 7
-0.071354002 -1.761021 8.7234573 7
-0.072328001 1.1133471 8.9215832 7
-0.17041001 4.3464298 7.8522062 7
-0.054423001 1.016005 8.4967632 7
-0.051089998 1.196388 8.434206 7
-0.159292 4.300652 7.2198601 7
-0.143463 4.3569841 6.988677 7
-0.046023 -1.861674 7.8631811 7
-0.038940001 -1.64221 7.9133182 7
-0.029046001 1.089175 8.0425529 7
-0.038578 1.272638 8.0489655 7
-0.077302001 -1.912702 7.2584491 7
-0.067488 -1.75266 7.2907181 7
0.103401 -1.225183 -10.734287 7
0.0096140001 -1.185452 -8.3382587 7
0.040991001 -1.264083 -6.6815209 7
0.038635001 -1.238449 -5.7047811 7
0.045170002 -1.548956 -4.7475209 7
-0.019161999 -1.495158 -3.979815 7
-0.270978 -4.670763 -4.4616122 7
-0.350196 -6.3516302 -3.7406499 7
-0.078229003 -1.844337 10.201294 7
-0.016593 -1.458613 -3.443032 7
-0.24526601 -4.6207948 -3.6026061 7
-0.31675699 -6.3298512 -2.6220429 7
-0.05432 -1.77123 9.5930758 7
0.012771 -1.416048 -2.8090961 7
-0.226129 -4.5794811 -2.888623 7
-0.012749 -1.6952 8.9575729 7
-0.20851099 -4.7428241 -2.0875871 7
-0.084122002 -1.884362 8.6291389 7
-0.052641001 -1.641979 8.5249367 7
-0.243863 -4.630754 -1.495 7
-0.232748 -4.5852661 -1.050766 7
-0.225998 -4.7261682 -0.85748702 7
-0.047922 -1.7693959 7.922554 7
-0.04414 -1.729866 7.6807189 7
-0.210815 -4.6131611 -0.119535 7
-0.20753001 -4.727994 0.054168999 7
-0.061285 -1.676306 7.355937 7
-0.246608 -4.5269842 0.22481699 7
-0.245315 -4.6355882 0.386637 7
-0.054864999 -1.804564 7.1130152 7
-0.044158 -1.6373169 7.1156802 7
-0.013467 -1.423808 -0.57125098 7
-0.024266999 -1.586969 -0.57755202 7
0.001362 -1.40063 -0.35830101 7
-0.015631 -1.558158 -0.38801199 7
-0.242319 -4.619051 1.071636 7
-0.24148899 -4.6955371 1.23118 7
-0.25376299 -4.6483049 2.3214951 7
-0.24403401 -4.6496611 2.482244 7
-0.239749 -4.6901202 2.9478321 7
-0.249754 -4.7258372 3.1016159 7
-0.230701 -4.5392251 2.959754 7
-0.23521399 -4.557817 3.107851 7
-0.042355999 4.8374372 -10.804854 7
-0.140222 4.6789732 -6.8331232 7
-0.056366999 4.6717801 -3.8803711 7
-0.124152 4.5986919 -3.0779891 7
-0.022859 1.024145 9.5072145 7
-0.065870002 1.020051 9.0009861 7
-0.078290999 1.261724 9.0182648 7
-0.173096 4.3637362 7.8441601 7
-0.043086 1.018499 8.5584173 7
-0.052914999 1.241181 8.5647144 7
-0.164019 4.1667199 7.5756779 7
-0.15702599 4.306036 7.3895721 7
-0.031014999 1.017105 8.2146893 7
-0.036956999 1.224705 8.2041092 7
-0.15244401 4.2772169 7.0183849 7
-0.13735101 4.369699 6.810873 7
-0.026431 -0.96555102 -15.310259 7
-0.18295901 5.012681 -19.469748 7
0.042417999 1.211239 -13.284986 7
0.070664003 0.65408403 -12.494739 7
-0.082211003 -1.0817029 -10.943104 7
-0.27626899 -4.2655959 -14.040687 7
-0.033233002 -1.143409 -8.6182337 7
-0.25237501 -4.3650842 -11.376594 7
-0.0082400003 -1.194321 -7.233952 7
-0.18570299 -4.4431472 -8.7472668 7
-0.068168998 4.6465092 -6.8230791 7
0.021571999 -0.98319799 -6.1582389 7
0.01048 -1.2246701 -6.2478619 7
0.00063000002 -1.472096 -6.3144841 7
-0.17718799 -4.4205861 -7.433558 7
-0.023856999 -1.059286 -5.558135 7
-0.027131001 -1.25397 -5.5480242 7
-0.039613999 -1.477142 -5.6122351 7
-0.091969997 4.648962 -4.198957 7
-0.099515997 4.5490279 -4.4138732 7
-0.021658 -1.463066 -5.017962 7
-0.085210003 4.6664028 -3.1934719 7
-0.096914999 4.6433959 -3.4196739 7
-0.001585 -1.286551 -4.5511389 7
-0.015895 -1.475458 -4.605319 7
-0.23258901 -4.5031261 -4.673161 7
-0.242815 -4.740304 -4.5483112 7
-0.276236 -6.2916398 -2.651691 7
0.0051179999 -1.302574 -4.200335 7
-0.0047960002 -1.4637901 -4.21524 7
-0.203925 -4.5271502 -3.600713 7
-0.019435 -1.30752 -3.887259 7
-0.031907 -1.461221 -3.9055469 7
-0.22242901 -4.6123638 -2.097307 7
-0.016404999 -1.326219 -3.6508279 7
-0.031682 -1.478896 -3.676599 7
-0.0082130004 -1.3248121 -3.4133251 7
-0.023436001 -1.467801 -3.4322491 7
-0.024013 -1.568077 -3.377063 7
-0.018534999 -1.462481 -3.2268929 7
-0.011427 -1.286371 -2.8593619 7
-0.021174001 -1.406438 -2.827987 7
-0.028564001 -1.50173 -2.796155 7
-0.011062 -1.295019 -2.7282829 7
-0.017614 -1.382024 -2.697114 7
-0.024080001 -1.468665 -2.6613929 7
-0.03805 -1.595186 -2.6279311 7
