# .PCD v0.7 - Point Cloud Data file format
VERSION 0.7
FIELDS x y z intensity
SIZE 4 4 4 4
TYPE F F F F
COUNT 1 1 1 1
WIDTH 847
HEIGHT 1
VIEWPOINT 0 0 0 1 0 0 0
POINTS 847
DATA ascii
2.1196439 59.009109 1.8974611 7
1.592239 46.199265 6.3076172 7
1.494141 43.705597 6.6787109 7
1.492661 43.822388 6.5878911 7
1.501846 43.818863 3.360352 7
1.494537 44.302673 3.2753911 7
1.390625 41.664963 7.0283198 7
1.3883671 41.805405 6.9462891 7
1.388382 41.848175 6.750977 7
1.386017 41.994156 6.6689448 7
0.34043899 3.403976 74.370117 7
0.397614 6.664597 72.18457 7
0.34316999 10.18248 74.256836 7
0.375229 10.176498 72.980469 7
1.307724 40.44162 6.9755859 7
1.309769 40.367264 6.8681641 7
1.306931 40.519089 6.7900391 7
0.32016 2.2998049 66.957031 7
0.25382999 2.5426481 69.296875 7
0.22476199 2.744324 70.326172 7
0.356888 5.4621582 65.739258 7
0.36950701 5.5766602 65.294922 7
0.31720001 5.8938599 67.136719 7
0.386978 6.729095 64.667969 7
1.2312469 38.301819 7.3154302 7
1.230835 38.338669 7.2285161 7
1.224823 38.601151 7.1757808 7
1.227585 38.510208 7.0693359 7
0.25497401 1.852615 63.084961 7
0.204788 2.0504761 64.694336 7
0.150803 2.2605901 66.428711 7
0.30212399 4.8116002 61.619141 7
0.313232 4.9253998 61.263672 7
0.28242499 6.4548192 62.226562 7
0.32080099 6.4665532 60.995117 7
0.32296801 6.6008911 60.920898 7
0.35949701 6.610199 59.748047 7
1.1518101 37.066025 7.327148 7
1.1550291 36.969757 7.2226558 7
1.151001 37.133499 7.157227 7
1.153259 37.071594 7.0595698 7
1.171402 36.90625 4.124023 7
1.178741 36.649429 4.0185552 7
1.171661 36.918121 3.949219 7
1.163147 37.239197 3.8818359 7
0.227844 1.175735 58.004883 7
0.19274899 1.333176 59.025391 7
0.16172799 1.492294 59.927734 7
0.101578 1.679291 61.673828 7
0.27629101 4.0275421 56.661133 7
0.290115 4.2593541 56.257812 7
0.25174001 4.4785609 57.367188 7
0.28825399 6.3525701 56.256836 7
0.30815101 6.4149928 55.678711 7
0.329193 6.5992432 55.055664 7
0.26101699 9.6300201 56.808594 7
0.29199201 9.6053162 55.904297 7
0.31274399 9.6293182 55.294922 7
1.09729 34.774536 7.6308589 7
1.095825 34.840836 7.5585942 7
1.096527 34.837723 7.4726558 7
1.0945131 34.920944 7.4023442 7
0.17153899 0.84358197 54.182617 7
0.139908 0.98350501 55.016602 7
0.113419 1.124954 55.717773 7
0.233826 3.485229 52.599609 7
0.25457799 3.568512 52.055664 7
0.215042 3.7640989 53.09082 7
0.257355 6.2099152 51.884766 7
0.29289201 6.2133479 50.947266 7
0.27745101 6.3831019 51.344727 7
0.256836 9.3384705 51.630859 7
0.28166199 9.3367462 50.969727 7
0.29676801 9.3804321 50.563477 7
1.0229191 33.152786 7.9150391 7
1.024673 33.121902 7.828125 7
1.026642 33.084976 7.7402339 7
0.023148 0.70530701 52.681641 7
0.238129 5.7858119 47.517578 7
0.263641 5.8183441 46.907227 7
0.24601699 5.980927 47.31543 7
0.215286 8.9638367 47.749023 7
0.240723 8.957489 47.136719 7
0.26589999 8.9493408 46.530273 7
0.955917 31.376083 7.7949219 7
0.193665 5.4223018 44.658203 7
0.20755 5.486618 44.349609 7
0.23558 5.5097661 43.734375 7
0.23696899 5.6064301 43.698242 7
0.170883 8.7068329 44.816406 7
0.193527 8.7116699 44.31543 7
0.220917 8.6927195 43.708984 7
0.24511699 8.6853943 43.172852 7
0.899643 30.39267 4.671875 7
0.90541101 30.265961 4.585938 7
0.90060401 30.389694 4.5263672 7
-0.82139599 -2.2056429 -61.795898 7
-0.92173803 -2.4334259 -63.899414 7
-0.81759602 -2.501678 -61.69043 7
0.23339801 5.144547 40.158203 7
0.21931501 5.2744751 40.430664 7
0.24173 5.3061371 39.977539 7
0.16126999 8.294693 41.240234 7
0.17491101 8.333374 40.958008 7
0.22309899 8.3178101 39.979492 7
0.82435602 28.44957 8.2568359 7
0.82585102 28.437164 8.1835938 7
0.82354701 28.503952 8.1279297 7
0.82286102 28.536819 8.0644531 7
0.84278899 28.811035 4.7695308 7
0.84045398 28.87088 4.7060552 7
0.83165002 29.070175 4.6591802 7
0.823654 29.251984 4.609375 7
0.82702601 29.189621 4.5332031 7
-0.93557698 -2.5960851 -65.773438 7
-1.008652 -2.8189089 -67.326172 7
-0.92547601 -2.9025731 -65.526367 7
-1.02034 -3.153656 -67.545898 7
0.171707 4.929688 38.610352 7
0.204559 4.9365082 37.99707 7
0.180618 5.0840449 38.430664 7
0.21061701 5.094543 37.869141 7
0.14617901 8.1191101 38.693359 7
0.170486 8.1103363 38.234375 7
0.187897 8.1273804 37.901367 7
0.20468099 8.145401 37.579102 7
-0.742966 -1.546051 -55.961914 7
-0.81633002 -1.723511 -57.384766 7
-0.73374897 -1.810379 -55.761719 7
-0.79453999 -1.985352 -56.936523 7
-0.84847999 -2.1612401 -57.978516 7
0.140747 1.714417 36.25 7
0.143326 1.794571 36.205078 7
0.21264599 4.6792598 34.867188 7
0.188675 4.8191218 35.261719 7
0.137833 7.8213811 35.728516 7
0.14825401 7.8630981 35.540039 7
0.168869 7.864059 35.177734 7
0.186096 7.876801 34.875 7
0.176773 7.9937291 35.015625 7
-0.70062298 -0.78447002 -50.625 7
-0.72531098 -0.91490197 -51.061523 7
-0.78742999 -1.060822 -52.169922 7
-0.81539899 -1.198257 -52.664062 7
-0.888596 -1.358032 -53.970703 7
-0.68446398 -4.5370479 -49.961914 7
-0.69589198 -4.9177699 -50.114258 7
-0.64398199 -4.9476008 -49.171875 7
-0.65280199 -5.0819402 -49.311523 7
-0.60642999 -5.1154628 -48.466797 7
0.123764 1.527115 34.050781 7
0.18720999 4.5522461 32.871094 7
0.18167099 4.715271 32.943359 7
0.121735 7.6247101 33.474609 7
0.13182101 7.6633911 33.302734 7
0.159668 7.7095342 32.839844 7
0.164627 7.7655182 32.748047 7
-0.65692103 0.33735701 -41.716797 7
-0.69813502 0.238525 -42.342773 7
-0.53916901 -3.206573 -43.286133 7
-0.545151 -3.318604 -43.371094 7
-0.53971899 -3.4170229 -43.270508 7
-0.58639503 -3.5822301 -44.018555 7
-0.65306097 -3.777863 -45.09375 7
-0.61389202 -4.7987981 -44.302734 7
-0.56809998 -4.8256378 -43.542969 7
-0.59197998 -4.9737239 -43.915039 7
-0.55369598 -5.0095978 -43.275391 7
0.106491 1.28093 31.767578 7
0.103867 1.354279 31.804688 7
0.103226 1.426651 31.813477 7
0.091003001 1.50737 31.991211 7
0.107956 1.567108 31.742188 7
0.172607 4.1611938 30.642578 7
0.175568 4.2242131 30.591797 7
0.164581 4.3168182 30.743164 7
0.177109 4.359314 30.553711 7
0.15815701 4.4703979 30.821289 7
0.103973 7.3769231 31.163086 7
0.14105199 7.4546509 30.589844 7
0.132523 7.5558319 30.698242 7
-0.532471 0.61584502 -39.826172 7
-0.55606103 0.52256799 -40.182617 7
-0.619919 0.43414301 -41.154297 7
-0.51228303 -2.6587679 -39.852539 7
-0.53779602 -2.781677 -40.230469 7
-0.51928699 -2.8596039 -39.9375 7
-0.56166101 -3.0032041 -40.571289 7
-0.57273901 -4.6909032 -40.513672 7
-0.55641198 -4.85817 -40.234375 7
-0.51794398 -4.8859558 -39.637695 7
-0.50517303 -4.958313 -39.427734 7
0.072494999 1.080353 30.395508 7
0.074355997 1.1480711 30.370117 7
0.088150002 1.208252 30.180664 7
0.087035999 1.2771 30.195312 7
0.15600599 4.0683289 29.075195 7
0.15947001 4.2577968 29.003906 7
0.101486 7.1292419 29.341797 7
0.089432001 7.2375641 29.490234 7
0.096375003 7.2802119 29.381836 7
0.107529 7.3077698 29.217773 7
0.124176 7.3149719 28.980469 7
0.132797 7.3498688 28.849609 7
0.58999598 22.77034 5.2451172 7
0.58161902 22.900101 5.210938 7
-0.55337501 0.55973798 -40.688477 7
-0.58300799 0.46548501 -41.139648 7
-0.61605799 0.36958301 -41.642578 7
-0.64834601 0.27124 -42.133789 7
-0.69096398 0.17128 -42.782227 7
-0.72709697 0.067780003 -43.333008 7
-0.460022 -2.238724 -35.995117 7
-0.49630699 -2.358505 -36.496094 7
-0.52357501 -4.6176758 -36.582031 7
-0.47895801 -4.6288762 -35.944336 7
-0.51992798 -4.7889862 -36.501953 7
0.092407003 1.0014499 28.084961 7
0.090271004 1.065552 28.112305 7
0.090865999 1.1285551 28.104492 7
0.092072003 1.25415 28.086914 7
0.146896 3.8625491 27.217773 7
0.119247 3.9772799 27.560547 7
0.139465 3.999603 27.296875 7
0.144623 4.0509028 27.224609 7
0.133835 4.1338501 27.352539 7
0.083755001 7.0584722 27.485352 7
0.095734 7.0801702 27.323242 7
0.103165 7.116333 27.21582 7
0.108337 7.1598358 27.136719 7
0.093979001 7.271347 27.299805 7
0.089171998 7.3499599 27.344727 7
0.561966 21.384506 5.421875 7
0.559448 21.427933 5.3769531 7
0.55302399 21.523438 5.342773 7
0.544846 21.641632 5.311523 7
0.54406703 21.662079 5.2626948 7
0.54852301 21.613388 5.2011719 7
0.54948401 21.610504 5.148438 7
-0.49313399 1.4464869 -33.854492 7
-0.522003 1.377701 -34.237305 7
-0.58360302 1.235779 -35.053711 7
-0.428238 -1.6439821 -33.030273 7
-0.46580499 -1.750031 -33.516602 7
-0.437103 -1.811981 -33.132812 7
-0.469345 -1.9165649 -33.548828 7
-0.51503003 -4.5218201 -33.8125 7
-0.485825 -4.5543208 -33.419922 7
-0.456177 -4.5842438 -33.020508 7
-0.50593603 -4.7528381 -33.651367 7
-0.46778899 -4.7659612 -33.142578 7
0.091553003 0.81378198 26.458984 7
0.12655599 3.537781 25.879883 7
0.121658 3.72084 25.918945 7
0.136383 3.7519679 25.737305 7
0.080413997 6.7396851 25.886719 7
0.062668003 6.8551178 26.078125 7
0.06041 6.9211431 26.089844 7
0.064925998 6.965179 26.022461 7
0.082993001 6.9639592 25.798828 7
0.091872998 6.9924321 25.681641 7
-0.51271099 1.4011379 -34.251953 7
-0.56809998 1.258194 -34.982422 7
-0.60569799 1.10144 -35.477539 7
-0.632065 1.023972 -35.824219 7
-0.42103601 -1.523483 -30.441406 7
-0.38400301 -1.6489559 -29.979492 7
-0.39378399 -1.729187 -30.091797 7
-0.380539 -1.793716 -29.924805 7
-0.36921701 -1.858902 -29.780273 7
-0.349731 -1.91716 -29.537109 7
-0.455551 -4.1777039 -30.53125 7
-0.443268 -4.2326808 -30.370117 7
-0.423264 -4.2739868 -30.116211 7
-0.45957899 -4.408371 -30.540039 7
-0.445847 -4.4597631 -30.362305 7
-0.67159998 -7.637177 -32.444336 7
-1.376022 -38.630478 11.043945 7
0.079268999 0.65644801 24.887695 7
0.079940997 0.71188402 24.880859 7
0.082748003 0.82183802 24.847656 7
0.081313998 0.87794501 24.864258 7
0.08461 0.93183899 24.827148 7
0.119354 3.52948 24.261719 7
0.126801 3.5709231 24.172852 7
0.13266 3.614594 24.100586 7
0.106232 3.715759 24.385742 7
0.124603 3.7367711 24.174805 7
0.130463 3.779846 24.103516 7
0.061005 6.7237849 24.322266 7
0.063750997 6.7692409 24.277344 7
0.070648 6.8017268 24.189453 7
0.079102002 6.8284912 24.083984 7
0.084976003 6.863327 24.006836 7
0.073348999 7.009521 24.102539 7
0.291504 18.456223 13.098633 7
0.28912401 18.508575 13.072266 7
0.288239 18.545761 13.03418 7
-0.41810599 -3.972656 -27.926758 7
-0.430893 -4.1300201 -28.045898 7
-0.66259801 -7.4603119 -29.961914 7
-0.64730799 -7.4928279 -29.774414 7
-0.63513201 -7.5328369 -29.619141 7
-0.62916601 -7.5889888 -29.533203 7
-1.090454 -31.872574 13.668945 7
-1.080048 -31.740097 13.705078 7
0.070998996 6.6743622 22.667969 7
0.073913999 6.7161102 22.625977 7
-0.42747501 2.21608 -26.479492 7
-0.428146 2.1501009 -26.491211 7
-0.43206799 2.086731 -26.536133 7
-0.45546001 2.038208 -26.791016 7
-0.474518 1.985245 -26.998047 7
-0.34184301 -3.229919 -25.271484 7
-0.33264199 -3.280304 -25.166016 7
-0.33778399 -3.3491211 -25.208984 7
-0.33409101 -3.406143 -25.160156 7
-0.33317599 -3.4672849 -25.140625 7
-0.35395801 -3.6208651 -25.336914 7
-0.36630201 -3.701431 -25.456055 7
-0.39242601 -3.802917 -25.71875 7
-0.36390701 -3.8232269 -25.408203 7
-0.36299101 -3.8844759 -25.387695 7
-0.390228 -3.989471 -25.660156 7
-0.38380399 -4.042511 -25.582031 7
-0.39447001 -4.1225891 -25.680664 7
-0.62116998 -7.1391139 -27.414062 7
-0.631378 -7.2323761 -27.49707 7
-0.61444098 -7.25563 -27.304688 7
-0.604141 -7.2956238 -27.180664 7
-0.59826702 -7.346375 -27.100586 7
-0.893188 -27.650223 13.260742 7
-0.89274597 -27.616379 13.324219 7
-0.888138 -27.545486 13.370117 7
-0.88114899 -27.452835 13.407227 7
0.051619999 0.339569 22.325195 7
0.051727001 0.38882399 22.323242 7
0.064911 0.435669 22.195312 7
0.061446998 0.48561099 22.229492 7
0.065125003 0.53389001 22.193359 7
0.067016996 0.58262599 22.174805 7
0.061188001 0.63334697 22.231445 7
0.113632 3.2563169 21.535156 7
0.113754 3.3035741 21.526367 7
0.123932 3.3348539 21.420898 7
0.111633 3.402328 21.533203 7
0.114136 3.446274 21.503906 7
0.116623 3.489609 21.472656 7
0.055679001 6.4028778 21.460938 7
0.048156999 6.473618 21.518555 7
0.054198999 6.502914 21.447266 7
0.064346001 6.5194092 21.337891 7
0.066863999 6.5591888 21.301758 7
0.070525996 6.5950928 21.25293 7
0.067718998 6.6511688 21.264648 7
-0.35415599 2.4377749 -23.944336 7
-0.35082999 2.374054 -23.915039 7
-0.354996 2.317719 -23.959961 7
-0.393738 2.291611 -24.354492 7
-0.36331201 -3.345993 -23.796875 7
-0.37231401 -3.4169459 -23.875977 7
-0.36071801 -3.4603879 -23.750977 7
-0.36988801 -3.590683 -23.819336 7
-0.36300701 -3.639755 -23.743164 7
-0.35670501 -3.689224 -23.669922 7
-0.383362 -3.787308 -23.920898 7
-0.629089 -7.0288849 -25.632812 7
-0.61808801 -7.0639648 -25.508789 7
-0.60354602 -7.0895839 -25.350586 7
-0.59314001 -7.125031 -25.232422 7
-0.60400403 -7.2151642 -25.317383 7
-0.622513 -7.3256378 -25.473633 7
-0.80284101 -24.918198 13.077148 7
-0.79666102 -24.837784 13.110352 7
-0.39614901 2.450897 -22.810547 7
-0.39996299 2.3965759 -22.851562 7
-0.42027301 2.357178 -23.047852 7
-0.42774999 2.3053131 -23.123047 7
-0.32386801 -3.5272369 -21.804688 7
-0.36164901 -3.635391 -22.140625 7
-0.344879 -3.6660609 -21.976562 7
-0.335022 -3.7059629 -21.875 7
-0.36277801 -3.8018949 -22.119141 7
-0.58848602 -6.791779 -23.515625 7
-0.598755 -6.8752751 -23.589844 7
-0.58386201 -6.8962712 -23.438477 7
-0.574646 -6.9306788 -23.338867 7
-0.56477398 -6.9630742 -23.232422 7
-0.84303302 -25.021713 9.6162109 7
-0.83384699 -24.924728 9.6503906 7
-0.81396502 -24.7397 9.6533203 7
-0.79275501 -24.543411 9.6533203 7
-0.31518599 -3.20488 -20.422852 7
-0.33859301 -3.286453 -20.617188 7
-0.32147199 -3.3153231 -20.458984 7
-0.31829801 -3.361954 -20.422852 7
-0.35699499 -3.4658971 -20.74707 7
-0.57611102 -6.748672 -21.875 7
-0.56762701 -6.7819982 -21.786133 7
-0.55381799 -6.80159 -21.654297 7
-0.560013 -6.8706818 -21.6875 7
-0.57089198 -6.9520569 -21.759766 7
-0.58175701 -7.033371 -21.832031 7
-0.309692 2.8474121 -19.274414 7
-0.31942701 2.8088069 -19.361328 7
-0.32916301 2.7697301 -19.449219 7
-0.335464 2.726562 -19.507812 7
-0.36032099 2.7033539 -19.720703 7
-0.379013 2.672241 -19.882812 7
-0.36811799 2.6100011 -19.796875 7
-0.29837 -3.2392881 -18.991211 7
-0.32954401 -3.3283391 -19.236328 7
-0.318405 -3.3614349 -19.136719 7
-0.317139 -3.407516 -19.115234 7
-0.31094399 -3.4467771 -19.056641 7
-0.54623401 -6.4433751 -20.258789 7
-0.56268299 -6.532928 -20.370117 7
-0.55366498 -6.5619659 -20.28125 7
-0.548904 -6.600647 -20.227539 7
-0.54344201 -6.6375432 -20.166992 7
-0.52059901 -17.885971 12.288086 7
-0.51766998 -17.840073 12.319336 7
-0.507263 -17.74501 12.318359 7
-0.505844 -17.709244 12.354492 7
-0.50591999 -17.683121 12.396484 7
-0.50151098 -17.627518 12.418945 7
-0.49859601 -17.581558 12.449219 7
-0.54650903 -6.413208 -18.942383 7
-0.54444897 -6.4556122 -18.910156 7
-0.53788799 -6.4871368 -18.845703 7
-0.53657502 -6.5309911 -18.819336 7
-0.53524798 -6.5748601 -18.792969 7
-0.54591399 -6.6477361 -18.854492 7
-0.55207801 -6.7097631 -18.880859 7
-0.30299401 3.1907041 -16.892578 7
-0.27694699 3.1135409 -16.706055 7
-0.27165201 3.0635381 -16.672852 7
-0.27021801 3.0184021 -16.668945 7
-0.278763 2.9854889 -16.738281 7
-0.30268899 2.9706731 -16.922852 7
-0.298935 2.922287 -16.900391 7
-0.201813 -0.033737 -15.370117 7
-0.197006 -0.073715001 -15.334961 7
-0.202805 -0.114212 -15.375977 7
-0.21102899 -0.154938 -15.432617 7
-0.214371 -0.195419 -15.456055 7
-0.207947 -0.235245 -15.40918 7
-0.202316 -0.27476501 -15.366211 7
-0.20323201 -0.31497201 -15.37207 7
-0.278671 -2.9044189 -16.638672 7
-0.26300001 -2.927887 -16.517578 7
-0.264709 -2.971741 -16.522461 7
-0.26089501 -3.008682 -16.486328 7
-0.293396 -3.0909581 -16.712891 7
-0.28483599 -3.1222839 -16.642578 7
-0.28024301 -3.158493 -16.600586 7
-0.277206 -3.196548 -16.570312 7
-0.51069599 -6.1528168 -17.506836 7
-0.52767903 -6.2799678 -17.592773 7
-0.52227801 -6.3113251 -17.539062 7
-0.51374799 -6.3352661 -17.463867 7
-0.508362 -6.3664551 -17.411133 7
-0.63665801 -8.021286 -17.733398 7
-0.63287401 -8.0547333 -17.6875 7
-0.62750202 -8.0835419 -17.630859 7
-0.62371802 -8.1164703 -17.584961 7
-0.61851501 -8.1893158 -17.508789 7
-0.62822002 -8.2616272 -17.552734 7
-0.47695899 -16.887955 8.953125 7
-0.26405299 3.2524569 -15.569336 7
-0.256836 3.2021329 -15.526367 7
-0.26097101 3.1669919 -15.561523 7
-0.27006501 3.096817 -15.639648 7
-0.217087 -0.16334499 -15.570312 7
-0.21138 -0.202591 -15.529297 7
-0.20980801 -0.24191301 -15.516602 7
-0.208252 -0.281387 -15.504883 7
-0.25515699 -2.883224 -15.525391 7
-0.25611901 -2.924011 -15.524414 7
-0.27619901 -2.9880071 -15.655273 7
-0.272995 -3.0237579 -15.625 7
-0.27145401 -3.061295 -15.605469 7
-0.27075201 -3.100235 -15.592773 7
-0.49691799 -6.2173772 -16.300781 7
-0.49890101 -6.3038182 -16.28125 7
-0.606094 -8.0626678 -16.311523 7
-0.210098 -0.0047149998 -15.526367 7
-0.202728 -0.044188999 -15.473633 7
-0.20530701 -0.083678998 -15.491211 7
-0.211197 -0.123276 -15.530273 7
-0.26303101 -2.936584 -14.696289 7
-0.26226801 -2.973038 -14.683594 7
-0.25538599 -3.0020449 -14.630859 7
-0.492172 -6.1286469 -15.298828 7
-0.485291 -6.1516418 -15.241211 7
-0.483704 -6.1864471 -15.214844 7
-0.48121601 -6.219162 -15.183594 7
-0.48313901 -6.262146 -15.180664 7
-0.49294999 -6.3237 -15.224609 7
-0.50715601 -6.3958888 -15.294922 7
-0.227661 -2.573303 -13.737305 7
-0.226852 -2.6077271 -13.725586 7
-0.241653 -2.6591949 -13.811523 7
-0.239014 -2.691772 -13.788086 7
-0.231766 -2.718765 -13.734375 7
-0.239227 -2.7624969 -13.773438 7
-0.233826 -2.7915189 -13.732422 7
-0.257828 -2.8547969 -13.873047 7
-0.247833 -2.8788149 -13.804688 7
-0.24253801 -2.9428711 -13.754883 7
-0.25434899 3.518616 -12.960938 7
-0.23655701 3.4585421 -12.863281 7
-0.23849501 3.427078 -12.881836 7
-0.238571 3.3929141 -12.889648 7
-0.237701 3.357224 -12.891602 7
-0.242477 3.329361 -12.927734 7
-0.247253 3.3013151 -12.964844 7
-0.25296 3.2745819 -13.005859 7
-0.25492901 3.2423861 -13.024414 7
-0.157822 0.100891 -12.03418 7
-0.157883 0.068695001 -12.03418 7
-0.159943 0.036469001 -12.044922 7
-0.22044399 -2.572052 -12.923828 7
-0.217636 -2.6022639 -12.899414 7
-0.211945 -2.6292109 -12.859375 7
-0.213989 -2.664474 -12.864258 7
-0.217957 -2.7021639 -12.879883 7
-0.23642001 -2.7566531 -12.981445 7
-0.236526 -2.7901919 -12.974609 7
-0.228912 -2.814621 -12.921875 7
-0.228043 -2.846817 -12.90918 7
-0.451294 -5.797821 -13.344727 7
-0.45628399 -5.8430018 -13.357422 7
-0.46612501 -5.8991389 -13.397461 7
-0.461411 -5.9228668 -13.356445 7
-0.45475799 -5.9417572 -13.303711 7
-0.45491001 -5.9763179 -13.290039 7
-0.45117199 -6.001862 -13.254883 7
-0.45422399 -6.0427551 -13.256836 7
-0.2229 3.4945071 -12.029297 7
-0.22691301 3.4681089 -12.05957 7
-0.227966 3.437088 -12.074219 7
-0.228043 3.4047699 -12.082031 7
-0.23796099 3.3864591 -12.144531 7
-0.150482 0.29351801 -11.992188 7
-0.150528 0.26155099 -11.992188 7
-0.15554801 0.229919 -12.021484 7
-0.153641 0.197403 -12.010742 7
-0.15965299 0.16563401 -12.045898 7
-0.160706 0.133423 -12.050781 7
-0.205292 -2.564651 -12.169922 7
-0.20336901 -2.594147 -12.151367 7
-0.215591 -2.6390531 -12.212891 7
-0.23085 -2.687881 -12.291992 7
-0.21781901 -2.704895 -12.211914 7
-0.22197001 -2.741257 -12.228516 7
-0.221054 -2.771805 -12.214844 7
-0.229233 -2.8130341 -12.253906 7
-0.237442 -2.854507 -12.291992 7
-0.44944799 -5.7905431 -12.5625 7
-0.454651 -5.8343658 -12.575195 7
-0.45277399 -5.8624568 -12.550781 7
-0.44274899 -5.872498 -12.483398 7
-0.444931 -5.9093628 -12.480469 7
-0.44101 -5.9327092 -12.445312 7
-0.44012499 -5.9624181 -12.424805 7
-0.445328 -6.0063319 -12.436523 7
-0.45764199 -6.0667882 -12.485352 7
-0.142517 0.31088299 -11.342773 7
-0.431229 -5.7742 -11.660156 7
-0.42176801 -5.7832489 -11.598633 7
-0.42295799 -5.8159332 -11.589844 7
-0.422043 -5.843781 -11.571289 7
-0.43283099 -5.8981318 -11.609375 7
-0.43722501 -5.9382319 -11.616211 7
-0.438416 -5.970871 -11.606445 7
-0.44505301 -6.0463409 -11.609375 7
-0.440918 -6.066833 -11.574219 7
-0.52710003 -7.3835912 -11.365234 7
-0.53044099 -7.4221501 -11.362305 7
-0.53378302 -7.4607391 -11.359375 7
-0.53074598 -7.4815979 -11.327148 7
-0.52233899 -7.487762 -11.269531 7
-0.52674901 -7.5289459 -11.270508 7
-0.531174 -7.5702968 -11.272461 7
-0.53466803 -7.6385798 -11.251953 7
-0.164307 -2.2614591 -10.749023 7
-0.16770899 -2.292923 -10.760742 7
-0.17112701 -2.3245089 -10.772461 7
-0.17453 -2.3561101 -10.783203 7
-0.181274 -2.3913419 -10.811523 7
-0.171387 -2.4094391 -10.753906 7
-0.17482001 -2.4411621 -10.764648 7
-0.174896 -2.4694369 -10.758789 7
-0.18275499 -2.506165 -10.792969 7
-0.198364 -2.5513761 -10.866211 7
-0.41468799 -5.7684941 -10.87207 7
-0.42161599 -5.840652 -10.875977 7
-0.52626002 -7.3889012 -10.589844 7
-0.140945 0.25827 -10.888672 7
-0.149841 0.23048399 -10.93457 7
-0.14328 0.20124801 -10.901367 7
-0.14114401 0.17218 -10.890625 7
-0.156555 -2.264786 -10.170898 7
-0.163574 -2.2982941 -10.199219 7
-0.168304 -2.3300021 -10.21582 7
-0.157974 -2.3465731 -10.160156 7
-0.159225 -2.374619 -10.160156 7
-0.16046099 -2.4026029 -10.15918 7
-0.157074 -2.425873 -10.136719 7
-0.17567401 -2.472198 -10.220703 7
-0.187332 -2.5115809 -10.271484 7
-0.177017 -2.5274961 -10.213867 7
-0.178268 -2.556015 -10.213867 7
-0.18296801 -2.5880129 -10.229492 7
-0.17149401 -2.6022639 -10.166992 7
-0.40815699 -5.694046 -10.223633 7
-0.409439 -5.7236938 -10.214844 7
-0.40841699 -5.7484741 -10.197266 7
-0.18486001 3.779999 -9.3164062 7
-0.179031 3.7446749 -9.2978516 7
-0.179092 3.7188871 -9.3076172 7
-0.175598 3.6877141 -9.2988281 7
-0.176834 3.663574 -9.3134766 7
-0.18042 3.643173 -9.3388672 7
-0.201645 3.6501009 -9.4443359 7
-0.198166 3.618515 -9.4365234 7
-0.197052 3.5905609 -9.4404297 7
-0.194763 3.560715 -9.4375 7
-0.19950899 3.5418701 -9.4667969 7
-0.12767 0.63803101 -9.6083984 7
-0.125366 0.61087 -9.5986328 7
-0.127777 0.584885 -9.6113281 7
-0.124283 0.55751002 -9.59375 7
-0.118454 0.52958697 -9.5673828 7
-0.118515 0.50308198 -9.5693359 7
-0.116196 0.476318 -9.5585938 7
-0.116272 0.44969201 -9.5595703 7
-0.113953 0.42297399 -9.5478516 7
-0.117554 0.39721701 -9.5664062 7
-0.128235 0.37265 -9.6191406 7
-0.120026 0.34477201 -9.5791016 7
-0.14366101 -2.35672 -9.5722656 7
-0.39469901 -5.472229 -9.6494141 7
-0.39613301 -5.5262599 -9.6279297 7
-0.41439801 -5.5910802 -9.6914062 7
-0.39637801 -5.5774689 -9.6015615 7
-0.39659101 -5.628799 -9.5742188 7
-0.39793399 -5.6569519 -9.5654297 7
-0.396835 -5.6797328 -9.546875 7
-0.40310699 -5.7441411 -9.5449219 7
-0.111908 0.49389601 -9.7216797 7
-0.111969 0.468155 -9.7226562 7
-0.118042 0.44337499 -9.7529297 7
-0.114487 0.41687 -9.7363281 7
-0.114548 0.39089999 -9.7373047 7
-0.123016 0.36628699 -9.7783203 7
-0.119461 0.33976701 -9.7617188 7
-0.132889 -2.264816 -9.0341797 7
-0.38270599 -5.443222 -8.9824219 7
-0.38281199 -5.467072 -8.96875 7
-0.37911999 -5.4829559 -8.9394531 7
-0.37669399 -5.5017552 -8.9169922 7
-0.376816 -5.5257721 -8.9033203 7
-0.37439001 -5.5442352 -8.8808594 7
-0.373245 -5.5653081 -8.8623047 7
-0.37586999 -5.5947418 -8.8583984 7
-0.381073 -5.629684 -8.8652344 7
-0.38877901 -5.6704249 -8.8818359 7
-0.38888499 -5.6941528 -8.8671885 7
-0.38900799 -5.7181702 -8.8544922 7
-0.39544699 -5.7562261 -8.8662109 7
-0.085724004 0.62168902 -8.4697266 7
-0.087050997 0.59803802 -8.4765615 7
-0.085831001 0.57383698 -8.4726562 7
-0.083313003 0.54927099 -8.4619141 7
-0.085922003 0.52609301 -8.4746094 7
-0.087265 0.50254798 -8.4814453 7
-0.091170996 0.47941601 -8.5 7
-0.098922998 0.45718399 -8.5341797 7
-0.095108002 0.432495 -8.5185547 7
-0.093887001 0.40817299 -8.5136719 7
-0.093947999 0.38415501 -8.5146484 7
-0.095275998 0.360367 -8.5214844 7
-0.091476001 0.33598301 -8.5048828 7
-0.47376999 -7.1903839 -7.6660161 7
-0.47787499 -7.222168 -7.6621089 7
-0.478104 -7.2644348 -7.6279302 7
-0.48352101 -7.299881 -7.6279302 7
-0.494232 -7.3495941 -7.6445308 7
-0.46310401 -7.0592499 -7.092773 7
-0.45907599 -7.0677638 -7.061523 7
-0.45782501 -7.0839539 -7.0410161 7
-0.45105001 -7.0848999 -7.0019531 7
-0.45666501 -7.1191411 -7.0019531 7
-0.454041 -7.1313629 -6.9775391 7
-0.45828199 -7.1619868 -6.9726558 7
-0.461151 -7.1886902 -6.9628911 7
-0.46402001 -7.215591 -6.9550781 7
-0.46827701 -7.246201 -6.9501948 7
-0.47941601 -7.2959142 -6.967773 7
-0.48091099 -7.3193049 -6.954102 7
-0.48518401 -7.3500371 -6.9501948 7
-0.353165 -5.3248601 -7.335938 7
-0.34909099 -5.3566132 -7.296875 7
-0.34645101 -5.3908691 -7.2607422 7
-0.34796101 -5.4138179 -7.2519531 7
-0.35092199 -5.4399571 -7.249023 7
-0.44999701 -7.045197 -6.4599609 7
-0.442947 -7.0442352 -6.422852 7
-0.352936 -5.1349788 -6.9902339 7
-0.35006699 -5.1485438 -6.967773 7
-0.333893 -5.1343989 -6.9023442 7
-0.35620099 -5.1993871 -6.9619141 7
-0.35777301 -5.2216492 -6.954102 7
-0.34750399 -5.2196498 -6.9091802 7
-0.34909099 -5.2420502 -6.9013672 7
-0.35806301 -5.2797852 -6.9179692 7
-0.35963401 -5.3020172 -6.9091802 7
-0.34937999 -5.2996058 -6.8623052 7
-0.35243201 -5.3248749 -6.859375 7
-0.35401899 -5.34726 -6.851562 7
-0.35707101 -5.3726501 -6.8476558 7
-0.348297 -5.3729401 -6.8076172 7
-0.34986901 -5.3949132 -6.7988281 7
-0.34996 -5.4138789 -6.7851558 7
-0.437103 -7.0548859 -5.804688 7
-0.438705 -7.0755768 -5.7929692 7
-0.44177201 -7.1001129 -5.7832031 7
-0.44633499 -7.12886 -5.7783198 7
-0.44793701 -7.1495509 -5.765625 7
-0.33471701 -5.2744451 -6.3798828 7
-0.334824 -5.29245 -6.3662109 7
-0.339508 -5.3201141 -6.367188 7
-0.338074 -5.3350072 -6.351562 7
-0.347473 -5.390305 -6.3525391 7
-0.347565 -5.4082952 -6.3398442 7
-0.35378999 -5.4394531 -6.344727 7
-0.113541 4.1299291 -5.7363281 7
-0.108948 4.1043849 -5.7314448 7
-0.112076 4.0923462 -5.750977 7
-0.109009 4.0695949 -5.75 7
-0.33264199 -5.1295171 -6.023438 7
-0.33750901 -5.1564479 -6.0244141 7
-0.33599901 -5.1703491 -6.0068359 7
-0.33929399 -5.1940308 -6.0039058 7
-0.33778399 -5.2077942 -5.9863281 7
-0.32832301 -5.2050319 -5.9462891 7
-0.33477801 -5.2353358 -5.952148 7
-0.336472 -5.255753 -5.9443359 7
-0.334961 -5.2692871 -5.9277339 7
-0.33665499 -5.289856 -5.9199219 7
-0.33833301 -5.309814 -5.9101558 7
-0.33523601 -5.3200841 -5.8886719 7
-0.33692899 -5.340363 -5.8808589 7
-0.343384 -5.370667 -5.8857422 7
-0.34507799 -5.3910518 -5.8779302 7
-0.34675601 -5.4113159 -5.8691411 7
-0.351639 -5.438324 -5.8691411 7
-0.100739 4.1420441 -5.3007808 7
-0.097565003 4.120132 -5.2998052 7
-0.1008 4.1096191 -5.3193359 7
-0.104462 4.099823 -5.3378911 7
-0.106094 4.086288 -5.3525391 7
-0.109344 4.07547 -5.3730469 7
-0.102951 4.0476842 -5.3623052 7
-0.102982 4.0314031 -5.3710942 7
-0.103012 4.0148621 -5.3798828 7
-0.107849 4.0067139 -5.4042969 7
-0.109482 3.9929199 -5.4189448 7
-0.117523 3.9902799 -5.453125 7
-0.127151 3.9901581 -5.4912109 7
-0.13038599 3.9789121 -5.5107422 7
-0.13200399 3.9651639 -5.5244141 7
-0.135254 3.953506 -5.5439448 7
-0.138474 3.9421229 -5.5625 7
-0.128906 3.9090581 -5.5419922 7
-0.12893701 3.892014 -5.5517578 7
-0.122559 3.864502 -5.5400391 7
-0.124207 3.85022 -5.554688 7
-0.13063 3.844101 -5.5830078 7
-0.332596 -5.1260991 -5.5986328 7
-0.340942 -5.1591191 -5.6074219 7
-0.33772299 -5.1684108 -5.585938 7
-0.33946201 -5.1882319 -5.579102 7
-0.32632399 -5.1768951 -5.530273 7
-0.32807899 -5.1964722 -5.5224609 7
-0.32817101 -5.2122798 -5.5097661 7
-0.32991001 -5.2319641 -5.5029302 7
-0.32833901 -5.2442322 -5.484375 7
-0.32513401 -5.2532811 -5.4638672 7
-0.33348101 -5.2864232 -5.4726558 7
-0.33026099 -5.2952418 -5.4511719 7
-0.33035299 -5.3111572 -5.438477 7
-0.34210199 -5.3674321 -5.4433589 7
-0.33723399 -5.372345 -5.4169922 7
-0.35220301 -5.420105 -5.4443359 7
-0.093018003 4.154953 -4.90625 7
-0.103012 4.1577001 -4.9443359 7
-0.103043 4.1421051 -4.9550781 7
-0.099747002 4.1208038 -4.954102 7
-0.099808 4.0896611 -4.9736328 7
-0.099822998 4.0743561 -4.983398 7
-0.099868998 4.0430908 -5.0019531 7
-0.1082 4.0422521 -5.0351558 7
-0.113205 4.0354919 -5.0585942 7
-0.114883 4.022552 -5.0732422 7
-0.133194 4.0226588 -5.1455078 7
-0.12825 3.9980929 -5.140625 7
-0.124969 3.9607389 -5.148438 7
-0.131653 3.9561 -5.1777339 7
-0.133331 3.9429779 -5.1914058 7
-0.12175 3.907089 -5.1669922 7
-0.123459 3.878036 -5.1894531 7
-0.120178 3.8565221 -5.188477 7
-0.321152 -5.1370392 -5.125977 7
-0.112503 3.868042 -4.8164058 7
-0.107376 3.8440859 -4.811523 7
-0.114273 3.8404541 -4.8398442 7
-0.036460001 -2.4828441 -10.166395 7
-0.117594 -2.2493191 -8.0683727 7
-0.026777999 -1.941522 -5.2622962 7
0.013998 -1.829651 -4.2408118 7
0.033503 -1.75124 -3.5267191 7
-0.094238997 3.950459 -5.7009292 7
0.28210601 -3.096812 -14.675504 7
-0.23159 -0.242484 -16.570448 7
-0.324101 -3.212718 -18.476515 7
-0.20708799 3.3448789 -12.887327 7
-0.319024 -2.6691589 -12.795457 7
-0.173079 -2.4777329 -9.1977606 7
-0.50444901 -5.8515539 -12.772695 7
-0.137624 -2.339262 -7.7501411 7
-0.372289 -5.5771551 -9.4399462 7
-0.40834501 -7.159946 -7.5186548 7
-0.058421999 -2.0224881 -5.6248512 7
-0.100102 4.124475 -4.8199339 7
-0.112773 4.0336061 -5.0538158 7
-0.13203301 3.9743741 -5.3328042 7
-0.019144 0.90841901 -5.5339961 7
-0.026148001 0.733522 -5.626864 7
-0.368994 -5.3094931 -6.2851372 7
-0.036906999 0.94708502 -4.9173861 7
-0.039173 0.790914 -4.966166 7
-0.018402001 0.84267497 -4.5019698 7
-0.021531001 0.70516199 -4.5523238 7
-0.038775001 -1.718557 -3.5909269 7
