# .PCD v0.7 - Point Cloud Data file format
VERSION 0.7
FIELDS x y z intensity
SIZE 4 4 4 4
TYPE F F F F
COUNT 1 1 1 1
WIDTH 863
HEIGHT 1
VIEWPOINT 0 0 0 1 0 0 0
POINTS 863
DATA ascii
2.1324999 58.960999 0.25781199 7
1.836929 51.430664 1.141602 7
1.832588 52.102631 1.012695 7
1.8306201 52.423492 0.88671899 7
1.709381 51.059296 1.047852 7
1.595474 46.810425 5.0566411 7
1.596992 46.713531 4.9375 7
1.59478 46.914093 4.8408198 7
1.496124 44.301849 5.3964839 7
1.4946899 44.41568 5.3007808 7
1.49453 44.447906 5.1982422 7
1.507957 44.082123 2.0400391 7
1.496201 44.874359 1.837891 7
1.3809659 42.608215 5.7519531 7
1.3853379 42.396729 5.6298828 7
1.382454 42.569458 5.545898 7
1.308899 40.946838 5.6923828 7
1.306587 41.07312 5.6064448 7
1.306396 41.099854 5.5107422 7
-0.0071109999 4.447021 71.464844 7
-0.04084 4.85321 72.547852 7
-0.073302999 5.095459 73.586914 7
0.020676 7.8453059 70.544922 7
0.026222 8.0029907 70.509766 7
-0.064673997 11.776215 73.222656 7
-0.027877999 11.752747 72.03418 7
1.149323 37.629333 6.0751948 7
1.146942 37.732971 5.9980469 7
1.147118 37.743286 5.9082031 7
1.143456 37.89328 5.8349609 7
1.172302 37.248932 2.8457029 7
1.177544 37.064758 2.750977 7
1.1683199 37.412811 2.6748049 7
0.0032879999 3.422302 64.519531 7
-0.058341999 3.672791 66.305664 7
-0.078567997 3.8612061 66.892578 7
0.066192999 6.381042 62.674805 7
0.058913998 6.5491328 62.880859 7
0.030502001 6.7850041 63.698242 7
0.065215997 7.8434138 62.642578 7
0.057960998 8.0167236 62.844727 7
-0.051132001 2.757935 60.035156 7
-0.089348003 2.9463501 61.040039 7
-0.14047199 3.157166 62.382812 7
0.042488001 5.4413762 57.558594 7
0.0081709996 5.6643372 58.454102 7
0.024269 5.7572632 58.02832 7
0.010262 7.5568242 58.308594 7
0.049605999 7.5531011 57.269531 7
0.041313 7.716064 57.477539 7
0.076201998 7.7219238 56.554688 7
-0.055709999 2.006104 54.5625 7
-0.09877 2.172668 55.585938 7
-0.129013 2.331543 56.306641 7
-0.185349 2.5213621 57.643555 7
-0.021088 4.8288569 53.719727 7
-0.0050659999 4.9170532 53.335938 7
0.020470001 7.2987061 52.59082 7
0.025665 7.5247502 52.447266 7
0.078681998 7.4584351 51.185547 7
-0.001106 10.584412 52.830078 7
0.034058001 10.535461 51.987305 7
0.062392998 10.516144 51.304688 7
-0.15522 1.7906491 52.34082 7
-0.16378801 1.918213 52.530273 7
-0.221756 2.089355 53.791992 7
-0.054671999 4.3702998 50.126953 7
-0.032699998 4.441895 49.644531 7
-0.030006001 4.5509028 49.582031 7
-0.0080490001 4.6191411 49.100586 7
0.0036239999 6.967804 48.763672 7
0.041228998 6.958344 47.9375 7
0.0042039999 7.1912231 48.730469 7
0.0089189997 10.095245 48.267578 7
0.036308002 10.078613 47.660156 7
0.050147999 10.123749 47.345703 7
-0.619865 -4.0783691 -64.032227 7
-0.68027502 -4.3172612 -65.435547 7
0.0086209998 6.3644409 44.551758 7
0.018509001 6.4379878 44.347656 7
0.017898999 6.5418401 44.348633 7
0.028664 6.611145 44.125977 7
0.022217 6.7327271 44.242188 7
-0.035530001 9.7447205 45.066406 7
-0.001572 9.6982727 44.380859 7
0.02919 9.6634827 43.761719 7
0.046592999 9.6858521 43.401367 7
0.82551599 29.361603 3.7988279 7
0.83319902 29.203552 3.717773 7
0.83062702 29.26712 3.6533201 7
0.82212102 29.458893 3.5986331 7
0.813896 29.644562 3.5400391 7
-0.51773798 -2.7619021 -56.548828 7
-0.58633399 -3.111938 -57.989258 7
-0.51477098 -3.1672361 -56.446289 7
-0.57387501 -3.375854 -57.694336 7
-0.64967299 -3.61145 -59.296875 7
0.002197 6.1219478 41.714844 7
0.043632999 6.1936951 40.927734 7
0.010368 6.385437 41.53125 7
0.059448 6.3345342 40.615234 7
-0.02887 9.4084473 41.837891 7
0.0075759999 9.3484192 41.155273 7
0.026550001 9.3609619 40.791992 7
0.027733 9.4498901 40.75293 7
0.772232 28.236206 3.7919919 7
0.77060699 28.276611 3.7285161 7
0.76664698 28.363312 3.667969 7
0.76036102 28.496521 3.610352 7
0.76776099 28.35556 3.532227 7
-0.44516 -1.728394 -49.963867 7
-0.48747301 -1.878967 -50.777344 7
-0.531609 -2.0350339 -51.625977 7
-0.56283599 -2.1846311 -52.222656 7
-0.61058801 -2.351135 -53.141602 7
-0.40608999 -5.9555049 -48.666992 7
-0.422699 -6.1115112 -48.966797 7
-0.36751601 -6.0971069 -47.883789 7
-0.17905401 0.375671 41.665039 7
-0.18846101 0.47241199 41.826172 7
0.014374 5.6828609 38.165039 7
0.016037 8.645813 37.744141 7
-0.00544 8.8190613 38.087891 7
-0.0072329999 8.9140615 38.101562 7
0.013367 8.9171143 37.740234 7
0.030579001 8.932373 37.43457 7
0.69283301 26.56546 7.172852 7
-0.37713599 -0.89404303 -44.669922 7
-0.40218401 -1.012634 -45.112305 7
-0.45301101 -1.144165 -46.014648 7
-0.488197 -1.2724611 -46.636719 7
-0.53577399 -1.410278 -47.481445 7
-0.58304602 -1.552063 -48.319336 7
-0.33139801 -4.1603999 -43.521484 7
-0.349022 -4.2954712 -43.819336 7
-0.35060099 -4.404541 -43.833008 7
-0.41275799 -4.6213989 -44.921875 7
0.045623999 5.4441829 35.069336 7
0.043846 5.6090698 35.079102 7
-0.030022001 8.6065369 35.78418 7
0.0073389998 8.6227112 35.171875 7
-0.32559201 0.35797101 -36.921875 7
-0.35205799 0.27008101 -37.325195 7
-0.38288099 0.086975001 -37.792969 7
-0.41621399 -0.0062259999 -38.302734 7
-0.45183599 -0.101868 -38.845703 7
-0.47261801 -0.198608 -39.160156 7
-0.29554 -3.37323 -39.155273 7
-0.305801 -3.4829099 -39.311523 7
-0.302818 -3.5739141 -39.25 7
-0.344933 -3.7315061 -39.922852 7
-0.36844599 -3.8640139 -40.291992 7
-0.37820399 -5.5392461 -40.185547 7
-0.335457 -5.5422359 -39.478516 7
-0.309181 -5.578918 -39.036133 7
-0.33705899 -5.737061 -39.46875 7
-0.29858401 -5.743103 -38.829102 7
0.033165 5.1243291 32.581055 7
0.033752002 5.197083 32.5625 7
0.028374 5.2841802 32.631836 7
0.053238001 5.2965698 32.261719 7
-0.032226998 8.3240051 33.044922 7
-0.000122 8.3521118 32.553711 7
0.017509 8.3584595 32.286133 7
0.011391 8.4560242 32.356445 7
-0.28603399 -2.9451289 -36.263672 7
-0.31351501 -3.0670171 -36.667969 7
-0.33523601 -3.1837161 -36.986328 7
-0.352081 -5.3674932 -36.907227 7
-0.313454 -5.374146 -36.311523 7
-0.197319 -0.70153803 34.035156 7
-0.220001 -0.55279499 34.353516 7
-0.230057 -0.47699001 34.495117 7
0.0057140002 4.8700562 31.089844 7
0.025359999 4.8959961 30.8125 7
0.023429999 4.9701538 30.830078 7
0.015137 5.0593262 30.933594 7
0.036056999 5.0803218 30.640625 7
-0.039299 8.0455322 31.161133 7
-0.037415002 8.1094971 31.118164 7
-0.02372 8.1300659 30.919922 7
0.58233601 23.065735 4.469727 7
0.589279 22.974243 4.4033198 7
0.58577001 23.033447 4.3574219 7
0.579849 23.127106 4.3125 7
0.577133 23.174194 4.2626948 7
0.57844502 23.163086 4.2060552 7
-0.343086 0.256165 -37.365234 7
-0.36241099 0.166199 -37.658203 7
-0.389397 0.074828997 -38.067383 7
-0.427513 -0.018433001 -38.646484 7
-0.46331 -0.114319 -39.188477 7
-0.48266599 -0.21130399 -39.479492 7
-0.25856 -2.294189 -33.070312 7
-0.294884 -2.410583 -33.571289 7
-0.25978899 -2.4568479 -33.070312 7
-0.28947401 -2.5688479 -33.477539 7
-0.289505 -5.2477422 -33.067383 7
-0.33055899 -5.4168091 -33.620117 7
-0.30621299 -5.44519 -33.266602 7
-0.53667402 -8.5783081 -35.826172 7
-0.52442199 -8.6257324 -35.635742 7
-0.504219 -8.6469116 -35.335938 7
-0.48149899 -8.6586304 -35.00293 7
-0.48930401 -8.7687988 -35.083984 7
-0.034247998 1.807495 29.676758 7
-0.045058999 1.883667 29.8125 7
-0.043990999 1.949829 29.795898 7
0.025696 4.6827388 28.670898 7
-0.023468001 7.6888118 28.776367 7
-0.039618999 7.8109131 28.959961 7
-0.038513001 7.8727422 28.930664 7
-0.028351 7.9020081 28.788086 7
-0.014107 7.9161682 28.597656 7
-0.0080180001 7.9588928 28.505859 7
-0.284729 1.156677 -31.286133 7
-0.25952101 -2.1994021 -30.692383 7
-0.249008 -2.264771 -30.546875 7
-0.26525101 -2.3551641 -30.75 7
-0.248032 -2.4135129 -30.517578 7
-0.231712 -2.4716189 -30.296875 7
-0.29138899 -5.0274048 -30.688477 7
-0.318901 -5.1591191 -31.02832 7
-0.30032301 -5.1958008 -30.773438 7
-0.52239197 -8.3336182 -32.975586 7
-0.53790998 -8.4620972 -33.148438 7
-0.50855303 -8.4500732 -32.753906 7
-0.489952 -8.4706421 -32.496094 7
-0.49110401 -8.5531006 -32.487305 7
-0.054352 1.638123 28.179688 7
-0.056632999 1.703125 28.205078 7
-0.055023 1.765259 28.183594 7
-0.064613 1.8363039 28.295898 7
-0.062508002 1.8980711 28.267578 7
0.00856 4.481812 27.208008 7
0.018897999 4.5214229 27.077148 7
0.0026090001 4.6166992 27.261719 7
0.015861999 4.6497798 27.09668 7
-0.061127 7.6963501 27.426758 7
-0.050315998 7.7210689 27.285156 7
-0.038047999 7.7399902 27.128906 7
-0.024826 7.7547302 26.959961 7
-0.020293999 7.7997441 26.890625 7
-0.032683998 7.90451 27.016602 7
-0.27996099 -4.5753169 -28.248047 7
-0.25411201 -4.5957031 -27.926758 7
-0.26733401 -4.6895142 -28.071289 7
-0.27331501 -4.7702031 -28.128906 7
-0.2658 -4.8239141 -28.024414 7
-0.50731701 -8.0599976 -30.214844 7
-0.49305001 -8.0900879 -30.025391 7
-0.480461 -8.1975708 -29.833984 7
-1.478302 -39.721252 11.555664 7
-1.395538 -38.769775 11.506836 7
-1.387192 -37.645508 14.52832 7
-1.383255 -37.570312 14.601562 7
-1.3647079 -37.340942 14.621094 7
-0.041466001 1.289062 26.217773 7
-0.040801998 1.347229 26.208984 7
-0.03334 1.401184 26.124023 7
-0.038437001 1.462952 26.178711 7
-0.036208998 1.520203 26.15332 7
-0.045998 1.585632 26.259766 7
-0.0069200001 4.2089839 25.592773 7
0.012375 4.2310791 25.393555 7
0.017723 4.2774048 25.326172 7
-0.0081479996 4.3858638 25.602539 7
0.0091779996 4.4082031 25.404297 7
0.017136 4.4490361 25.307617 7
-0.049888998 7.4256592 25.442383 7
-0.034012001 7.4866028 25.243164 7
-0.029175 7.526917 25.173828 7
-0.023819 7.5653691 25.101562 7
-0.032990001 7.6534729 25.183594 7
-0.292831 1.5543211 -27.061523 7
-0.300529 1.4912111 -27.152344 7
-0.33692199 1.444153 -27.575195 7
-0.343117 1.37854 -27.648438 7
-0.249733 -4.209229 -25.910156 7
-0.26852399 -4.306335 -26.108398 7
-0.245956 -4.329895 -25.842773 7
-0.244064 -4.3901372 -25.80957 7
-0.50396699 -7.7756348 -27.966797 7
-0.48210099 -7.8476558 -27.686523 7
-0.47351101 -7.889648 -27.573242 7
-0.487755 -7.9997559 -27.706055 7
-0.038047999 1.2047729 24.62793 7
-0.040024001 1.315796 24.646484 7
-0.047005001 1.4302371 24.71582 7
0.0055470001 4.2427979 23.916016 7
0.012894 4.2818599 23.832031 7
-0.035934001 7.336884 23.666992 7
-0.24160001 1.8586431 -24.620117 7
-0.246582 1.800171 -24.677734 7
-0.235168 -3.8518679 -23.989258 7
-0.243637 -3.9247439 -24.06543 7
-0.223343 -3.9507451 -23.842773 7
-0.218529 -4.0016479 -23.78125 7
-0.22822601 -4.13623 -23.860352 7
-0.225632 -4.1904912 -23.821289 7
-0.245766 -4.284729 -24.017578 7
-0.242622 -4.3383179 -23.97168 7
-0.457993 -7.394958 -25.511719 7
-0.47152701 -7.4957891 -25.628906 7
-0.48561901 -7.5985718 -25.75 7
-0.473618 -7.6270752 -25.608398 7
-0.462181 -7.6567988 -25.472656 7
-1.033623 -29.080933 13.585938 7
-1.017761 -28.907104 13.592773 7
-1.010803 -28.813599 13.633789 7
-0.051003002 0.98498499 23.320312 7
-0.036049001 1.029907 23.172852 7
-0.041267 1.083923 23.222656 7
-0.038169999 1.133972 23.192383 7
-0.041030999 1.18689 23.217773 7
-0.05455 1.246094 23.349609 7
0.010925 3.8712161 22.462891 7
0.016388001 3.911499 22.402344 7
-0.0035929999 3.997864 22.588867 7
0.0090640001 4.074646 22.449219 7
0.010986 4.1209722 22.422852 7
-0.050163001 7.0775762 22.367188 7
-0.045891002 7.113708 22.310547 7
-0.036308002 7.1329041 22.208008 7
-0.029694 7.1608582 22.129883 7
-0.027779 7.204041 22.09668 7
-0.028801 7.2567749 22.09082 7
-0.043381002 7.354248 22.210938 7
-0.28998601 1.890076 -23.442383 7
-0.283806 1.825989 -23.382812 7
-0.246803 -3.9055181 -22.491211 7
-0.229286 -3.9326169 -22.30957 7
-0.22413599 -3.979187 -22.24707 7
-0.25672099 -4.0889282 -22.552734 7
-0.25098401 -4.1351318 -22.486328 7
-0.47649401 -7.395813 -23.90625 7
-0.4702 -7.4368901 -23.828125 7
-0.46034199 -7.4674678 -23.714844 7
-0.45878601 -7.5215449 -23.680664 7
-0.48264301 -7.648376 -23.885742 7
-0.255577 -2.1807859 23.810547 7
-0.24465901 -2.065979 23.720703 7
-0.246445 -2.014709 23.744141 7
-0.25075501 -1.965637 23.789062 7
-0.055565 0.97534198 22.116211 7
-0.054816999 1.024048 22.108398 7
-0.054076999 1.072754 22.100586 7
-0.054581001 1.121887 22.104492 7
-0.015472 3.92981 21.483398 7
-0.057464998 6.8770452 21.175781 7
-0.066063002 6.950623 21.236328 7
-0.062171999 6.9856572 21.186523 7
-0.229027 -3.7446899 -20.841797 7
-0.223984 -3.943542 -20.751953 7
-0.22476999 -3.996582 -20.749023 7
-0.228065 -4.053772 -20.767578 7
-0.46730801 -7.1391602 -22.200195 7
-0.46309701 -7.182373 -22.144531 7
-0.45384201 -7.2119751 -22.043945 7
-0.445847 -7.2443848 -21.955078 7
-0.44161999 -7.2867432 -21.898438 7
-0.865906 -25.183777 9.8271484 7
-0.84803802 -25.014587 9.8378906 7
-0.231369 2.5474241 -19.941406 7
-0.19778401 2.461365 -19.646484 7
-0.20697001 2.420471 -19.733398 7
-0.22133601 2.3842161 -19.865234 7
-0.22467799 2.3369751 -19.899414 7
-0.242943 2.303467 -20.066406 7
-0.263145 2.2706909 -20.251953 7
-0.26649499 2.222168 -20.285156 7
-0.228287 -3.5700679 -19.555664 7
-0.217117 -3.6021731 -19.449219 7
-0.211273 -3.641907 -19.388672 7
-0.22472399 -3.71106 -19.494141 7
-0.230194 -3.7684331 -19.53125 7
-0.231003 -3.8183589 -19.527344 7
-0.462143 -7.0706792 -20.689453 7
-0.446953 -7.0809941 -20.545898 7
-0.45586401 -7.1560669 -20.600586 7
-0.467415 -7.238708 -20.677734 7
-0.707932 -20.997986 12.49707 7
-0.72571599 -21.09967 12.615234 7
-0.718063 -21.016663 12.635742 7
-0.70121002 -20.867371 12.618164 7
-0.70626801 -20.876099 12.6875 7
-0.68800402 -20.716736 12.665039 7
-0.68953699 -20.700195 12.719727 7
-0.68469203 -20.637817 12.748047 7
-0.22449499 -3.5910029 -18.279297 7
-0.449265 -6.7780151 -19.277344 7
-0.45723701 -6.8466802 -19.321289 7
-0.44607499 -6.8656011 -19.217773 7
-0.440575 -6.8987432 -19.15625 7
-0.43792 -6.9393311 -19.118164 7
-0.45227101 -7.0253911 -19.210938 7
-0.54616499 -8.6426392 -19.366211 7
-0.54636401 -8.6912842 -19.345703 7
-0.60854298 -18.773438 12.19043 7
-0.611633 -18.768005 12.246094 7
-0.61547101 -18.767029 12.305664 7
-0.61931598 -18.766235 12.364258 7
-0.614182 -18.705261 12.387695 7
-0.60829198 -18.639221 12.408203 7
-0.60539198 -18.592712 12.441406 7
-0.605492 -18.566589 12.485352 7
-0.185287 2.718689 -17.175781 7
-0.182487 2.671021 -17.15918 7
-0.18838499 2.6330571 -17.210938 7
-0.14331099 -0.34375 -16.932617 7
-0.142654 -0.386536 -16.925781 7
-0.13604701 -0.42779499 -16.871094 7
-0.13912199 -0.47125199 -16.893555 7
-0.139961 -0.51415998 -16.898438 7
-0.142296 -0.55767798 -16.914062 7
-0.149849 -0.60235602 -16.970703 7
-0.20147701 -3.2688601 -17.026367 7
-0.187401 -3.2922969 -16.910156 7
-0.18752301 -3.335022 -16.902344 7
-0.19139899 -3.383301 -16.922852 7
-0.203613 -3.4863279 -16.99707 7
-0.44056699 -6.7357788 -17.930664 7
-0.436234 -6.7695308 -17.882812 7
-0.43415099 -6.8087769 -17.849609 7
-0.43431899 -6.8537598 -17.833008 7
-0.44499201 -6.9266968 -17.893555 7
-0.45491001 -6.9977422 -17.947266 7
-0.55851698 -8.4227285 -18.199219 7
-0.55719799 -8.4638062 -18.167969 7
-0.54911798 -8.4840698 -18.088867 7
-0.54629499 -8.5203857 -18.047852 7
-0.54648602 -8.5657349 -18.027344 7
-0.54291499 -8.5994873 -17.981445 7
-0.54139698 -16.847107 12.172852 7
-0.53041101 -16.753418 12.168945 7
-0.52654999 -16.703674 12.192383 7
-0.52828997 -16.661743 12.27832 7
-0.186028 2.8657839 -16.113281 7
-0.18995699 2.828552 -16.148438 7
-0.19770101 2.795532 -16.212891 7
-0.200859 2.7570801 -16.241211 7
-0.207085 2.721863 -16.293945 7
-0.22327401 2.6977539 -16.420898 7
-0.234093 2.667053 -16.506836 7
-0.22882099 2.6183469 -16.473633 7
-0.174477 -3.212708 -15.780273 7
-0.172226 -3.2497561 -15.756836 7
-0.203987 -3.334106 -15.975586 7
-0.191452 -3.356812 -15.876953 7
-0.190788 -3.3960569 -15.863281 7
-0.18694299 -3.4307251 -15.827148 7
-0.208443 -3.502136 -15.970703 7
-0.415627 -6.5525508 -16.595703 7
-0.41262099 -6.5869751 -16.558594 7
-0.410393 -6.6226811 -16.526367 7
-0.41293299 -6.6706538 -16.526367 7
-0.52645099 -8.3256836 -16.681641 7
-0.53016698 -8.4622803 -16.641602 7
-0.54148901 -8.5396118 -16.695312 7
-0.56546003 -17.599426 8.9462891 7
-0.55392498 -17.506836 8.9560547 7
-0.158539 -2.9102781 -14.821289 7
-0.160309 -2.9502561 -14.825195 7
-0.167091 -2.9967041 -14.862305 7
-0.180527 -3.0518191 -14.946289 7
-0.167328 -3.07251 -14.847656 7
-0.170761 -3.1148679 -14.863281 7
-0.16838101 -3.1495359 -14.838867 7
-0.185265 -3.2481079 -14.936523 7
-0.18956 -3.2922361 -14.957031 7
-0.185509 -3.324646 -14.920898 7
-0.198944 -3.3817749 -15.003906 7
-0.200745 -3.4225459 -15.006836 7
-0.414978 -6.4092412 -15.59668 7
-0.40676901 -6.4282231 -15.527344 7
-0.40357199 -6.4595952 -15.490234 7
-0.406387 -6.5449219 -15.475586 7
-0.42007399 -6.657959 -15.530273 7
-0.53482097 -16.483765 8.6484385 7
-0.53317302 -16.455811 8.6826172 7
-0.54113001 -16.486023 8.7421885 7
-0.53948998 -16.457642 8.7773438 7
-0.53172302 -16.392578 8.7949219 7
-0.52047002 -16.30658 8.8027344 7
-0.50835401 -16.215332 8.8066406 7
-0.49884799 -16.139893 8.8183594 7
-0.49195901 -16.0802 8.8378906 7
-0.49118799 -16.057068 8.8740234 7
-0.49826801 -16.081238 8.9316406 7
-0.091599002 -0.079285003 -13.064453 7
-0.097953998 -0.114258 -13.104492 7
-0.17212699 -2.926331 -14.072266 7
-0.169617 -2.959106 -14.047852 7
-0.163589 -2.987427 -14.001953 7
-0.16194899 -3.021179 -13.983398 7
-0.17081501 -3.068542 -14.033203 7
-0.19283301 -3.133606 -14.167969 7
-0.17981 -3.1521609 -14.073242 7
-0.180794 -3.1895139 -14.072266 7
-0.178276 -3.2219851 -14.046875 7
-0.167053 3.1650391 -13.275391 7
-0.169807 3.1334231 -13.299805 7
-0.17614 3.1065669 -13.34668 7
-0.17712399 3.0723269 -13.360352 7
-0.15253399 -2.8920901 -13.175781 7
-0.157242 -2.9317629 -13.197266 7
-0.150902 -2.9577031 -13.151367 7
-0.169403 -3.0155029 -13.257812 7
-0.18054201 -3.063782 -13.316406 7
-0.171455 -3.0861211 -13.25293 7
-0.173401 -3.1226809 -13.256836 7
-0.168907 -3.1507571 -13.220703 7
-0.404762 -6.15625 -13.75293 7
-0.395668 -6.1697388 -13.685547 7
-0.39857501 -6.2116699 -13.686523 7
-0.39041099 -6.226624 -13.624023 7
-0.38777199 -6.2550659 -13.59375 7
-0.39253199 -6.301147 -13.603516 7
-0.38436899 -6.3158569 -13.541016 7
-0.400208 -6.389709 -13.616211 7
-0.079643004 0.116821 -11.615234 7
-0.076752 0.085326999 -11.597656 7
-0.079796001 0.054320998 -11.616211 7
-0.153641 -2.911377 -12.428711 7
-0.150948 -2.9721069 -12.398438 7
-0.152977 -3.006958 -12.402344 7
-0.15114599 -3.0365601 -12.383789 7
-0.165756 -3.0879519 -12.460938 7
-0.38261399 -6.0977778 -12.75293 7
-0.38274401 -6.1306758 -12.739258 7
-0.37802899 -6.1521001 -12.698242 7
-0.374275 -6.175415 -12.662109 7
-0.37731901 -6.215332 -12.663086 7
-0.38523901 -6.2671509 -12.689453 7
-0.39411199 -6.3215942 -12.722656 7
-0.39521801 -6.3570561 -12.712891 7
-0.39730099 -6.3948359 -12.708984 7
-0.48153701 -7.851624 -12.476562 7
-0.48475599 -7.9248662 -12.454102 7
-0.095016003 0.30658001 -11.707031 7
-0.098053001 0.27545199 -11.724609 7
-0.096138 0.24371301 -11.712891 7
-0.094246 0.21215799 -11.702148 7
-0.090369999 0.18035901 -11.678711 7
-0.085502997 0.14862099 -11.649414 7
-0.12722801 -2.594604 -11.698242 7
-0.127312 -2.6251221 -11.692383 7
-0.13753501 -2.6673579 -11.742188 7
-0.12953199 -2.688477 -11.689453 7
-0.12458 -2.7130129 -11.655273 7
-0.127701 -2.7471311 -11.665039 7
-0.127792 -2.7774661 -11.658203 7
-0.153183 -2.838928 -11.793945 7
-0.153275 -2.8696289 -11.786133 7
-0.48625901 -7.723145 -11.75 7
-0.48436701 -7.7477422 -11.720703 7
-0.479424 -7.7636719 -11.678711 7
-0.47753099 -7.7883911 -11.650391 7
-0.47869101 -7.8214722 -11.634766 7
-0.48087299 -7.8579712 -11.626953 7
-0.47898099 -7.8823848 -11.598633 7
-0.49542999 -7.9611821 -11.658203 7
-0.084122002 0.033264 -11.764648 7
-0.085220002 0.0040890002 -11.770508 7
-0.098457001 -0.057677999 -11.845703 7
-0.078208998 0.104309 -10.416016 7
-0.077187002 0.075989 -10.40918 7
-0.076172002 0.047545999 -10.40332 7
-0.069739997 0.018982001 -10.369141 7
-0.121468 -2.577759 -11.011719 7
-0.11837 -2.6030271 -10.989258 7
-0.112091 -2.624634 -10.949219 7
-0.117493 -2.6595459 -10.969727 7
-0.120758 -2.6920171 -10.980469 7
-0.130409 -2.7320559 -11.024414 7
-0.14431 -2.7775879 -11.091797 7
-0.133781 -2.7939451 -11.029297 7
-0.13069201 -2.819031 -11.004883 7
-0.136086 -2.854187 -11.025391 7
-0.352997 -5.7669678 -11.1875 7
-0.35418701 -5.7984619 -11.176758 7
-0.359642 -5.8401489 -11.189453 7
-0.36723301 -5.8867192 -11.212891 7
-0.36202201 -5.9038701 -11.172852 7
-0.357887 -5.9231572 -11.137695 7
-0.360138 -5.957397 -11.134766 7
-0.362396 -5.991394 -11.128906 7
-0.35932899 -6.013123 -11.099609 7
-0.36691999 -6.059937 -11.121094 7
-0.076674998 0.30297899 -10.407227 7
-0.069168001 0.273682 -10.368164 7
-0.065978996 0.245178 -10.350586 7
-0.066047996 0.216736 -10.351562 7
-0.067192003 0.18866 -10.357422 7
-0.069420002 0.16064499 -10.369141 7
-0.072731003 0.13244601 -10.386719 7
-0.101379 -2.575989 -10.334961 7
-0.105888 -2.608398 -10.351562 7
-0.107086 -2.6370239 -10.350586 7
-0.121597 -2.68103 -10.416016 7
-0.13055401 -2.719116 -10.454102 7
-0.118446 -2.732178 -10.385742 7
-0.121864 -2.7636111 -10.396484 7
-0.121941 -2.7909551 -10.389648 7
-0.12759399 -2.825562 -10.411133 7
-0.13987701 -2.867981 -10.466797 7
-0.35617799 -5.7667851 -10.526367 7
-0.361862 -5.807373 -10.539062 7
-0.36198401 -5.8352051 -10.525391 7
-0.356529 -5.8501592 -10.485352 7
-0.35776499 -5.8803101 -10.475586 7
-0.35454601 -5.900085 -10.446289 7
-0.35690299 -5.9329829 -10.442383 7
-0.35590401 -5.9580078 -10.423828 7
-0.363823 -6.0039058 -10.444336 7
-0.37063599 -6.0475459 -10.460938 7
-0.45071399 -7.3868408 -10.119141 7
-0.45307899 -7.4198608 -10.110352 7
-0.46087599 -7.4691768 -10.126953 7
-0.466591 -7.5118408 -10.132812 7
-0.46226501 -7.5258789 -10.094727 7
-0.460159 -7.5462651 -10.067383 7
-0.45917499 -7.5696411 -10.044922 7
-0.457077 -7.59021 -10.017578 7
-0.462791 -7.632751 -10.023438 7
-0.46516401 -7.6660771 -10.014648 7
-0.066428997 0.25457799 -10.492188 7
-0.065375999 0.226807 -10.486328 7
-0.067703001 0.17181399 -10.499023 7
-0.067757003 0.144104 -10.498047 7
-0.081084996 0.117065 -10.567383 7
-0.075668 0.061462 -10.539062 7
-0.072471999 0.0057979999 -10.521484 7
-0.117111 -2.587646 -9.8867188 7
-0.12529799 -2.623291 -9.9199219 7
-0.11496 -2.6373291 -9.8623047 7
-0.117455 -2.6925049 -9.8603516 7
-0.123413 -2.7518921 -9.8759766 7
-0.13276701 -2.7892461 -9.9130859 7
-0.130531 -2.8125 -9.8945312 7
-0.358551 -5.7600708 -9.9052734 7
-0.35285899 -5.7730098 -9.8662109 7
-0.350647 -5.7938838 -9.8417969 7
-0.35192901 -5.822876 -9.8330078 7
-0.347397 -5.8383179 -9.7998047 7
-0.34634399 -5.8613892 -9.7792969 7
-0.346466 -5.8873901 -9.7646484 7
-0.355896 -5.9352422 -9.7919922 7
-0.365311 -5.9832759 -9.8183594 7
-0.368927 -6.0177612 -9.8193359 7
-0.37136799 -6.0493159 -9.8154297 7
-0.371483 -6.0750728 -9.7988281 7
-0.44904301 -7.36554 -9.4111328 7
-0.4515 -7.3970952 -9.4013672 7
-0.45629901 -7.4354248 -9.4033203 7
-0.45993 -7.470459 -9.3994141 7
-0.45539901 -7.4825439 -9.3632812 7
-0.457863 -7.5142212 -9.3554688 7
-0.45915201 -7.5423579 -9.3417969 7
-0.45579499 -7.5571899 -9.3085938 7
-0.455917 -7.5822749 -9.2910156 7
-0.461891 -7.6239009 -9.2958984 7
-0.47251901 -7.6792598 -9.3203115 7
-0.155571 3.497437 -9.2851562 7
-0.156784 3.473511 -9.2998047 7
-0.315712 -5.4551392 -8.6210938 7
-0.31963301 -5.4868159 -8.6230469 7
-0.324806 -5.5211792 -8.6298828 7
-0.32744601 -5.550293 -8.6269531 7
-0.33262599 -5.5847778 -8.6328115 7
-0.332726 -5.6081538 -8.6210938 7
-0.325241 -5.6143799 -8.5771484 7
-0.324074 -5.63446 -8.5576172 7
-0.321648 -5.651855 -8.5341797 7
-0.32302901 -5.67804 -8.5263672 7
-0.32312801 -5.7011719 -8.5126953 7
-0.32578301 -5.730103 -8.5097656 7
-0.040413 0.50665301 -8.2958984 7
-0.040474001 0.483215 -8.296875 7
-0.036681999 0.459106 -8.2802734 7
-0.034164 0.43499801 -8.2705078 7
-0.038063001 0.41271999 -8.2871094 7
-0.039391 0.38934299 -8.2949219 7
-0.32562301 -5.450439 -8.1357422 7
-0.32177001 -5.4637451 -8.1074219 7
-0.329788 -5.5029912 -8.1240234 7
-0.33516699 -5.5367432 -8.1298828 7
-0.33395401 -5.5559692 -8.1123047 7
-0.32350901 -5.55481 -8.0595703 7
-0.32360801 -5.5767212 -8.046875 7
-0.32634699 -5.6044312 -8.0419922 7
-0.32777399 -5.629395 -8.0341797 7
-0.325241 -5.6453252 -8.0107422 7
-0.32534799 -5.6671748 -7.9970698 7
-0.33072701 -5.7010498 -8.0039062 7
-0.34271199 -5.750061 -8.0341797 7
-0.061241001 0.62738001 -7.9755859 7
-0.055962 0.60327101 -7.954102 7
-0.056015 0.580688 -7.9560552 7
-0.049400002 0.55609101 -7.9287109 7
-0.048119001 0.53338599 -7.9248052 7
-0.046836998 0.51025403 -7.9199219 7
-0.045554999 0.48773199 -7.9150391 7
-0.048278999 0.46582001 -7.9277339 7
-0.049651999 0.443542 -7.9335942 7
-0.057700999 0.42242399 -7.96875 7
-0.057755001 0.39959699 -7.9707031 7
-0.057808001 0.377197 -7.9707031 7
-0.055190999 0.35412601 -7.9589839 7
-0.051247001 0.33081099 -7.9433589 7
-0.31626099 -5.4526372 -7.5556641 7
-0.319107 -5.479248 -7.5517578 7
-0.31784099 -5.4969478 -7.5332031 7
-0.308319 -5.496582 -7.4863281 7
-0.30979899 -5.5202031 -7.4785161 7
-0.31401801 -5.5500488 -7.4794922 7
-0.31549099 -5.57373 -7.4716802 7
-0.314224 -5.591248 -7.453125 7
-0.318443 -5.6208501 -7.453125 7
-0.31855801 -5.641541 -7.4404302 7
-0.33102399 -5.690125 -7.469727 7
-0.33798999 -5.7262568 -7.4794922 7
-0.33398399 -5.7374878 -7.452148 7
-0.41100299 -7.176208 -6.6914058 7
-0.41250601 -7.1989141 -6.6787109 7
-0.41674799 -7.2290039 -6.672852 7
-0.40996599 -7.2284551 -6.6347661 7
-0.41559601 -7.2624512 -6.6347661 7
-0.41157499 -7.2695308 -6.6044922 7
-0.424088 -7.322876 -6.625 7
-0.39884901 -7.1609502 -6.0576172 7
-0.40325901 -7.1902471 -6.0527339 7
-0.40622699 -7.2153931 -6.0429692 7
-0.40919501 -7.240417 -6.0332031 7
-0.409302 -7.257874 -6.016602 7
-0.40798199 -7.270813 -5.9951172 7
-0.41095701 -7.2961431 -5.985352 7
-0.41249099 -7.3172612 -5.9726558 7
-0.41689301 -7.346375 -5.9658198 7
-0.082817003 4.003418 -6.0498052 7
-0.087311 3.9931641 -6.0742192 7
-0.081421003 3.9467161 -6.0722661 7
-0.098885 4.1529541 -5.6806641 7
-0.085074998 4.093689 -5.655273 7
-0.082024001 4.0708618 -5.655273 7
-0.074378997 4.0227661 -5.6503911 7
-0.074409001 4.0055542 -5.6591802 7
-0.071358003 3.983032 -5.6591802 7
-0.076003999 3.973999 -5.6835942 7
-0.076035 3.95697 -5.6914058 7
-0.076057002 3.9398799 -5.7001948 7
-0.074553996 3.9198611 -5.7050781 7
-0.077666998 3.907959 -5.7236328 7
-0.076149002 3.888 -5.7285161 7
-0.082344003 3.8812261 -5.757812 7
-0.083907999 3.8666379 -5.7705078 7
-0.088569999 3.8571169 -5.7949219 7
-0.096298002 3.852356 -5.8300781 7
-0.116348 3.8687129 -5.9033198 7
-0.302414 -5.2936401 -5.7597661 7
-0.30090299 -5.3067632 -5.742188 7
-0.30419201 -5.3300781 -5.7392578 7
-0.302681 -5.3431401 -5.7216802 7
-0.30116999 -5.3562622 -5.7050781 7
-0.30605301 -5.3829961 -5.7050781 7
-0.30135301 -5.3891602 -5.6787109 7
-0.30145299 -5.405334 -5.6660161 7
-0.304726 -5.4284668 -5.6611328 7
-0.094925001 4.1593022 -5.2792969 7
-0.094954997 4.1429439 -5.289062 7
-0.093391001 4.1237178 -5.2939448 7
-0.097617999 4.1178589 -5.3173828 7
-0.084862001 4.0785518 -5.2880859 7
-0.086487003 4.0652471 -5.3017578 7
-0.081726 4.0402832 -5.296875 7
-0.078552 4.01825 -5.296875 7
-0.076981001 3.999023 -5.3017578 7
-0.072212003 3.9745481 -5.2949219 7
-0.072242998 3.958252 -5.304688 7
-0.075470001 3.947571 -5.3242192 7
-0.072296001 3.9254761 -5.3232422 7
-0.083511002 3.9286499 -5.367188 7
-0.089928001 3.923279 -5.3955078 7
-0.089965999 3.906738 -5.4042969 7
-0.091599002 3.8928831 -5.4189448 7
-0.096413001 3.884583 -5.4433589 7
-0.094848998 3.8651731 -5.4472661 7
-0.101265 3.859375 -5.4755859 7
-0.1045 3.848083 -5.4941411 7
-0.29375499 -5.1351318 -5.4199219 7
-0.28888699 -5.1405029 -5.3945308 7
-0.29888201 -5.177002 -5.4082031 7
-0.29235801 -5.1786499 -5.3779302 7
-0.30565599 -5.2221069 -5.4003911 7
-0.30574799 -5.237915 -5.3886719 7
-0.295921 -5.2327271 -5.3496089 7
-0.29435 -5.2446899 -5.3330078 7
-0.29609701 -5.263855 -5.3251948 7
-0.294525 -5.2758179 -5.3076172 7
-0.29626501 -5.2947998 -5.2988281 7
-0.29470101 -5.3067632 -5.282227 7
-0.298096 -5.329102 -5.2773442 7
-0.29487601 -5.3375239 -5.2568359 7
-0.299927 -5.3634028 -5.2568359 7
-0.303314 -5.3860469 -5.2529302 7
-0.308357 -5.4121699 -5.2529302 7
-0.31175199 -5.4346309 -5.2480469 7
-0.29432699 -5.1204219 -5.0224609 7
-0.289345 -5.1390991 -4.984375 7
-0.29628801 -5.168335 -4.9892578 7
-0.29302999 -5.1904302 -4.9560552 7
-0.28969601 -5.1980591 -4.9355469 7
-0.28643799 -5.219666 -4.9013672 7
-0.29343399 -5.2634888 -4.8935552 7
-0.29354101 -5.277832 -4.8808589 7
-0.29713401 -5.3143311 -4.8642578 7
-0.30235299 -5.3396611 -4.8632808 7
-0.30594599 -5.375977 -4.8466802 7
-0.30610701 -5.4048462 -4.8212891 7
-0.31134 -5.4301758 -4.820312 7
-0.30297899 -5.1452641 -4.641602 7
-0.30305499 -5.1590581 -4.6279302 7
-0.29427299 -5.1544189 -4.5957031 7
-0.29088601 -5.1746221 -4.5625 7
-0.28565201 -5.177063 -4.5371089 7
-0.292831 -5.2058721 -4.5419922 7
-0.29652399 -5.24054 -4.5244141 7
-0.29306799 -5.2467651 -4.5039058 7
-0.291374 -5.2564092 -4.4873052 7
-0.29499799 -5.27771 -4.4824219 7
-0.34271801 -7.7272601 -11.260399 7
-0.72062498 -16.776943 8.8271847 7
-0.138087 -2.62147 -8.1499252 7
-0.27601999 -5.6680942 -8.0356855 7
-0.39021501 -7.2058001 -6.6613288 7
-0.040352002 -2.2167671 -5.2912469 7
-0.25826299 -5.0503359 -3.373668 7
-0.113032 2.9959381 -13.331218 7
-0.081024997 4.081665 -5.478663 7
-0.122762 3.8512549 -6.0529962 7
-0.37977001 2.4479971 -19.738214 7
-0.211207 3.111778 -13.006417 7
-0.18707301 -2.837507 -10.723038 7
-0.039501999 0.35888699 -8.759984 7
-0.13608401 -2.577641 -8.6731386 7
-0.398871 -6.0148768 -11.190161 7
-0.300396 -5.6966972 -8.4067888 7
-0.060105 0.53513002 -7.1440191 7
-0.042431001 -2.0714059 -6.0022488 7
-0.28529501 -5.4573808 -7.1392059 7
-0.112752 3.903569 -5.9144092 7
-0.019476 0.64714003 -6.0634279 7
-0.023405001 -1.97727 -5.291615 7
-0.038385 -2.2229309 -5.3443189 7
0.0055049998 0.73019803 -5.331779 7
-0.015477 -1.928921 -4.7893729 7
-0.021261999 -2.112124 -4.760653 7
-0.32440299 -5.3637609 -5.721755 7
-0.49264601 -7.3402929 -5.8499079 7
-0.30354199 -5.3270869 -4.6401649 7
-0.023835 0.84469801 -4.8353 7
-0.02152 0.68544197 -4.8456912 7
-0.23846599 -5.016479 -3.3440709 7
