# .PCD v0.7 - Point Cloud Data file format
VERSION 0.7
FIELDS x y z intensity
SIZE 4 4 4 4
TYPE F F F F
COUNT 1 1 1 1
WIDTH 852
HEIGHT 1
VIEWPOINT 0 0 0 1 0 0 0
POINTS 852
DATA ascii
2.3542249 66.49884 -2.6767581 7
2.146389 60.156311 -1.719727 7
1.9942859 58.222778 -1.4580081 7
1.992744 58.776733 -1.625977 7
1.722031 51.026245 -0.48339799 7
1.489452 45.483704 3.8017581 7
1.486923 45.670715 3.7050779 7
1.487263 45.669739 3.5957029 7
1.499866 45.339417 0.37109399 7
1.379005 43.576843 3.902344 7
1.3770829 43.699463 3.8066411 7
1.376026 43.775024 3.707031 7
1.379715 43.593018 3.594727 7
1.392132 43.316895 0.61718798 7
1.383255 43.812317 0.50488299 7
1.294136 42.206116 4.1425781 7
1.296471 42.112732 4.0361328 7
1.293247 42.282349 3.9462891 7
1.294083 42.258911 3.8457029 7
1.205376 40.40387 4.295898 7
1.205173 40.427795 4.202148 7
1.134533 38.605713 4.7451172 7
1.13047 38.770569 4.6669922 7
1.1281511 38.871155 4.5830078 7
1.129795 38.825867 4.4863281 7
-0.21252801 6.0957642 70.941406 7
-0.25865901 6.5495 72.270508 7
-0.28162399 6.7808232 72.930664 7
-0.158466 9.3482056 69.201172 7
-0.154312 9.4927368 69.068359 7
-0.25043499 13.405579 71.501953 7
1.095444 36.10907 1.62207 7
1.0868109 36.401733 1.5361331 7
1.0813479 36.588989 1.450195 7
1.094601 36.161133 1.28125 7
-0.233383 5.112 64.957031 7
-0.28477901 5.3746338 66.303711 7
-0.372982 5.7260132 68.617188 7
-0.157829 8.0194092 62.818359 7
-0.151539 8.1435547 62.643555 7
-0.15963 9.3413086 62.757812 7
-0.164391 9.5065308 62.869141 7
-0.13445701 9.5297852 62.071289 7
-0.325073 -6.013 -69.109375 7
-0.35411501 -6.2495732 -69.899414 7
-0.33615899 -9.5123901 -68.873047 7
-0.23626301 4.0953369 58.989258 7
-0.282345 4.3123169 60.082031 7
-0.31935099 4.518311 60.958984 7
-0.383324 4.7782588 62.476562 7
-0.169743 6.902832 57.268555 7
-0.153809 6.9879761 56.880859 7
-0.207092 7.282166 58.134766 7
-0.185238 8.9512939 57.458008 7
-0.13976701 8.9104614 56.370117 7
-0.149979 9.0811157 56.597656 7
-0.096458003 9.0015259 55.318359 7
-0.31468201 -4.9378052 -62.004883 7
-0.39582399 -5.252502 -64.040039 7
-0.334034 -5.2763062 -62.458984 7
-0.38151899 -5.5288701 -63.640625 7
-0.45323601 -5.8408809 -65.43457 7
-0.21287499 3.3343511 53.699219 7
-0.27257201 3.544373 54.998047 7
-0.30416101 3.718323 55.68457 7
-0.356087 3.9272461 56.814453 7
-0.193771 6.133606 53.154297 7
-0.17108899 6.197021 52.65332 7
-0.218338 6.445312 53.670898 7
-0.17671999 8.6489868 52.541992 7
-0.145546 8.6549683 51.853516 7
-0.160183 8.829895 52.155273 7
-0.131161 8.8400269 51.512695 7
-0.205505 11.827759 52.716797 7
-0.179451 11.819885 52.135742 7
-0.151016 11.797668 51.504883 7
0.85916102 31.397766 5.7089839 7
0.85689503 31.465759 5.6435552 7
0.85855502 31.440735 5.5644531 7
0.85726899 31.484985 5.4951172 7
-0.27830499 -3.8851931 -55.198242 7
-0.31771901 -4.08252 -56.085938 7
-0.349758 -4.2719121 -56.805664 7
-0.31174499 -4.3422241 -55.919922 7
-0.347359 -4.540833 -56.720703 7
-0.39979199 -4.7745361 -57.904297 7
-0.19328301 -7.19696 -52.771484 7
-0.266258 -7.5491939 -54.40625 7
-0.25832 -7.6547241 -54.202148 7
-0.213348 -7.6413569 -53.15918 7
-0.345581 2.9862061 51.917969 7
-0.35704401 3.1196289 52.144531 7
-0.24462099 5.5189819 49.783203 7
-0.206753 5.5458369 49.020508 7
-0.20681 5.6591191 49.013672 7
-0.18265501 5.7138062 48.523438 7
-0.164341 5.7805791 48.151367 7
-0.150406 5.8565059 47.865234 7
-0.119675 6.1057129 47.225586 7
-0.18581 8.2937622 48.321289 7
-0.12542 8.300293 47.095703 7
-0.19013201 11.319885 47.923828 7
-0.152733 11.250977 47.169922 7
-0.121716 11.209412 46.541016 7
-0.070414998 11.065491 45.517578 7
0.81775302 29.806824 2.5068359 7
0.81040603 29.972961 2.4433589 7
0.80575198 30.080383 2.375 7
0.803505 30.134827 2.3056641 7
-0.35089099 -3.2755129 -52.172852 7
-0.38487601 -3.4472051 -52.876953 7
-0.427452 -3.6343379 -53.761719 7
-0.24101301 -6.487854 -49.426758 7
-0.234272 -6.5887451 -49.266602 7
-0.293919 -6.8729858 -50.490234 7
-0.32204399 -7.3200068 -51.014648 7
-0.27085501 -7.2904048 -49.925781 7
-0.22466999 -7.2705688 -48.941406 7
-0.237381 -7.4273682 -49.183594 7
-0.166729 -7.3250728 -47.691406 7
-0.165169 7.1126099 44.723633 7
-0.164314 7.2128301 44.694336 7
-0.153133 7.2808838 44.475586 7
-0.13913301 7.3388672 44.205078 7
-0.132015 7.4179692 44.061523 7
-0.115913 7.5678101 43.738281 7
-0.191036 10.819519 44.618164 7
-0.15242 10.745117 43.895508 7
-0.122337 10.807007 43.305664 7
0.73289102 28.736633 6.047852 7
0.73131901 28.781738 5.984375 7
0.73266602 28.769226 5.914062 7
0.72759598 28.883667 5.8623052 7
-0.17859299 -1.8239141 -44.155273 7
-0.21341699 -1.959595 -44.81543 7
-0.249458 -2.099731 -45.500977 7
-0.28369099 -2.2412109 -46.150391 7
-0.326141 -2.3937991 -46.957031 7
-0.37558699 -2.5571899 -47.896484 7
-0.41470301 -2.7138059 -48.635742 7
-0.15419 -5.0739751 -43.336914 7
-0.18088201 -5.237915 -43.829102 7
-0.16947199 -5.3181758 -43.59668 7
-0.203491 -5.5023189 -44.227539 7
-0.245483 -6.7929082 -44.824219 7
-0.194405 -6.7556758 -43.836914 7
-0.208023 -6.901001 -44.075195 7
-0.190502 -6.9560552 -43.723633 7
-0.080002002 7.0357671 39.661133 7
-0.072783999 7.1948848 39.513672 7
-0.16798399 10.225708 40.626953 7
-0.14740001 10.229004 40.264648 7
-0.10215 10.212463 39.470703 7
-0.19368701 -1.18927 -40.84375 7
-0.212311 -1.298767 -41.167969 7
-0.24283201 -1.416931 -41.701172 7
-0.26839799 -1.534058 -42.146484 7
-0.29859501 -1.656799 -42.675781 7
-0.33805501 -1.7886961 -43.366211 7
-0.153339 -4.3754878 -39.826172 7
-0.16622899 -4.5938721 -40.025391 7
-0.20247699 -4.7636719 -40.647461 7
-0.235168 -6.520813 -40.938477 7
-0.191589 -6.5001831 -40.160156 7
-0.163597 -6.5196528 -39.65332 7
-0.18532901 -6.677002 -40.012695 7
-0.158318 -6.6962891 -39.523438 7
-0.088402003 6.4703979 37.076172 7
-0.109463 6.6159058 37.392578 7
-0.084716998 6.6291499 36.994141 7
-0.107235 6.7805181 37.333984 7
-0.148701 9.7575073 37.447266 7
-0.14118201 9.8116465 37.311523 7
-0.116856 9.7935181 36.916016 7
-0.103497 9.8208008 36.689453 7
-0.101089 9.8950195 36.634766 7
-0.19268399 -0.236816 -35.442383 7
-0.21200199 -0.32672101 -35.739258 7
-0.230965 -0.41796899 -36.030273 7
-0.254417 -0.51147503 -36.391602 7
-0.185326 -3.973022 -36.868164 7
-0.212322 -6.2741089 -36.930664 7
-0.181343 -6.28125 -36.419922 7
-0.159058 -6.3092651 -36.046875 7
-0.184937 -6.467957 -36.44043 7
-0.153946 -6.4703979 -35.929688 7
-0.34477201 -9.8046265 -38.270508 7
-0.34569499 -9.9006958 -38.257812 7
-0.293751 0.68396002 37.660156 7
-0.151638 3.318481 35.506836 7
-0.140312 3.382751 35.335938 7
-0.137363 3.45874 35.288086 7
-0.097961001 6.1541138 34.410156 7
-0.087852001 6.2047729 34.251953 7
-0.064636 6.21875 33.905273 7
-0.075153001 6.3252559 34.045898 7
-0.069412 6.386292 33.951172 7
-0.15595201 9.425415 34.637695 7
-0.13912199 9.4362793 34.380859 7
-0.120708 9.4394531 34.099609 7
-0.097946003 9.423584 33.758789 7
-0.099724002 9.5082397 33.763672 7
-0.31358299 -0.52630597 -36.484375 7
-0.17380901 -3.2598879 -34.163086 7
-0.193443 -3.455322 -34.439453 7
-0.222984 -6.0344238 -34.472656 7
-0.194401 -6.0454102 -34.032227 7
-0.18290301 -6.0985718 -33.844727 7
-0.197823 -6.2200322 -34.048828 7
-0.176228 -6.245667 -33.711914 7
-0.35448501 -9.5145874 -35.645508 7
-0.157524 3.1162109 33.507812 7
-0.092724003 5.9030151 32.298828 7
-0.069714002 5.915771 31.976562 7
-0.150536 9.0404663 32.475586 7
-0.151604 9.1188955 32.47168 7
-0.135818 9.1307373 32.243164 7
-0.119602 9.1397095 32.007812 7
-0.106342 9.159729 31.813477 7
-0.20976301 -0.077209003 -34.928711 7
-0.212952 -0.162781 -34.975586 7
-0.229305 -0.25006101 -35.219727 7
-0.25417301 -0.33978301 -35.59375 7
-0.280972 -0.43170199 -35.995117 7
-0.27222401 0.25433299 -31.557617 7
-0.27284199 0.175964 -31.564453 7
-0.128071 -3.0379641 -30.844727 7
-0.122318 -3.1057739 -30.755859 7
-0.131237 -3.1932981 -30.869141 7
-0.097511001 -3.2957759 -30.383789 7
-0.089663997 -3.358459 -30.265625 7
-0.17082199 -5.76825 -31 7
-0.171951 -5.922791 -30.984375 7
-0.384716 -9.1529541 -33.200195 7
-0.38321701 -9.2281494 -33.15625 7
-0.35981399 -9.2234497 -32.818359 7
-0.34357101 -9.2436523 -32.577148 7
-0.168163 2.990356 31.367188 7
-0.095787004 5.570435 30.133789 7
-0.065567002 5.5636601 29.742188 7
-0.132469 8.6837769 29.950195 7
-0.145897 8.8026123 30.097656 7
-0.133018 8.8217163 29.919922 7
-0.121506 8.8455811 29.759766 7
-0.107269 8.8583374 29.567383 7
0.478825 22.19928 6.9570308 7
0.47681001 22.240295 6.9121089 7
0.479702 22.231384 6.797852 7
0.47723401 22.278259 6.7548828 7
0.52882397 22.226318 3.514648 7
0.52375001 22.300842 3.467773 7
0.51521701 22.421692 3.425781 7
0.50625598 22.548279 3.382812 7
0.51330602 22.459656 3.3222661 7
0.51733398 22.411499 3.265625 7
0.515293 22.44458 3.214844 7
-0.121468 -3.5800779 -28.457031 7
-0.105824 -3.6251221 -28.246094 7
-0.096931003 -3.680115 -28.121094 7
-0.094345003 -3.7450559 -28.078125 7
-0.089061998 -3.8052371 -28 7
-0.17716999 -5.375977 -28.874023 7
-0.196835 -5.563416 -29.094727 7
-0.17622399 -5.585999 -28.817383 7
-0.40165699 -8.8692627 -30.957031 7
-0.391449 -8.9089966 -30.806641 7
-0.364223 -8.9631958 -30.421875 7
-0.146328 2.5033569 29.266602 7
-0.101749 5.4821782 28.380859 7
-0.136353 8.5897217 28.097656 7
-0.124577 8.609375 27.944336 7
-0.115219 8.6375122 27.818359 7
-0.27270901 0.46447799 -30.717773 7
-0.163258 -4.9624019 -26.536133 7
-0.142014 -4.9821172 -26.271484 7
-0.38043201 -8.4484253 -28.317383 7
-0.37961999 -8.5147095 -28.28418 7
-0.354141 -8.5668325 -27.947266 7
-1.49297 -39.99646 11.860352 7
-1.495319 -39.994202 11.960938 7
-1.487812 -39.884338 12.033203 7
-1.47097 -39.673279 12.077148 7
-1.43494 -39.253723 12.064453 7
-1.4040951 -38.891113 12.063477 7
-0.072590001 5.0496831 26.216797 7
-0.067257002 5.096436 26.148438 7
-0.076862 5.236145 26.233398 7
-0.073601 5.2871699 26.185547 7
-0.125214 8.0291748 26.132812 7
-0.12816601 8.0983276 26.147461 7
-0.14719 8.2244263 26.333008 7
-0.14028899 8.2592773 26.242188 7
-0.12614401 8.2677612 26.074219 7
-0.11924 8.3017578 25.982422 7
-0.146202 -4.530273 -24.488281 7
-0.132275 -4.563416 -24.323242 7
-0.13602801 -4.630981 -24.352539 7
-0.14135 -4.7019649 -24.398438 7
-0.157719 -4.8563228 -24.552734 7
-0.15627301 -4.914062 -24.524414 7
-0.153786 -4.9691768 -24.483398 7
-0.39022401 -8.2264404 -26.320312 7
-0.119392 1.995056 25.46875 7
-0.128178 2.059937 25.557617 7
-0.123051 2.1122439 25.5 7
-0.125172 2.1712649 25.518555 7
-0.13006601 2.2331541 25.566406 7
-0.081490003 4.8036499 24.738281 7
-0.078587003 4.8526001 24.697266 7
-0.092876002 4.9388428 24.834961 7
-0.085533001 4.9781489 24.749023 7
-0.077643998 5.0162959 24.658203 7
-0.086933002 5.0922852 24.743164 7
-0.142967 8.0210571 24.617188 7
-0.132313 8.0393677 24.494141 7
-0.124969 8.0686646 24.404297 7
-0.120953 8.1091309 24.345703 7
-0.124672 8.1768188 24.365234 7
-0.161057 1.474731 -24.050781 7
-0.16119 1.414062 -24.053711 7
-0.173557 1.360474 -24.192383 7
-0.182739 1.304626 -24.293945 7
-0.20096999 1.25293 -24.495117 7
-0.216545 1.19928 -24.666992 7
-0.127483 -4.4822998 -22.558594 7
-0.142662 -4.5681152 -22.702148 7
-0.142845 -4.6811519 -22.680664 7
-0.14017899 -4.7315669 -22.639648 7
-0.352631 -8.0578003 -23.996094 7
-1.140427 -31.397339 10.882812 7
-1.097576 -30.968384 10.831055 7
-1.069092 -29.417542 13.996094 7
-1.06691 -29.365906 14.057617 7
-0.118759 1.7683721 23.978516 7
-0.121021 1.823669 23.99707 7
-0.116772 1.873474 23.952148 7
-0.129593 1.991516 24.072266 7
-0.080173001 4.5070801 23.276367 7
-0.079452999 4.5575562 23.260742 7
-0.067509003 4.5849609 23.135742 7
-0.063842997 4.6289058 23.09082 7
-0.087952003 4.7305298 23.313477 7
-0.073054999 4.7510381 23.160156 7
-0.064064004 4.7834468 23.0625 7
-0.133038 7.7513428 22.996094 7
-0.138779 7.8222661 23.032227 7
-0.127445 7.8353882 22.910156 7
-0.119061 7.8578491 22.81543 7
-0.112434 7.8860469 22.736328 7
-0.134525 -4.2146001 -21.167969 7
-0.136997 -4.2718511 -21.180664 7
-0.133541 -4.3180542 -21.135742 7
-0.12653001 -4.3573608 -21.057617 7
-0.156269 -4.4666748 -21.331055 7
-0.376019 -7.6821289 -22.646484 7
-0.37972999 -7.7489009 -22.660156 7
-0.36918601 -7.7728271 -22.541992 7
-0.35981801 -7.799561 -22.43457 7
-0.36114901 -7.8592529 -22.427734 7
-0.37675101 -7.9634399 -22.552734 7
-0.98584002 -26.781555 13.464844 7
-0.97720701 -26.67865 13.494141 7
-0.975483 -26.634094 13.550781 7
-0.96559501 -26.520569 13.574219 7
-0.96825802 -26.512756 13.646484 7
-0.96213901 -26.430664 13.685547 7
-0.95161802 -26.312012 13.706055 7
-0.13148899 1.621033 22.8125 7
-0.12825 1.669006 22.77832 7
-0.12806299 1.770081 22.770508 7
-0.136757 1.827332 22.847656 7
-0.094558999 4.4182129 22.131836 7
-0.14196 1.868896 -20.75293 7
-0.15354501 1.825195 -20.867188 7
-0.16393299 1.779785 -20.969727 7
-0.169487 1.730774 -21.025391 7
-0.181679 1.686035 -21.145508 7
-0.169117 1.623291 -21.027344 7
-0.14152101 -4.2185669 -19.796875 7
-0.144142 -4.2729492 -19.80957 7
-0.143608 -4.3212891 -19.792969 7
-0.140553 -4.3651118 -19.754883 7
-0.354202 -7.3629761 -20.917969 7
-0.37458399 -7.4741821 -21.075195 7
-0.37471399 -7.526917 -21.057617 7
-0.36661899 -7.5552979 -20.96875 7
-0.35853201 -7.5828862 -20.878906 7
-0.35549501 -7.6255488 -20.833008 7
-0.86178601 -25.144226 10.100586 7
-0.86394501 -25.139893 10.166016 7
-0.13512801 1.291382 21.583008 7
-0.13369 1.338135 21.567383 7
-0.124096 1.384827 21.483398 7
-0.122005 1.430847 21.461914 7
-0.121239 1.477783 21.453125 7
-0.119144 1.5239871 21.432617 7
-0.119053 1.571167 21.429688 7
-0.073959 4.171021 20.711914 7
-0.064533003 4.198853 20.62207 7
-0.066425003 4.2480469 20.628906 7
-0.059654001 4.2808232 20.5625 7
-0.076187 4.3579102 20.694336 7
-0.06543 4.38269 20.59375 7
-0.062664002 4.422668 20.560547 7
-0.061889999 4.4667358 20.544922 7
-0.127033 7.3970342 20.306641 7
-0.128227 7.4459229 20.299805 7
-0.117485 7.4561162 20.195312 7
-0.115368 7.4936519 20.161133 7
-0.198654 1.942871 -19.895508 7
-0.091399997 -1.201721 -18.569336 7
-0.14461499 -3.881897 -18.643555 7
-0.13869099 -3.918762 -18.583008 7
-0.151585 -4.0343628 -18.672852 7
-0.153023 -4.0836182 -18.673828 7
-0.150444 -4.125916 -18.640625 7
-0.14317299 -4.1594238 -18.568359 7
-0.39376399 -7.3893428 -19.850586 7
-0.38114899 -7.4023442 -19.728516 7
-0.37054399 -7.4202881 -19.623047 7
-0.371346 -7.4714971 -19.610352 7
-0.362755 -7.4951172 -19.521484 7
-0.39040399 -7.625793 -19.727539 7
-0.79935098 -23.183777 9.7841797 7
-0.78698701 -23.045532 9.8583984 7
-0.066298999 -0.86157203 -17.244141 7
-0.070598997 -0.90679902 -17.276367 7
-0.110374 -3.563782 -17.236328 7
-0.121098 -3.624084 -17.3125 7
-0.122601 -3.670105 -17.31543 7
-0.124104 -3.7163701 -17.318359 7
-0.119934 -3.753052 -17.275391 7
-0.114349 -3.7875371 -17.220703 7
-0.36705399 -7.0795898 -18.364258 7
-0.374302 -7.1456299 -18.402344 7
-0.36446401 -7.164062 -18.30957 7
-0.361031 -7.199646 -18.263672 7
-0.35476699 -7.2275391 -18.197266 7
-0.357021 -7.2796021 -18.197266 7
-0.470608 -8.963562 -18.461914 7
-0.46362701 -8.9855957 -18.386719 7
-0.46094501 -9.0219116 -18.34375 7
-0.48616001 -9.2004995 -18.484375 7
-0.16275001 2.552063 -17.171875 7
-0.154213 2.498596 -17.108398 7
-0.126251 2.4245 -16.890625 7
-0.127781 2.3825679 -16.90625 7
-0.13435 2.3452151 -16.963867 7
-0.142353 2.3093259 -17.033203 7
-0.148212 2.270813 -17.084961 7
-0.175751 2.2085569 -17.313477 7
-0.078929998 -0.64990199 -16.317383 7
-0.076743998 -0.69073498 -16.297852 7
-0.073794998 -0.73114002 -16.273438 7
-0.068607002 -0.77081299 -16.230469 7
-0.071650997 -0.81292701 -16.251953 7
-0.076964997 -0.85601801 -16.290039 7
-0.088257 -0.90203899 -16.375 7
-0.077068001 -0.93884301 -16.286133 7
-0.126404 -3.5510859 -16.290039 7
-0.115971 -3.5758669 -16.202148 7
-0.118317 -3.620605 -16.209961 7
-0.14174999 -3.740479 -16.368164 7
-0.13357501 -3.768616 -16.297852 7
-0.349998 -7.109436 -16.958008 7
-0.46291399 -8.6542969 -17.206055 7
-0.472855 -8.7297974 -17.25293 7
-0.47148499 -8.7684937 -17.220703 7
-0.46408799 -8.7871704 -17.147461 7
-0.46573299 -8.8355103 -17.137695 7
-0.46209699 -8.866272 -17.09082 7
-0.47128701 -8.9402466 -17.132812 7
-0.58291203 -17.229492 12.262695 7
-0.57907498 -17.179199 12.287109 7
-0.57915097 -17.153381 12.328125 7
-0.57844502 -17.12262 12.365234 7
-0.57853699 -17.096741 12.405273 7
-0.57625997 -17.055786 12.436523 7
-0.15924101 2.5344851 -16.095703 7
-0.155525 2.4885249 -16.072266 7
-0.17842899 2.470825 -16.250977 7
-0.177761 2.427979 -16.25 7
-0.179371 2.3873291 -16.267578 7
-0.17108899 2.336853 -16.208984 7
-0.146832 2.270874 -16.03125 7
-0.110439 -3.5244751 -15.158203 7
-0.139107 -3.6078489 -15.354492 7
-0.122509 -3.620667 -15.227539 7
-0.124176 -3.662231 -15.230469 7
-0.12902801 -3.708679 -15.254883 7
-0.143402 -3.7709351 -15.347656 7
-0.14507701 -3.8122561 -15.348633 7
-0.348961 -6.7536621 -15.926758 7
-0.34908301 -6.7944341 -15.911133 7
-0.34122801 -6.8132319 -15.84082 7
-0.33576599 -6.8383789 -15.787109 7
-0.33509099 -6.8762822 -15.764648 7
-0.33599901 -6.9188838 -15.754883 7
-0.349659 -6.9963989 -15.828125 7
-0.058738999 -0.46362299 -14.355469 7
-0.059615999 -0.50079298 -14.360352 7
-0.057994999 -0.53692597 -14.347656 7
-0.059703998 -0.57440197 -14.358398 7
-0.063927002 -0.61248797 -14.385742 7
-0.102478 -3.219116 -14.291016 7
-0.112591 -3.2701421 -14.350586 7
-0.11433 -3.309021 -14.352539 7
-0.106892 -3.3348391 -14.293945 7
-0.108635 -3.3739009 -14.297852 7
-0.119576 -3.427002 -14.364258 7
-0.129684 -3.4789431 -14.423828 7
-0.121395 -3.5032351 -14.359375 7
-0.124825 -3.5449221 -14.37207 7
-0.124905 -3.5819089 -14.364258 7
-0.55892599 -16.632935 8.8232422 7
-0.53735399 -16.465454 8.8427734 7
-0.52710301 -16.366882 8.890625 7
-0.12548099 2.8327031 -13.962891 7
-0.12302 2.7927251 -13.952148 7
-0.123096 2.756042 -13.958984 7
-0.124016 2.7202151 -13.970703 7
-0.12578601 2.685425 -13.988281 7
-0.106232 -3.238708 -13.496094 7
-0.099276997 -3.2631841 -13.443359 7
-0.119576 -3.327148 -13.56543 7
-0.12756 -3.3738401 -13.609375 7
-0.117954 -3.3943479 -13.538086 7
-0.117149 -3.4281621 -13.524414 7
-0.123386 -3.4721069 -13.555664 7
-0.34243 -6.4309692 -14.040039 7
-0.345276 -6.5101318 -14.025391 7
-0.35067001 -6.5596919 -14.041992 7
-0.34285399 -6.5749512 -13.978516 7
-0.33514801 -6.6256709 -13.897461 7
-0.34239599 -6.716248 -13.90918 7
-0.119434 2.95752 -13.102539 7
-0.115948 2.9182739 -13.086914 7
-0.166218 2.733582 -13.450195 7
-0.442669 -8.0787354 -12.985352 7
-0.45391801 -8.1467896 -13.026367 7
-0.44291699 -8.1456299 -12.945312 7
-0.44582 -8.1877441 -12.941406 7
-0.435734 -8.1893311 -12.867188 7
-0.433994 -8.21698 -12.837891 7
-0.43411601 -8.2503052 -12.818359 7
-0.03706 -0.26647899 -12.039062 7
-0.042815998 -0.300598 -12.066406 7
-0.076126002 -2.886658 -11.913086 7
-0.078129001 -2.9202881 -11.917969 7
-0.088863 -2.96521 -11.97168 7
-0.075343996 -2.978394 -11.885742 7
-0.076384999 -3.010437 -11.883789 7
-0.076453999 -3.041687 -11.876953 7
-0.089134 -3.089783 -11.942383 7
-0.098892003 -3.1342161 -11.992188 7
-0.095077999 -3.160156 -11.961914 7
-0.096115001 -3.1925049 -11.958984 7
-0.316605 -6.3890381 -12.140625 7
-0.040619001 -0.165039 -11.457031 7
-0.040656999 -0.19494601 -11.456055 7
-0.047782999 -0.225769 -11.495117 7
-0.050854001 -0.256042 -11.511719 7
-0.047848001 -0.28564501 -11.494141 7
-0.044861 -0.31518599 -11.475586 7
-0.076560996 -2.90271 -11.286133 7
-0.079677999 -2.936096 -11.295898 7
-0.075676002 -2.9603269 -11.266602 7
-0.096035004 -3.016907 -11.371094 7
-0.099140003 -3.0506589 -11.379883 7
-0.094131 -3.0736079 -11.344727 7
-0.094204001 -3.1030271 -11.336914 7
-0.095279999 -3.1343379 -11.334961 7
-0.107521 -3.180969 -11.394531 7
-0.323284 -6.2359619 -11.510742 7
-0.32033199 -6.2584229 -11.480469 7
-0.32450101 -6.2985229 -11.485352 7
-0.317471 -6.3106689 -11.435547 7
-0.31757 -6.3405762 -11.419922 7
-0.426144 -7.9360962 -11.180664 7
-0.41809499 -7.9405522 -11.123047 7
-0.422279 -7.9822388 -11.124023 7
-0.045573998 -0.075378001 -11.486328 7
-0.040580999 -0.13519301 -11.457031 7
-0.029655 0.111267 -10.223633 7
-0.026493 0.083313003 -10.206055 7
-0.026562 0.05542 -10.206055 7
-0.024479 0.027100001 -10.195312 7
-0.055656001 -2.791687 -10.554688 7
-0.320618 -6.0969238 -10.791016 7
-0.30895999 -6.0964971 -10.720703 7
-0.30477899 -6.1143188 -10.685547 7
-0.30924201 -6.1812739 -10.676758 7
-0.31155401 -6.2426152 -10.65625 7
-0.32235301 -6.297729 -10.692383 7
-0.327797 -6.339294 -10.703125 7
-0.33002499 -6.3728638 -10.697266 7
-0.098182999 3.3670039 -10.169922 7
-0.095016003 3.3344121 -10.161133 7
-0.092926003 3.3036499 -10.157227 7
-0.094051003 3.2776489 -10.169922 7
-0.091953002 3.246582 -10.166016 7
-0.089850999 3.215637 -10.164062 7
-0.046799 -2.5758669 -10.008789 7
-0.050190002 -2.6065061 -10.020508 7
-0.052467 -2.6356201 -10.024414 7
-0.056968998 -2.66748 -10.041016 7
-0.057034001 -2.6943359 -10.035156 7
-0.053757001 -2.716675 -10.010742 7
-0.054924 -2.744324 -10.008789 7
-0.056090999 -2.7724609 -10.008789 7
-0.065040998 -2.8101809 -10.045898 7
-0.069553003 -2.8425291 -10.0625 7
-0.074065998 -2.8747561 -10.077148 7
-0.099097997 3.4898679 -9.5820312 7
-0.092410997 3.4533081 -9.5566406 7
-0.089103997 3.4216919 -9.5488281 7
-0.090267003 3.3969729 -9.5625 7
-0.091434002 3.372375 -9.5751953 7
-0.094844997 3.3509519 -9.5996094 7
-0.094887003 3.324585 -9.6074219 7
-0.096058004 3.299438 -9.6210938 7
-0.102829 3.2827761 -9.6611328 7
-0.116314 3.2753911 -9.7353516 7
-0.120834 3.2548831 -9.765625 7
-0.119774 3.2268071 -9.765625 7
-0.02478 0.042785998 -10.227539 7
-0.032009002 0.10022 -9.2333984 7
-0.033241 0.074646004 -9.2392578 7
-0.025096999 0.048645001 -9.2001953 7
-0.025157999 0.023314999 -9.1992188 7
-0.059696 -2.5822141 -9.5625 7
-0.058642998 -2.631897 -9.5449219 7
-0.058758002 -2.6824341 -9.5302734 7
-0.061138 -2.710815 -9.5351562 7
-0.076328002 -2.7802119 -9.59375 7
-0.072913997 -2.8013921 -9.5712891 7
-0.071854003 -2.851135 -9.5527344 7
-0.074234001 -2.879272 -9.5556641 7
-0.075451002 -2.90625 -9.5546885 7
-0.29780599 -5.7796021 -9.5283203 7
-0.29556301 -5.7997441 -9.5048828 7
-0.295654 -5.8251338 -9.4912109 7
-0.31321001 -5.8917241 -9.5527344 7
-0.31096601 -5.911438 -9.5273438 7
-0.3064 -5.9259028 -9.4931641 7
-0.30299401 -5.9429321 -9.4638672 7
-0.30658001 -5.9763789 -9.4648438 7
-0.30666 -6.0018311 -9.4511719 7
-0.300926 -6.012939 -9.4121094 7
-0.29752299 -6.0292969 -9.3808594 7
-0.30694199 -6.077148 -9.4072266 7
-0.100029 3.513 -9.0537109 7
-0.093062997 3.477356 -9.0292969 7
-0.094276004 3.453979 -9.0429688 7
-0.10133 3.4393311 -9.0839844 7
-0.096698999 3.407043 -9.0703115 7
-0.094402 3.37854 -9.0664062 7
-0.102623 3.3652339 -9.1132812 7
-0.110851 3.3519289 -9.1601562 7
-0.124916 3.3470459 -9.2324219 7
-0.12146 3.316406 -9.2236328 7
-0.114498 3.2810061 -9.1982422 7
-0.108681 3.2471919 -9.1787109 7
-0.104057 3.2149661 -9.1650391 7
-0.035034001 0.305664 -9.2480469 7
-0.024559001 0.278687 -9.1962891 7
-0.01524 0.251831 -9.1513672 7
-0.021152001 0.227173 -9.1816406 7
-0.022391999 0.201599 -9.1875 7
-0.021278 0.176025 -9.1816406 7
-0.021336 0.15051299 -9.1826172 7
-0.02375 0.125488 -9.1933594 7
-0.064444996 -2.5705571 -9.0947266 7
-0.069339998 -2.6005859 -9.1103516 7
-0.069397002 -2.624939 -9.1044922 7
-0.071873002 -2.652283 -9.109375 7
-0.074348003 -2.6795039 -9.1142578 7
-0.082886003 -2.714294 -9.1464844 7
-0.079308003 -2.734436 -9.1230469 7
-0.078156002 -2.757385 -9.1113281 7
-0.083053999 -2.7874761 -9.1259766 7
-0.084324002 -2.8136599 -9.125 7
-0.075911999 -2.827271 -9.0791016 7
-0.080811001 -2.8577881 -9.09375 7
-0.304176 -5.8095088 -8.9414062 7
-0.29576099 -5.8135381 -8.8925781 7
-0.28979099 -5.8230591 -8.8535156 7
-0.29115701 -5.8738399 -8.8320312 7
-0.30339101 -5.9265752 -8.8671885 7
-0.29013401 -5.9182739 -8.7978516 7
-0.30365801 -5.9979248 -8.8232422 7
-0.29523501 -6.0012212 -8.7744141 7
-0.30384099 -6.0454712 -8.7949219 7
-0.024746001 0.313416 -9.2626953 7
-0.025986001 0.288818 -9.2695312 7
-0.01997 0.263428 -9.2412109 7
-0.020004001 0.23876999 -9.2412109 7
-0.022442 0.21435501 -9.2519531 7
-0.022465 0.189697 -9.2529297 7
-0.024909999 0.16491701 -9.265625 7
-0.024937 0.14032 -9.265625 7
-0.018928999 0.115295 -9.2363281 7
-0.022583 0.09082 -9.2529297 7
-0.022667 0.016541 -9.2539062 7
-0.014973 0.067993 -8.2353516 7
-0.38565099 -7.3717041 -7.6191411 7
-0.39083099 -7.4072881 -7.6191411 7
-0.38711199 -7.4172359 -7.5878911 7
-0.384655 -7.4307861 -7.5605469 7
-0.38602099 -7.4550171 -7.547852 7
-0.38358301 -7.4685669 -7.5205078 7
-0.38368201 -7.4891968 -7.5019531 7
-0.388859 -7.5249629 -7.5029302 7
-0.39532501 -7.5640869 -7.5068359 7
-0.40432 -7.611084 -7.5195308 7
-0.40696299 -7.6390381 -7.507812 7
-0.412159 -7.6748662 -7.5068359 7
-0.0054970002 0.29925501 -8.1923828 7
-0.008099 0.27642801 -8.2041016 7
-0.0081519997 0.25323501 -8.2050781 7
-0.018639 0.13793901 -8.2519531 7
-0.013592 0.114258 -8.2294922 7
-0.019145999 0.31152299 -7.851562 7
-0.020519 0.28942901 -7.8574219 7
-0.020569 0.26690701 -7.858398 7
-0.275105 -5.4484859 -7.3398442 7
-0.27792701 -5.474792 -7.3369141 7
-0.28213099 -5.504272 -7.3378911 7
-0.27809101 -5.5151982 -7.3095698 7
-0.28228801 -5.5447998 -7.311523 7
-0.28098699 -5.5618901 -7.2939448 7
-0.28795201 -5.5975952 -7.3037109 7
-0.28115499 -5.6020508 -7.266602 7
-0.27297199 -5.6031489 -7.2246089 7
-0.27717999 -5.6326289 -7.2246089 7
-0.278629 -5.6557012 -7.2158198 7
-0.27320901 -5.663147 -7.1845698 7
-0.27879301 -5.6958008 -7.1894531 7
-0.28025401 -5.7188721 -7.179688 7
-0.283077 -5.7452388 -7.1757808 7
-0.37434801 -7.2783809 -6.374023 7
-0.37582001 -7.3002319 -6.360352 7
-0.371777 -7.306519 -6.3300781 7
-0.37186801 -7.3242192 -6.3125 7
-0.28016999 -5.4772949 -6.867188 7
-0.278824 -5.4934082 -6.8496089 7
-0.28319201 -5.5218511 -6.8496089 7
-0.280476 -5.5535889 -6.813477 7
-0.27626801 -5.5630488 -6.7861328 7
-0.27777499 -5.585144 -6.7773442 7
-0.27785501 -5.604126 -6.764648 7
-0.277931 -5.6231079 -6.750977 7
-0.28086099 -5.64856 -6.7460942 7
-0.28094101 -5.6671748 -6.7324219 7
-0.28244001 -5.6894531 -6.7236328 7
-0.29394901 -5.7348628 -6.7480469 7
-0.28782299 -5.4432368 -6.4580078 7
-0.28492701 -5.4549561 -6.436523 7
-0.28351599 -5.469666 -6.4179692 7
-0.28507599 -5.4912109 -6.4101558 7
-0.28663301 -5.5125122 -6.4003911 7
-0.27929699 -5.5137939 -6.3642578 7
-0.28084901 -5.5349731 -6.3554692 7
-0.27944601 -5.5496831 -6.3378911 7
-0.28396201 -5.5779419 -6.3388672 7
-0.28849 -5.605835 -6.3388672 7
-0.27966699 -5.6031489 -6.297852 7
-0.29309499 -5.6514888 -6.3251948 7
-0.29761899 -5.6798711 -6.3261719 7
-0.29175901 -5.6838989 -6.2939448 7
-0.29628801 -5.7119751 -6.2939448 7
-0.29784 -5.7332149 -6.2851558 7
-0.063106999 3.8258059 -6.0898442 7
-0.069057003 3.8178711 -6.1201172 7
-0.069084004 3.7996221 -6.1289058 7
-0.060206998 3.7662351 -6.1064448 7
-0.066161998 3.7581179 -6.1357422 7
-0.27450901 -5.446228 -5.5 7
-0.27138901 -5.4550781 -5.4785161 7
-0.268269 -5.4637451 -5.4560552 7
-0.27154201 -5.4865112 -5.4511719 7
-0.282772 -5.52771 -5.469727 7
-0.28602999 -5.5507202 -5.4638672 7
-0.28928801 -5.573853 -5.4599609 7
-0.270596 -5.1525879 -5.295898 7
-0.27066401 -5.168335 -5.2841802 7
-0.25585601 -5.1520391 -5.2314448 7
-0.26915401 -5.1956182 -5.2548828 7
-0.26260799 -5.1968379 -5.2246089 7
-0.262676 -5.2119141 -5.2119141 7
-0.27100399 -5.2450562 -5.2216802 7
-0.27107599 -5.260376 -5.2089839 7
-0.282722 -5.300354 -5.226562 7
-0.276173 -5.3016362 -5.1972661 7
-0.26466799 -5.2918091 -5.1542969 7
-0.269768 -5.332458 -5.140625 7
-0.26982901 -5.3474121 -5.1279302 7
-0.26996601 -5.3777471 -5.1025391 7
-0.271694 -5.3964229 -5.094727 7
-0.26845601 -5.403625 -5.0712891 7
-0.26852801 -5.4188228 -5.0595698 7
-0.25981501 -5.1248169 -4.8632808 7
-0.25308201 -5.1392822 -4.8222661 7
-0.25486001 -5.1569819 -4.8125 7
-0.26178399 -5.1859131 -4.8173828 7
-0.26013601 -5.1967158 -4.8007808 7
-0.26363 -5.2183838 -4.797852 7
-0.26712 -5.2398071 -4.7929692 7
-0.25692001 -5.2319341 -4.7548828 7
-0.25705001 -5.2601929 -4.7294922 7
-0.258827 -5.2781978 -4.7216802 7
-0.258892 -5.2922969 -4.7089839 7
-0.26237899 -5.3138428 -4.704102 7
-0.26415601 -5.331665 -4.6962891 7
-0.267658 -5.3530269 -4.6904302 7
-0.26944 -5.370667 -4.6816411 7
-0.266087 -5.3773799 -4.6611328 7
-0.278137 -5.4179082 -4.6777339 7
-0.27478001 -5.4241939 -4.65625 7
-0.047065001 -3.0555861 -12.353624 7
0.019628 -2.6568911 -9.3143606 7
-0.053975999 -2.394289 -7.332973 7
-0.35422501 -5.8429089 -8.8177891 7
-0.026730999 -2.2246599 -6.0400839 7
-0.29973799 -5.607933 -6.972342 7
0.001625 -2.084131 -4.9679809 7
0.026333001 -1.9702981 -4.0992422 7
-0.265275 -5.0090609 -3.46315 7
-0.037338998 -0.29123801 -12.265127 7
-0.029446 -3.05426 -11.869246 7
-0.27903101 2.328275 -17.504339 7
-0.41038501 1.927873 -20.458712 7
-0.090438999 -2.679178 -9.2465715 7
-0.42882901 -6.5609798 -13.531376 7
-0.099554002 3.329109 -9.1833506 7
-0.055638 -2.3725259 -7.6291318 7
-0.379464 -6.2125659 -10.817438 7
-0.024402 -2.186599 -6.4252529 7
-0.34035099 -5.81565 -8.8865376 7
-0.0197 -2.128756 -5.7323451 7
-0.26607201 -5.523159 -6.841413 7
-0.25182301 -5.6801028 -6.5324101 7
-0.004646 -2.0306909 -5.0809288 7
0.00046800001 -1.941393 -4.6345692 7
-0.28900501 -5.27984 -5.3712502 7
-0.274252 -5.3763618 -5.090878 7
-0.055006001 -2.1472919 -4.64958 7
-0.23920199 -5.153604 -4.0105271 7
-0.0070500001 0.85316002 -4.7010622 7
-0.012251 0.71050102 -4.768919 7
-0.045278002 -2.0816021 -4.243403 7
-0.033897001 -2.0103359 -3.8825691 7
