# .PCD v0.7 - Point Cloud Data file format
VERSION 0.7
FIELDS x y z intensity
SIZE 4 4 4 4
TYPE F F F F
COUNT 1 1 1 1
WIDTH 866
HEIGHT 1
VIEWPOINT 0 0 0 1 0 0 0
POINTS 866
DATA ascii
1.468979 47.008545 1.898438 7
1.469635 46.985962 1.7880861 7
1.4664609 47.214722 1.677734 7
1.375717 44.292603 -1.060547 7
1.367142 44.771362 -1.1943361 7
1.276089 43.160889 2.686523 7
1.2793159 43.022827 2.5810549 7
1.27763 43.119019 2.4814451 7
1.2786371 43.086304 2.3798831 7
1.274857 43.281128 2.28125 7
1.283096 43.233032 -0.98242199 7
1.182911 41.464966 2.7167971 7
1.183308 41.461914 2.6191411 7
1.108711 39.694702 3.157227 7
1.105328 39.83313 3.070312 7
1.104633 39.871826 2.9785161 7
1.102833 39.95105 2.8857419 7
1.099606 40.083008 2.795898 7
-0.30690399 8.7553711 73.6875 7
-0.225731 11.790894 71.03418 7
-0.204643 11.851929 70.40625 7
-0.20174 12.001953 70.303711 7
-0.17826501 12.046509 69.606445 7
-0.297676 15.555054 72.655273 7
-0.246952 15.403931 71.172852 7
1.037415 37.783691 3.2431641 7
1.069645 36.999146 0.240234 7
1.072163 36.92041 0.15722699 7
1.0653501 37.151001 0.060547002 7
-0.268875 7.1876221 65.885742 7
-0.355324 7.5992432 68.148438 7
-0.146809 9.7354736 62.427734 7
-0.204796 10.126221 63.928711 7
-0.200325 10.255859 63.794922 7
0.96964598 35.701538 3.827148 7
0.96967697 35.712646 3.7441411 7
0.96990597 35.718018 3.660156 7
-0.29092801 -6.9885249 -64.975586 7
-0.32849899 -7.2528081 -65.958984 7
-0.27666101 -7.257935 -64.551758 7
-0.32402 -7.5557861 -65.796875 7
-0.42731899 -8.0319824 -68.532227 7
-0.27399099 5.974854 59.912109 7
-0.31923699 6.2261958 60.981445 7
-0.37180701 6.5010991 62.223633 7
-0.45052001 6.8499761 64.085938 7
-0.18026701 8.5465088 57.449219 7
-0.2132 8.8005371 58.214844 7
-0.197823 8.8780518 57.835938 7
-0.261971 9.2548828 59.339844 7
-0.22570001 10.608765 58.293945 7
-0.184017 10.558228 57.291992 7
-0.188145 10.709839 57.370117 7
-0.153549 10.684937 56.535156 7
-0.25648901 14.032104 58.486328 7
-0.21224201 13.911133 57.424805 7
-0.26714301 -5.83606 -58.257812 7
-0.202255 -5.8173828 -56.666992 7
-0.25637099 -6.0887451 -57.960938 7
-0.31865299 -6.3878169 -59.453125 7
-0.25993699 4.9219971 54.725586 7
-0.34546301 5.3552251 56.576172 7
-0.41757599 5.642334 58.140625 7
-0.18524601 7.5853271 52.87207 7
-0.22844701 7.848145 53.797852 7
-0.201305 7.8830571 53.196289 7
-0.25488299 8.1855469 54.344727 7
-0.189358 10.168579 52.636719 7
-0.19895899 10.332031 52.825195 7
-0.16283 10.296265 52.027344 7
-0.25556901 13.449951 53.522461 7
-0.220303 13.378052 52.745117 7
-0.180283 13.276001 51.864258 7
-0.235111 -4.6132808 -52.111328 7
-0.28307301 -4.833252 -53.154297 7
-0.31544101 -5.026855 -53.852539 7
-0.362885 -5.2550049 -54.883789 7
-0.40769601 -5.4820561 -55.854492 7
-0.40662801 -5.7486572 -55.798828 7
-0.162003 -7.7475591 -50.032227 7
-0.181458 -7.9334722 -50.435547 7
-0.192715 -8.0930176 -50.657227 7
-0.23944101 -8.3771973 -51.655273 7
-0.24156199 -8.6333008 -51.655273 7
-0.191139 -8.5749512 -50.532227 7
-0.216969 -8.7915039 -51.071289 7
-0.17022701 -8.7406006 -50.03125 7
-0.328381 4.4145508 51.607422 7
-0.35879499 4.588501 52.208008 7
-0.403202 4.7910161 53.088867 7
-0.24420901 6.9063721 49.717773 7
-0.222168 6.957397 49.267578 7
-0.213524 7.0454102 49.082031 7
-0.172886 7.0369868 48.261719 7
-0.15493 7.0939941 47.892578 7
-0.125938 7.1152339 47.304688 7
-0.122246 7.2124019 47.21875 7
-0.18126699 9.512085 48.095703 7
-0.209793 9.7393799 48.640625 7
-0.168633 9.6821289 47.80957 7
-0.21455801 12.678101 48.171875 7
-0.17551801 12.581421 47.385742 7
-0.131577 12.454712 46.504883 7
0.795044 30.348022 1.24707 7
0.79095501 30.440918 1.174805 7
0.78793299 30.510132 1.101562 7
0.78331798 30.614624 1.029297 7
-0.24139 -3.7784419 -48.138672 7
-0.27072501 -3.942261 -48.723633 7
-0.31696299 -4.1369629 -49.652344 7
-0.35432801 -4.320435 -50.398438 7
-0.40459099 -4.5305181 -51.40918 7
-0.440521 -4.7194819 -52.125977 7
-0.16787 -6.9190669 -46.207031 7
-0.192093 -7.103394 -46.676758 7
-0.206852 -7.26123 -46.954102 7
-0.274414 -7.5834961 -48.294922 7
-0.241467 -8.2849121 -47.481445 7
-0.183037 -8.1965332 -46.286133 7
-0.20355199 -8.380127 -46.675781 7
-0.20424999 9.0092773 45.193359 7
-0.198833 9.1962891 45.058594 7
-0.235725 12.171875 45.160156 7
-0.195301 12.071167 44.40625 7
-0.171703 12.052856 43.955078 7
-0.16119801 12.100098 43.741211 7
0.70785898 29.408936 4.8212891 7
0.72256899 29.494263 1.2744139 7
0.71609098 29.628174 1.203125 7
0.72467399 29.457642 1.1357419 7
-0.171997 -2.5311279 -42.601562 7
-0.193432 -2.6585691 -42.992188 7
-0.22584499 -2.8009031 -43.585938 7
-0.24822199 -2.9337161 -43.994141 7
-0.288486 -3.0908201 -44.733398 7
-0.32405901 -3.245728 -45.384766 7
-0.12294 -5.7017822 -41.316406 7
-0.127777 -5.8137212 -41.390625 7
-0.145473 -5.9595952 -41.700195 7
-0.18550099 -6.1651611 -42.421875 7
-0.165142 -7.8363042 -41.726562 7
-0.137375 -7.943604 -41.177734 7
-0.329849 3.0550539 44.352539 7
-0.13921399 8.15625 40.53125 7
-0.13665 8.2397461 40.47168 7
-0.107578 8.2281494 39.966797 7
-0.131184 8.4056396 40.347656 7
-0.105503 8.4039307 39.899414 7
-0.190331 11.454834 40.735352 7
-0.166401 11.432129 40.316406 7
-0.148243 11.435913 39.993164 7
-0.122627 11.401367 39.545898 7
0.65102398 27.869751 4.8369141 7
-0.200665 -1.973145 -39.739258 7
-0.225559 -2.091675 -40.160156 7
-0.24195901 -2.2042241 -40.435547 7
-0.27909499 -2.3382571 -41.067383 7
-0.30671301 -2.4658201 -41.53418 7
-0.115028 -4.8703609 -37.958984 7
-0.122704 -5.072144 -38.0625 7
-0.154118 -5.2351069 -38.583984 7
-0.17259599 -5.3712158 -38.884766 7
-0.171066 -7.3406978 -38.500977 7
-0.13473099 -7.318481 -37.868164 7
-0.163467 -7.5024409 -38.333008 7
-0.30388299 -11.075928 -39.904297 7
-0.141289 7.7506099 37.733398 7
-0.113316 7.7426758 37.282227 7
-0.123749 7.8634028 37.429688 7
-0.114796 7.9180908 37.272461 7
-0.092678003 7.926147 36.912109 7
-0.180206 10.930054 37.668945 7
-0.165058 10.945801 37.415039 7
-0.14552701 10.939941 37.09375 7
-0.12527101 10.929199 36.760742 7
-0.121433 10.995239 36.678711 7
-0.25785801 -1.58728 -37.213867 7
-0.291401 -1.699219 -37.776367 7
-0.099468 -4.1030269 -34.510742 7
-0.130714 -4.2451172 -34.989258 7
-0.116711 -4.303833 -34.756836 7
-0.142029 -4.4368901 -35.140625 7
-0.165852 -4.5692139 -35.500977 7
-0.18080901 -7.0213618 -35.303711 7
-0.157509 -7.0369868 -34.925781 7
-0.154644 -7.112915 -34.861328 7
-0.156239 -7.2027588 -34.867188 7
-0.127361 -7.1973882 -34.404297 7
-0.36349499 -10.587769 -37.349609 7
-0.309441 -10.539551 -36.476562 7
-0.105297 7.0412598 34.388672 7
-0.120995 7.168335 34.599609 7
-0.102207 7.1882319 34.314453 7
-0.119095 7.3197021 34.542969 7
-0.106644 7.3586431 34.348633 7
-0.089817002 7.3822021 34.091797 7
-0.15969799 10.312134 34.463867 7
-0.179298 10.478027 34.71875 7
-0.160919 10.47522 34.4375 7
-0.124767 10.390991 33.908203 7
-0.133297 10.50708 34.006836 7
-0.27179 -0.96704102 -34.946289 7
-0.28138 -1.0567631 -35.084961 7
-0.28976399 -1.14624 -35.205078 7
-0.102276 -3.8282471 -32.200195 7
-0.138474 -3.969238 -32.717773 7
-0.101711 -4.0635991 -32.15918 7
-0.15742099 -6.7235112 -32.511719 7
-0.14719 -6.7729492 -32.34668 7
-0.17511 -6.9343262 -32.731445 7
-0.15494201 -6.9544678 -32.423828 7
-0.36025599 -10.291992 -34.642578 7
-0.34126699 -10.298584 -34.348633 7
-0.323479 -10.308838 -34.071289 7
-0.340725 -10.463257 -34.288086 7
-0.176109 4.138916 33.692383 7
-0.104439 6.891602 32.291992 7
-0.189327 10.086792 32.734375 7
-0.17820001 10.113647 32.56543 7
-0.161606 10.116455 32.325195 7
-0.146263 10.123291 32.101562 7
-0.130924 10.129395 31.879883 7
-0.23018999 -0.344482 -31.397461 7
-0.23801801 -0.423706 -31.501953 7
-0.255245 -0.50537097 -31.734375 7
-0.26308101 -0.58581501 -31.837891 7
-0.106659 -3.9963379 -29.710938 7
-0.098151997 -4.0539551 -29.585938 7
-0.092651002 -4.116333 -29.5 7
-0.092299998 -4.1882319 -29.485352 7
-0.082084998 -4.2414551 -29.336914 7
-0.070583001 -4.2912598 -29.168945 7
-0.059932999 -4.3417969 -29.012695 7
-0.050563999 -4.3947749 -28.875977 7
-0.048496 -4.4615479 -28.836914 7
-0.127579 -6.224854 -29.591797 7
-0.144932 -6.4173579 -29.789062 7
-0.13772599 -6.4700928 -29.676758 7
-0.34277001 -9.7026367 -31.677734 7
-0.353634 -9.8221436 -31.794922 7
-0.337841 -9.8378906 -31.564453 7
-0.32162499 -9.8508301 -31.328125 7
-0.31158099 0.99401897 33.314453 7
-0.323322 1.0743411 33.463867 7
-0.16847201 3.634521 31.341797 7
-0.157417 3.687866 31.194336 7
-0.16640501 3.7730711 31.302734 7
-0.174931 3.8574221 31.40332 7
-0.173435 3.9256589 31.375977 7
-0.089088 6.4398189 29.904297 7
-0.099251002 6.6044922 30.004883 7
-0.084118001 6.6281738 29.801758 7
-0.16935 9.6491699 30.167969 7
-0.141403 9.6699219 29.785156 7
-0.128567 9.6835938 29.608398 7
-0.135941 9.8494873 29.655273 7
-0.082813002 -4.8188481 -27.15918 7
-0.081974 -4.8839111 -27.134766 7
-0.078381002 -4.942749 -27.077148 7
-0.077083997 -5.0063481 -27.046875 7
-0.072102003 -5.0617681 -26.97168 7
-0.124489 -5.924561 -27.469727 7
-0.36162201 -9.4022217 -29.625977 7
-0.36680201 -9.4937744 -29.664062 7
-0.34987301 -9.5025635 -29.435547 7
-0.338936 -9.5332031 -29.279297 7
-1.674324 -44.969482 13.652344 7
-0.162388 3.384644 29.397461 7
-0.174297 3.53479 29.525391 7
-0.182438 3.6140139 29.616211 7
-0.116615 6.1603999 28.429688 7
-0.096129999 6.169312 28.176758 7
-0.123135 6.3066411 28.480469 7
-0.10556 6.3223882 28.260742 7
-0.090407997 6.34375 28.070312 7
-0.17831001 9.3198242 28.387695 7
-0.16849899 9.3449707 28.255859 7
-0.16545101 9.3967295 28.201172 7
-0.146446 9.383667 27.963867 7
-0.136627 9.4069824 27.831055 7
-0.14758299 9.5148926 27.935547 7
-0.159962 0.053467002 -28.617188 7
-0.17239 -0.017333999 -28.776367 7
-0.101665 -5.266479 -25.206055 7
-0.105206 -5.3369141 -25.233398 7
-0.109249 -5.4090581 -25.266602 7
-0.116749 -5.4892578 -25.338867 7
-0.117321 -5.552856 -25.330078 7
-0.129272 -5.6446528 -25.455078 7
-0.133316 -5.7176509 -25.487305 7
-0.12844101 -5.768188 -25.416016 7
-0.35401201 -9.0476074 -27.235352 7
-0.351143 -9.104126 -27.180664 7
-0.33785999 -9.1224365 -27.008789 7
-0.32706499 -9.1494141 -26.865234 7
-0.336586 -9.2503662 -26.949219 7
-1.442154 -39.211792 12.681641 7
-1.401989 -38.748291 12.646484 7
-1.353523 -38.195312 12.583984 7
-1.357056 -38.175171 12.774414 7
-0.097274996 5.7607422 26.367188 7
-0.102875 5.8338618 26.416016 7
-0.088721998 5.856812 26.249023 7
-0.108337 5.9666748 26.450195 7
-0.105103 6.0175781 26.402344 7
-0.090430997 6.0378418 26.229492 7
-0.167347 9.0083008 26.313477 7
-0.16721 9.0672607 26.293945 7
-0.15618099 9.0834961 26.157227 7
-0.141541 9.0854492 25.982422 7
-0.13154601 9.1044922 25.857422 7
-0.13504 9.1762695 25.873047 7
-0.133324 -5.1594238 -23.758789 7
-0.115383 -5.177979 -23.552734 7
-0.115452 -5.2362061 -23.541016 7
-0.137238 -5.3450928 -23.762695 7
-0.129372 -5.385498 -23.664062 7
-0.129448 -5.4440918 -23.650391 7
-0.132698 -5.510376 -23.670898 7
-0.34417 -8.6616211 -25.166016 7
-0.35169199 -8.7498779 -25.223633 7
-0.341721 -8.7767334 -25.095703 7
-0.33651701 -8.8201904 -25.020508 7
-0.334488 -8.8748779 -24.977539 7
-1.1770819 -32.620728 14.941406 7
-1.1844521 -32.658447 15.046875 7
-0.103333 5.4641109 24.842773 7
-0.11874 5.5568848 24.988281 7
-0.099785 5.5666499 24.783203 7
-0.090797 5.6003418 24.679688 7
-0.123386 5.7363281 25.000977 7
-0.101105 5.7363281 24.760742 7
-0.16621 8.708374 24.634766 7
-0.168842 8.7736816 24.642578 7
-0.154331 8.774292 24.479492 7
-0.14812499 8.8057861 24.398438 7
-0.142456 8.8387451 24.323242 7
-0.145081 8.9034424 24.329102 7
0.33603999 19.480713 6.3945308 7
0.33458301 19.509155 6.3535161 7
0.336346 19.50354 6.3027339 7
0.33702499 19.509155 6.2558589 7
0.334499 19.548462 6.2158198 7
0.33410299 19.565308 6.171875 7
0.33371401 19.582153 6.1269531 7
-0.15432 0.77197301 -24.260742 7
-0.102779 -4.8195801 -21.829102 7
-0.108501 -4.8858638 -21.874023 7
-0.104046 -4.9304199 -21.81543 7
-0.099018 -4.9736328 -21.75293 7
-0.125118 -5.0855708 -22.003906 7
-0.114437 -5.116333 -21.882812 7
-0.34141499 -8.3864746 -23.337891 7
-0.33528101 -8.4233398 -23.255859 7
-0.32687801 -8.4527588 -23.154297 7
-0.32130101 -8.4907227 -23.078125 7
-0.33272901 -8.5870361 -23.167969 7
-1.110703 -31.006226 11.269531 7
-1.086121 -30.75 11.268555 7
-1.05624 -30.444214 11.248047 7
-1.016312 -28.764282 14.306641 7
-1.018242 -28.749146 14.381836 7
-0.127075 2.5809331 24.011719 7
-0.129265 2.690552 24.024414 7
-0.12857801 2.7431641 24.012695 7
-0.093047999 5.1586909 23.282227 7
-0.098251 5.22229 23.321289 7
-0.097023003 5.2722168 23.296875 7
-0.091011003 5.3100591 23.227539 7
-0.080871999 5.337769 23.119141 7
-0.111469 5.4619141 23.400391 7
-0.15283599 8.3828115 22.976562 7
-0.161541 8.4655762 23.038086 7
-0.15670399 8.4995117 22.974609 7
-0.141865 8.496582 22.819336 7
-0.135841 8.5252686 22.745117 7
-0.132774 8.5649414 22.699219 7
-0.111134 -4.7441411 -20.472656 7
-0.140072 -4.8562012 -20.735352 7
-0.12509499 -4.8762212 -20.582031 7
-0.12575901 -4.9289551 -20.576172 7
-0.142681 -5.016602 -20.72168 7
-0.145752 -5.0750728 -20.738281 7
-0.33366001 -8.0142822 -21.731445 7
-0.35183701 -8.1262207 -21.876953 7
-0.35140201 -8.2338867 -21.833008 7
-0.34305599 -8.2606201 -21.737305 7
-0.33712399 -8.2947998 -21.662109 7
-0.150875 2.2485349 22.955078 7
-0.146404 2.294678 22.90918 7
-0.146313 2.345459 22.90332 7
-0.144344 2.3942871 22.880859 7
-0.13923299 2.4398191 22.829102 7
-0.15044799 2.5024409 22.927734 7
-0.135281 2.5366211 22.783203 7
-0.110889 5.091187 22.144531 7
-0.091278002 5.14502 21.944336 7
-0.100567 5.2150879 22.017578 7
-0.106098 5.2764888 22.055664 7
-0.084709004 5.2753911 21.852539 7
-0.105778 5.4223628 22.017578 7
-0.153923 1.4836431 -21.094727 7
-0.125874 1.4124759 -20.825195 7
-0.13315199 1.3642581 -20.897461 7
-0.145199 1.317871 -21.016602 7
-0.154266 1.269287 -21.107422 7
-0.169907 1.223877 -21.260742 7
-0.18495899 1.177368 -21.40918 7
-0.177856 1.119385 -21.342773 7
-0.119434 -4.4272461 -19.233398 7
-0.110592 -4.5057368 -19.130859 7
-0.122822 -4.5782471 -19.228516 7
-0.129925 -4.6407471 -19.280273 7
-0.123592 -4.6759028 -19.211914 7
-0.117245 -4.7113042 -19.144531 7
-0.32861701 -7.7166748 -20.211914 7
-0.33832899 -7.796875 -20.275391 7
-0.35508701 -7.8999019 -20.398438 7
-0.35069299 -7.936646 -20.341797 7
-0.34051099 -7.9552002 -20.235352 7
-0.33868 -7.9997559 -20.200195 7
-0.31124899 -0.86022902 23.121094 7
-0.313187 -0.80957001 23.140625 7
-0.31846601 -0.76025403 23.188477 7
-0.31298801 -0.655518 23.146484 7
-0.147617 1.929565 21.666016 7
-0.14486299 1.975098 21.638672 7
-0.141453 2.0196531 21.604492 7
-0.124039 2.052124 21.450195 7
-0.131283 2.105835 21.507812 7
-0.129879 2.1521001 21.492188 7
-0.127132 2.197021 21.464844 7
-0.132374 2.249634 21.505859 7
-0.104 4.828979 20.844727 7
-0.087952003 4.8409419 20.699219 7
-0.083199002 4.8762212 20.648438 7
-0.072463997 4.89856 20.545898 7
-0.10561 5.016602 20.816406 7
-0.087559 5.0223389 20.652344 7
-0.084243998 5.061523 20.612305 7
-0.082817003 5.1037598 20.588867 7
-0.15409499 8.0241699 20.3125 7
-0.14204 8.027832 20.198242 7
-0.136623 8.0537109 20.136719 7
-0.13187 8.081543 20.080078 7
-0.129765 8.1186523 20.044922 7
-0.143436 8.2556152 20.118164 7
-0.14133801 8.2923584 20.082031 7
-0.083195001 -1.289917 -18.216797 7
-0.058235001 -1.366333 -17.996094 7
-0.072486997 -1.420898 -18.115234 7
-0.071175002 -1.46582 -18.100586 7
-0.073921002 -1.513306 -18.120117 7
-0.078708999 -1.56189 -18.155273 7
-0.120129 -4.172729 -18.09375 7
-0.107307 -4.194458 -17.975586 7
-0.124317 -4.2714839 -18.107422 7
-0.118282 -4.3052979 -18.044922 7
-0.107498 -4.3302002 -17.944336 7
-0.1367 -4.431396 -18.178711 7
-0.12727 -4.4588618 -18.087891 7
-0.361359 -7.7086182 -19.147461 7
-0.353973 -7.7341309 -19.069336 7
-0.351345 -7.773438 -19.029297 7
-0.34599701 -7.804688 -18.967773 7
-0.343357 -7.84375 -18.926758 7
-0.36721 -7.9654541 -19.09668 7
-0.45195401 -9.5913086 -19.157227 7
-0.82402802 -23.354736 9.9892578 7
-0.81011999 -23.225342 10.00293 7
-0.79480398 -23.085083 10.013672 7
-0.063727997 -1.208984 -16.953125 7
-0.049415998 -1.2437741 -16.833984 7
-0.072486997 -1.385986 -17.009766 7
-0.11644 -4.1876221 -16.90332 7
-0.113625 -4.2252202 -16.871094 7
-0.117325 -4.3173828 -16.87793 7
-0.113792 -4.353271 -16.838867 7
-0.33125699 -7.408936 -17.670898 7
-0.34573701 -7.496582 -17.761719 7
-0.34077099 -7.5262451 -17.706055 7
-0.335094 -7.5537109 -17.644531 7
-0.33013499 -7.5831299 -17.588867 7
-0.32734299 -7.6186519 -17.548828 7
-0.44429401 -9.2912598 -17.807617 7
-0.44367599 -9.3336182 -17.780273 7
-0.43655801 -9.3526611 -17.706055 7
-0.44025001 -9.4104004 -17.709961 7
-0.44971099 -9.4890137 -17.754883 7
-0.464214 -9.5858154 -17.834961 7
-0.64485198 -19.026245 12.547852 7
-0.64643103 -19.010132 12.598633 7
-0.64130402 -18.948364 12.623047 7
-0.63619202 -18.886719 12.647461 7
-0.63404101 -18.845093 12.682617 7
-0.633385 -18.813232 12.724609 7
-0.62528199 -18.731812 12.735352 7
-0.62982899 -18.734741 12.797852 7
-0.16470701 1.823608 -17.399414 7
-0.158337 1.773682 -17.351562 7
-0.069091998 -1.020752 -16 7
-0.054717999 -1.054077 -15.886719 7
-0.054024 -1.134766 -15.875977 7
-0.065436997 -1.181152 -15.959961 7
-0.062438998 -1.2199709 -15.933594 7
-0.062477 -1.26062 -15.930664 7
-0.097159997 -3.8409419 -15.779297 7
-0.10556 -3.895386 -15.832031 7
-0.098015003 -3.9224851 -15.766602 7
-0.097313002 -3.9613039 -15.750977 7
-0.113319 -4.0292969 -15.859375 7
-0.121723 -4.0845952 -15.912109 7
-0.114189 -4.1114502 -15.845703 7
-0.114243 -4.1517329 -15.835938 7
-0.437527 -9.0067139 -16.583008 7
-0.439899 -9.0567627 -16.578125 7
-0.430843 -9.0670166 -16.494141 7
-0.43169799 -9.1114502 -16.476562 7
-0.43255201 -9.1556396 -16.459961 7
-0.43492499 -9.2055664 -16.453125 7
-0.55895603 -16.949951 12.4375 7
-0.55830801 -16.892456 12.513672 7
-0.5686 -16.929077 12.595703 7
-0.11335 -3.8847661 -14.900391 7
-0.10537 -3.9090581 -14.835938 7
-0.107826 -3.95105 -14.841797 7
-0.120781 -4.049438 -14.912109 7
-0.13213 -4.1459961 -14.97168 7
-0.324249 -7.0681152 -15.398438 7
-0.329952 -7.1234131 -15.418945 7
-0.324402 -7.146729 -15.365234 7
-0.32045001 -7.1741939 -15.321289 7
-0.31810799 -7.2060552 -15.287109 7
-0.31818399 -7.2453609 -15.270508 7
-0.32952899 -7.3170171 -15.327148 7
-0.03957 -0.79211402 -14.033203 7
-0.043818999 -0.82971197 -14.05957 7
-0.045536 -0.86633301 -14.069336 7
-0.046443999 -0.93884301 -14.070312 7
-0.085597999 -3.568115 -13.918945 7
-0.087383002 -3.642334 -13.913086 7
-0.089119002 -3.68103 -13.915039 7
-0.111137 -3.752563 -14.051758 7
-0.106956 -3.781738 -14.014648 7
-0.104469 -3.813354 -13.989258 7
-0.42311901 -8.6629639 -14.321289 7
-0.424034 -8.7025146 -14.305664 7
-0.423264 -8.7363281 -14.280273 7
-0.41995201 -8.7615967 -14.239258 7
-0.42513299 -8.8150635 -14.24707 7
-0.43877 -8.8980713 -14.307617 7
-0.115219 2.5150149 -14.038086 7
-0.120316 2.483398 -14.079102 7
-0.125412 2.4516599 -14.119141 7
-0.125458 2.414917 -14.123047 7
-0.128868 2.3812261 -14.152344 7
-0.137321 2.352417 -14.21582 7
-0.14998201 2.327637 -14.306641 7
-0.14835 2.288574 -14.299805 7
-0.093445003 -3.5406489 -13.180664 7
-0.106865 -3.6296389 -13.246094 7
-0.096252002 -3.646729 -13.169922 7
-0.099854 -3.686523 -13.183594 7
-0.094566002 -3.7116699 -13.140625 7
-0.111504 -3.773438 -13.238281 7
-0.122208 -3.8258059 -13.296875 7
-0.32112101 -6.7531738 -13.578125 7
-0.328316 -6.8071289 -13.603516 7
-0.32125899 -6.822876 -13.544922 7
-0.316879 -6.8457031 -13.50293 7
-0.31426999 -6.8730469 -13.47168 7
-0.31433901 -6.9077148 -13.455078 7
-0.32064801 -6.9598389 -13.475586 7
-0.32784301 -7.0141602 -13.499023 7
-0.147892 2.4880371 -13.455078 7
-0.159435 2.464478 -13.535156 7
-0.15417901 2.423218 -13.506836 7
-0.065098003 -3.228394 -12.345703 7
-0.059558999 -3.2518311 -12.302734 7
-0.079158999 -3.3127439 -12.414062 7
-0.071750998 -3.33374 -12.360352 7
-0.079242997 -3.377197 -12.397461 7
-0.068111002 -3.3927 -12.322266 7
-0.086787999 -3.453125 -12.426758 7
-0.084041998 -3.480835 -12.400391 7
-0.41545099 -8.3677979 -12.467773 7
-0.411789 -8.3883057 -12.428711 7
-0.40937001 -8.4122314 -12.393555 7
-0.40945399 -8.444458 -12.373047 7
-0.40859199 -8.4736328 -12.348633 7
-0.407738 -8.5023193 -12.323242 7
-0.407814 -8.5341797 -12.301758 7
-0.42752799 -8.6315918 -12.384766 7
-0.036334999 -0.338745 -11.896484 7
-0.037365001 -0.40100101 -11.900391 7
-0.031513002 -0.43078601 -11.865234 7
-0.026652999 -0.46093801 -11.834961 7
-0.026683999 -0.49133301 -11.833008 7
-0.026706999 -0.52233899 -11.832031 7
-0.037478998 -0.55578601 -11.894531 7
-0.033596002 -0.58593798 -11.870117 7
-0.031658001 -0.61596698 -11.856445 7
-0.058933001 -3.2132571 -11.601562 7
-0.058979001 -3.24353 -11.59375 7
-0.066845 -3.2852781 -11.630859 7
-0.083538003 -3.3400879 -11.716797 7
-0.081623003 -3.3677981 -11.698242 7
-0.073833004 -3.386353 -11.645508 7
-0.076816998 -3.421021 -11.65332 7
-0.0788 -3.454834 -11.657227 7
-0.094517 -3.509521 -11.737305 7
-0.300877 -6.5263672 -11.838867 7
-0.301929 -6.5593262 -11.827148 7
-0.29905301 -6.5822749 -11.795898 7
-0.29714599 -6.6081538 -11.770508 7
-0.30113599 -6.6494141 -11.775391 7
-0.31002799 -6.7036128 -11.805664 7
-0.40723801 -8.293457 -11.514648 7
-0.312134 -6.4083252 -11.233398 7
-0.30809799 -6.4272461 -11.197266 7
-0.298931 -6.4326172 -11.136719 7
-0.30309701 -6.47229 -11.141602 7
-0.29905301 -6.4909668 -11.105469 7
-0.29604 -6.512085 -11.075195 7
-0.30021301 -6.5518799 -11.079102 7
-0.30847201 -6.6026611 -11.103516 7
-0.31672701 -6.6539311 -11.129883 7
-0.31679499 -6.6828609 -11.113281 7
-0.39733499 -8.0053711 -10.822266 7
-0.40151599 -8.0465088 -10.822266 7
-0.40397999 -8.0821533 -10.8125 7
-0.40816101 -8.1237793 -10.8125 7
-0.406185 -8.145752 -10.783203 7
-0.399059 -8.1514893 -10.730469 7
-0.39810601 -8.1760254 -10.706055 7
-0.40536901 -8.227417 -10.719727 7
-0.40955001 -8.2686768 -10.71875 7
-0.018798999 -0.020142 -10.228516 7
-0.020988001 -0.048096001 -10.239258 7
-0.016754 -0.075928003 -10.216797 7
-0.010376 -0.103638 -10.181641 7
-0.0072169998 -0.13146999 -10.164062 7
-0.0083309999 -0.15918 -10.169922 7
-0.047386002 -2.904541 -10.375977 7
-0.048500001 -2.9334719 -10.375 7
-0.041016001 -2.950928 -10.329102 7
-0.042130001 -2.9794919 -10.327148 7
-0.045403 -3.0111079 -10.335938 7
-0.047584999 -3.04126 -10.34082 7
-0.061577 -3.0880129 -10.405273 7
-0.069133997 -3.125977 -10.4375 7
-0.057358 -3.1369629 -10.368164 7
-0.058472 -3.165771 -10.366211 7
-0.059593 -3.1945801 -10.364258 7
-0.39474899 -8.0362549 -9.9257812 7
-0.098934002 3.192749 -10.275391 7
-0.091495998 3.1546631 -10.242188 7
-0.086170003 3.1191411 -10.222656 7
-0.085133001 3.0896001 -10.224609 7
-0.090496004 3.069092 -10.259766 7
-0.08839 3.038208 -10.254883 7
-0.090557002 3.012939 -10.273438 7
-0.095942996 2.992188 -10.307617 7
-0.105595 2.9769289 -10.365234 7
-0.113102 2.9580081 -10.412109 7
-0.115269 2.9324951 -10.429688 7
-0.10461 2.8905029 -10.380859 7
-0.013458 -0.153809 -10.070312 7
-0.013481 -0.18054201 -10.070312 7
-0.014626 -0.207275 -10.074219 7
-0.016876001 -0.23413099 -10.085938 7
-0.021377999 -0.261475 -10.108398 7
-0.016922001 -0.28735399 -10.083984 7
-0.014702 -0.313721 -10.071289 7
-0.044372998 -2.901489 -9.8183594 7
-0.047782999 -2.931885 -9.828125 7
-0.047812998 -2.958252 -9.8212891 7
-0.059067 -2.999512 -9.8701172 7
-0.063583001 -3.031616 -9.8847656 7
-0.058014002 -3.0500491 -9.8496094 7
-0.058052 -3.0761721 -9.8417969 7
-0.059218999 -3.1040039 -9.8398438 7
-0.060378999 -3.131592 -9.8378906 7
-0.073856004 -3.176636 -9.8964844 7
-0.283802 -6.1048579 -9.7988281 7
-0.28386301 -6.130981 -9.7841797 7
-0.294018 -6.182373 -9.8144531 7
-0.285099 -6.185791 -9.7597656 7
-0.284031 -6.2088618 -9.7392578 7
-0.28409201 -6.2348628 -9.7246094 7
-0.28303099 -6.257812 -9.7041016 7
-0.279713 -6.2750239 -9.6748047 7
-0.28539699 -6.315186 -9.6845703 7
-0.29106501 -6.3555908 -9.6943359 7
-0.38772199 -7.8374019 -9.2783203 7
-0.385548 -7.8553472 -9.25 7
-0.386738 -7.8835449 -9.2353516 7
-0.389065 -7.9151611 -9.2255859 7
-0.387997 -7.9364009 -9.203125 7
-0.38806501 -7.9613042 -9.1845703 7
-0.024559001 -0.020752 -10.129883 7
-0.023452999 -0.047607001 -10.124023 7
-0.023476001 -0.074463002 -10.123047 7
-0.014534 -0.10083 -10.077148 7
-0.016799999 -0.12731899 -10.087891 7
-0.29169801 -6.0848389 -9.2285156 7
-0.284733 -6.0922852 -9.1835938 7
-0.282444 -6.1109619 -9.1591797 7
-0.283672 -6.1383061 -9.1494141 7
-0.28021601 -6.1540532 -9.1191406 7
-0.27792701 -6.1724849 -9.0947266 7
-0.28384 -6.211792 -9.1054688 7
-0.29210299 -6.2568359 -9.1240234 7
-0.295681 -6.2904048 -9.1240234 7
-0.296909 -6.3178711 -9.1142578 7
-0.30165499 -6.354126 -9.1181641 7
-0.299366 -6.3726811 -9.09375 7
-0.387142 -7.7564702 -8.6210938 7
-0.38837799 -7.7834468 -8.6074219 7
-0.38493001 -7.7957759 -8.5742188 7
-0.38616601 -7.822876 -8.5605469 7
-0.39093399 -7.860229 -8.5605469 7
-0.38865301 -7.8762212 -8.5322266 7
-0.39224601 -7.9100342 -8.5273438 7
-0.39818999 -7.9510498 -8.5302734 7
-0.404118 -7.9925542 -8.5341797 7
-0.00055699999 0.097534001 -8.2177734 7
-0.004402 0.074584998 -8.234375 7
-0.0082550002 0.051270001 -8.2519531 7
-0.26763901 -5.82019 -8.0537109 7
-0.26769301 -5.842041 -8.0390615 7
-0.25631699 -5.858398 -7.96875 7
-0.25769001 -5.9049072 -7.945312 7
-0.25902599 -5.9294429 -7.9345698 7
-0.26807401 -5.994751 -7.9394531 7
-0.27577201 -6.0352778 -7.9550781 7
-0.014175 0.30859399 -8.2763672 7
-0.012939 0.28491199 -8.2714844 7
-0.014252 0.261841 -8.2783203 7
-0.0079420004 0.237671 -8.25 7
0.002022 0.120605 -8.2060547 7
-0.27755699 -5.7724609 -7.601562 7
-0.28159699 -5.8026118 -7.6005859 7
-0.28562501 -5.8328862 -7.601562 7
-0.27506301 -5.8283691 -7.5488281 7
-0.27245301 -5.8430181 -7.5263672 7
-0.272789 -5.8643799 -7.5126948 7
-0.271523 -5.8817139 -7.4931641 7
-0.27555099 -5.9119868 -7.4931641 7
-0.274277 -5.929565 -7.4746089 7
-0.27432999 -5.9499512 -7.4599609 7
-0.28766301 -6.002686 -7.492188 7
-0.28638101 -6.0201421 -7.4736328 7
-0.29440701 -6.0601811 -7.4873052 7
-0.014282 0.318726 -7.8730469 7
-0.007706 0.295044 -7.8457031 7
-0.010384 0.27307099 -7.8574219 7
-0.024666 0.029906999 -8.3115234 7
-0.021492001 0.0079349997 -8.2998047 7
-0.26158899 -5.7124019 -7.03125 7
-0.25749201 -5.722168 -7.0029302 7
-0.26307699 -5.7545171 -7.0068359 7
-0.25429499 -5.4561772 -6.7001948 7
-0.26438099 -5.4975591 -6.719727 7
-0.26300001 -5.5133061 -6.702148 7
-0.26592299 -5.5384521 -6.6972661 7
-0.26741001 -5.5604248 -6.6894531 7
-0.25885001 -5.5595698 -6.648438 7
-0.264633 -5.5914311 -6.6533198 7
-0.27042401 -5.623291 -6.6582031 7
-0.27190399 -5.6452641 -6.6503911 7
-0.269081 -5.657227 -6.6269531 7
-0.26339701 -5.662354 -6.594727 7
-0.26200899 -5.6776118 -6.5761719 7
-0.264938 -5.7026372 -6.5712891 7
-0.26641801 -5.7246089 -6.5625 7
-0.26790601 -5.7463379 -6.5537109 7
-0.26738 -5.450562 -6.3037109 7
-0.26592299 -5.4650879 -6.2861328 7
-0.257034 -5.462646 -6.2451172 7
-0.263046 -5.4935298 -6.25 7
-0.25862101 -5.5013428 -6.2236328 7
-0.28398901 -5.5762939 -6.2880859 7
-0.282547 -5.5906978 -6.2705078 7
-0.26918799 -5.5778809 -6.2158198 7
-0.26924899 -5.5953369 -6.2011719 7
-0.264824 -5.6026611 -6.1748052 7
-0.26040599 -5.6097412 -6.1474609 7
-0.260445 -5.6274409 -6.1357422 7
-0.265266 -5.6557622 -6.1347661 7
-0.27127799 -5.6870122 -6.1386719 7
-0.26090199 -5.6802979 -6.09375 7
-0.26839399 -5.7148442 -6.1025391 7
-0.268356 -5.4736328 -5.8613281 7
-0.26532 -5.483521 -5.8398442 7
-0.27153799 -5.5141602 -5.844727 7
-0.262337 -5.5101318 -5.8056641 7
-0.25930801 -5.5194092 -5.782227 7
-0.25781199 -5.5325928 -5.764648 7
-0.26093301 -5.5562739 -5.7607422 7
-0.260986 -5.572998 -5.7470698 7
-0.259491 -5.585815 -5.7294922 7
-0.25799599 -5.598877 -5.7119141 7
-0.25959799 -5.6187739 -5.702148 7
-0.264267 -5.6455078 -5.7011719 7
-0.27201799 -5.6800542 -5.7099609 7
-0.28131899 -5.7180181 -5.7226558 7
-0.28445399 -5.7416992 -5.717773 7
-0.27063 -5.7258301 -5.6650391 7
-0.25187701 -5.4420171 -5.3554692 7
-0.253517 -5.4611821 -5.3466802 7
-0.25196099 -5.4732671 -5.329102 7
-0.253609 -5.492188 -5.320312 7
-0.25525701 -5.5115972 -5.311523 7
-0.253708 -5.5231929 -5.2939448 7
-0.25695801 -5.546021 -5.289062 7
-0.25379899 -5.5540771 -5.2675781 7
-0.258652 -5.5804439 -5.266602 7
-0.27310199 -5.6290278 -5.2919922 7
-0.269943 -5.6373291 -5.2705078 7
-0.273193 -5.65979 -5.264648 7
-0.27484101 -5.6790771 -5.2558589 7
-0.27329299 -5.6905522 -5.2373052 7
-0.27494001 -5.7097168 -5.2285161 7
-0.27979299 -5.7362061 -5.2275391 7
-0.283043 -5.7591548 -5.2226558 7
-0.275085 -5.7554932 -5.1875 7
-0.25754499 -5.4519038 -4.9375 7
-0.25427201 -5.459106 -4.9169922 7
-0.251003 -5.4664311 -4.8955078 7
-0.25602701 -5.4918208 -4.8945308 7
-0.25939199 -5.5140381 -4.889648 7
-0.257774 -5.5249019 -4.8730469 7
-0.25782001 -5.5388179 -4.858398 7
-0.27114099 -5.5837402 -4.8789058 7
-0.27285799 -5.6019292 -4.8691411 7
-0.267921 -5.605103 -4.84375 7
-0.279587 -5.6461182 -4.859375 7
-0.282951 -5.668335 -4.8535161 7
-0.27967799 -5.6750488 -4.8330078 7
-0.27640501 -5.6816411 -4.8105469 7
-0.24720401 -5.3597412 -4.1494141 7
-0.243687 -5.364624 -4.1289058 7
-0.243725 -5.3773189 -4.1162109 7
-0.25799599 -5.4219971 -4.1347661 7
-0.25270501 -5.4224849 -4.109375 7
-0.24563999 -5.419312 -4.0810552 7
-0.34075901 -6.2187662 -10.155275 7
-0.27714199 -5.8850451 -7.8940339 7
0.0069619999 -2.4559979 -5.62851 7
-0.235162 -5.650104 -6.2552309 7
0.039303999 -2.2829659 -4.5675621 7
-0.20335899 -5.4634118 -4.9822259 7
-0.26254001 -5.2884159 -3.9296589 7
-0.114618 1.837628 -17.792942 7
-0.243341 2.4623959 -13.695746 7
-0.319098 -6.609694 -11.678468 7
-0.118468 3.168083 -9.5300026 7
-0.154687 2.977788 -10.149437 7
-0.017446 -2.392874 -7.0990548 7
-0.28668401 -6.21415 -9.4184351 7
-0.264153 -5.8269048 -7.8216529 7
0.003877 -2.3551641 -5.3781791 7
-0.293717 -5.573194 -6.1068549 7
0.000137 -1.957 -3.642314 7
-0.013431 -2.127527 -3.637228 7
