# .PCD v0.7 - Point Cloud Data file format
VERSION 0.7
FIELDS x y z intensity
SIZE 4 4 4 4
TYPE F F F F
COUNT 1 1 1 1
WIDTH 856
HEIGHT 1
VIEWPOINT 0 0 0 1 0 0 0
POINTS 856
DATA ascii
2.0719991 66.123779 -14.37207 7
1.354897 48.405273 -5.8554692 7
1.2729681 46.20459 -4.945312 7
1.2727931 46.217773 -5.0585942 7
1.174011 44.109863 -4.5693359 7
1.170929 44.24585 -4.6943359 7
1.194527 43.137695 -7.686523 7
1.1834641 43.61377 -7.8955078 7
1.081982 42.766357 -3.8417971 7
1.0878789 42.538818 -3.9150391 7
1.083164 42.723389 -4.0410161 7
1.086666 42.588135 -4.125977 7
-0.306171 24.53125 70.810547 7
-0.239182 -15.636719 -68.529297 7
-0.279751 -16.067139 -69.662109 7
-0.26324099 -16.125977 -69.151367 7
-0.27919 15.290039 65.020508 7
-0.35467899 15.915771 66.939453 7
-0.38297999 16.251709 67.640625 7
-0.42105901 16.814209 68.563477 7
-0.23996 18.328125 63.336914 7
-0.239586 18.474121 63.292969 7
-0.28229901 18.951172 64.347656 7
-0.208244 19.114502 62.28418 7
0.92978299 38.409424 -2.7519529 7
0.96920002 37.044434 -5.9101558 7
-0.204769 -13.221436 -60.427734 7
-0.24700899 -13.60376 -61.487305 7
-0.194241 -13.453369 -60.094727 7
-0.237808 -13.847656 -61.1875 7
-0.327869 -14.517334 -63.478516 7
-0.29253 13.507568 59.350586 7
-0.347298 13.947266 60.605469 7
-0.403038 14.39917 61.881836 7
-0.219467 16.050049 57.041016 7
-0.26434699 16.485596 58.046875 7
-0.25334501 16.546631 57.761719 7
-0.27592099 17.923828 57.984375 7
-0.243076 17.818604 57.195312 7
-0.23401301 17.885498 56.952148 7
0.87316102 35.552002 -5.5341802 7
0.868797 35.661621 -5.6425781 7
-0.191734 -11.398193 -54.573242 7
-0.221661 -11.675537 -55.250977 7
-0.25842699 -11.98999 -56.086914 7
-0.292 -12.292969 -56.849609 7
-0.26586899 -12.299072 -56.207031 7
-0.29287699 -12.572021 -56.813477 7
-0.34011501 -12.951904 -57.890625 7
-0.151585 -14.811523 -52.791016 7
-0.16521101 -15.026611 -53.070312 7
-0.13058101 -14.931152 -52.235352 7
-0.143703 -15.143555 -52.503906 7
-0.074242003 -14.813721 -50.864258 7
-0.29737499 11.993652 54.638672 7
-0.36470801 12.449463 56.05957 7
-0.416859 12.837402 57.152344 7
-0.25552699 14.648438 53.165039 7
-0.234798 14.646484 52.697266 7
-0.28440899 15.072266 53.71875 7
-0.27941099 16.787354 53.208008 7
-0.244671 16.67334 52.445312 7
-0.242771 16.782227 52.37207 7
-0.213009 16.818604 51.681641 7
-0.31795099 20.309814 53.052734 7
0.78460699 34.564209 -1.660156 7
0.78891802 34.457764 -1.731445 7
0.786865 34.507812 -1.8193361 7
0.78408802 34.575928 -1.90625 7
-0.184761 -9.6193848 -49.427734 7
-0.26464501 -10.192383 -51.09375 7
-0.29812601 -10.45752 -51.786133 7
-0.38176301 -11.06958 -53.523438 7
-0.099197 -12.369141 -46.928711 7
-0.119522 -12.709229 -47.300781 7
-0.167759 -13.210449 -48.256836 7
-0.152256 -13.819092 -47.743164 7
-0.086227 -13.653076 -46.293945 7
-0.122147 -13.983643 -47.014648 7
-0.30809799 10.701416 50.421875 7
-0.35378599 11.016113 51.297852 7
-0.39336801 11.30835 52.053711 7
-0.45095801 11.68457 53.163086 7
-0.230694 12.956787 48.379883 7
-0.27452901 13.306641 49.206055 7
-0.25482899 13.313232 48.797852 7
-0.295753 13.651367 49.564453 7
-0.28246301 15.855469 48.72168 7
-0.248604 15.749512 48.040039 7
-0.221718 15.686035 47.494141 7
-0.22287799 15.803955 47.484375 7
-0.187611 15.680908 46.77832 7
-0.31789801 19.056152 48.5 7
-0.283573 18.90625 47.81543 7
-0.25704199 18.813721 47.279297 7
-0.22589099 18.682617 46.657227 7
0.72285098 32.638672 -1.266602 7
0.71896702 32.724854 -1.3525389 7
0.71976101 32.706543 -1.427734 7
-0.158306 -8.217041 -45.147461 7
-0.182079 -8.4118652 -45.599609 7
-0.22705799 -8.6843262 -46.470703 7
-0.25779301 -8.909668 -47.05957 7
-0.30684701 -9.2058105 -48.008789 7
-0.347458 -9.4746094 -48.791992 7
-0.38778299 -9.7463379 -49.567383 7
-0.082217999 -11.006104 -43.006836 7
-0.106567 -11.230225 -43.456055 7
-0.108871 -11.347412 -43.474609 7
-0.148331 -11.650879 -44.21875 7
-0.170414 -13.165527 -44.269531 7
-0.12249 -13.002441 -43.311523 7
-0.10968 -13.034668 -43.03418 7
-0.40756199 10.198242 48.773438 7
-0.420479 10.362061 48.989258 7
-0.46279901 10.645264 49.742188 7
-0.29606599 12.44165 46.196289 7
-0.28987899 12.517334 46.060547 7
-0.27214101 12.532959 45.714844 7
-0.24191301 12.48291 45.145508 7
-0.23011801 12.526123 44.908203 7
-0.271606 14.949707 45.091797 7
-0.219643 14.735352 44.137695 7
-0.26078001 15.091553 44.837891 7
-0.206985 14.861084 43.853516 7
-0.30430999 18.092285 44.719727 7
-0.26925999 17.939941 44.072266 7
-0.223961 17.709229 43.25 7
-0.20071401 17.638428 42.811523 7
0.66691601 31.275391 -0.68359399 7
0.666336 31.287842 -0.758789 7
0.662094 31.375732 -0.83984399 7
0.66688502 31.276123 -0.90625 7
-0.153988 -6.900146 -41.141602 7
-0.177799 -7.0715332 -41.556641 7
-0.199375 -7.23877 -41.932617 7
-0.226982 -7.4265141 -42.417969 7
-0.264458 -7.6469731 -43.079102 7
-0.073138997 -9.6398926 -39.09668 7
-0.070568003 -9.7241211 -39.02832 7
-0.091205999 -9.9094238 -39.374023 7
-0.124863 -10.153564 -39.951172 7
-0.104671 -11.98291 -39.075195 7
-0.073521003 -11.91333 -38.498047 7
-0.100513 -12.151123 -38.945312 7
-0.074428998 -12.106201 -38.458008 7
-0.287514 -15.992188 -41.272461 7
-0.270046 -15.979004 -40.933594 7
-0.237316 -15.863525 -40.333984 7
-0.190758 13.481201 40.152344 7
-0.178665 13.504639 39.927734 7
-0.17266101 13.562012 39.801758 7
-0.181564 13.705566 39.918945 7
-0.155903 13.649414 39.491211 7
-0.246494 16.804688 40.060547 7
-0.214836 16.67749 39.523438 7
-0.194656 16.62793 39.168945 7
-0.182243 16.631592 38.9375 7
-0.137894 -5.7736821 -37.726562 7
-0.16502801 -5.9350591 -38.169922 7
-0.18425401 -6.0778809 -38.479492 7
-0.212093 -6.2443848 -38.931641 7
-0.244041 -6.4240718 -39.454102 7
-0.27014899 -6.5905762 -39.876953 7
-0.071079001 -8.6286621 -36.050781 7
-0.087559 -8.7805176 -36.302734 7
-0.118145 -8.9892578 -36.788086 7
-0.13030601 -11.367188 -36.367188 7
-0.098301001 -11.297607 -35.820312 7
-0.078002997 -11.283691 -35.463867 7
-0.100346 -11.48291 -35.799805 7
-0.080734 -11.470703 -35.454102 7
-0.31487301 -15.213379 -38.359375 7
-0.285992 -15.129395 -37.864258 7
-0.262272 -15.075439 -37.453125 7
-0.24198499 -15.040771 -37.09668 7
-0.161301 12.523682 36.892578 7
-0.13846201 12.485352 36.520508 7
-0.16378 12.706787 36.87793 7
-0.135479 12.636963 36.423828 7
-0.245327 15.925537 37.129883 7
-0.221081 15.851318 36.740234 7
-0.19865 15.787354 36.376953 7
-0.179878 15.746338 36.069336 7
-0.17636099 15.806396 35.985352 7
0.55580503 28.186523 0.19531199 7
0.55605698 28.183105 0.12793 7
0.55511099 28.201904 -0.071289003 7
-0.238388 -5.1806641 -36.113281 7
-0.242844 -5.278564 -36.169922 7
-0.25779 -5.4006348 -36.389648 7
-0.095181003 -7.6794429 -33.415039 7
-0.058410998 -7.6357422 -32.837891 7
-0.080096997 -7.8730469 -33.132812 7
-0.056084 -7.8693848 -32.748047 7
-0.032065999 -7.8642578 -32.365234 7
-0.29886201 -14.300781 -34.693359 7
-0.290997 -14.3396 -34.545898 7
-0.26927599 -14.297363 -34.197266 7
-0.24493399 -14.238037 -33.811523 7
-0.254673 -14.378662 -33.918945 7
-0.358475 6.9362788 38.162109 7
-0.373413 7.0649409 38.364258 7
-0.165428 11.730225 34.120117 7
-0.13477699 11.653564 33.668945 7
-0.16699199 11.894287 34.092773 7
-0.13673399 11.817871 33.647461 7
-0.119526 11.806641 33.383789 7
-0.225063 14.954346 33.902344 7
-0.205532 14.910645 33.609375 7
-0.18047 14.830811 33.239258 7
-0.15897401 14.771729 32.919922 7
-0.17646401 14.957764 33.123047 7
-0.17122699 -4.2172852 -32.780273 7
-0.182808 -4.3188481 -32.938477 7
-0.204403 -4.4399409 -33.240234 7
-0.22720701 -4.5646968 -33.55957 7
-0.085349999 -7.520752 -30.938477 7
-0.076508 -7.566895 -30.794922 7
-0.068474002 -7.6152339 -30.662109 7
-0.056830999 -7.6508789 -30.480469 7
-0.057601999 -7.7285161 -30.472656 7
-0.048767 -7.7727051 -30.330078 7
-0.033527002 -7.7932129 -30.095703 7
-0.108459 -10.031738 -30.601562 7
-0.097236998 -10.057373 -30.421875 7
-0.27798799 -13.639893 -31.914062 7
-0.26518199 -13.646729 -31.708984 7
-1.811077 -52.601074 19.911133 7
-1.743011 -51.611084 19.836914 7
-0.15019999 10.99585 31.894531 7
-0.16433001 11.135498 32.054688 7
-0.14476 11.115234 31.776367 7
-0.12812801 11.107666 31.536133 7
-0.22090501 14.282959 31.720703 7
-0.216068 14.32666 31.629883 7
-0.204494 14.329834 31.453125 7
-0.18412399 14.278809 31.166016 7
-0.173832 14.287842 31.006836 7
-0.115604 -3.239502 -29.576172 7
-0.136326 -3.3425291 -29.847656 7
-0.151428 -3.4382319 -30.041992 7
-0.074378997 -9.090332 -27.822266 7
-0.293156 -12.863281 -29.583984 7
-0.29620001 -12.951416 -29.589844 7
-0.27935001 -12.935791 -29.349609 7
-0.26421401 -12.927734 -29.130859 7
-1.47971 -44.625244 17.709961 7
-0.186295 7.7573242 30.895508 7
-0.18705 7.8295898 30.887695 7
-0.190063 7.909668 30.90918 7
-0.142845 10.333496 29.59375 7
-0.137695 10.378174 29.509766 7
-0.115761 10.345947 29.222656 7
-0.150925 10.571777 29.625 7
-0.12763999 10.532715 29.321289 7
-0.105717 10.498779 29.035156 7
-0.20430399 13.525146 29.228516 7
-0.20681401 13.606445 29.229492 7
-0.18899199 13.571533 28.993164 7
-0.173443 13.547852 28.783203 7
-0.157894 13.523438 28.573242 7
-0.17573901 13.692139 28.75 7
0.40636799 24.311523 1.2275389 7
0.412994 24.223145 1.170898 7
0.41235 24.234375 1.115234 7
0.40493399 24.338135 1.0556639 7
-0.071185999 -8.3381348 -25.910156 7
-0.075805999 -8.4196777 -25.946289 7
-0.086441003 -8.5239258 -26.053711 7
-0.077643998 -8.6193848 -25.907227 7
-0.28651401 -12.172852 -27.389648 7
-0.30967301 -12.355225 -27.628906 7
-0.294422 -12.346924 -27.421875 7
-0.28100601 -12.347412 -27.237305 7
-0.27501699 -12.383789 -27.138672 7
-0.34651899 4.9223628 31.432617 7
-0.186859 7.2548828 29.052734 7
-0.187195 7.3212891 29.041016 7
-0.152481 9.8962402 27.883789 7
-0.111526 9.8461914 27.376953 7
-0.14664499 10.05957 27.751953 7
-0.186764 12.808838 27.180664 7
-0.200527 12.945068 27.301758 7
-0.2066 13.040771 27.339844 7
-0.196758 13.048584 27.204102 7
-0.184048 13.040283 27.038086 7
-0.174206 13.047363 26.904297 7
0.41389099 22.528564 -1.6162111 7
0.410465 22.566895 -1.675781 7
0.414738 22.507324 -1.72168 7
0.40722299 22.598145 -1.7880861 7
0.396061 22.734375 -1.8642581 7
0.400341 22.674072 -1.910156 7
-0.13845401 -2.1296389 -25.835938 7
-0.132412 -2.1877439 -25.760742 7
-0.149776 -2.3330081 -25.953125 7
-0.174133 -2.4226069 -26.232422 7
-0.18256401 -2.4968259 -26.326172 7
-0.076389 -8.0681152 -23.947266 7
-0.076389 -8.1276855 -23.927734 7
-0.079852998 -8.1999512 -23.947266 7
-0.27913699 -11.530762 -25.167969 7
-0.29209101 -11.654541 -25.280273 7
-0.28163901 -11.66748 -25.140625 7
-0.27021 -11.674805 -24.987305 7
-0.26474801 -11.710693 -24.902344 7
-1.22752 -36.032715 15.138672 7
-1.159668 -33.884521 17.938477 7
-1.144875 -33.693604 17.944336 7
-0.182106 6.574707 27.167969 7
-0.17054 6.6027832 27.027344 7
-0.16883899 6.658936 26.995117 7
-0.16766401 6.716064 26.96875 7
-0.128922 9.3125 25.772461 7
-0.108551 9.2873545 25.537109 7
-0.124969 9.4121094 25.689453 7
-0.124817 9.4689941 25.666992 7
-0.109627 9.4641113 25.487305 7
-0.105835 9.5053711 25.426758 7
-0.195484 12.445068 25.291992 7
-0.16962101 12.479248 24.951172 7
0.36902201 21.434326 -1.3193361 7
0.372639 21.386719 -1.365234 7
0.37330201 21.374023 -1.414062 7
0.368099 21.430908 -1.472656 7
0.37139499 21.381836 -1.568359 7
-0.063091002 -7.3789058 -22.186523 7
-0.064677998 -7.4396968 -22.185547 7
-0.075320996 -7.5310059 -22.279297 7
-0.074244998 -7.5830078 -22.25 7
-0.078502998 -7.652832 -22.276367 7
-0.26830301 -10.895264 -23.243164 7
-0.28110501 -11.010742 -23.345703 7
-0.28486601 -11.143311 -23.330078 7
-0.27581799 -11.160645 -23.212891 7
-0.27051499 -11.194336 -23.133789 7
-0.384464 -13.021484 -23.615234 7
-0.375965 -13.036621 -23.501953 7
-0.37865099 -13.108887 -23.49707 7
-1.017105 -30.000244 16.926758 7
-0.16833501 6.1203609 25.404297 7
-0.16821299 6.1767578 25.390625 7
-0.165298 6.2258301 25.34668 7
-0.165047 6.339355 25.318359 7
-0.11203 8.8708496 23.990234 7
-0.109375 9.0217295 23.90625 7
-0.191223 11.84375 23.636719 7
-0.19710501 11.92627 23.665039 7
-0.200233 11.995605 23.667969 7
-0.191246 12.003174 23.557617 7
-0.182255 12.010742 23.447266 7
-0.17656299 12.033936 23.368164 7
-0.108162 -1.064209 -22.169922 7
-0.105263 -1.117676 -22.136719 7
-0.114326 -1.17749 -22.227539 7
-0.118271 -1.234863 -22.265625 7
-0.132458 -1.299072 -22.408203 7
-0.155766 -1.368408 -22.642578 7
-0.15742899 -1.425781 -22.65625 7
-0.074284002 -7.150146 -20.722656 7
-0.074848004 -7.2036128 -20.710938 7
-0.28040299 -10.574219 -21.632812 7
-0.284973 -10.648193 -21.650391 7
-0.272461 -10.647461 -21.508789 7
-0.27020299 -10.691162 -21.461914 7
-0.27364299 -10.759766 -21.46875 7
-0.90317899 -26.893311 15.890625 7
-0.87027001 -26.464355 15.983398 7
-0.122681 8.3640137 22.6875 7
-0.111351 8.373291 22.56543 7
-0.106499 8.4057617 22.501953 7
-0.134628 8.5595703 22.742188 7
-0.114464 8.5356445 22.539062 7
-0.109032 8.5656738 22.470703 7
-0.196228 11.531982 22.094727 7
-0.185486 11.529053 21.976562 7
-0.175945 11.531982 21.868164 7
-0.17049 11.553955 21.795898 7
-0.169155 11.596191 21.758789 7
-0.178955 11.693359 21.817383 7
-0.191689 11.80542 21.900391 7
-0.086581998 -6.753418 -19.522461 7
-0.089602999 -6.811523 -19.533203 7
-0.087169997 -6.8535161 -19.496094 7
-0.085360996 -6.8969731 -19.462891 7
-0.094425 -6.9736328 -19.529297 7
-0.305168 -10.240723 -20.386719 7
-0.297333 -10.259033 -20.291992 7
-0.29130599 -10.284424 -20.214844 7
-0.28345501 -10.30249 -20.12207 7
-0.28892499 -10.375977 -20.144531 7
-0.30526701 -10.495117 -20.262695 7
-0.308319 -10.559082 -20.263672 7
-0.14672101 5.4587402 22.412109 7
-0.119926 8.0065918 21.389648 7
-0.111671 8.0253906 21.301758 7
-0.12889899 8.1811523 21.415039 7
-0.120644 8.1989746 21.326172 7
-0.115501 8.2277832 21.262695 7
-0.19233701 11.209473 20.677734 7
-0.18222 11.207764 20.570312 7
-0.172722 11.208252 20.46875 7
-0.176292 11.270996 20.472656 7
-0.184837 11.357666 20.517578 7
-0.192764 11.441162 20.554688 7
-0.19509099 11.498047 20.547852 7
-0.107056 -0.30078101 -19.487305 7
-0.099639997 -0.349365 -19.416992 7
-0.108002 -0.400635 -19.492188 7
-0.108795 -0.45068401 -19.49707 7
-0.115265 -0.50219703 -19.554688 7
-0.127426 -0.554932 -19.664062 7
-0.13011201 -0.60571301 -19.685547 7
-0.036846001 -3.2163091 -18.554688 7
-0.031672999 -3.2553711 -18.5 7
-0.021965001 -3.3339839 -18.397461 7
-0.028374 -3.3898931 -18.447266 7
-0.026420999 -3.4333501 -18.421875 7
-0.029617 -3.4851069 -18.442383 7
-0.04504 -3.556396 -18.571289 7
-0.058963999 -6.0866699 -18.075195 7
-0.069256 -6.1608891 -18.149414 7
-0.058308002 -6.1765141 -18.041992 7
-0.062801003 -6.2341309 -18.064453 7
-0.069233 -6.297852 -18.104492 7
-0.077595003 -6.3674321 -18.162109 7
-0.277946 -9.6577148 -18.771484 7
-0.289543 -9.7509766 -18.842773 7
-0.295349 -9.8212891 -18.866211 7
-0.28571299 -9.8305664 -18.765625 7
-0.28057101 -9.8571777 -18.701172 7
-0.27544799 -9.8833008 -18.634766 7
-0.396328 -11.581055 -18.957031 7
-0.39571801 -11.625732 -18.924805 7
-0.38608199 -11.629883 -18.822266 7
-0.37710199 -11.635742 -18.722656 7
-0.37326401 -11.665527 -18.665039 7
-0.37843701 -11.736328 -18.677734 7
-0.707874 -23.285156 11.555664 7
-0.72172898 -21.882324 14.418945 7
-0.72185898 -21.851318 14.47168 7
-0.13726 5.0776372 21.100586 7
-0.149803 5.1523442 21.196289 7
-0.128994 7.7946782 20.191406 7
-0.18554699 10.649902 19.404297 7
-0.192001 10.721924 19.429688 7
-0.18788899 10.746338 19.374023 7
-0.175835 10.734375 19.258789 7
-0.165108 10.728027 19.15332 7
-0.160999 10.751709 19.098633 7
-0.16084699 10.793213 19.074219 7
-0.165977 10.859131 19.088867 7
-0.16147199 -0.28442401 -18.755859 7
-0.059799001 -5.9580078 -16.939453 7
-0.10471 -6.1218262 -17.290039 7
-0.083613999 -6.108398 -17.104492 7
-0.084301002 -6.153564 -17.094727 7
-0.106068 -6.2563481 -17.255859 7
-0.106075 -6.3439941 -17.226562 7
-0.269238 -9.3024902 -17.483398 7
-0.29239699 -9.4353027 -17.637695 7
-0.289009 -9.4665527 -17.589844 7
-0.280186 -9.4772949 -17.5 7
-0.274784 -9.5444336 -17.412109 7
-0.144012 4.7202148 20.126953 7
-0.103256 7.3657231 18.961914 7
-0.117142 7.4523931 19.051758 7
-0.121922 7.5102539 19.071289 7
-0.104988 7.496582 18.926758 7
-0.103462 7.532959 18.898438 7
-0.11525 7.6135249 18.97168 7
-0.120014 7.6711431 18.989258 7
-0.1744 10.419922 18.137695 7
-0.16658001 10.425293 18.05957 7
-0.16433001 10.45459 18.019531 7
-0.15510599 10.453613 17.931641 7
-0.139919 -0.00048799999 -18.573242 7
-0.133064 -0.047607001 -18.514648 7
-0.13029499 -0.093993999 -18.491211 7
-0.135704 -0.14086901 -18.537109 7
-0.13906901 -0.188232 -18.566406 7
-0.15469 -0.236572 -18.699219 7
-0.016852999 -2.751709 -16.246094 7
-0.022606 -2.8000491 -16.28418 7
-0.024742 -2.844238 -16.294922 7
-0.030494999 -2.893311 -16.333984 7
-0.038406 -2.945312 -16.390625 7
-0.080090001 -5.7548828 -16.032227 7
-0.072871998 -5.7771001 -15.962891 7
-0.078648001 -5.8327641 -15.993164 7
-0.080081999 -5.8774409 -15.991211 7
-0.274555 -9.0869141 -16.304688 7
-0.26952001 -9.1096191 -16.248047 7
-0.26881799 -9.1484385 -16.22168 7
-0.268116 -9.1867676 -16.193359 7
-0.27679101 -9.2607422 -16.233398 7
-0.56698197 -17.899658 13.347656 7
-0.56412101 -17.851807 13.376953 7
-0.567936 -17.8479 13.435547 7
-0.149784 4.2250981 19.191406 7
-0.149693 4.266602 19.181641 7
-0.145138 4.300293 19.137695 7
-0.14058299 4.3337402 19.094727 7
-0.137527 4.369873 19.061523 7
-0.136696 4.4101558 19.046875 7
-0.131393 4.4414058 18.996094 7
-0.096458003 7.0212402 17.907227 7
-0.089676 7.0393071 17.84375 7
-0.106606 7.1313481 17.949219 7
-0.107971 7.1743159 17.942383 7
-0.16082001 10.124023 16.912109 7
-0.156258 10.141113 16.859375 7
-0.15536501 10.174072 16.830078 7
-0.15817299 10.223145 16.825195 7
-0.021934999 -2.486572 -15.341797 7
-0.015807999 -2.5185549 -15.290039 7
-0.037857 -2.6625979 -15.436523 7
-0.070556998 -5.4902339 -14.988281 7
-0.073596999 -5.5361328 -14.99707 7
-0.073596999 -5.5744629 -14.983398 7
-0.27158701 -8.6923828 -15.257812 7
-0.28228399 -8.7695312 -15.30957 7
-0.280781 -8.8029795 -15.277344 7
-0.27926999 -8.8369141 -15.24707 7
-0.275471 -8.8620605 -15.200195 7
-0.27167901 -8.887207 -15.154297 7
-0.276279 -8.9423828 -15.163086 7
-0.52645499 -16.459473 12.84082 7
-0.52499002 -16.422852 12.873047 7
-0.514889 -16.33374 12.869141 7
-0.51263797 -16.29248 12.897461 7
-0.51273698 -16.265869 12.935547 7
-0.515957 -16.25708 12.987305 7
-0.51528502 -16.224854 13.023438 7
-0.51537699 -16.197266 13.061523 7
-0.12645701 0.71875 -16.257812 7
-0.108604 0.671143 -16.120117 7
-0.110977 0.62963903 -16.140625 7
-0.111847 0.588135 -16.146484 7
-0.0093989996 -2.227783 -14.358398 7
-0.025443999 -2.392334 -14.449219 7
-0.019768 -2.4230959 -14.40332 7
-0.261143 -8.3276367 -14.205078 7
-0.26921499 -8.3913574 -14.236328 7
-0.272457 -8.439209 -14.235352 7
-0.263607 -8.4453115 -14.160156 7
-0.262005 -8.4760742 -14.129883 7
-0.25880799 -8.5007324 -14.088867 7
-0.26205099 -8.5483398 -14.087891 7
-0.272549 -8.6213379 -14.133789 7
-0.113052 0.94799799 -15.152344 7
-0.106834 0.90600598 -15.107422 7
-0.110901 0.86767602 -15.139648 7
-0.115768 0.83007801 -15.175781 7
-0.119049 0.79150403 -15.200195 7
-0.13105001 0.75585902 -15.289062 7
-0.141472 0.71923798 -15.367188 7
-0.148735 0.68115199 -15.420898 7
-0.022552 -1.947754 -13.686523 7
-0.01236 -1.9736331 -13.612305 7
-0.0089419996 -2.005127 -13.583984 7
-0.0097660003 -2.0410161 -13.584961 7
-0.013145 -2.0795901 -13.603516 7
-0.01651 -2.1179199 -13.621094 7
-0.024124 -2.1603999 -13.667969 7
-0.019012 -2.190918 -13.62793 7
-0.014755 -2.2216799 -13.594727 7
-0.038536001 -4.8210449 -13.126953 7
-0.045311 -4.8696289 -13.15918 7
-0.055481002 -4.92627 -13.213867 7
-0.052948002 -4.9543462 -13.18457 7
-0.05294 -4.9885249 -13.172852 7
-0.054634001 -5.0266109 -13.171875 7
-0.063956998 -5.0820308 -13.219727 7
-0.25360501 -8.0183105 -13.305664 7
-0.25873899 -8.1040039 -13.297852 7
-0.262173 -8.184082 -13.279297 7
-0.258816 -8.2414551 -13.219727 7
-0.261379 -8.2841797 -13.21582 7
-0.26139501 -8.3183594 -13.196289 7
-0.47377801 -15.87207 9.3173828 7
-0.46001399 -15.770264 9.3144531 7
-0.457726 -15.698486 9.4179688 7
-0.12941 1.402344 -14.385742 7
-0.111183 1.35376 -14.260742 7
-0.128784 1.32666 -14.385742 7
-0.023148 -1.619629 -12.975586 7
-0.024010001 -1.654053 -12.977539 7
-0.023109 -1.686523 -12.966797 7
-0.019501001 -1.7175291 -12.94043 7
-0.014137 -1.746582 -12.900391 7
-0.0060879998 -1.773193 -12.844727 7
0.0019680001 -1.799805 -12.789062 7
-0.002472 -1.8369139 -12.813477 7
-0.01226 -1.878662 -12.87207 7
-0.017593 -1.916748 -12.901367 7
-0.037971001 -4.5178218 -12.428711 7
-0.029053001 -4.5317378 -12.363281 7
-0.030838 -4.567627 -12.363281 7
-0.034393001 -4.6071782 -12.374023 7
-0.043311998 -4.6577148 -12.416992 7
-0.056678999 -4.7185059 -12.487305 7
-0.047759999 -4.7321782 -12.421875 7
-0.047759999 -4.7641602 -12.410156 7
-0.047759999 -4.7966309 -12.398438 7
-0.361343 -9.6022949 -12.139648 7
-0.364059 -9.6433105 -12.128906 7
-0.36587501 -9.6821289 -12.115234 7
-0.35876501 -9.6867676 -12.054688 7
-0.357903 -9.7148438 -12.027344 7
-0.35615501 -9.739502 -11.995117 7
-0.37402299 -9.8393555 -12.06543 7
-0.378548 -9.9191895 -12.041016 7
-0.45656601 -14.925537 9.0234385 7
-0.44300801 -14.830078 9.0195312 7
-0.429443 -14.734863 9.015625 7
-0.41860199 -14.655273 9.0185547 7
-0.40689099 -14.570312 9.0185547 7
-0.41890001 -14.60083 9.1230469 7
-0.41540501 -14.543701 9.1806641 7
-0.41548899 -14.525391 9.2148438 7
-0.415573 -14.506836 9.2490234 7
0.001499 -1.487305 -12.15332 7
0.008068 -1.5144041 -12.108398 7
-0.00032799999 -1.551514 -12.15625 7
0.003429 -1.580811 -12.129883 7
-0.26182899 -7.7124019 -11.71582 7
-0.27120599 -7.7722168 -11.746094 7
-0.25999799 -7.7675781 -11.667969 7
-0.254421 -7.7800288 -11.620117 7
-0.254444 -7.8105469 -11.601562 7
-0.25165901 -7.8317871 -11.568359 7
-0.258221 -7.8833008 -11.583984 7
-0.28255099 -7.9929199 -11.693359 7
-0.35006699 -9.4570312 -11.178711 7
-0.350113 -9.486084 -11.155273 7
-0.34452799 -9.4941406 -11.105469 7
-0.36232799 -9.5908203 -11.169922 7
0.0048329998 -1.354248 -11.480469 7
0.006817 -1.382568 -11.464844 7
0.002903 -1.4150389 -11.483398 7
0.0068549998 -1.442627 -11.458008 7
0.0078539997 -1.472168 -11.448242 7
-0.00095000002 -1.508057 -11.49707 7
-0.0048639998 -1.540771 -11.515625 7
6.5e-05 -1.567627 -11.483398 7
-0.00089600001 -1.598145 -11.484375 7
-0.017627999 -4.165771 -10.982422 7
-0.020572999 -4.200439 -10.989258 7
-0.031364001 -4.2502441 -11.039062 7
-0.034302 -4.284668 -11.044922 7
-0.029403999 -4.3330078 -10.99707 7
-0.030387999 -4.36377 -10.991211 7
-0.040192001 -4.4414058 -11.024414 7
-0.24916799 -7.5253911 -10.868164 7
-0.246231 -7.5449219 -10.835938 7
-0.24822199 -7.579834 -10.828125 7
-0.24628399 -7.6020508 -10.799805 7
-0.250229 -7.6430659 -10.801758 7
-0.085689999 1.9387209 -11.783203 7
-0.080921002 1.902832 -11.759766 7
-0.084866002 1.874512 -11.786133 7
-0.084941998 1.842773 -11.791016 7
-0.088886 1.814209 -11.817383 7
-0.089930996 1.783203 -11.828125 7
-0.095806003 1.755859 -11.867188 7
-0.102657 1.729248 -11.910156 7
-0.112408 1.704834 -11.970703 7
-0.121185 1.678955 -12.026367 7
-0.113541 1.6413569 -11.984375 7
-0.102001 1.6005861 -11.919922 7
-0.018588999 -3.8417971 -10.489258 7
-0.025776001 -3.8818359 -10.517578 7
-0.026798001 -3.911377 -10.513672 7
-0.025768001 -3.9375 -10.499023 7
-0.033966001 -3.9802251 -10.533203 7
-0.024746001 -3.9912109 -10.474609 7
-0.026791001 -4.0227051 -10.475586 7
-0.028851001 -4.0539551 -10.476562 7
-0.032944001 -4.0891109 -10.488281 7
-0.043198001 -4.1364751 -10.533203 7
-0.245277 -7.3400879 -10.205078 7
4.2e-05 -0.98632801 -10.375977 7
0.0076029999 -1.01001 -10.333984 7
0.0086939996 -1.036865 -10.325195 7
0.0044140001 -1.06665 -10.345703 7
0.01305 -1.089355 -10.296875 7
0.0066030002 -1.119873 -10.328125 7
0.0055499999 -1.147705 -10.331055 7
0.000187 -1.177979 -10.356445 7
0.002354 -1.2043459 -10.341797 7
0.0056110001 -1.229736 -10.322266 7
0.012089 -1.253418 -10.285156 7
-0.019199001 -3.842041 -9.8613281 7
-0.020267 -3.870605 -9.8583984 7
-0.023495 -3.902344 -9.8652344 7
-0.032101002 -3.9438479 -9.8994141 7
-0.028873 -3.9907229 -9.8632812 7
-0.032101002 -4.0227051 -9.8701172 7
-0.033176001 -4.0507808 -9.8652344 7
-0.036400001 -4.083252 -9.8720703 7
-0.045006 -4.125977 -9.90625 7
-0.244011 -7.0852051 -9.5771484 7
-0.236496 -7.088623 -9.5263672 7
-0.231133 -7.098145 -9.4853516 7
-0.23223899 -7.1264648 -9.4726562 7
-0.230103 -7.1452641 -9.4453115 7
-0.231194 -7.1740718 -9.4335938 7
-0.232292 -7.2026372 -9.421875 7
-0.236626 -7.2407231 -9.4228516 7
-0.245262 -7.2922359 -9.4453115 7
-0.249588 -7.3305659 -9.4462891 7
-0.24961101 -7.3554692 -9.4287109 7
-0.32721299 -8.6430664 -8.9521484 7
-0.329395 -8.6748047 -8.9404297 7
-0.32943299 -8.6987305 -8.9199219 7
-0.33054 -8.7263184 -8.9033203 7
-0.331646 -8.7543945 -8.8867188 7
-0.32844901 -8.7670898 -8.8535156 7
-0.329586 -8.8183594 -8.8154297 7
-0.33177599 -8.8496094 -8.8027344 7
-0.337208 -8.8925781 -8.8027344 7
-0.344769 -8.9433594 -8.8115234 7
-0.216171 -6.7451172 -8.953125 7
-0.220688 -6.782227 -8.9570312 7
-0.221825 -6.809814 -8.9453115 7
-0.226349 -6.846436 -8.9472656 7
-0.231995 -6.8864751 -8.9550781 7
-0.23313899 -6.9135742 -8.9433594 7
-0.225288 -6.9152832 -8.8935547 7
-0.22419 -6.936523 -8.8730469 7
-0.225327 -6.9633789 -8.8603516 7
-0.22759999 -6.993896 -8.8535156 7
-0.22425801 -7.007812 -8.8222656 7
-0.0091289999 -0.65161097 -9.4628906 7
-0.0066180001 -0.67797899 -9.4433594 7
-0.004253 -0.702393 -9.4306641 7
0.0063209999 -0.72363299 -9.3759766 7
0.001652 -0.75048798 -9.3974609 7
0.005192 -0.77416998 -9.3779297 7
0.004032 -0.79980499 -9.3818359 7
0.0075869998 -0.82372999 -9.3642578 7
0.0040859999 -0.850586 -9.3789062 7
0.0041009998 -0.87548798 -9.3769531 7
-0.0029180001 -0.90283197 -9.4072266 7
-0.0040699998 -0.92895502 -9.4111328 7
0.0029869999 -0.95068401 -9.3740234 7
-0.23722801 -6.743896 -8.4404297 7
-0.239594 -6.7731929 -8.4335938 7
-0.2314 -6.7731929 -8.3847656 7
-0.23024701 -6.7927251 -8.3632812 7
-0.231445 -6.8190918 -8.3525391 7
-0.22912601 -6.8349609 -8.3271484 7
-0.247971 -6.979248 -8.3349609 7
-0.332699 -8.402832 -7.6767578 7
-0.32568699 -8.4003906 -7.6318359 7
-0.32455099 -8.4174805 -7.6074219 7
-0.32223901 -8.4301758 -7.579102 7
-0.32226899 -8.4511719 -7.5595698 7
-0.32346699 -8.4765615 -7.5439448 7
-0.32233 -8.4929199 -7.5185552 7
-0.339977 -8.5734863 -7.5595698 7
-0.34353301 -8.6066895 -7.5517578 7
-0.072887003 2.6850591 -9.2480469 7
-0.069462001 2.6550291 -9.2382812 7
-0.063725002 2.622803 -9.2167969 7
-0.064938001 2.5986331 -9.2275391 7
-0.066134997 2.5744629 -9.2392578 7
-0.073132001 2.5566411 -9.2783203 7
-0.0047490001 -0.76464802 -8.9746094 7
-0.0023000001 -0.78759801 -8.9609385 7
-0.078022003 2.877197 -8.7333984 7
-0.073253997 2.8466799 -8.7177734 7
-0.067257002 2.8144529 -8.6972656 7
-0.072131999 2.7961431 -8.7255859 7
-0.068562001 2.7670901 -8.7158203 7
-0.067394003 2.7414551 -8.7167969 7
-0.072261997 2.723145 -8.7441406 7
-0.068737 2.6694341 -8.7402344 7
-0.074801996 2.6521001 -8.7744141 7
-0.078465 2.6318359 -8.796875 7
-0.088146001 2.6179199 -8.8486328 7
-0.088192001 2.5935061 -8.8535156 7
-0.22669999 -6.4309082 -7.3652339 7
-0.22417399 -6.4448242 -7.3417969 7
-0.217812 -6.4477539 -7.3027339 7
-0.216553 -6.464355 -7.2832031 7
-0.21913099 -6.4914551 -7.2763672 7
-0.22043601 -6.5148931 -7.265625 7
-0.221725 -6.5385742 -7.2539058 7
-0.22174799 -6.559082 -7.2392578 7
-0.22687501 -6.5932622 -7.242188 7
-0.23327599 -6.631104 -7.249023 7
-0.23458099 -6.6547852 -7.2373052 7
-0.234604 -6.674561 -7.2207031 7
-0.23845699 -6.7050781 -7.217773 7
-0.00095000002 -0.32324201 -8.1289062 7
0.001713 -0.34472701 -8.1152344 7
0.0057179998 -0.36645499 -8.0976562 7
0.0017659999 -0.389404 -8.1142578 7
0.0017810001 -0.41137701 -8.1132812 7
0.0044439998 -0.43261701 -8.1005859 7
0.01244 -0.453125 -8.0654297 7
0.013783 -0.47485399 -8.0585938 7
0.0098080002 -0.49755901 -8.0742188 7
0.0031930001 -0.52099597 -8.1005859 7
0.00056100002 -0.54394501 -8.1103516 7
0.0019039999 -0.56567401 -8.1035156 7
0.0032540001 -0.58764601 -8.0966797 7
0.003277 -0.60961902 -8.0957031 7
0.00062900002 -0.63232398 -8.1044922 7
-0.21917699 -6.0974121 -6.4873052 7
-0.220581 -6.1193848 -6.4785161 7
-0.223381 -6.1442871 -6.4707031 7
-0.219246 -6.1523442 -6.4443359 7
-0.226173 -6.1882319 -6.4511719 7
-0.227577 -6.2102051 -6.4404302 7
-0.220695 -6.2104492 -6.4042969 7
-0.21656001 -6.2180181 -6.375977 7
-0.21935301 -6.2431641 -6.3701172 7
-0.21800201 -6.2575679 -6.3496089 7
-0.22216 -6.286377 -6.3486328 7
-0.22633401 -6.3149409 -6.3457031 7
-0.224976 -6.3295898 -6.327148 7
-0.233292 -6.3693848 -6.3378911 7
-0.23745701 -6.398438 -6.335938 7
-0.21104001 -5.7810059 -5.7363281 7
-0.21701799 -5.8120122 -5.7402339 7
-0.221497 -5.839355 -5.7392578 7
-0.214077 -5.837646 -5.703125 7
-0.211124 -5.847168 -5.6816411 7
-0.21262699 -5.867188 -5.671875 7
-0.227539 -5.920166 -5.7001948 7
-0.232033 -5.9475098 -5.6982422 7
-0.223106 -5.941895 -5.6591802 7
-0.22759999 -5.9694819 -5.6582031 7
-0.221664 -5.9709468 -5.625977 7
-0.21573301 -5.9724121 -5.5957031 7
-0.215755 -5.9885249 -5.5810552 7
-0.22025301 -6.015625 -5.578125 7
-0.22773001 -6.0671391 -5.5712891 7
-0.215847 -6.0532231 -5.523438 7
0.011169 -4.210546 -10.759456 7
-0.063598 -3.5201499 -8.3078117 7
-0.18399 -5.8754849 -5.52005 7
-0.029364999 -0.97704703 -9.9960947 7
-0.099636003 -4.1026311 -10.764194 7
0.0060049999 -0.54478699 -8.0681229 7
0.021846 -0.211823 -6.9208388 7
0.0046410002 -2.8978579 -6.6201282 7
-0.26480401 -6.8727779 -8.6953955 7
-0.1947 -6.250185 -6.4814711 7
0.028945999 0.231445 -5.16397 7
0.039588999 0.50417101 -4.6910839 7
0.048820999 0.34738299 -4.6294851 7
