# .PCD v0.7 - Point Cloud Data file format
VERSION 0.7
FIELDS x y z intensity
SIZE 4 4 4 4
TYPE F F F F
COUNT 1 1 1 1
WIDTH 881
HEIGHT 1
VIEWPOINT 0 0 0 1 0 0 0
POINTS 881
DATA ascii
1.800011 65.657471 -16.782227 7
1.090958 46.079834 -6.8535161 7
1.08152 46.461914 -7.2636719 7
1.006752 44.188965 -6.157227 7
1.004333 44.274658 -6.2792969 7
0.99571198 44.580566 -6.6582031 7
-0.191818 19.01416 68.554688 7
-0.24313401 19.588623 69.966797 7
-0.144333 21.775635 66.447266 7
-0.143784 21.927246 66.391602 7
-0.141663 22.063477 66.290039 7
-0.113091 21.946533 65.451172 7
-0.25705001 26.289551 68.615234 7
-0.206551 25.904297 67.175781 7
-0.168556 25.64917 66.081055 7
-0.347893 -18.197754 -69.625977 7
-0.38082099 -18.772705 -70.456055 7
-0.35057101 -21.696777 -68.666992 7
-0.17639901 16.506592 61.899414 7
-0.19220001 16.762451 62.272461 7
-0.29134399 17.61377 64.776367 7
-0.115929 19.193604 59.621094 7
-0.121788 19.382324 59.731445 7
-0.157722 19.827148 60.600586 7
0.84094203 40.050049 -4.9619141 7
-0.369225 -16.012207 -62.952148 7
-0.29905701 -15.71875 -61.150391 7
-0.383766 -16.407715 -63.239258 7
-0.437996 -16.909668 -64.55957 7
-0.18270101 14.597168 56.384766 7
-0.23703 15.06665 57.617188 7
-0.28792599 15.520264 58.766602 7
-0.14059401 17.287598 54.693359 7
-0.124031 17.291016 54.280273 7
-0.187187 17.894043 55.688477 7
-0.165344 19.142578 54.783203 7
-0.126472 18.952148 53.864258 7
-0.12885299 19.0979 53.879883 7
0.76268798 37.853027 -4.25 7
0.76711297 37.729736 -4.3212891 7
0.76240498 37.848877 -4.4306641 7
0.79803503 36.55542 -7.3642578 7
0.78796399 36.807129 -7.5175781 7
0.790627 36.7229 -7.5898442 7
-0.35418701 -14.058594 -56.949219 7
-0.39614099 -14.430664 -57.875977 7
-0.34585601 -14.285889 -56.689453 7
-0.383095 -14.63501 -57.506836 7
-0.46547699 -15.247803 -59.354492 7
-0.28343201 -17.099854 -54.344727 7
-0.216011 -16.759521 -52.786133 7
-0.221275 -16.923584 -52.863281 7
-0.209198 13.12915 52.379883 7
-0.25023699 13.478027 53.225586 7
-0.30349001 13.898682 54.331055 7
-0.136932 15.446533 50.208984 7
-0.175148 15.938965 50.948242 7
-0.163757 15.979492 50.676758 7
-0.177917 18.082275 50.382812 7
-0.14534 17.948486 49.671875 7
-0.147453 18.080811 49.679688 7
-0.090568997 17.751465 48.464844 7
-0.22750901 21.437256 50.381836 7
-0.20503201 21.354004 49.881836 7
-0.184135 21.282959 49.414062 7
0.69840199 35.897461 -3.6767581 7
0.69799799 35.902344 -3.7626951 7
-0.30956301 -11.71582 -50.9375 7
-0.35757399 -12.066895 -51.914062 7
-0.38924399 -12.344727 -52.545898 7
-0.43344101 -12.685791 -53.439453 7
-0.47111499 -12.999268 -54.194336 7
-0.23394001 -14.552734 -48.503906 7
-0.23971599 -14.70459 -48.586914 7
-0.27113301 -15.014648 -49.196289 7
-0.29211399 -15.740479 -49.439453 7
-0.228333 -15.450928 -48.095703 7
-0.257301 -15.753906 -48.650391 7
-0.202232 -15.513184 -47.487305 7
-0.21386001 11.736572 48.256836 7
-0.24330901 11.994141 48.808594 7
-0.28319499 12.305664 49.5625 7
-0.33063501 12.658691 50.461914 7
-0.16126999 14.08252 46.612305 7
-0.179893 14.302979 46.942383 7
-0.15995 14.290283 46.529297 7
-0.119698 14.150635 45.726562 7
-0.15077201 16.79248 45.585938 7
-0.164406 16.997314 45.80957 7
-0.13118701 16.861572 45.146484 7
-0.220337 20.117188 45.883789 7
-0.18950699 19.9646 45.271484 7
-0.16617601 19.873047 44.798828 7
-0.141121 19.764648 44.296875 7
0.63546801 33.94751 -2.921875 7
0.63044 34.052734 -3.0175779 7
0.63547498 33.9375 -3.0839839 7
0.63204199 34.007812 -3.1748049 7
-0.26969099 -10.083252 -46.400391 7
-0.30477899 -10.341064 -47.055664 7
-0.34751901 -10.634766 -47.860352 7
-0.388504 -10.925293 -48.629883 7
-0.43213701 -11.230225 -49.448242 7
-0.47547901 -11.538086 -50.259766 7
-0.51498401 -11.833496 -50.99707 7
-0.182693 -12.73291 -43.943359 7
-0.213974 -13.008789 -44.508789 7
-0.20961 -13.093018 -44.393555 7
-0.26712799 -13.517822 -45.457031 7
-0.242065 -14.571777 -44.604492 7
-0.192902 -14.381104 -43.637695 7
-0.22361 -14.674316 -44.183594 7
-0.239456 10.884277 45.399414 7
-0.204643 13.712646 44.051758 7
-0.194122 13.753418 43.835938 7
-0.186111 13.807617 43.664062 7
-0.17527799 13.844971 43.442383 7
-0.166641 13.894531 43.261719 7
-0.153625 13.917236 43.001953 7
-0.148422 13.985107 42.879883 7
-0.13884 14.025879 42.680664 7
-0.19634999 15.981445 43.193359 7
-0.154076 15.795654 42.420898 7
-0.12705199 15.710449 41.915039 7
-0.14489 15.929199 42.193359 7
-0.235237 19.160889 42.792969 7
-0.210144 19.060791 42.324219 7
-0.17292801 18.861328 41.649414 7
-0.141945 18.70874 41.082031 7
-0.22982 -8.3691406 -41.748047 7
-0.26139799 -8.5820312 -42.291016 7
-0.28590399 -8.7717295 -42.706055 7
-0.34845001 -9.2067871 -43.773438 7
-0.392616 -9.4758301 -44.537109 7
-0.171051 -11.108154 -39.998047 7
-0.169144 -11.196533 -39.938477 7
-0.166603 -11.28125 -39.866211 7
-0.189209 -11.487549 -40.233398 7
-0.224693 -11.758301 -40.825195 7
-0.206779 -13.429932 -39.962891 7
-0.159752 -13.260254 -39.120117 7
-0.18720201 -13.512207 -39.560547 7
-0.16275799 -13.467041 -39.105469 7
-0.37397799 -17.441406 -41.682617 7
-0.34823599 -17.364746 -41.207031 7
-0.31057 -17.204834 -40.53418 7
-0.143539 14.554199 38.898438 7
-0.12706 14.539795 38.603516 7
-0.100441 14.460205 38.145508 7
-0.124954 14.704102 38.507812 7
-0.096634001 14.611084 38.021484 7
-0.21319599 17.908691 38.895508 7
-0.190681 17.830078 38.506836 7
-0.16343699 17.713623 38.042969 7
-0.14631701 17.671387 37.738281 7
-0.148109 17.772461 37.728516 7
0.533333 30.491943 -2.0214839 7
0.55186498 29.809326 -5.1230469 7
0.55804402 29.685059 -5.1689448 7
0.55171198 29.788574 -5.266602 7
0.54600501 29.880859 -5.3613281 7
0.549362 29.807129 -5.4189448 7
-0.245865 -7.314209 -38.873047 7
-0.27478001 -7.4975591 -39.332031 7
-0.29394501 -7.6523442 -39.629883 7
-0.35660601 -7.9448242 -40.644531 7
-0.37961599 -8.1162109 -41.003906 7
-0.15433501 -9.8376455 -36.724609 7
-0.16271999 -9.9633789 -36.837891 7
-0.16275799 -10.052979 -36.813477 7
-0.182999 -10.230469 -37.117188 7
-0.211945 -10.447266 -37.561523 7
-0.18125901 -12.549072 -36.368164 7
-0.155167 -12.497803 -35.922852 7
-0.183792 -12.739502 -36.34668 7
-0.161888 -12.709229 -35.96875 7
-0.38551301 -16.47998 -38.517578 7
-0.36605099 -16.447754 -38.176758 7
-0.33194 -16.319092 -37.609375 7
-0.313171 -16.287842 -37.280273 7
-0.119469 13.610107 35.761719 7
-0.088996999 13.510986 35.280273 7
-0.115791 13.752441 35.649414 7
-0.091164 13.686035 35.254883 7
-0.192551 16.883057 35.71875 7
-0.174141 16.834473 35.417969 7
-0.151749 16.755371 35.05957 7
-0.138069 16.737305 34.826172 7
-0.128754 16.75 34.65625 7
0.48286399 29.033691 -1.293945 7
0.48173499 29.050049 -1.365234 7
0.48094901 29.060791 -1.43457 7
0.48834199 28.931152 -1.4912111 7
0.48345199 29.010986 -1.568359 7
0.49095199 28.530273 -4.8339839 7
-0.294159 -6.3234859 -36.425781 7
-0.30061299 -6.4294429 -36.508789 7
-0.319572 -6.5683589 -36.78125 7
-0.34802201 -6.7336431 -37.196289 7
-0.36054999 -6.8579102 -37.369141 7
-0.159843 -8.8137207 -33.774414 7
-0.151527 -8.8647461 -33.62793 7
-0.154587 -8.9587402 -33.65332 7
-0.111015 -8.8720703 -32.981445 7
-0.161781 -11.596924 -32.958984 7
-0.35057801 -15.443848 -34.558594 7
-0.330147 -15.401855 -34.231445 7
-0.30667901 -15.34082 -33.864258 7
-0.32039601 -15.508301 -34.020508 7
-1.5504301 -51.624268 21.121094 7
-1.489906 -50.737793 20.919922 7
-0.123413 12.654297 33.114258 7
-0.10228 12.61377 32.798828 7
-0.105881 12.783691 32.793945 7
-0.18090799 15.871582 32.714844 7
-0.16177399 15.817627 32.426758 7
-0.12669399 15.727295 31.896484 7
-0.128059 15.80957 31.878906 7
0.424393 27.5354 -1.09082 7
-0.24497201 -5.2180181 -33.40625 7
-0.241386 -5.3737788 -33.329102 7
-0.26691401 -5.512939 -33.678711 7
-0.27946499 -5.624023 -33.845703 7
-0.28110501 -5.7104492 -33.854492 7
-0.14753699 -8.5793457 -31.255859 7
-0.13461301 -8.6079102 -31.054688 7
-0.128967 -8.6628418 -30.955078 7
-0.118477 -8.6984863 -30.787109 7
-0.109589 -8.7399902 -30.642578 7
-0.097473003 -8.7687988 -30.453125 7
-0.163963 -10.85376 -30.796875 7
-0.155899 -10.891602 -30.661133 7
-0.18512 -11.103516 -31.032227 7
-0.167328 -11.095703 -30.762695 7
-0.33374801 -14.65918 -31.900391 7
-0.315155 -14.628174 -31.621094 7
-0.091895998 11.976318 30.647461 7
-0.094504997 12.130127 30.629883 7
-0.077064998 12.106689 30.379883 7
-0.17333999 15.106689 30.551758 7
-0.187424 15.267334 30.692383 7
-0.17421 15.251953 30.496094 7
-0.153008 15.184082 30.202148 7
-0.136848 15.147461 29.969727 7
-0.148834 15.294434 30.083984 7
-0.194984 -4.2980962 -30.255859 7
-0.208527 -4.3979492 -30.424805 7
-0.217712 -4.4897461 -30.536133 7
-0.098236002 -8.9624023 -27.879883 7
-0.13402601 -9.9362793 -28.060547 7
-0.14019001 -10.031494 -28.113281 7
-0.148956 -10.138916 -28.200195 7
-0.34835801 -13.816895 -29.574219 7
-0.34272 -13.858398 -29.472656 7
-0.32659101 -13.841309 -29.243164 7
-0.31964099 -13.874756 -29.125 7
-0.33632699 -14.038574 -29.292969 7
-0.105003 11.209717 28.741211 7
-0.093062997 11.216064 28.575195 7
-0.072075002 11.177002 28.301758 7
-0.109062 11.425049 28.71582 7
-0.081267998 11.350586 28.360352 7
-0.063446 11.324707 28.124023 7
-0.084587 11.496338 28.351562 7
-0.17901599 14.474121 28.365234 7
-0.16528299 14.454102 28.176758 7
-0.13311 14.446045 27.71582 7
0.34301001 24.96875 -0.074219003 7
0.341499 24.988281 -0.133789 7
0.339111 25.016846 -0.31347701 7
-0.28996301 -4.092773 -29.399414 7
-0.298843 -4.1801758 -29.499023 7
-0.30491599 -4.2631841 -29.564453 7
-0.130539 -9.0698242 -26.183594 7
-0.123566 -9.1069336 -26.079102 7
-0.130142 -9.1972656 -26.134766 7
-0.12831099 -9.2541504 -26.089844 7
-0.14992499 -9.5358887 -26.277344 7
-0.359474 -13.233398 -27.573242 7
-0.34316999 -13.21582 -27.356445 7
-0.32544699 -13.190186 -27.125 7
-0.34513101 -13.360596 -27.31543 7
-1.1114579 -36.852051 16.362305 7
-1.026001 -34.418213 19.017578 7
-0.156883 8.0002441 28.475586 7
-0.137573 8.1247559 28.200195 7
-0.085860997 10.638428 26.71582 7
-0.070724003 10.627441 26.524414 7
-0.081551 10.798828 26.598633 7
-0.073174 10.818604 26.481445 7
-0.176064 13.824463 26.484375 7
-0.17780299 13.894775 26.472656 7
-0.15884399 13.842773 26.241211 7
-0.14566 13.82373 26.070312 7
-0.142105 13.861572 26.001953 7
-0.15541799 14.000244 26.112305 7
-0.198395 -3.0202639 -26.263672 7
-0.210953 -3.101562 -26.401367 7
-0.245598 -3.2792971 -26.787109 7
-0.249626 -3.351074 -26.826172 7
-0.110558 -8.6606445 -23.926758 7
-0.136719 -8.8195801 -24.192383 7
-0.121681 -8.8222656 -24.006836 7
-0.125229 -8.8947754 -24.023438 7
-0.31661201 -12.409668 -24.944336 7
-0.30710599 -12.423828 -24.814453 7
-0.30565599 -12.477783 -24.769531 7
-0.074280001 10.040771 24.80957 7
-0.067405999 10.06543 24.71582 7
-0.099922001 10.267334 25.029297 7
-0.076453999 10.217041 24.764648 7
-0.064925998 10.220947 24.625 7
-0.165382 13.164307 24.494141 7
-0.176064 13.279785 24.569336 7
-0.162468 13.258301 24.407227 7
-0.155586 13.27417 24.30957 7
-0.142509 13.254395 24.15332 7
-0.142349 13.307861 24.121094 7
0.30799901 21.803711 -2.5830081 7
0.30767101 21.799316 -2.6357419 7
0.303406 21.84082 -2.6972661 7
0.292236 21.962158 -2.7744141 7
0.301285 21.849365 -2.8056641 7
0.30243701 21.827148 -2.855469 7
-0.118103 -8.064209 -22.382812 7
-0.110077 -8.0913086 -22.28125 7
-0.10849 -8.1408691 -22.245117 7
-0.13001999 -8.2736816 -22.445312 7
-0.125221 -8.3120117 -22.375977 7
-0.12524401 -8.3676758 -22.356445 7
-0.30351299 -11.822998 -22.96875 7
-0.85149401 -29.420654 13.914062 7
-0.78476 -28.742432 13.706055 7
-0.80840302 -27.471924 16.716797 7
-0.787476 -27.24292 16.672852 7
-0.77928901 -27.130615 16.694336 7
-0.78884101 -27.180664 16.806641 7
-0.78397399 -27.098633 16.844727 7
-0.118286 6.9807129 24.633789 7
-0.118179 7.0353999 24.617188 7
-0.077216998 9.5703115 23.297852 7
-0.100861 9.7229004 23.503906 7
-0.092430003 9.7392578 23.400391 7
-0.080688 9.7409668 23.265625 7
-0.098259002 9.8691406 23.414062 7
-0.097015001 9.9160156 23.379883 7
-0.166283 12.536377 22.930664 7
-0.170532 12.61084 22.941406 7
-0.17865001 12.705811 22.987305 7
-0.17738301 12.750244 22.946289 7
-0.165108 12.735107 22.806641 7
-0.16163599 12.76709 22.746094 7
-0.15377 12.775146 22.646484 7
-0.16577099 -1.820801 -22.575195 7
-0.17208099 -1.88208 -22.633789 7
-0.179527 -1.94458 -22.704102 7
-0.22422799 -2.154541 -23.142578 7
-0.22251099 -2.2102051 -23.120117 7
-0.118355 -7.709229 -20.821289 7
-0.117226 -7.7575679 -20.791992 7
-0.121849 -7.8244629 -20.816406 7
-0.12532 -7.8886719 -20.831055 7
-0.133377 -7.9685059 -20.888672 7
-0.30903599 -11.203125 -21.418945 7
-0.305069 -11.239014 -21.357422 7
-0.30339101 -11.28418 -21.313477 7
-0.31778699 -11.403076 -21.416992 7
-0.70413202 -24.602051 15.735352 7
-0.70011097 -24.532715 15.773438 7
-0.68428802 -24.363281 15.750977 7
-0.68793499 -24.359619 15.826172 7
-0.68569201 -24.305176 15.87207 7
-0.67694098 -24.196045 15.884766 7
-0.68000799 -24.186768 15.957031 7
-0.107185 6.420166 23.123047 7
-0.106499 6.4699712 23.102539 7
-0.105194 6.5170898 23.076172 7
-0.106865 6.57373 23.078125 7
-0.084656 9.0605469 21.988281 7
-0.076278999 9.0761719 21.892578 7
-0.091476001 9.185791 22.009766 7
-0.094887003 9.2485352 22.019531 7
-0.081795 9.2441406 21.880859 7
-0.076958001 9.2729492 21.817383 7
-0.179993 12.216309 21.494141 7
-0.179848 12.263428 21.46582 7
-0.167358 12.246582 21.333008 7
-0.158409 12.247314 21.230469 7
-0.15064199 12.253906 21.136719 7
-0.155762 12.327637 21.151367 7
-0.16677099 12.433594 21.216797 7
-0.095717996 -4.2019038 -20.139648 7
-0.0933 -4.247314 -20.105469 7
-0.094521001 -4.300293 -20.106445 7
-0.081757002 -4.3259282 -19.976562 7
-0.084807999 -4.3820801 -19.995117 7
-0.089080997 -4.440918 -20.024414 7
-0.109016 -7.0710449 -19.482422 7
-0.109055 -7.1196289 -19.463867 7
-0.110901 -7.1743159 -19.464844 7
-0.113365 -7.230957 -19.469727 7
-0.112167 -7.2758789 -19.442383 7
-0.133522 -7.3930659 -19.616211 7
-0.12503099 -7.4147949 -19.522461 7
-0.124443 -7.4621582 -19.499023 7
-0.139099 -7.5585942 -19.612305 7
-0.136696 -7.5996089 -19.571289 7
-0.413818 -12.616943 -20.063477 7
-0.408981 -12.643311 -19.994141 7
-0.41271201 -12.711426 -19.994141 7
-0.64718598 -22.461182 15.055664 7
-0.28128099 3.5439451 24.033203 7
-0.122643 5.887939 22.06543 7
-0.117531 5.9233398 22.006836 7
-0.109276 5.9511719 21.920898 7
-0.107925 5.9960942 21.896484 7
-0.110962 6.0524902 21.910156 7
-0.106941 8.659668 20.975586 7
-0.103706 8.6936045 20.928711 7
-0.089844003 8.6872559 20.791992 7
-0.084587 8.7592773 20.708984 7
-0.098853998 8.8598633 20.80957 7
-0.090607002 8.8737793 20.719727 7
-0.099861003 8.9560547 20.77832 7
-0.185509 11.84375 20.199219 7
-0.086516999 -3.888916 -18.766602 7
-0.074859999 -3.915771 -18.654297 7
-0.078116998 -3.9685061 -18.672852 7
-0.078125 -4.0153809 -18.663086 7
-0.079429999 -4.0644531 -18.665039 7
-0.096275002 -4.1425781 -18.803711 7
-0.074905001 -4.1506348 -18.606445 7
-0.101082 -6.7602539 -18.105469 7
-0.108238 -6.8273931 -18.149414 7
-0.114105 -6.890625 -18.182617 7
-0.112823 -6.9328609 -18.155273 7
-0.114792 -6.9841309 -18.154297 7
-0.32737699 -10.304932 -18.758789 7
-0.31514701 -10.348145 -18.610352 7
-0.30610701 -10.357178 -18.513672 7
-0.30612901 -10.403809 -18.489258 7
-0.62854803 -22.400391 11.623047 7
-0.59345198 -22.095947 11.545898 7
-0.555565 -20.116211 14.363281 7
-0.114456 5.5769038 20.766602 7
-0.103714 5.5961909 20.664062 7
-0.102959 5.639648 20.644531 7
-0.099541001 5.6767578 20.604492 7
-0.097442999 5.717041 20.574219 7
-0.075728998 8.2602539 19.474609 7
-0.072959997 8.2932129 19.43457 7
-0.10006 8.4360352 19.631836 7
-0.16635101 11.22583 18.836914 7
-0.16423801 11.257324 18.795898 7
-0.18063401 11.377686 18.891602 7
-0.17784899 11.406006 18.844727 7
-0.164497 11.382568 18.719727 7
-0.15775301 11.390869 18.644531 7
-0.15298501 11.40918 18.584961 7
-0.15087099 11.439697 18.542969 7
-0.185829 -0.62158197 -18.867188 7
-0.194038 -0.67138702 -18.935547 7
-0.19677 -0.719971 -18.958008 7
-0.20567299 -0.77050799 -19.03125 7
-0.220039 -0.82348597 -19.150391 7
-0.222092 -0.87231398 -19.165039 7
-0.198814 -0.91088903 -18.96582 7
-0.085312001 -3.5297849 -17.683594 7
-0.083267003 -3.571533 -17.658203 7
-0.087387003 -3.6225591 -17.683594 7
-0.075057998 -3.647949 -17.572266 7
-0.085358001 -3.708252 -17.648438 7
-0.094260998 -3.767822 -17.712891 7
-0.095642 -3.815186 -17.71582 7
-0.080588996 -3.8344729 -17.581055 7
-0.10701 -6.4404302 -17.074219 7
-0.108406 -6.4875488 -17.069336 7
-0.131721 -6.597168 -17.240234 7
-0.12011 -6.6074219 -17.130859 7
-0.120132 -6.6508789 -17.115234 7
-0.119476 -6.6921391 -17.09375 7
-0.32242599 -9.932373 -17.504883 7
-0.314926 -9.9467773 -17.423828 7
-0.31018099 -9.9711914 -17.363281 7
-0.30473301 -9.9931641 -17.298828 7
-0.306831 -10.045166 -17.290039 7
-0.317177 -10.130859 -17.342773 7
-0.41043901 -11.667725 -17.341797 7
-0.41117099 -11.7146 -17.319336 7
-0.40161899 -11.715088 -17.223633 7
-0.40168801 -11.758545 -17.195312 7
-0.40173301 -11.802246 -17.167969 7
-0.123405 5.1599121 19.834961 7
-0.102043 5.2412109 19.629883 7
-0.113197 5.3105469 19.707031 7
-0.103973 5.3322749 19.623047 7
-0.103195 5.3735352 19.605469 7
-0.106628 5.4243159 19.620117 7
-0.079094 7.8161621 18.537109 7
-0.081573002 7.947021 18.50293 7
-0.078658998 7.9772949 18.462891 7
-0.159935 11.046631 17.569336 7
-0.15770701 11.074951 17.529297 7
-0.159676 11.122803 17.517578 7
-0.064681999 -3.219238 -16.463867 7
-0.069770999 -3.2687991 -16.496094 7
-0.074127004 -3.316895 -16.522461 7
-0.077766001 -3.3642581 -16.542969 7
-0.076332003 -3.404053 -16.523438 7
-0.072731003 -3.4824221 -16.477539 7
-0.069824003 -3.519531 -16.447266 7
-0.096901 -6.0922852 -15.943359 7
-0.10273 -6.148438 -15.973633 7
-0.110741 -6.2106929 -16.018555 7
-0.10714 -6.2416992 -15.976562 7
-0.10643 -6.280273 -15.956055 7
-0.115166 -6.3452148 -16.006836 7
-0.38677201 -11.235596 -15.916016 7
-0.38246199 -11.25708 -15.860352 7
-0.385414 -11.310303 -15.853516 7
-0.38039401 -11.328125 -15.791016 7
-0.39061701 -11.41333 -15.832031 7
-0.45962501 -16.880615 13.261719 7
-0.45301101 -16.810059 13.271484 7
-0.447128 -16.744385 13.28418 7
-0.44423699 -16.697021 13.30957 7
-0.44728899 -16.687744 13.363281 7
-0.447357 -16.659668 13.402344 7
-0.44446599 -16.612061 13.429688 7
-0.111504 4.8112788 18.742188 7
-0.1092 4.8476558 18.713867 7
-0.107628 4.884521 18.691406 7
-0.100853 4.9111328 18.629883 7
-0.103745 4.9577641 18.640625 7
-0.101433 4.9934082 18.611328 7
-0.098373003 5.0273442 18.578125 7
-0.097542003 5.0661621 18.560547 7
-0.102661 5.1181641 18.587891 7
-0.16577899 10.610107 16.611328 7
-0.171562 10.672119 16.624023 7
-0.169228 10.698242 16.585938 7
-0.1595 10.689941 16.498047 7
-0.154953 10.705322 16.445312 7
-0.151131 10.723145 16.395508 7
-0.151749 10.761963 16.375977 7
-0.156784 10.820801 16.382812 7
-0.074134998 -2.89502 -15.59668 7
-0.057273999 -2.9125979 -15.462891 7
-0.057280999 -2.952148 -15.456055 7
-0.061119001 -2.9968259 -15.478516 7
-0.068787001 -3.046875 -15.52832 7
-0.077232003 -3.098145 -15.583008 7
-0.068030998 -3.1247561 -15.506836 7
-0.065750003 -3.1611331 -15.482422 7
-0.062691003 -3.1962891 -15.452148 7
-0.092032999 -5.7834468 -14.957031 7
-0.102783 -5.8493652 -15.019531 7
-0.10051 -5.8818359 -14.989258 7
-0.103607 -5.9282231 -14.996094 7
-0.102859 -5.964355 -14.976562 7
-0.29537201 -9.2282705 -15.03418 7
-0.296951 -9.2724609 -15.022461 7
-0.195381 0.24707 -15.78125 7
-0.205742 0.206543 -15.857422 7
-0.198669 0.164795 -15.805664 7
-0.060127001 -2.571533 -14.601562 7
-0.058510002 -2.6069341 -14.583984 7
-0.052841 -2.6376951 -14.537109 7
-0.054458998 -2.6767581 -14.541992 7
-0.060134999 -2.7211909 -14.576172 7
-0.068245001 -2.7685549 -14.626953 7
-0.062583998 -2.798584 -14.579102 7
-0.056099001 -2.827637 -14.526367 7
-0.057732001 -2.867188 -14.53125 7
-0.069159999 -5.4489751 -13.902344 7
-0.081344999 -5.514648 -13.97168 7
-0.085418999 -5.5605469 -13.985352 7
-0.082190998 -5.588623 -13.950195 7
-0.083022997 -5.6262212 -13.942383 7
-0.099257998 -5.703125 -14.037109 7
-0.104958 -5.7531738 -14.060547 7
-0.27556601 -8.6552734 -14.019531 7
-0.281288 -8.7116699 -14.03418 7
-0.29835501 -8.8083496 -14.119141 7
-0.28947401 -8.8129883 -14.043945 7
-0.27978501 -8.8137207 -13.961914 7
-0.27575701 -8.8352051 -13.916016 7
-0.276604 -8.8740234 -13.900391 7
-0.27907601 -8.918457 -13.893555 7
-0.35823801 -10.249756 -13.703125 7
-0.36559299 -10.314941 -13.72168 7
-0.367264 -10.356689 -13.706055 7
-0.37137601 -10.408447 -13.705078 7
-0.38440701 -10.49707 -13.755859 7
-0.378777 -10.509033 -13.697266 7
-0.37233001 -10.517578 -13.634766 7
-0.36831701 -10.536133 -13.586914 7
-0.36430401 -10.554443 -13.538086 7
-0.17680401 0.48950201 -15.643555 7
-0.161018 0.44531199 -15.529297 7
-0.165039 0.40576199 -15.558594 7
-0.170647 0.366211 -15.599609 7
-0.173866 0.325928 -15.623047 7
-0.18343399 0.28637701 -15.693359 7
-0.050742999 -2.3925779 -13.75293 7
-0.050765999 -2.463623 -13.742188 7
-0.062798001 -5.1245122 -13.118164 7
-0.064521998 -5.162354 -13.116211 7
-0.073067002 -5.2155762 -13.157227 7
-0.074799001 -5.2541499 -13.15625 7
-0.076522999 -5.2919922 -13.154297 7
-0.079948001 -5.3339839 -13.164062 7
-0.082520001 -5.3742681 -13.166992 7
-0.089363001 -5.4248052 -13.198242 7
-0.274086 -8.5202637 -13.067383 7
-0.274986 -8.5571289 -13.052734 7
-0.27246901 -8.5820312 -13.016602 7
-0.27505499 -8.6247559 -13.011719 7
-0.35755199 -14.973877 9.2783203 7
-0.059082001 -1.981689 -13.108398 7
-0.05909 -2.0153811 -13.102539 7
-0.057289001 -2.0476069 -13.085938 7
-0.043861002 -2.068604 -12.995117 7
-0.038497999 -2.097168 -12.956055 7
-0.041182999 -2.1330571 -12.967773 7
-0.050140001 -2.209229 -13.014648 7
-0.059875 -4.8339839 -12.397461 7
-0.052726999 -4.8510742 -12.342773 7
-0.056334998 -4.8903809 -12.351562 7
-0.05545 -4.9204102 -12.333984 7
-0.064429998 -4.9726558 -12.376953 7
-0.076095998 -5.0307622 -12.435547 7
-0.067153998 -5.0429692 -12.369141 7
-0.070754997 -5.083252 -12.378906 7
-0.068976998 -5.1118159 -12.356445 7
-0.374107 -9.9406738 -11.871094 7
-0.032088999 -1.9226069 -12.257812 7
-0.038658001 -1.960205 -12.291992 7
-0.047111999 -1.999756 -12.338867 7
-0.048996001 -2.033447 -12.345703 7
-0.050864998 -2.067627 -12.352539 7
-0.033980999 -2.0839839 -12.244141 7
-0.036804002 -2.118408 -12.256836 7
-0.042435002 -2.1555181 -12.285156 7
-0.034003999 -2.179199 -12.228516 7
-0.28163901 -8.0117188 -11.583984 7
-0.139687 1.275635 -12.90918 7
-0.143402 1.24292 -12.936523 7
-0.147118 1.210693 -12.961914 7
-0.14533199 1.174805 -12.954102 7
-0.146286 1.140869 -12.961914 7
-0.150925 1.108887 -12.993164 7
-0.160172 1.0788569 -13.053711 7
-0.14181501 1.0361331 -12.939453 7
-0.038635001 -1.622559 -11.661133 7
-0.028778 -1.645752 -11.599609 7
-0.026802 -1.674316 -11.583984 7
-0.02977 -1.706787 -11.59668 7
-0.02877 -1.736816 -11.587891 7
-0.028778 -1.767334 -11.583984 7
-0.031738002 -1.799805 -11.595703 7
-0.042587001 -1.838623 -11.65332 7
-0.032729998 -1.861084 -11.592773 7
-0.030762 -1.8898931 -11.576172 7
-0.053298999 -4.5087891 -11.023438 7
-0.059227001 -4.5493159 -11.044922 7
-0.051353 -4.5627441 -10.991211 7
-0.053344999 -4.5957031 -10.991211 7
-0.055335999 -4.628418 -10.990234 7
-0.060279999 -4.6677251 -11.006836 7
-0.072136 -4.721436 -11.05957 7
-0.075111002 -4.7570801 -11.06543 7
-0.07711 -4.7897949 -11.063477 7
-0.256935 -7.6853032 -10.738281 7
-0.26586899 -7.7412109 -10.762695 7
-0.25997201 -7.750977 -10.71582 7
-0.25803399 -7.7731929 -10.6875 7
-0.25510401 -7.791748 -10.654297 7
-0.25612599 -7.822998 -10.640625 7
-0.25123599 -7.8352051 -10.597656 7
-0.264099 -7.9050288 -10.641602 7
-0.27104899 -7.9550781 -10.65625 7
-0.26911199 -7.976562 -10.626953 7
-0.12659501 1.588135 -12.068359 7
-0.12957001 1.525635 -12.092773 7
-0.13546 1.464355 -12.133789 7
-0.13645899 1.432373 -12.144531 7
-0.138428 1.401123 -12.158203 7
-0.156837 1.379395 -12.271484 7
-0.163689 1.317627 -12.317383 7
-0.040656999 -1.287109 -11.130859 7
-0.041687001 -1.317139 -11.133789 7
-0.043747 -1.347412 -11.141602 7
-0.043747 -1.376709 -11.138672 7
-0.042716999 -1.4055181 -11.129883 7
-0.040656999 -1.43335 -11.114258 7
-0.026245 -1.452637 -11.030273 7
-0.031394999 -1.485352 -11.055664 7
-0.025223 -1.538818 -11.013672 7
-0.049720999 -4.1894531 -10.501953 7
-0.054885998 -4.2268071 -10.517578 7
-0.048721001 -4.2429199 -10.475586 7
-0.046677001 -4.2663569 -10.454102 7
-0.048751999 -4.2980962 -10.455078 7
-0.053925 -4.3356929 -10.470703 7
-0.063210003 -4.3813481 -10.508789 7
-0.068382002 -4.4196782 -10.526367 7
-0.059119999 -4.4291992 -10.467773 7
-0.061195001 -4.4606929 -10.466797 7
-0.246002 -7.3898931 -10.100586 7
-0.246033 -7.4169922 -10.083008 7
-0.25432599 -7.46875 -10.103516 7
-0.261581 -7.518311 -10.120117 7
-0.25645399 -7.5290532 -10.077148 7
-0.25339499 -7.5461431 -10.044922 7
-0.25239599 -7.5698242 -10.022461 7
-0.25243399 -7.5966802 -10.004883 7
-0.25041199 -7.6164551 -9.9765615 7
-0.25869 -7.669189 -9.9960938 7
-0.026611 -1.30127 -10.451172 7
-0.025528001 -1.327881 -10.442383 7
-0.019043 -1.351807 -10.405273 7
-0.022284999 -1.381348 -10.418945 7
-0.026611 -1.411621 -10.438477 7
-0.033089001 -1.443848 -10.469727 7
-0.025536001 -1.46582 -10.424805 7
-0.025536001 -1.493652 -10.421875 7
-0.02877 -1.523193 -10.43457 7
-0.024452001 -1.5480959 -10.40918 7
-0.021202 -1.5732419 -10.387695 7
-0.235451 -7.3557129 -9.2646484 7
-0.239792 -7.0483398 -8.828125 7
-0.24096701 -7.0756841 -8.8164062 7
-0.24099 -7.0993652 -8.7988281 7
-0.23538201 -7.1064448 -8.7578115 7
-0.230896 -7.1169429 -8.7236328 7
-0.234322 -7.1506348 -8.7197266 7
-0.23435999 -7.1740718 -8.703125 7
-0.23439001 -7.1975098 -8.6855469 7
-0.24007399 -7.2382808 -8.6923828 7
-0.248009 -7.2851558 -8.7070312 7
-0.250305 -7.3154302 -8.6982422 7
-0.24921399 -7.3356929 -8.6767578 7
-0.020218 -1.010254 -9.4541016 7
-0.02375 -1.037109 -9.4677734 7
-0.021400001 -1.0869139 -9.4521484 7
-0.024932999 -1.114014 -9.4658203 7
-0.033165 -1.143555 -9.5039062 7
-0.02375 -1.164062 -9.4550781 7
-0.027283 -1.191162 -9.46875 7
-0.027275 -1.216064 -9.4648438 7
-0.02375 -1.2392581 -9.4453115 7
-0.023758 -1.264648 -9.4423828 7
-0.228111 -6.7597661 -8.3154297 7
-0.225777 -6.7756348 -8.2900391 7
-0.22584499 -6.8208008 -8.2578115 7
-0.23294801 -6.86377 -8.2695312 7
-0.249458 -6.933105 -8.3183594 7
-0.248322 -6.9523931 -8.296875 7
-0.237747 -6.9445801 -8.2382812 7
-0.240135 -6.9736328 -8.2304688 7
-0.23899101 -6.9926758 -8.2089844 7
-0.237839 -7.0117192 -8.1884766 7
-0.231987 -7.0168462 -8.1484385 7
-0.13649701 2.549561 -9.5927734 7
-0.116844 2.474854 -9.5097656 7
-0.107605 2.4387209 -9.4707031 7
-0.105309 2.410156 -9.4648438 7
-0.108795 2.3876951 -9.4873047 7
-0.112289 2.36499 -9.5097656 7
-0.118095 2.3449709 -9.5429688 7
-0.119263 2.319824 -9.5537109 7
-0.118118 2.2919919 -9.5537109 7
-0.119308 2.2668459 -9.5644531 7
-0.122795 2.243896 -9.5869141 7
-0.240135 -6.722168 -7.8007808 7
-0.23525199 -6.72998 -7.7675781 7
-0.23407 -6.747314 -7.7451172 7
-0.23655701 -6.7758789 -7.7392578 7
-0.24394999 -6.817627 -7.75 7
-0.23538999 -6.8149409 -7.702148 7
-0.24156199 -6.853271 -7.7080078 7
-0.114494 2.7731929 -8.9277344 7
-0.110947 2.618896 -8.9501953 7
-0.108559 2.591553 -8.9443359 7
-0.107361 2.565186 -8.9443359 7
-0.109779 2.5427251 -8.9619141 7
-0.108597 2.516602 -8.9619141 7
-0.109818 2.4929199 -8.9736328 7
-0.112236 2.470459 -8.9902344 7
-0.11467 2.4477539 -9.0078115 7
-0.112267 2.4204099 -9.0009766 7
-0.12555701 2.4091799 -9.0683594 7
-0.127983 2.3864751 -9.0859385 7
-0.131622 2.3647461 -9.1083984 7
-0.134056 2.3417971 -9.125 7
-0.13285799 2.3154299 -9.125 7
-0.125633 2.2827151 -9.0957031 7
-0.12204 2.253906 -9.0839844 7
-0.017014001 -0.64282203 -8.5595703 7
-0.017006001 -0.66626 -8.5576172 7
-0.015724 -0.68896502 -8.5498047 7
-0.015717 -0.71166998 -8.5478516 7
-0.011879 -0.73339802 -8.5283203 7
-0.009323 -0.755615 -8.515625 7
-0.0093149999 -0.77905297 -8.5136719 7
-0.0093149999 -0.80200201 -8.5117188 7
-0.011879 -0.82592797 -8.5214844 7
-0.022118 -0.85327101 -8.5644531 7
-0.016998 -0.87402302 -8.5390615 7
-0.013153 -0.89550799 -8.5195312 7
-0.010597 -0.91772503 -8.5068359 7
-0.014427 -0.94213903 -8.5205078 7
-0.217484 -6.4033198 -7.2851558 7
-0.22007801 -6.4304199 -7.2792969 7
-0.22651701 -6.4680181 -7.2871089 7
-0.221413 -6.4741211 -7.2529302 7
-0.22529601 -6.5048828 -7.2519531 7
-0.230453 -6.5393071 -7.2548828 7
-0.22792099 -6.5517578 -7.2285161 7
-0.235641 -6.592773 -7.2392578 7
-0.22669999 -6.5883789 -7.1933589 7
-0.222885 -6.5978999 -7.164062 7
-0.22291601 -6.6179199 -7.148438 7
-0.225502 -6.6447749 -7.141602 7
-0.228104 -6.671875 -7.1337891 7
-0.22686 -6.6882319 -7.1142578 7
-0.230736 -6.71875 -7.110352 7
-0.23777001 -6.4074712 -6.8408198 7
-0.239136 -6.4301758 -6.8300781 7
-0.243172 -6.4602051 -6.828125 7
-0.23786201 -6.4648442 -6.7949219 7
-0.231232 -6.466064 -6.757812 7
-0.23259 -6.48877 -6.7470698 7
-0.235291 -6.514648 -6.7392578 7
-0.235329 -6.5336909 -6.7246089 7
-0.22039799 -6.188477 -6.375 7
-0.228752 -6.228271 -6.3876948 7
-0.23016401 -6.2502441 -6.3779302 7
-0.228836 -6.2824712 -6.342773 7
-0.22886699 -6.3005371 -6.328125 7
-0.22057299 -6.2966309 -6.2861328 7
-0.222023 -6.335938 -6.2607422 7
-0.22759999 -6.3684082 -6.2636719 7
-0.22624201 -6.3825679 -6.2441411 7
-0.21833 -6.0986328 -5.945312 7
-0.218346 -6.1157231 -5.9316411 7
-0.22269399 -6.1435552 -5.929688 7
-0.21697199 -6.1462402 -5.8974609 7
-0.215553 -6.1591802 -5.8789058 7
-0.212708 -6.168457 -5.8544922 7
-0.21849801 -6.200439 -5.8574219 7
-0.215675 -6.2268071 -5.8193359 7
-0.220047 -6.2714839 -5.8027339 7
-0.231621 -6.3347168 -5.804688 7
-0.23452801 -6.359375 -5.7988281 7
-0.235992 -6.3796391 -5.7880859 7
-0.210876 -5.939209 -5.1152339 7
-0.206268 -5.9428711 -5.0888672 7
-0.20629901 -5.9577641 -5.0742192 7
-0.20787001 -5.9770508 -5.0644531 7
-0.20636 -5.9875488 -5.0449219 7
-0.204834 -5.9987788 -5.0273442 7
-0.20022599 -6.0019531 -5 7
-0.20643599 -6.0324712 -5.0019531 7
0.031660002 -2.570204 -14.305144 7
0.044886 -1.6990581 -11.489053 7
-0.29404899 -7.0874481 -8.8687897 7
0.010633 -3.0923951 -6.3384771 7
-0.22725099 -6.563663 -6.7580671 7
-0.131797 -2.5682371 -14.235817 7
-0.058394998 -1.429081 -10.484998 7
-0.104453 -4.5692 -10.725174 7
-0.019756 -0.80558699 -8.4428558 7
-0.036543999 -3.678262 -8.0935297 7
-0.26843899 -7.6515059 -10.293615 7
-0.25177899 1.529464 -11.891359 7
-0.0034340001 -0.415768 -7.2439332 7
-0.010437 -3.2445481 -6.6991501 7
0.020144001 -0.133597 -6.244133 7
-0.17312901 -6.3054891 -6.0877991 7
