# .PCD v0.7 - Point Cloud Data file format
VERSION 0.7
FIELDS x y z intensity
SIZE 4 4 4 4
TYPE F F F F
COUNT 1 1 1 1
WIDTH 897
HEIGHT 1
VIEWPOINT 0 0 0 1 0 0 0
POINTS 897
DATA ascii
1.1823879 46.539551 -11.087891 7
0.128723 24.906006 71.224609 7
0.16410799 24.642822 69.976562 7
0.28640699 26.244629 64.869141 7
0.143112 31.352295 68.537109 7
0.20346101 30.58374 66.493164 7
1.0986021 44.014404 -9.8720703 7
1.0912631 44.292969 -10.055664 7
1.096222 44.073242 -10.109375 7
1.100281 43.220703 -13.222656 7
1.089645 43.617432 -13.473633 7
1.087341 43.682129 -13.609375 7
1.090042 43.546631 -13.677734 7
0.13650499 22.248047 64.354492 7
0.067824997 23.151367 66.419922 7
0.095412999 23.003418 65.527344 7
0.063385002 23.513184 66.463867 7
0.181473 25.064453 62.101562 7
0.17375199 25.308594 62.285156 7
0.134247 25.956055 63.428711 7
0.163666 25.731934 62.489258 7
0.018463001 30.420166 65.831055 7
0.078795999 29.724854 63.978516 7
0.106537 29.483154 63.094727 7
1.0097049 42.464111 -9.2275391 7
1.010849 42.404297 -9.3193359 7
1.001953 42.707275 -9.5039062 7
1.008286 42.459961 -9.546875 7
0.99932897 42.043701 -12.901367 7
0.106186 20.041748 59.356445 7
0.085220002 20.384521 59.899414 7
0.192993 22.119385 56.023438 7
0.15505999 22.674805 57.017578 7
0.16284201 22.721191 56.757812 7
0.15226699 23.7771 56.714844 7
0.105713 17.746338 53.943359 7
0.064467996 18.226562 54.948242 7
0.014008 18.791748 56.183594 7
0.15586901 20.123291 51.798828 7
0.12939499 20.508789 52.414062 7
0.142105 20.503418 52.055664 7
0.143295 22.11499 51.554688 7
0.144226 22.22583 51.486328 7
0.159531 22.178711 51.064453 7
0.17549101 22.122803 50.62793 7
0.113113 25.483398 51.051758 7
0.074463002 15.957031 49.737305 7
0.036086999 16.364746 50.581055 7
0.007431 16.701904 51.202148 7
-0.061981 17.357666 52.753906 7
0.117004 18.333008 47.921875 7
0.083343998 18.744629 48.639648 7
0.101227 18.697021 48.199219 7
0.084793001 20.869141 47.819336 7
0.114014 20.688477 47.130859 7
0.109192 20.958008 47.149414 7
0.158646 20.564941 46.016602 7
0.031174 24.39917 47.831055 7
0.058120999 24.204834 47.200195 7
0.080490001 24.060303 46.668945 7
0.100937 23.934326 46.177734 7
0.79586798 35.198242 -10.106445 7
-0.76129198 -21.030518 -65.355469 7
-0.85461402 -21.856689 -67.40625 7
-0.76542699 -21.369385 -65.332031 7
-0.84251398 -22.086426 -67.011719 7
0.006027 14.953125 47.112305 7
-0.01445 15.203613 47.508789 7
-0.060120001 15.63208 48.43457 7
0.069687001 17.039307 44.987305 7
0.091324002 16.968018 44.505859 7
0.074326001 17.209961 44.819336 7
0.119766 16.940918 43.849609 7
0.075393997 19.709961 43.932617 7
0.115402 19.436035 43.084961 7
0.096129999 19.718262 43.430664 7
0.136398 19.4375 42.581055 7
0.022629 22.899658 43.800781 7
0.044677999 22.76709 43.320312 7
0.058837999 22.717285 42.994141 7
0.082976997 22.55835 42.474609 7
0.081909001 22.668945 42.446289 7
-0.61756903 -17.524658 -56.548828 7
-0.72551 -18.339844 -58.728516 7
-0.67166102 -18.274658 -57.518555 7
-0.72488397 -18.754395 -58.563477 7
-0.78871202 -19.30835 -59.824219 7
-0.57345599 -20.645996 -54.314453 7
-0.57429498 -20.78125 -54.277344 7
0.028168 16.503906 41.869141 7
0.043961 16.479004 41.537109 7
0.051665999 16.515137 41.358398 7
0.053879 18.393799 40.569336 7
0.090972997 18.166016 39.849609 7
0.064650998 18.487061 40.291992 7
0.097121999 18.296143 39.658203 7
0.016311999 21.493164 40.061523 7
0.026870999 21.481445 39.827148 7
0.054062001 21.301758 39.297852 7
-0.658768 -16.044678 -53.148438 7
-0.73400903 -16.599609 -54.545898 7
-0.79525799 -17.080566 -55.669922 7
-0.84390301 -17.494385 -56.553711 7
-0.561737 -18.640625 -50.105469 7
-0.57023603 -18.818359 -50.21582 7
-0.639557 -19.414551 -51.459961 7
-0.63072199 -19.5979 -51.192383 7
-0.53811598 -19.070557 -49.416992 7
-0.57453901 -19.44458 -50.042969 7
-0.50337201 -19.058838 -48.669922 7
0.048447002 17.295898 37.837891 7
0.076843001 17.151855 37.317383 7
0.073334001 17.266846 37.34082 7
0.109146 17.057861 36.695312 7
-0.025314 20.655762 37.797852 7
-0.001617 20.520996 37.364258 7
0.021164 20.392578 36.945312 7
0.043930002 20.262451 36.527344 7
0.066696003 20.130859 36.111328 7
0.608109 31.187256 -4.8212891 7
0.60450703 31.246582 -4.9101558 7
0.602341 31.2771 -4.9931641 7
0.606552 31.181641 -5.0498052 7
-0.486267 -12.686523 -45.789062 7
-0.52783197 -12.995605 -46.486328 7
-0.56396502 -13.281738 -47.085938 7
-0.60426301 -13.591797 -47.759766 7
-0.645859 -13.911133 -48.454102 7
-0.702209 -14.306152 -49.404297 7
-0.73931903 -14.610107 -50.016602 7
-0.78286701 -14.949707 -50.741211 7
-0.423599 -15.355713 -43.649414 7
-0.45596299 -15.651855 -44.165039 7
-0.45202601 -15.733887 -44.055664 7
-0.478928 -16.001221 -44.476562 7
-0.45997599 -17.147705 -43.631836 7
-0.488846 -17.440674 -44.077148 7
-0.43632501 -17.200439 -43.140625 7
-0.68550098 -21.620605 -46.053711 7
-0.65287799 -21.483398 -45.461914 7
-0.62895203 -21.40918 -45.011719 7
0.064087003 15.94165 34.557617 7
0.094619997 15.790283 34.046875 7
0.080627002 15.974854 34.230469 7
0.095306002 15.940918 33.96582 7
0.117752 15.846924 33.583008 7
0.011917 19.05542 34.056641 7
0.018158 19.078613 33.920898 7
0.037521001 18.986084 33.589844 7
0.049819998 18.954102 33.364258 7
0.066817999 18.87915 33.068359 7
0.043152001 19.16748 33.379883 7
0.555206 29.480713 -4.1972661 7
0.55186498 29.530273 -4.2792969 7
0.55453497 29.448242 -4.4794922 7
0.54771399 28.855957 -7.702148 7
-0.47401401 -11.060547 -42.220703 7
-0.496048 -11.254639 -42.550781 7
-0.53539997 -11.52417 -43.163086 7
-0.56263697 -11.744629 -43.577148 7
-0.59024 -11.968994 -43.995117 7
-0.63618499 -12.274902 -44.711914 7
-0.41832 -13.874023 -40.291992 7
-0.41680899 -13.962891 -40.231445 7
-0.46043399 -14.295654 -40.890625 7
-0.44253501 -15.939209 -39.898438 7
-0.39649999 -15.753662 -39.136719 7
-0.42593399 -16.028076 -39.555664 7
-0.40077201 -15.967773 -39.121094 7
-0.66902202 -20.280273 -42.046875 7
-0.61070299 -19.963623 -41.110352 7
-0.57815599 -19.828369 -40.567383 7
0.096694998 14.849365 31.569336 7
0.093764998 15.015137 31.546875 7
0.025162 18.069336 31.240234 7
0.037308 18.038818 31.032227 7
0.051971 17.986816 30.791016 7
0.054687999 18.034424 30.713867 7
0.50715601 28.072266 -3.6455081 7
0.50213599 28.14624 -3.7275391 7
0.50640899 28.065186 -3.780273 7
0.50860602 28.018066 -3.839844 7
-0.434845 -9.3635254 -38.24707 7
-0.464066 -9.5610352 -38.661133 7
-0.51361102 -9.8352051 -39.381836 7
-0.54171801 -10.03418 -39.77832 7
-0.575104 -10.254395 -40.253906 7
-0.61477703 -10.599365 -40.794922 7
-0.374329 -12.001465 -36.435547 7
-0.37413001 -12.088623 -36.402344 7
-0.39436299 -12.272705 -36.667969 7
-0.414978 -12.460449 -36.938477 7
-0.41452 -14.745605 -36.015625 7
-0.36436501 -14.545654 -35.258789 7
-0.40356401 -14.856201 -35.783203 7
-0.370819 -14.75293 -35.276367 7
-0.60766602 -18.680908 -37.421875 7
-0.570297 -18.519531 -36.857422 7
-0.532547 -18.352539 -36.288086 7
-0.52973902 -18.42041 -36.203125 7
-1.5443881 -49.990723 23.414062 7
-1.497116 -49.302979 23.250977 7
0.049896002 14.069824 29.802734 7
0.078033 13.951416 29.398438 7
0.088821001 13.946045 29.223633 7
0.066528 14.162109 29.489258 7
-0.002716 17.207764 29.06543 7
0.013153 17.148438 28.827148 7
0.030212 17.079102 28.574219 7
0.038238999 17.080566 28.435547 7
-0.498932 -8.607666 -36.704102 7
-0.50917101 -8.7297363 -36.825195 7
-0.53393602 -8.9001455 -37.151367 7
-0.567123 -9.0998545 -37.595703 7
-0.58584601 -9.2539062 -37.835938 7
-0.38285801 -11.008301 -34.222656 7
-0.366501 -11.020508 -33.967773 7
-0.368301 -11.111084 -33.963867 7
-0.34788501 -11.103516 -33.65332 7
-0.396027 -13.852783 -33.311523 7
-0.54063398 -17.546631 -33.820312 7
-0.52339202 -17.516602 -33.554688 7
0.013901 10.894531 29.482422 7
0.015289 10.954346 29.441406 7
0.066024996 13.274902 27.757812 7
0.075836003 13.275879 27.606445 7
0.049942002 13.502197 27.897461 7
0.074019998 13.412354 27.569336 7
-0.021957001 16.454834 27.469727 7
-0.025986001 16.547363 27.480469 7
-0.0094910003 16.485596 27.248047 7
0.0036470001 16.448975 27.057617 7
0.019286999 16.391113 26.836914 7
0.006668 16.610107 26.911133 7
-0.46478301 -7.390625 -33.56543 7
-0.49102801 -7.5466309 -33.890625 7
-0.51118499 -7.6867681 -34.134766 7
-0.33793601 -12.551514 -30.036133 7
-0.33766201 -12.623291 -30.000977 7
-0.34744301 -12.744873 -30.088867 7
-0.55120802 -16.40332 -31.317383 7
-0.539581 -16.40918 -31.137695 7
-0.51832598 -16.355469 -30.844727 7
-0.53120399 -16.509033 -30.956055 7
0.018616 10.054932 27.467773 7
0.015106 10.133301 27.487305 7
0.012512 10.207275 27.496094 7
0.047637999 12.5 26.050781 7
0.041885 12.592773 26.088867 7
0.065079004 12.514404 25.794922 7
0.076049998 12.50708 25.640625 7
0.051178001 12.727539 25.920898 7
0.071181998 12.666016 25.663086 7
0.074036002 12.707031 25.603516 7
-0.026839999 15.738525 25.425781 7
-0.019928001 15.746582 25.31543 7
0.011139 15.693604 24.874023 7
-0.40141299 -6.1286621 -30.65625 7
-0.39924601 -6.19873 -30.614258 7
-0.41612199 -6.3144531 -30.804688 7
-0.31812999 -11.631104 -27.780273 7
-0.32528701 -11.732422 -27.833984 7
-0.325607 -11.869629 -27.77832 7
-0.51838702 -15.493652 -28.65918 7
-0.497971 -15.445557 -28.394531 7
-1.09491 -35.779053 17.641602 7
-1.09079 -35.654297 17.788086 7
-0.0069579999 9.2810059 26.200195 7
-0.0058749998 9.3349609 26.167969 7
-0.00091599999 9.3723145 26.09082 7
-0.0085450001 9.463623 26.15625 7
-0.002625 9.4970703 26.069336 7
-0.001068 9.5490723 26.03125 7
0.0063169999 9.5751953 25.926758 7
0.034485001 11.94458 24.584961 7
0.049545001 11.915039 24.396484 7
0.059799001 11.912354 24.259766 7
0.051529001 12.123047 24.268555 7
-0.041367002 15.143799 23.856445 7
-0.033539001 15.144531 23.744141 7
-0.020904999 15.111328 23.583984 7
-0.0097049996 15.087646 23.4375 7
-0.01149 15.152588 23.420898 7
-0.018539 15.25415 23.457031 7
0.326462 23.208984 -1.619141 7
0.32983401 23.161377 -1.6669919 7
0.32624799 23.199951 -1.728516 7
0.32220501 23.244385 -1.7900389 7
0.32788101 23.166748 -1.8349611 7
0.33447301 23.077881 -1.87793 7
0.34678599 22.352051 -4.8613281 7
0.34551999 22.354248 -4.9179692 7
0.34701499 22.322266 -4.9648442 7
0.34803799 22.29541 -5.014648 7
0.34214801 22.352295 -5.0888672 7
-0.353439 -5.184814 -27.931641 7
-0.283508 -10.35376 -25.487305 7
-0.28364599 -10.416992 -25.462891 7
-0.29434201 -10.524658 -25.551758 7
-0.272903 -10.49585 -25.293945 7
-0.27807599 -10.580078 -25.322266 7
-0.28524801 -10.67334 -25.374023 7
-0.286392 -10.740723 -25.359375 7
-0.29556301 -10.842529 -25.430664 7
-0.48999 -14.448242 -26.148438 7
-0.48008701 -14.458252 -26.011719 7
-0.90596002 -29.691162 18.901367 7
-0.89140302 -29.509521 18.887695 7
0.039565999 11.213623 22.902344 7
0.028305 11.324219 22.990234 7
0.047042999 11.276611 22.777344 7
0.054916002 11.285889 22.673828 7
0.02919 11.473389 22.904297 7
0.043274 11.448975 22.738281 7
0.054244999 11.441162 22.603516 7
-0.045807 14.443848 22.167969 7
-0.027512001 14.423584 21.932617 7
-0.019638 14.421387 21.827148 7
-0.025543001 14.557861 21.816406 7
0.31489599 21.108643 -4.5683589 7
0.31350699 21.110596 -4.6230469 7
0.31220999 21.0979 -4.7275391 7
0.312805 21.077881 -4.7744141 7
-0.391159 -4.5222168 -26.501953 7
-0.390762 -4.5866699 -26.484375 7
-0.39515701 -4.659668 -26.519531 7
-0.40811199 -4.749023 -26.646484 7
-0.42318699 -4.8430181 -26.796875 7
-0.256989 -9.6865234 -23.426758 7
-0.26676899 -9.7836914 -23.500977 7
-0.26368701 -9.8288574 -23.445312 7
-0.26490799 -9.8913574 -23.432617 7
-0.284897 -10.030518 -23.609375 7
-0.27751201 -10.058594 -23.509766 7
-0.2798 -10.125732 -23.506836 7
-0.86254901 -28.809326 15.055664 7
-0.81809998 -28.355713 14.922852 7
-0.79203802 -28.077148 14.871094 7
-0.81584197 -26.782959 17.698242 7
-0.80700701 -26.664551 17.713867 7
-0.79203802 -26.491699 17.694336 7
-0.791565 -26.448486 17.753906 7
-0.791641 -26.409668 17.816406 7
-0.79171801 -26.371338 17.87793 7
0.001236 8.1289062 22.958984 7
0.000229 8.1838379 22.950195 7
0.001434 8.2302246 22.919922 7
0.0026400001 8.2766113 22.889648 7
0.0082700001 8.3056641 22.816406 7
0.037246998 10.797607 21.421875 7
0.018066 10.942139 21.575195 7
0.023925999 11.05542 21.445312 7
-0.055236999 13.857422 20.74707 7
-0.056747001 13.913086 20.728516 7
-0.04837 13.907227 20.625 7
-0.041092001 13.907471 20.53125 7
0.272369 20.768066 -0.94531202 7
-0.304672 -3.560303 -23.942383 7
-0.31619301 -3.6364751 -24.048828 7
-0.319168 -3.7006841 -24.069336 7
-0.33012399 -3.776123 -24.168945 7
-0.25582901 -9.3891602 -21.698242 7
-0.25996399 -9.4587402 -21.712891 7
-0.47151199 -12.890869 -22.375977 7
-0.463043 -12.904297 -22.267578 7
-0.45628399 -12.926514 -22.176758 7
-0.450104 -12.950684 -22.089844 7
-0.467484 -13.091064 -22.211914 7
-0.679703 -23.631348 16.558594 7
-0.69163501 -23.692871 16.678711 7
0.0045619998 7.714355 21.55957 7
0.0070190001 7.7531738 21.519531 7
0.0094600003 7.791748 21.479492 7
0.009567 7.839355 21.461914 7
0.029083 10.303467 20.179688 7
0.017441001 10.404541 20.257812 7
0.026366999 10.406006 20.15625 7
0.033645999 10.459717 20.045898 7
-0.041244999 13.344482 19.129883 7
-0.037018001 13.361572 19.066406 7
-0.041000001 13.427734 19.066406 7
0.238556 19.803711 -0.55273402 7
0.238083 19.804199 -0.600586 7
-0.36160299 -3.246582 -23.014648 7
-0.370193 -3.3149409 -23.086914 7
-0.369095 -3.3703611 -23.067383 7
-0.25050399 -8.6560059 -20.359375 7
-0.25610399 -8.7270508 -20.387695 7
-0.264725 -8.8088379 -20.442383 7
-0.26303101 -8.8535156 -20.405273 7
-0.26557899 -8.9133301 -20.405273 7
-0.45864901 -12.168457 -20.81543 7
-0.479523 -12.316406 -20.959961 7
-0.467453 -12.3125 -20.829102 7
-0.46331799 -12.344727 -20.764648 7
-0.45855701 -12.373535 -20.694336 7
-0.631531 -21.662109 15.798828 7
-0.64228803 -21.709961 15.905273 7
-0.64109802 -21.666016 15.950195 7
-0.63610798 -21.593262 15.975586 7
-0.0051569999 7.3396001 20.469727 7
0.017761 9.8774414 19.125 7
-0.005814 10.027832 19.295898 7
-9.2000002e-05 10.044189 19.225586 7
-0.079406999 12.898926 18.306641 7
-0.078658998 12.934814 18.271484 7
-0.069839001 12.924561 18.176758 7
-0.067244999 12.949463 18.12793 7
-0.060286999 12.949707 18.046875 7
-0.054581001 12.955811 17.974609 7
-0.061294999 13.035156 17.996094 7
-0.28225699 -2.3349609 -20.90918 7
-0.283005 -2.387939 -20.90918 7
-0.30114701 -2.4577639 -21.06543 7
-0.19371 -5.276123 -19.504883 7
-0.22238199 -8.0402832 -18.806641 7
-0.225723 -8.098877 -18.814453 7
-0.238144 -8.1877441 -18.897461 7
-0.239548 -8.2397461 -18.888672 7
-0.239655 -8.2875977 -18.869141 7
-0.445862 -11.714111 -19.171875 7
-0.440155 -11.73584 -19.098633 7
-0.44351199 -11.798828 -19.095703 7
-0.551956 -13.498535 -19.145508 7
-0.53518701 -13.463135 -18.987305 7
-0.53076202 -13.488525 -18.921875 7
-0.52763402 -13.519775 -18.865234 7
-0.55442798 -13.700684 -19.03125 7
-0.63178998 -22.002686 12.211914 7
-0.63453698 -21.997803 12.274414 7
-0.63194299 -21.951172 12.316406 7
-0.61131299 -21.763916 12.287109 7
-0.58801299 -21.556641 12.246094 7
-0.60478199 -21.6604 12.363281 7
-0.61152601 -21.686768 12.44043 7
-0.60491902 -21.608154 12.46582 7
-0.56776398 -19.634033 15.069336 7
-0.55778497 -19.529785 15.066406 7
-0.011566 6.721436 19.469727 7
-0.013474 6.77002 19.469727 7
-0.0087430002 6.797852 19.416016 7
-0.0079960003 6.8381348 19.394531 7
-0.0039220001 6.8679199 19.345703 7
0.000137 6.8979492 19.297852 7
-0.000443 6.9416499 19.286133 7
-0.001022 6.9858398 19.275391 7
-0.00093099999 7.0280762 19.259766 7
0.011612 9.3271484 18.118164 7
-0.000214 9.4172363 18.1875 7
0.022399999 9.3588867 17.993164 7
0.022598 9.4367676 17.949219 7
-0.0024570001 9.5861816 18.118164 7
0.015518 9.5471191 17.959961 7
0.019592 9.5681152 17.907227 7
0.024979001 9.5837402 17.845703 7
-0.060256999 12.410156 16.883789 7
-0.055511001 12.421387 16.824219 7
-0.052108999 12.438721 16.772461 7
-0.048691001 12.456299 16.719727 7
-0.291794 -1.90625 -19.802734 7
-0.28643799 -1.9519041 -19.750977 7
-0.29946899 -2.011719 -19.856445 7
-0.30432099 -2.0656741 -19.891602 7
-0.31805399 -2.126709 -20.000977 7
-0.337906 -2.194092 -20.164062 7
-0.346176 -2.2519529 -20.227539 7
-0.177872 -4.8051758 -18.269531 7
-0.192993 -4.8825679 -18.381836 7
-0.201965 -4.9472661 -18.443359 7
-0.216415 -5.0241699 -18.550781 7
-0.208313 -5.0532231 -18.470703 7
-0.192688 -5.0664058 -18.329102 7
-0.187332 -5.1003418 -18.271484 7
-0.239471 -7.7788091 -17.785156 7
-0.240952 -7.828125 -17.777344 7
-0.245148 -7.8857422 -17.789062 7
-0.24867199 -7.9421391 -17.797852 7
-0.45028701 -11.219238 -18.007812 7
-0.43942299 -11.217529 -17.900391 7
-0.43130499 -11.227783 -17.814453 7
-0.42866501 -11.260498 -17.766602 7
-0.45074499 -11.400391 -17.899414 7
-0.461853 -11.493652 -17.953125 7
-0.455109 -11.508789 -17.875 7
-0.066330001 11.899658 15.991211 7
-0.074371003 12.046875 15.959961 7
-0.057541002 11.991211 15.824219 7
-0.065094002 12.066406 15.845703 7
-0.051056001 12.025146 15.728516 7
-0.066269003 12.141602 15.797852 7
-0.055709999 12.118652 15.703125 7
-0.173325 -4.310791 -17.179688 7
-0.16690101 -4.3422852 -17.119141 7
-0.174225 -4.3991699 -17.165039 7
-0.179382 -4.452148 -17.194336 7
-0.193314 -4.565918 -17.280273 7
-0.206039 -7.072998 -16.527344 7
-0.20251501 -7.1037598 -16.482422 7
-0.209869 -7.1677251 -16.519531 7
-0.211411 -7.2133789 -16.512695 7
-0.22238199 -7.2885742 -16.576172 7
-0.218124 -7.3171391 -16.526367 7
-0.42208901 -10.640869 -16.616211 7
-0.41143799 -10.680908 -16.491211 7
-0.40643299 -10.700928 -16.430664 7
-0.42036399 -10.800293 -16.499023 7
-0.44464099 -16.317871 13.695312 7
-0.456635 -16.363037 13.790039 7
-0.455933 -16.328857 13.826172 7
0.003571 8.6435547 16.249023 7
0.010315 8.6523438 16.183594 7
0.019286999 8.6513672 16.103516 7
0.0097660003 8.7246094 16.148438 7
-0.0034640001 8.8127441 16.217773 7
0.0077209999 8.8027344 16.12207 7
0.012253 8.8190918 16.071289 7
0.016037 8.8381348 16.025391 7
-0.000137 8.9394531 16.114258 7
-0.077147998 11.55835 15.033203 7
-0.082824998 11.653564 15.014648 7
-0.076095998 11.651123 14.947266 7
-0.068634003 11.644043 14.875977 7
-0.063248001 11.680908 14.791016 7
-0.068328999 11.738525 14.792969 7
-0.17315701 -3.866699 -16.22168 7
-0.170197 -3.9033201 -16.189453 7
-0.157272 -3.922363 -16.083984 7
-0.155838 -3.9606929 -16.063477 7
-0.16203301 -4.0117192 -16.097656 7
-0.173584 -4.0727539 -16.173828 7
-0.18515 -4.1340332 -16.249023 7
-0.169174 -4.146729 -16.120117 7
-0.196182 -6.7348628 -15.453125 7
-0.201645 -6.7895508 -15.474609 7
-0.21170001 -6.857666 -15.52832 7
-0.204117 -6.8754878 -15.458984 7
-0.20957901 -6.9301758 -15.479492 7
-0.27388 -0.72485399 -16.436523 7
-0.28962699 -0.77050799 -16.539062 7
-0.296143 -0.81445301 -16.583008 7
-0.28010601 -0.85107398 -16.46582 7
-0.26405299 -0.88671899 -16.34668 7
-0.152542 -3.5476069 -15.136719 7
-0.143723 -3.57251 -15.066406 7
-0.14785799 -3.616699 -15.084961 7
-0.15600599 -3.667969 -15.132812 7
-0.161743 -3.716064 -15.163086 7
-0.15536501 -3.7441411 -15.109375 7
-0.151489 -3.8149409 -15.063477 7
-0.15725701 -6.0805659 -14.355469 7
-0.160583 -6.1254878 -14.362305 7
-0.166336 -6.1772461 -14.384766 7
-0.168854 -6.220459 -14.385742 7
-0.161652 -6.2382808 -14.323242 7
-0.164169 -6.2817378 -14.325195 7
-0.17073099 -6.335938 -14.352539 7
-0.179001 -6.4311519 -14.375 7
-0.18071 -6.4728999 -14.371094 7
-0.184036 -6.5187988 -14.376953 7
-0.382431 -9.621582 -14.311523 7
-0.396332 -9.7104492 -14.37207 7
-0.38749701 -9.713623 -14.295898 7
-0.38119501 -9.7619629 -14.208984 7
-0.38870201 -9.8630371 -14.207031 7
-0.46791101 -11.468506 -13.736328 7
-0.46475199 -11.489746 -13.689453 7
-0.150803 -3.2158201 -14.338867 7
-0.143234 -3.242188 -14.28125 7
-0.139053 -3.272217 -14.243164 7
-0.14254799 -3.313477 -14.257812 7
-0.14686599 -3.3564451 -14.27832 7
-0.153732 -3.4033201 -14.316406 7
-0.14276101 -3.4238279 -14.234375 7
-0.137741 -3.452637 -14.192383 7
-0.135269 -3.4851069 -14.166992 7
-0.17068499 -6.119873 -13.529297 7
-0.175034 -6.1660161 -13.541992 7
-0.17851301 -6.2094731 -13.547852 7
-0.187103 -6.2670898 -13.585938 7
-0.191452 -6.313477 -13.597656 7
-0.19152801 -6.3486328 -13.583008 7
-0.195023 -6.3925781 -13.588867 7
-0.38006601 -9.3376455 -13.389648 7
-0.38442999 -9.3879395 -13.391602 7
-0.37085 -9.3723145 -13.291016 7
-0.37265 -9.4125977 -13.27832 7
-0.371048 -9.4411621 -13.24707 7
-0.37283301 -9.4814453 -13.233398 7
-0.38656601 -9.5666504 -13.289062 7
-0.46043399 -10.898438 -12.926758 7
-0.46737701 -10.960205 -12.936523 7
-0.47088599 -11.007812 -12.928711 7
-0.47612 -11.062744 -12.929688 7
-0.46681201 -11.056885 -12.853516 7
-0.46348599 -11.075928 -12.80957 7
-0.464432 -11.112793 -12.787109 7
-0.46710199 -11.156738 -12.774414 7
-0.405258 -15.086182 9.6162109 7
-0.38874799 -14.970459 9.5986328 7
-0.119995 -2.881104 -13.396484 7
-0.123642 -2.920166 -13.412109 7
-0.130844 -2.9638669 -13.450195 7
-0.13182101 -2.999023 -13.447266 7
-0.14082301 -3.045898 -13.498047 7
-0.137329 -3.075928 -13.467773 7
-0.132935 -3.1047361 -13.431641 7
-0.122284 -3.124512 -13.356445 7
-0.12503099 -3.1630859 -13.365234 7
-0.13812301 -5.4760742 -12.708008 7
-0.139984 -5.5126948 -12.705078 7
-0.14005999 -5.545898 -12.692383 7
-0.13565101 -5.5681152 -12.652344 7
-0.138412 -5.6079102 -12.655273 7
-0.14386 -5.6533198 -12.673828 7
-0.150208 -5.7016602 -12.698242 7
-0.15477 -5.7458501 -12.710938 7
-0.374695 -8.9873047 -12.542969 7
-0.38465899 -9.0541992 -12.575195 7
-0.372177 -9.0427246 -12.486328 7
-0.36866799 -9.0617676 -12.444336 7
-0.36695901 -9.0878906 -12.413086 7
-0.36344901 -9.1071777 -12.37207 7
-0.368027 -9.1557617 -12.374023 7
-0.375305 -9.2141113 -12.391602 7
-0.37898299 -9.2595205 -12.388672 7
-0.45742801 -10.596924 -12 7
-0.470108 -10.678955 -12.038086 7
-0.46659899 -10.696045 -11.995117 7
-0.460403 -10.70166 -11.938477 7
-0.46318099 -10.743896 -11.925781 7
-0.46327201 -10.774902 -11.900391 7
-0.46336401 -10.805664 -11.874023 7
-0.46705601 -10.851318 -11.866211 7
-0.36561599 -14.05249 9.2285156 7
-0.35652199 -13.983398 9.2324219 7
-0.34465 -13.899414 9.2285156 7
-0.339203 -13.85083 9.2441406 7
-0.112137 -2.565186 -12.692383 7
-0.109406 -2.5949709 -12.668945 7
-0.120697 -2.640137 -12.729492 7
-0.123566 -2.6765139 -12.740234 7
-0.123642 -2.709717 -12.733398 7
-0.13119499 -2.751709 -12.773438 7
-0.122849 -2.774658 -12.714844 7
-0.121979 -2.806396 -12.703125 7
-0.109879 -2.824219 -12.62207 7
-0.115555 -2.86377 -12.648438 7
-0.35302699 -8.6403809 -11.681641 7
-0.35968 -8.6936045 -11.694336 7
-0.35507199 -8.708252 -11.650391 7
-0.35139501 -8.7258301 -11.610352 7
-0.35806301 -8.7790527 -11.624023 7
-0.353439 -8.7932129 -11.579102 7
-0.344116 -8.7902832 -11.509766 7
-0.370529 -8.9125977 -11.62207 7
-0.37344399 -8.953125 -11.615234 7
-0.22764599 0.56005901 -13.68457 7
-0.210907 0.52172899 -13.581055 7
-0.216583 0.48730499 -13.617188 7
-0.21755999 0.452393 -13.625 7
-0.225098 0.41870099 -13.670898 7
-0.225159 0.38330099 -13.672852 7
-0.23175 0.349121 -13.712891 7
-0.240219 0.31542999 -13.765625 7
-0.24961901 0.28100601 -13.823242 7
-0.115112 -2.2558589 -12.057617 7
-0.102386 -2.274658 -11.977539 7
-0.100479 -2.3039551 -11.960938 7
-0.104477 -2.339355 -11.978516 7
-0.102585 -2.368408 -11.961914 7
-0.103622 -2.3999021 -11.959961 7
-0.109589 -2.4377439 -11.988281 7
-0.1185 -2.4785161 -12.03418 7
-0.110687 -2.5014651 -11.982422 7
-0.107803 -2.529541 -11.959961 7
-0.142029 -5.173584 -11.329102 7
-0.14308199 -5.2055659 -11.322266 7
-0.142166 -5.2331538 -11.304688 7
-0.13632201 -5.2497559 -11.260742 7
-0.141312 -5.2902832 -11.274414 7
-0.144348 -5.326416 -11.277344 7
-0.155258 -5.381104 -11.322266 7
-0.15730301 -5.4150391 -11.320312 7
-0.34608501 -8.3659668 -10.889648 7
-0.33726501 -8.3649902 -10.827148 7
-0.33735701 -8.394043 -10.807617 7
-0.33544901 -8.4160156 -10.77832 7
-0.33552599 -8.4438477 -10.756836 7
-0.33065799 -8.4558105 -10.713867 7
-0.34854099 -8.5439453 -10.77832 7
-0.348618 -8.5725098 -10.757812 7
-0.35462999 -8.6210938 -10.765625 7
-0.429077 -9.9902344 -10.205078 7
-0.425201 -10.002197 -10.164062 7
-0.427277 -10.037109 -10.149414 7
-0.43031299 -10.075195 -10.137695 7
-0.43336499 -10.113525 -10.126953 7
-0.44335899 -10.178955 -10.146484 7
-0.45135501 -10.237061 -10.157227 7
-0.220963 0.931885 -12.548828 7
-0.21513399 0.89624 -12.516602 7
-0.220062 0.86499 -12.546875 7
-0.229874 0.83447301 -12.607422 7
-0.232849 0.80200201 -12.625977 7
-0.238739 0.77050799 -12.663086 7
-0.228027 0.73339802 -12.600586 7
-0.224167 0.69872999 -12.579102 7
-0.210526 0.66137701 -12.5 7
-0.112503 -1.941406 -11.488281 7
-0.114624 -1.9736331 -11.495117 7
-0.11058 -1.999756 -11.467773 7
-0.107559 -2.0271001 -11.445312 7
-0.097351 -2.0476069 -11.383789 7
-0.096390001 -2.076416 -11.373047 7
-0.103638 -2.113281 -11.408203 7
-0.102661 -2.1420901 -11.397461 7
-0.10376 -2.172852 -11.397461 7
-0.107925 -2.206543 -11.415039 7
-0.122772 -4.8171391 -10.707031 7
-0.12593099 -4.8520508 -10.710938 7
-0.128052 -4.8847661 -10.710938 7
-0.138428 -4.934814 -10.751953 7
-0.141571 -4.9699712 -10.756836 7
-0.13855 -4.9916992 -10.728516 7
-0.134506 -5.0109859 -10.695312 7
-0.136627 -5.0432129 -10.693359 7
-0.140808 -5.080811 -10.703125 7
-0.143967 -5.1157231 -10.706055 7
-0.32443199 -8.0063477 -10.193359 7
-0.32347101 -8.0302734 -10.169922 7
-0.34110999 -8.1137695 -10.231445 7
-0.33187899 -8.111084 -10.169922 7
-0.32783499 -8.1247559 -10.131836 7
-0.327896 -8.1516113 -10.112305 7
-0.32695001 -8.1748047 -10.087891 7
-0.32495099 -8.1948242 -10.058594 7
-0.334335 -8.2521973 -10.082031 7
-0.34266701 -8.3059082 -10.098633 7
-0.410934 -9.6079102 -9.5068359 7
-0.41722101 -9.6567383 -9.5097656 7
-0.42556801 -9.7126455 -9.5205078 7
-0.419449 -9.715332 -9.4726562 7
-0.42056301 -9.7451172 -9.453125 7
-0.42271399 -9.7785645 -9.4384766 7
-0.420715 -9.7956543 -9.40625 7
-0.42182899 -9.8249512 -9.3876953 7
-0.43328899 -9.8930664 -9.4111328 7
-0.106476 -1.615723 -10.878906 7
-0.105438 -1.643311 -10.869141 7
-0.104431 -1.6711431 -10.859375 7
-0.10347 -1.7275389 -10.845703 7
-0.105682 -1.758057 -10.853516 7
-0.097107001 -1.779053 -10.801758 7
-0.090697996 -1.802734 -10.763672 7
-0.090836003 -1.859375 -10.754883 7
-0.08873 -1.885986 -10.739258 7
-0.092026003 -1.917236 -10.751953 7
-0.109421 -4.5058589 -10.086914 7
-0.109482 -4.5327148 -10.076172 7
-0.104156 -4.548584 -10.039062 7
-0.106384 -4.579834 -10.039062 7
-0.108597 -4.611084 -10.039062 7
-0.108658 -4.6369629 -10.026367 7
-0.122757 -4.692627 -10.084961 7
-0.12822001 -4.7307129 -10.099609 7
-0.120728 -4.7414551 -10.051758 7
-0.120789 -4.7685552 -10.040039 7
-0.12085 -4.7954102 -10.029297 7
-0.30667099 -7.6940918 -9.4726562 7
-0.31216401 -7.7365718 -9.4775391 7
-0.31765699 -7.7790532 -9.4833984 7
-0.31022599 -7.8059082 -9.4140615 7
-0.308121 -7.82373 -9.3847656 7
-0.30926499 -7.8522949 -9.3701172 7
-0.312592 -7.887939 -9.3662109 7
-0.311584 -7.9094238 -9.3427734 7
-0.32031199 -7.962646 -9.3613281 7
-0.40539601 -9.4802246 -8.6298828 7
-0.406555 -9.5073242 -8.6113281 7
-0.41206399 -9.5510254 -8.6103516 7
-0.41429099 -9.5817871 -8.5947266 7
-0.088058002 -1.6105959 -10.24707 7
-0.098494999 -1.781006 -10.272461 7
-0.38951099 -9.1904297 -7.9707031 7
-0.38958699 -9.2124023 -7.9492192 7
-0.39642301 -9.2587891 -7.952148 7
-0.183716 1.909912 -10.389648 7
-0.17144801 1.8718261 -10.332031 7
-0.163635 1.837158 -10.295898 7
-0.161438 1.807373 -10.289062 7
-0.16145299 1.779785 -10.291992 7
-0.163727 1.75293 -10.308594 7
-0.16374201 1.724854 -10.3125 7
-0.166016 1.6982419 -10.327148 7
-0.169403 1.672363 -10.348633 7
-0.172791 1.646484 -10.370117 7
-0.176163 1.620361 -10.390625 7
-0.18850701 1.600342 -10.457031 7
-0.093856998 -1.287109 -9.8183594 7
-0.093918003 -1.3137209 -9.8154297 7
-0.091614 -1.338379 -9.8007812 7
-0.09285 -1.365234 -9.8027344 7
-0.085860997 -1.386719 -9.765625 7
-0.089417003 -1.415283 -9.7792969 7
-0.081267998 -1.435791 -9.7363281 7
-0.080139004 -1.460693 -9.7255859 7
-0.084885001 -1.489746 -9.7451172 7
-0.080246001 -1.512695 -9.71875 7
-0.082641996 -1.5400389 -9.7265615 7
-0.088561997 -1.570068 -9.7509766 7
-0.31544501 -7.367188 -8.375 7
-0.30725101 -7.365479 -8.3261719 7
-0.395096 -8.9802246 -7.421875 7
-0.403427 -9.029541 -7.4277339 7
-0.40940899 -9.0710449 -7.4257808 7
-0.40710399 -9.083252 -7.3974609 7
-0.40835601 -9.1071777 -7.3779302 7
-0.410797 -9.1364746 -7.3652339 7
-0.193619 1.802979 -9.9257812 7
-0.086089998 -1.373291 -9.2958984 7
-0.084899999 -1.397217 -9.2861328 7
-0.29344201 -7.0812988 -7.8242192 7
-0.30822799 -7.14502 -7.8613281 7
-0.30468801 -7.1777339 -7.8144531 7
-0.29737899 -7.1777339 -7.7695308 7
-0.29866001 -7.2028809 -7.757812 7
-0.29632601 -7.2382808 -7.7148442 7
-0.298859 -7.266602 -7.7060552 7
-0.311203 -7.3239751 -7.733398 7
-0.30513 -7.3273931 -7.6933589 7
-0.077437997 -0.97656202 -8.8310547 7
-0.073654003 -0.99853498 -8.8115234 7
-0.071152002 -1.021484 -8.7978516 7
-0.075026996 -1.046875 -8.8125 7
-0.071243003 -1.069092 -8.7929688 7
-0.063629001 -1.0888669 -8.7558594 7
-0.066223003 -1.113525 -8.7636719 7
-0.066269003 -1.136963 -8.7607422 7
-0.066315003 -1.160645 -8.7578115 7
-0.066359997 -1.1843261 -8.7548828 7
-0.075347997 -1.212646 -8.7919922 7
-0.074111998 -1.2355959 -8.7832031 7
-0.074173003 -1.259277 -8.7802734 7
-0.27957201 -6.7487788 -7.3544922 7
-0.28219599 -6.7756348 -7.3466802 7
-0.284821 -6.8032231 -7.3398442 7
-0.28103599 -6.8129878 -7.3095698 7
-0.28494301 -6.8442378 -7.3076172 7
-0.28372201 -6.8608398 -7.2871089 7
-0.28891 -6.8955078 -7.2880859 7
-0.29025301 -6.9189448 -7.2753911 7
-0.28646901 -6.9282231 -7.2460942 7
-0.28010601 -6.9306641 -7.2070308 7
-0.28402701 -6.9611821 -7.204102 7
-0.28150901 -6.9741211 -7.1787109 7
-0.28285199 -6.9978032 -7.1669922 7
-0.28419501 -7.0212402 -7.1542969 7
-0.29432699 -6.726562 -6.8798828 7
-0.29437301 -6.7453609 -6.8632808 7
-0.297104 -6.771729 -6.8554692 7
-0.29182401 -6.776855 -6.8222661 7
-0.29054299 -6.7922359 -6.8017578 7
-0.290604 -6.811523 -6.7861328 7
-0.294662 -6.8413091 -6.782227 7
-0.29472399 -6.8605962 -6.766602 7
-0.29211399 -6.871582 -6.7402339 7
-0.297501 -6.905273 -6.7412109 7
-0.30557299 -6.9467769 -6.750977 7
-0.306961 -6.9694819 -6.7382808 7
-0.309692 -6.9963379 -6.7304692 7
-0.27380401 -6.502686 -6.3837891 7
-0.275253 -6.5249019 -6.3730469 7
-0.27948001 -6.5537109 -6.3691411 7
-0.28230301 -6.579102 -6.3623052 7
-0.27401701 -6.5749512 -6.3212891 7
-0.271301 -6.5856929 -6.297852 7
-0.27690101 -6.6181641 -6.297852 7
-0.27835101 -6.639648 -6.2861328 7
-0.27423099 -6.6462402 -6.257812 7
-0.27568099 -6.6679692 -6.2470698 7
-0.27713001 -6.6896968 -6.235352 7
-0.069532 9.3329239 17.950989 7
-0.079467997 -6.3178401 -14.037416 7
0.00073299999 -2.3562479 -11.916213 7
-0.165786 1.768411 -10.301846 7
-0.175207 -1.84094 -19.588957 7
-0.090948999 -4.3267632 -16.962954 7
-0.16890199 -2.568733 -12.35998 7
-0.40569299 -8.9521866 -12.077621 7
-0.30559 0.79229498 -12.767518 7
-0.03627 -0.65023798 -7.6597662 7
-0.32471299 -7.7358861 -9.1240644 7
-0.017975001 -0.31897199 -6.676291 7
-0.013768 -0.54593301 -6.6150122 7
-0.27504301 -6.9362211 -7.192739 7
-0.0021180001 -0.125184 -5.9219298 7
-0.001243 -0.27469301 -5.9085279 7
