# .PCD v0.7 - Point Cloud Data file format
VERSION 0.7
FIELDS x y z intensity
SIZE 4 4 4 4
TYPE F F F F
COUNT 1 1 1 1
WIDTH 827
HEIGHT 1
VIEWPOINT 0 0 0 1 0 0 0
POINTS 827
DATA ascii
1.635826 56.618652 -20.962891 7
1.387367 49.438965 -17.854492 7
1.280678 47.225586 -13.120117 7
1.277954 47.341797 -13.27832 7
1.277596 47.334473 -13.398438 7
1.251106 47.792969 -17.220703 7
1.194923 45.259766 -12.489258 7
0.15097 33.790527 67.933594 7
0.233261 32.580078 65.180664 7
1.103348 43.194824 -11.429688 7
1.097626 43.399902 -11.601562 7
1.100441 43.262207 -11.671875 7
1.091805 42.693359 -14.993164 7
0.072296001 25.82666 66.046875 7
0.145935 28.09082 62.722656 7
0.15127601 28.16748 62.507812 7
0.17536899 27.97998 61.729492 7
0.036865 32.57373 64.838867 7
0.090530001 31.911621 63.192383 7
0.124069 31.549805 62.142578 7
1.015007 41.663086 -10.833008 7
1.005875 41.963867 -11.03125 7
1.013405 41.670898 -11.049805 7
1.003654 41.994141 -11.255859 7
0.145706 21.686035 57.990234 7
0.101959 22.29248 59.162109 7
0.032012999 23.186035 61.054688 7
0.167419 24.555664 56.366211 7
0.167969 24.682617 56.302734 7
0.133423 25.242188 57.193359 7
0.12623601 26.048828 57.175781 7
0.158691 25.771484 56.24707 7
0.15374801 25.96875 56.328125 7
0.93701202 39.758301 -9.9794922 7
0.93399 39.831543 -10.103516 7
0.94135302 39.574219 -10.128906 7
0.93268597 39.82666 -10.306641 7
0.078704998 19.986328 54.322266 7
0.037186 20.51123 55.324219 7
-0.013229 21.126465 56.549805 7
0.142303 22.24707 51.820312 7
0.145432 22.334473 51.698242 7
0.124054 22.692383 52.179688 7
0.119736 24.091797 51.764648 7
0.14105199 23.964355 51.197266 7
0.136383 24.140137 51.260742 7
0.169174 23.873047 50.416016 7
0.053482 27.868164 52.081055 7
0.081421003 27.625 51.360352 7
0.88494098 36.152832 -12.151367 7
0.059753001 17.881836 49.750977 7
0.022399999 18.314941 50.5625 7
-0.027953999 18.862793 51.669922 7
0.107117 20.195801 47.769531 7
0.071350001 20.657715 48.526367 7
0.090209998 20.699707 48.022461 7
0.084578998 22.693359 47.416992 7
0.11026 22.526367 46.808594 7
0.10936 22.646484 46.782227 7
0.130493 22.524902 46.273438 7
0.029022001 26.12793 47.344727 7
0.054885998 25.925293 46.739258 7
0.076447003 25.771973 46.227539 7
0.115646 25.399902 45.342773 7
0.79648602 35.470215 -8.2910156 7
0.79460901 34.580078 -11.566406 7
-0.70429999 -23.0625 -65.180664 7
-0.78738397 -23.883789 -67.026367 7
-0.70134002 -23.344727 -64.981445 7
-0.79910302 -24.293457 -67.160156 7
-0.008347 16.766602 47.114258 7
-0.028884999 17.033691 47.507812 7
-0.081573002 17.553223 48.569336 7
0.068832003 18.725586 44.68457 7
0.071975999 18.801758 44.581055 7
0.067261003 18.947754 44.637695 7
0.072113 21.274902 43.576172 7
0.090714 21.189453 43.162109 7
0.083130002 21.367188 43.268555 7
0.116898 21.123535 42.551758 7
0.013535 24.561035 43.46875 7
0.039124001 24.372559 42.921875 7
0.055054002 24.291504 42.561523 7
0.071517996 24.203613 42.192383 7
0.73077399 33.811035 -7.3886719 7
0.72361797 33.958984 -7.5136719 7
0.73126203 33.762207 -7.546875 7
0.73017901 33.769531 -7.6337891 7
-0.57132 -19.345703 -56.595703 7
-0.61183202 -19.766602 -57.392578 7
-0.566513 -19.579102 -56.387695 7
-0.61866802 -20.086426 -57.425781 7
-0.66766399 -20.575684 -58.394531 7
-0.738083 -21.225586 -59.808594 7
-0.52337599 -22.337402 -54.022461 7
0.024277 17.764648 41.661133 7
0.031143 17.805664 41.49707 7
0.043182001 17.802246 41.236328 7
0.051192999 17.830566 41.050781 7
0.064102001 17.817383 40.774414 7
0.075545996 17.81543 40.524414 7
0.081542999 17.858887 40.375977 7
0.066422001 19.79248 39.918945 7
0.091003001 19.654785 39.430664 7
0.069489002 19.950195 39.779297 7
0.102951 19.726074 39.131836 7
-6.0999999e-05 23.065918 39.825195 7
0.016754 22.980957 39.480469 7
0.039551001 22.831055 39.03125 7
0.060074002 22.703125 38.623047 7
0.050919 22.891602 38.733398 7
-0.62255901 -17.740723 -53.172852 7
-0.65559399 -18.077637 -53.763672 7
-0.69752502 -18.473633 -54.525391 7
-0.75178498 -18.953613 -55.524414 7
-0.76428199 -19.298828 -55.661133 7
-0.55127001 -20.559082 -50.395508 7
-0.56155401 -20.995117 -50.421875 7
-0.49891701 -20.632324 -49.1875 7
-0.51596099 -20.879883 -49.451172 7
-0.44436601 -20.439453 -48.050781 7
0.071091004 18.399414 37.055664 7
0.040787 18.750488 37.524414 7
0.073394999 18.550781 36.9375 7
0.041885 18.915039 37.425781 7
0.082184002 18.644531 36.710938 7
-0.015717 21.974121 37.097656 7
0.0041959998 21.860352 36.727539 7
0.029633 21.69043 36.270508 7
0.050461002 21.564453 35.886719 7
0.61688203 30.682617 -6.0195308 7
0.61033601 30.795898 -6.1230469 7
0.609299 30.799805 -6.2011719 7
0.61317402 30.70752 -6.2558589 7
0.60952801 30.763184 -6.3466802 7
0.62484699 29.575684 -9.4121094 7
-0.45463601 -14.15918 -45.891602 7
-0.493774 -14.480957 -46.551758 7
-0.52916002 -14.785645 -47.144531 7
-0.56988502 -15.121582 -47.829102 7
-0.62158197 -15.522461 -48.708984 7
-0.65606701 -15.831055 -49.280273 7
-0.70371997 -16.216309 -50.083984 7
-0.73820502 -16.530762 -50.652344 7
-0.43359399 -17.129395 -44.230469 7
-0.43359399 -17.233887 -44.182617 7
-0.46539301 -17.549805 -44.688477 7
-0.45378101 -18.629395 -43.956055 7
-0.40776101 -18.406738 -43.118164 7
-0.42982501 -18.770508 -43.397461 7
-0.63476598 -23.083008 -45.410156 7
-0.60855103 -22.974121 -44.916016 7
0.067107998 17.166992 34.077148 7
0.089478001 17.063477 33.695312 7
0.071227998 17.290527 33.939453 7
0.088225998 17.229492 33.641602 7
0.001266 20.411133 33.682617 7
0.019562 20.317383 33.368164 7
0.035507001 20.244629 33.088867 7
0.053787 20.147949 32.775391 7
0.55625898 28.214844 -8.8447266 7
-0.44335899 -12.397461 -42.272461 7
-0.472794 -12.63916 -42.725586 7
-0.50460798 -12.89502 -43.217773 7
-0.53541601 -13.146973 -43.691406 7
-0.56454498 -13.394043 -44.136719 7
-0.60519397 -13.69873 -44.770508 7
-0.38772601 -15.048828 -40.199219 7
-0.38835099 -15.148438 -40.168945 7
-0.41180399 -15.384277 -40.505859 7
-0.457748 -15.754883 -41.203125 7
-0.43031299 -17.230957 -40.021484 7
-0.378708 -16.984375 -39.162109 7
-0.414841 -17.318359 -39.686523 7
-0.383026 -17.199707 -39.139648 7
-0.65692103 -21.677246 -42.06543 7
-0.59522998 -21.400879 -41.012695 7
-0.561279 -21.235352 -40.441406 7
-0.078033 11.625 35.827148 7
-0.088760003 11.762207 35.96582 7
0.069854997 16.119141 31.575195 7
0.087784 16.054199 31.28418 7
0.067368001 16.282715 31.539062 7
0.084564 16.222656 31.259766 7
0.089461997 16.256348 31.155273 7
0.002533 19.273926 31.116211 7
0.002747 19.344238 31.071289 7
0.023148 19.234863 30.75293 7
0.037765998 19.174805 30.511719 7
0.046631001 19.165527 30.349609 7
0.51441997 27.670898 -4.8037109 7
0.50799602 27.763184 -4.8935552 7
0.51086402 27.703125 -4.9482422 7
0.51267999 27.659668 -5.0058589 7
0.51003999 27.689453 -5.0820308 7
-0.42262301 -10.630859 -38.535156 7
-0.44503799 -10.816406 -38.847656 7
-0.464508 -10.991211 -39.115234 7
-0.49543801 -11.215332 -39.556641 7
-0.52230799 -11.423828 -39.935547 7
-0.56397998 -11.697754 -40.539062 7
-0.59197998 -11.915527 -40.932617 7
-0.34530601 -13.070801 -36.381836 7
-0.35260001 -13.196289 -36.455078 7
-0.356552 -13.304688 -36.478516 7
-0.38200399 -13.526855 -36.822266 7
-0.405258 -13.73877 -37.130859 7
-0.40213001 -15.897461 -36.067383 7
-0.346558 -15.640137 -35.224609 7
-0.39074701 -15.999023 -35.819336 7
-0.35266101 -15.847168 -35.230469 7
-0.58956897 -19.865723 -37.288086 7
-0.54841602 -19.657715 -36.664062 7
-0.515091 -19.504395 -36.151367 7
-0.54901099 -19.836914 -36.571289 7
0.040054001 15.20166 29.524414 7
0.064957 15.09082 29.166016 7
0.080444001 15.047363 28.930664 7
0.05748 15.277832 29.197266 7
0.074538998 15.22168 28.941406 7
0.094727002 15.141602 28.645508 7
-0.015289 18.302246 28.753906 7
-0.0041499999 18.274414 28.574219 7
0.023224 18.175293 28.155273 7
0.036713 18.125977 27.948242 7
0.45488 26.357422 -4.1845698 7
0.45396399 26.347656 -4.311523 7
0.45930499 26.254395 -4.3554692 7
0.45155299 26.359375 -4.445312 7
-0.49456799 -9.9243164 -37.019531 7
-0.52327001 -10.121094 -37.40332 7
-0.545654 -10.296387 -37.695312 7
-0.56724501 -10.469727 -37.975586 7
-0.36685199 -12.041016 -34.267578 7
-0.344055 -12.015625 -33.918945 7
-0.334198 -12.131836 -33.717773 7
-0.35913101 -14.757812 -32.96875 7
-0.37054399 -14.902344 -33.082031 7
-0.56213403 -18.701172 -34.225586 7
-0.542831 -18.651367 -33.928711 7
-0.51751697 -18.558594 -33.554688 7
0.005936 11.918457 29.329102 7
0.0077669998 11.975098 29.279297 7
0.0096279997 12.03125 29.229492 7
0.011887 12.085449 29.174805 7
0.029343 14.444824 27.853516 7
0.064406998 14.334473 27.362305 7
0.038238999 14.575195 27.649414 7
0.062668003 14.470703 27.320312 7
0.074553996 14.45166 27.143555 7
-0.028198 17.623535 26.974609 7
-0.00091599999 17.466309 26.62207 7
0.012375 17.480957 26.390625 7
0.010483 17.557129 26.374023 7
0.413757 25.258789 -3.7470701 7
-0.43042001 -8.3237305 -33.492188 7
-0.43959001 -8.4345703 -33.591797 7
-0.45431501 -8.5644531 -33.764648 7
-0.48142999 -8.7353516 -34.100586 7
-0.32760599 -13.499512 -30.026367 7
-0.32395899 -13.552734 -29.946289 7
-0.33537301 -13.687012 -30.053711 7
-0.53410298 -17.373047 -31.123047 7
-0.51753199 -17.341309 -30.881836 7
-0.491882 -17.25 -30.532227 7
-0.53228801 -17.585449 -30.96875 7
-0.0044249999 10.999023 27.500977 7
-0.0051569999 11.06543 27.486328 7
0.002228 11.089844 27.374023 7
0.0078119999 11.123047 27.283203 7
0.0097810002 11.174805 27.235352 7
0.0094910003 11.237793 27.213867 7
0.034302 13.571289 25.817383 7
0.049316 13.533691 25.618164 7
0.064331003 13.496582 25.417969 7
0.039291002 13.714355 25.669922 7
0.055222001 13.67041 25.461914 7
0.070220999 13.631348 25.261719 7
-0.031982001 16.687012 24.996094 7
-0.02507 16.691406 24.885742 7
-0.011887 16.647949 24.708008 7
0.00083899999 16.606934 24.537109 7
0.01088 16.586426 24.394531 7
0.370911 23.99707 -3.2626951 7
0.378342 23.887695 -3.2998049 7
0.37713599 23.893555 -3.359375 7
0.368164 24.002441 -3.4404299 7
0.369553 23.973145 -3.4931641 7
-0.37272599 -7.0585942 -30.595703 7
-0.395493 -7.2724609 -30.84082 7
-0.27627599 -11.596191 -27.696289 7
-0.27371201 -11.651367 -27.636719 7
-0.26747099 -11.688965 -27.533203 7
-0.264465 -11.741699 -27.467773 7
-0.25822401 -11.777344 -27.363281 7
-0.25611901 -11.833496 -27.307617 7
-0.32571399 -12.647949 -27.899414 7
-0.53588903 -16.430176 -28.882812 7
-0.512573 -16.35791 -28.583008 7
-0.51652497 -16.588379 -28.500977 7
-1.12323 -35.560547 18.678711 7
-0.000107 10.398926 25.783203 7
-0.0071720001 10.490723 25.839844 7
0.027191 12.90625 24.276367 7
0.036469001 12.904785 24.149414 7
0.054382 12.850586 23.932617 7
0.039657999 12.994629 24.058594 7
0.032120001 13.094727 24.109375 7
0.049088001 13.044434 23.902344 7
0.053084999 13.074219 23.831055 7
-0.052200001 16.077148 23.5 7
-0.015335 15.968262 23.030273 7
-0.010391 15.984375 22.945312 7
-0.32278401 -5.8867192 -27.870117 7
-0.32293701 -5.9550781 -27.855469 7
-0.34130901 -6.066895 -28.051758 7
-0.26458699 -11.34375 -25.22168 7
-0.27171299 -11.438965 -25.269531 7
-0.467163 -15.26123 -25.805664 7
-0.47135901 -15.348145 -25.80957 7
-0.013138 9.6337891 24.28418 7
-0.0036929999 9.6469727 24.165039 7
-0.002502 9.6958008 24.130859 7
0.00177 9.7304688 24.06543 7
0.0024260001 9.7817383 24.037109 7
0.024094 12.197754 22.654297 7
0.050659001 12.147949 22.341797 7
0.024017001 12.350098 22.573242 7
0.040649001 12.305176 22.384766 7
0.048523001 12.30957 22.279297 7
-0.028183 15.301758 21.416992 7
-0.021361999 15.302246 21.321289 7
-0.38978601 -5.4414058 -26.705078 7
-0.39414999 -5.5161128 -26.737305 7
-0.39956701 -5.59375 -26.78125 7
-0.24876399 -10.580078 -23.286133 7
-0.257065 -10.730469 -23.31543 7
-0.26361099 -10.816895 -23.353516 7
-0.48124701 -14.387207 -24.12207 7
-0.88888502 -28.729492 15.697266 7
-0.864456 -28.46582 15.650391 7
-0.85006702 -28.297363 15.648438 7
-0.869537 -26.87793 18.469727 7
-0.85844398 -26.739258 18.470703 7
-0.0033869999 9.1835938 22.664062 7
-0.0034789999 9.2431641 22.649414 7
0.020645 11.532227 21.288086 7
0.016937001 11.599609 21.295898 7
0.029724 11.578125 21.152344 7
0.038100999 11.57959 21.051758 7
0.011292 11.772461 21.269531 7
0.027512001 11.778809 21.068359 7
0.033691 11.791992 20.986328 7
-0.042236 14.683105 20.06543 7
-0.036605999 14.690918 19.985352 7
-0.28140301 -4.168457 -23.9375 7
-0.29222101 -4.2460942 -24.037109 7
-0.30473301 -4.327148 -24.152344 7
-0.31050101 -4.3969731 -24.199219 7
-0.32527199 -4.4829102 -24.337891 7
-0.44909701 -13.52002 -22.068359 7
-0.44587699 -13.557617 -22.006836 7
-0.44209301 -13.591797 -21.938477 7
-0.73371899 -23.647461 17.379883 7
-0.0044399998 8.5253906 21.386719 7
-0.00079299998 8.5585938 21.334961 7
0.001694 8.5961914 21.292969 7
0.032547001 11.06543 19.771484 7
0.0068970001 11.241211 19.964844 7
-0.062637001 14.104492 18.897461 7
-0.34983799 -3.9033201 -23.094727 7
-0.359543 -3.9755859 -23.175781 7
-0.35667399 -4.0283198 -23.137695 7
-0.193115 -6.4101558 -20.896484 7
-0.20224001 -6.4863281 -20.963867 7
-0.21112099 -6.5576172 -21.015625 7
-0.228073 -6.6567378 -21.15625 7
-0.21202099 -6.6645508 -20.990234 7
-0.207947 -6.7055659 -20.935547 7
-0.244553 -9.2832031 -20.288086 7
-0.245911 -9.3388672 -20.277344 7
-0.248474 -9.3989258 -20.276367 7
-0.25465399 -9.4731445 -20.306641 7
-0.248795 -9.5004883 -20.231445 7
-0.259186 -9.5917969 -20.298828 7
-0.47477701 -12.931641 -20.825195 7
-0.458038 -12.900879 -20.652344 7
-0.455185 -12.9375 -20.59668 7
-0.46704099 -13.097168 -20.630859 7
-0.018021001 8.0395508 20.379883 7
-0.01416 8.0703115 20.329102 7
-0.0103 8.1010742 20.27832 7
-0.010193 8.1450195 20.258789 7
-0.0063319998 8.175293 20.207031 7
-0.0055849999 8.2172852 20.182617 7
-0.011703 8.2851562 20.217773 7
-0.0090330001 10.619141 19.050781 7
0.001648 10.608887 18.94043 7
0.010483 10.60791 18.845703 7
0.016814999 10.618164 18.771484 7
-0.0085450001 10.784668 18.949219 7
0.0027620001 10.77002 18.834961 7
0.011581 10.768555 18.741211 7
0.009842 10.818359 18.730469 7
-0.068801999 13.472168 17.813477 7
-0.080429003 13.581055 17.866211 7
-0.076583996 13.597656 17.807617 7
-0.075211003 13.628418 17.766602 7
-0.067032002 13.618652 17.677734 7
-0.061951 13.626465 17.609375 7
-0.05748 13.637695 17.545898 7
-0.052398998 13.645996 17.478516 7
-0.26058999 -2.8642581 -20.90625 7
-0.261978 -2.917969 -20.911133 7
-0.264633 -2.9736331 -20.926758 7
-0.267288 -3.0292971 -20.942383 7
-0.179947 -5.8432622 -19.466797 7
-0.18391401 -5.901855 -19.487305 7
-0.186203 -6.0532231 -19.459961 7
-0.22691301 -8.7045898 -18.800781 7
-0.22386201 -8.7402344 -18.75293 7
-0.22656199 -8.796875 -18.753906 7
-0.240189 -8.8935547 -18.844727 7
-0.24546801 -8.9599609 -18.866211 7
-0.451462 -12.232422 -19.172852 7
-0.436829 -12.211426 -19.029297 7
-0.43121299 -12.231445 -18.954102 7
-0.42622399 -12.255371 -18.885742 7
-0.44056699 -12.369629 -18.96582 7
-0.449738 -12.459961 -19.004883 7
-0.63905299 -21.751953 12.741211 7
-0.62510699 -21.618164 12.735352 7
-0.01178 7.5410161 19.193359 7
-0.01033 7.578125 19.165039 7
-0.007584 7.610352 19.125 7
-0.0068049999 7.6499019 19.102539 7
-0.049194001 13.069336 16.282227 7
-0.051711999 13.119629 16.269531 7
-0.29409799 -2.5805659 -19.970703 7
-0.309021 -2.6459961 -20.09082 7
-0.32328799 -2.711426 -20.205078 7
-0.33012399 -2.769531 -20.255859 7
-0.305969 -2.793457 -20.041992 7
-0.1884 -5.1567378 -18.487305 7
-0.17636099 -5.17627 -18.374023 7
-0.192017 -5.2573242 -18.491211 7
-0.190781 -5.3007808 -18.46582 7
-0.18275499 -5.324707 -18.375 7
-0.18557701 -5.3774409 -18.384766 7
-0.21661399 -8.0429688 -17.664062 7
-0.212006 -8.0712891 -17.606445 7
-0.216888 -8.1318359 -17.625 7
-0.21431001 -8.1669922 -17.583984 7
-0.231415 -8.2700195 -17.697266 7
-0.22679099 -8.2983398 -17.640625 7
-0.425446 -11.5625 -17.762695 7
-0.439224 -11.667969 -17.833984 7
-0.42304999 -11.640137 -17.6875 7
-0.42662001 -11.699707 -17.68457 7
-0.42337 -11.729492 -17.632812 7
-0.43443301 -11.82373 -17.683594 7
-0.58715802 -20.141602 12.075195 7
-0.581604 -20.075684 12.099609 7
-0.0066530001 9.6958008 16.943359 7
0.00042699999 9.7006836 16.871094 7
0.012497 9.7207031 16.742188 7
0.015396 9.7441406 16.699219 7
-0.009598 9.8930664 16.852539 7
0.0023650001 9.8759766 16.74707 7
0.013641 9.8613281 16.645508 7
0.010269 9.9125977 16.647461 7
-0.069031 12.49707 15.588867 7
-0.070297003 12.537598 15.567383 7
-0.077118002 12.609375 15.581055 7
-0.085341997 12.689453 15.603516 7
-0.074799001 12.664551 15.508789 7
-0.066344999 12.650879 15.427734 7
-0.066238001 12.683105 15.397461 7
-0.061951 12.692383 15.341797 7
-0.054184001 12.681641 15.264648 7
-0.16821299 -4.6503911 -17.248047 7
-0.171295 -4.7436519 -17.249023 7
-0.155655 -4.7553711 -17.113281 7
-0.189209 -7.4179692 -16.416992 7
-0.193665 -7.473145 -16.431641 7
-0.189468 -7.5014648 -16.381836 7
-0.19319201 -7.5537109 -16.390625 7
-0.203384 -7.6279302 -16.447266 7
-0.39854401 -10.919434 -16.415039 7
-0.39653 -10.951172 -16.373047 7
-0.41400099 -11.066895 -16.464844 7
-0.41053799 -11.09375 -16.415039 7
-0.40925601 -11.128906 -16.378906 7
-0.40362501 -11.145508 -16.3125 7
-0.398727 -11.165527 -16.251953 7
-0.027817 6.7470698 17.441406 7
-0.026993001 6.782227 17.419922 7
-0.020966001 6.80127 17.361328 7
-0.018646 6.8320308 17.330078 7
-0.018539 6.8696289 17.313477 7
-0.0035860001 9.2861328 15.970703 7
0.012848 9.2851562 15.819336 7
0.013687 9.315918 15.792969 7
-0.0075989999 9.4414062 15.912109 7
0.00062599999 9.440918 15.836914 7
0.0058900001 9.4521484 15.780273 7
0.013367 9.4541016 15.709961 7
0.008316 9.5097656 15.72168 7
-0.001175 9.5854492 15.761719 7
-0.080048002 12.178223 14.582031 7
-0.074692003 12.212402 14.494141 7
-0.067215003 12.203613 14.423828 7
-0.25170901 -1.337402 -17.429688 7
-0.245758 -1.37793 -17.379883 7
-0.24961901 -1.42334 -17.404297 7
-0.25650001 -1.47168 -17.453125 7
-0.26187101 -1.519043 -17.490234 7
-0.26573199 -1.566406 -17.515625 7
-0.162155 -4.1743159 -16.235352 7
-0.16149899 -4.214355 -16.219727 7
-0.161606 -4.2553711 -16.208984 7
-0.158676 -4.2905269 -16.175781 7
-0.148178 -4.3125 -16.086914 7
-0.14979599 -4.3564448 -16.088867 7
-0.152924 -4.402832 -16.100586 7
-0.16059899 -4.4580078 -16.145508 7
-0.176498 -7.046875 -15.319336 7
-0.178146 -7.090332 -15.3125 7
-0.18129 -7.1386719 -15.317383 7
-0.19281 -7.2124019 -15.379883 7
-0.19522101 -7.257812 -15.37793 7
-0.19458 -7.2954102 -15.355469 7
-0.199265 -7.348145 -15.369141 7
-0.408813 -10.591309 -15.354492 7
-0.40284699 -10.60498 -15.290039 7
-0.39840701 -10.625 -15.235352 7
-0.39779699 -10.661133 -15.205078 7
-0.40022299 -10.709961 -15.195312 7
-0.408768 -10.783203 -15.222656 7
-0.418823 -10.864258 -15.260742 7
-0.41287199 -10.877441 -15.196289 7
-0.031097 6.4291992 16.594727 7
-0.02475 6.4462891 16.537109 7
-0.023864999 6.47998 16.517578 7
-0.021423001 6.5087891 16.486328 7
-0.017517 6.5385742 16.448242 7
-0.016632 6.5712891 16.426758 7
-0.011856 6.5932622 16.380859 7
-0.010208 6.6230469 16.353516 7
-0.0085450001 6.6538091 16.328125 7
-0.147995 -3.84375 -15.188477 7
-0.13767999 -3.8652339 -15.106445 7
-0.125763 -3.8837891 -15.012695 7
-0.12826499 -3.92627 -15.020508 7
-0.131561 -3.9702151 -15.03418 7
-0.13726801 -4.0180659 -15.0625 7
-0.146164 -4.0717769 -15.114258 7
-0.14146399 -4.1020508 -15.071289 7
-0.13034099 -4.120605 -14.983398 7
-0.17306501 -6.7597661 -14.332031 7
-0.166748 -6.777832 -14.273438 7
-0.170883 -6.8261719 -14.28418 7
-0.17984 -6.8886719 -14.326172 7
-0.179947 -6.925293 -14.308594 7
-0.190521 -6.992188 -14.360352 7
-0.37307701 -10.123535 -14.052734 7
-0.369995 -10.147461 -14.009766 7
-0.378189 -10.214844 -14.033203 7
-0.48281899 -11.783691 -13.779297 7
-0.123505 -3.5332029 -14.210938 7
-0.118546 -3.562012 -14.168945 7
-0.125366 -3.608887 -14.205078 7
-0.131363 -3.6542971 -14.235352 7
-0.13902301 -3.703125 -14.277344 7
-0.133224 -3.72998 -14.228516 7
-0.123199 -3.750488 -14.15332 7
-0.125809 -3.7905271 -14.160156 7
-0.121689 -3.820312 -14.124023 7
-0.13317899 -6.1000981 -13.388672 7
-0.1409 -6.1547852 -13.420898 7
-0.135086 -6.1738281 -13.369141 7
-0.14375301 -6.2661128 -13.393555 7
-0.154846 -6.3305659 -13.448242 7
-0.15411399 -6.362793 -13.426758 7
-0.156021 -6.436523 -13.40625 7
-0.1595 -6.480957 -13.413086 7
-0.36616501 -9.6186523 -13.220703 7
-0.379013 -9.7006836 -13.269531 7
-0.36724901 -9.6904297 -13.179688 7
-0.36824 -9.7280273 -13.162109 7
-0.36836201 -9.762207 -13.138672 7
-0.371887 -9.8085938 -13.134766 7
-0.37879899 -9.8691406 -13.149414 7
-0.45851099 -11.218262 -12.786133 7
-0.458664 -11.251465 -12.758789 7
-0.46984899 -11.332031 -12.791992 7
-0.46998599 -11.364746 -12.764648 7
-0.466721 -11.383301 -12.719727 7
-0.46769699 -11.419922 -12.697266 7
-0.46359301 -11.435059 -12.648438 7
-0.46543899 -11.474609 -12.62793 7
-0.19589201 0.20507801 -13.839844 7
-0.190598 0.168457 -13.804688 7
-0.193314 0.132324 -13.822266 7
-0.198715 0.095702998 -13.857422 7
-0.205887 0.059082001 -13.904297 7
-0.21128801 0.022461001 -13.939453 7
-0.238205 -0.124512 -14.111328 7
-0.24092101 -0.162109 -14.128906 7
-0.109634 -3.16748 -13.390625 7
-0.125916 -3.329102 -13.460938 7
-0.135727 -3.3774409 -13.514648 7
-0.371979 -9.3227539 -12.416016 7
-0.36675999 -9.3359385 -12.365234 7
-0.36152601 -9.3486328 -12.314453 7
-0.36164901 -9.3803711 -12.291992 7
-0.35820001 -9.3994141 -12.250977 7
-0.360107 -9.4379883 -12.238281 7
-0.373611 -9.5195312 -12.287109 7
-0.37284899 -9.5478516 -12.258789 7
-0.46215799 -10.984863 -11.839844 7
-0.45694 -10.994141 -11.788086 7
-0.45529199 -11.016602 -11.751953 7
-0.45899999 -11.062988 -11.744141 7
-0.455551 -11.078125 -11.699219 7
-0.46908599 -11.165039 -11.739258 7
-0.38482699 -14.060547 9.4101562 7
-0.37846401 -14.005859 9.4238281 7
-0.36660799 -13.921875 9.4189453 7
-0.38131699 -13.983398 9.4980469 7
-0.37861601 -13.94873 9.5234385 7
-0.382339 -13.949707 9.5673828 7
-0.378723 -13.910156 9.5898438 7
-0.230469 0.31982401 -14.063477 7
-0.211868 0.243164 -13.943359 7
-0.38343799 -9.0073242 -11.761719 7
-0.356552 -8.9736328 -11.582031 7
-0.21785 0.31445301 -13.745117 7
-0.19567899 0.27685499 -13.607422 7
-0.200363 0.242676 -13.635742 7
-0.201355 0.20751999 -13.641602 7
-0.203262 0.172363 -13.654297 7
-0.208878 0.137695 -13.688477 7
-0.213577 0.102539 -13.717773 7
-0.22197001 0.067382999 -13.769531 7
-0.236847 0.032226998 -13.862305 7
-0.114822 -5.2915039 -11.199219 7
-0.098190002 -2.242188 -11.445312 7
-0.101318 -2.2753911 -11.457031 7
-0.088119999 -2.2915039 -11.376953 7
-0.089203 -2.3222661 -11.37793 7
-0.091309004 -2.3540039 -11.382812 7
-0.091384999 -2.3837891 -11.376953 7
-0.094512999 -2.4169919 -11.388672 7
-0.100708 -2.453613 -11.416016 7
-0.098724 -2.4814451 -11.399414 7
-0.095734 -2.508301 -11.376953 7
-0.094788 -2.5361331 -11.364258 7
-0.417862 -9.9262695 -9.3496094 7
-0.41592401 -9.9433594 -9.3173828 7
-0.420151 -9.9848633 -9.3105469 7
-0.092789002 -1.930176 -10.838867 7
-0.090714 -1.957031 -10.822266 7
-0.089706004 -1.984863 -10.8125 7
-0.085495003 -2.0087891 -10.78418 7
-0.081267998 -2.0336909 -10.755859 7
-0.081344999 -2.062012 -10.750977 7
-0.079329997 -2.116699 -10.729492 7
-0.078322999 -2.144043 -10.71875 7
-0.085876003 -2.1787109 -10.75293 7
-0.089157 -2.210449 -10.765625 7
-0.088150002 -2.237793 -10.753906 7
-0.097107001 -4.9042969 -9.9199219 7
-0.30532801 -8.0258789 -9.2910156 7
-0.16676299 1.558594 -10.87207 7
-0.151749 1.519531 -10.794922 7
-0.14749099 1.487305 -10.776367 7
-0.14753699 1.4580081 -10.779297 7
-0.14650001 1.428223 -10.776367 7
-0.14653 1.3994139 -10.779297 7
-0.146576 1.3701169 -10.782227 7
-0.14875799 1.341797 -10.797852 7
-0.152023 1.313965 -10.818359 7
-0.15527301 1.286621 -10.837891 7
-0.069747999 -1.796875 -10.197266 7
-0.070923001 -1.824219 -10.197266 7
-0.072159 -1.879395 -10.195312 7
-0.074447997 -1.908203 -10.201172 7
-0.078612998 -4.4995122 -9.4140615 7
-0.080932997 -4.5292969 -9.4140615 7
-0.082122996 -4.5566411 -9.4082031 7
-0.092299998 -4.6025391 -9.4443359 7
-0.089019999 -4.620605 -9.4169922 7
-0.093581997 -4.655273 -9.4277344 7
-0.089171998 -4.6713872 -9.3955078 7
-0.091491997 -4.7011719 -9.3945312 7
-0.096054003 -4.7358398 -9.4042969 7
-0.099503003 -4.7680659 -9.4091797 7
-0.30687001 -7.7036128 -8.8212891 7
-0.30706799 -7.7519531 -8.7851562 7
-0.30152899 -7.7573242 -8.7431641 7
-0.30500799 -7.7919922 -8.7382812 7
-0.30632001 -7.842773 -8.7060547 7
-0.31889299 -7.9287109 -8.7167969 7
-0.31909201 -7.9760742 -8.6796885 7
-0.40165699 -9.3320312 -7.984375 7
-0.39724699 -9.3378906 -7.9462891 7
-0.389465 -9.3310547 -7.8964839 7
-0.389557 -9.3520508 -7.874023 7
-0.38740501 -9.3657227 -7.84375 7
-0.38977101 -9.3955078 -7.829102 7
-0.39776599 -9.4458008 -7.8339839 7
-0.40914899 -9.5087891 -7.851562 7
-0.413773 -9.5473633 -7.8457031 7
-0.41386399 -9.5688477 -7.8222661 7
-0.41397101 -9.5898438 -7.7988281 7
-0.15069599 1.732422 -10.210938 7
-0.14735401 1.702637 -10.197266 7
-0.145142 1.672852 -10.19043 7
-0.147415 1.646484 -10.205078 7
-0.147461 1.618652 -10.208984 7
-0.15086401 1.592773 -10.230469 7
-0.152008 1.56543 -10.240234 7
-0.158783 1.54248 -10.276367 7
-0.16442899 1.518066 -10.308594 7
-0.171188 1.494141 -10.34668 7
-0.174591 1.467773 -10.367188 7
-0.176865 1.440918 -10.381836 7
-0.175781 1.411621 -10.379883 7
-0.171326 1.380859 -10.360352 7
-0.163498 1.348145 -10.323242 7
-0.159042 1.317871 -10.302734 7
-0.16244499 1.291016 -10.323242 7
-0.076981001 -1.623535 -9.7568359 7
-0.072371997 -1.646484 -9.7304688 7
-0.075928003 -1.674805 -9.7431641 7
-0.078322999 -1.702637 -9.7509766 7
-0.081878997 -1.730957 -9.7617188 7
-0.083099 -1.757812 -9.7636719 7
-0.083159998 -1.783691 -9.7597656 7
-0.076218002 -1.804199 -9.7216797 7
-0.078598 -1.831543 -9.7275391 7
-0.070510998 -1.851074 -9.6845703 7
-0.076401003 -1.8818361 -9.7080078 7
-0.076447003 -1.907227 -9.7021484 7
-0.295349 -7.4067378 -8.2890615 7
-0.30131501 -7.4472661 -8.2939453 7
-0.309616 -7.4946289 -8.3076172 7
-0.31558201 -7.534668 -8.3115234 7
-0.30629 -7.5288091 -8.2578115 7
-0.30403101 -7.5439448 -8.2304688 7
-0.302948 -7.5629878 -8.2089844 7
-0.30186501 -7.5820308 -8.1865234 7
-0.30313101 -7.6079102 -8.1728516 7
-0.29852301 -7.6157231 -8.1367188 7
-0.075499997 -1.324707 -9.3164062 7
-0.067047 -1.344727 -9.2734385 7
-0.067107998 -1.369141 -9.2695312 7
-0.072067 -1.422363 -9.2851562 7
-0.068480998 -1.444824 -9.2646484 7
-0.075805999 -1.474121 -9.2949219 7
-0.066161998 -1.492676 -9.2460938 7
-0.071060002 -1.5205081 -9.2646484 7
-0.074767999 -1.547852 -9.2783203 7
-0.077255003 -1.574707 -9.2861328 7
-0.073654003 -1.597168 -9.265625 7
-0.30554199 -7.3764648 -7.7128911 7
-0.30563399 -7.3974609 -7.695312 7
-0.28524801 -7.0498052 -7.1914058 7
-0.27766401 -7.047852 -7.148438 7
-0.27902201 -7.0717769 -7.1357422 7
-0.277832 -7.0878911 -7.1152339 7
-0.28303501 -7.1220698 -7.1152339 7
-0.28311199 -7.1420898 -7.0986328 7
-0.290878 -7.184082 -7.1074219 7
-0.29734799 -7.2226558 -7.1123052 7
-0.30383301 -7.2607422 -7.1152339 7
-0.29751599 -7.2617192 -7.0761719 7
-0.302719 -7.2963872 -7.0761719 7
-0.302811 -7.3164058 -7.0595698 7
-0.30544999 -7.34375 -7.0507808 7
-0.085739002 -0.96630901 -8.5078115 7
-0.081832998 -0.98730499 -8.4882812 7
-0.077927001 -1.009277 -8.46875 7
-0.077956997 -1.032227 -8.4667969 7
-0.075378001 -1.053223 -8.4511719 7
-0.068816997 -1.0732419 -8.4208984 7
-0.070189998 -1.09668 -8.4238281 7
-0.072875999 -1.120605 -8.4326172 7
-0.071608998 -1.143066 -8.4238281 7
-0.078262001 -1.169434 -8.4501953 7
-0.084899999 -1.195312 -8.4746094 7
-0.078354001 -1.214355 -8.4423828 7
-0.078400001 -1.237793 -8.4404297 7
-0.079773001 -1.26123 -8.4423828 7
-0.28640699 -6.9160161 -6.71875 7
-0.286484 -6.9355469 -6.703125 7
-0.28790301 -6.9580078 -6.6894531 7
-0.289307 -6.9804692 -6.6777339 7
-0.28674299 -6.9916992 -6.6533198 7
-0.293457 -7.0292969 -6.657227 7
-0.26272601 -6.4145508 -5.929688 7
-0.26710501 -6.4433589 -5.9277339 7
-0.26574701 -6.456543 -5.9082031 7
-0.26295501 -6.4658198 -5.8837891 7
-0.26589999 -6.4907231 -5.8779302 7
-0.258789 -6.487793 -5.8408198 7
-0.254547 -6.4931641 -5.8125 7
-0.256073 -6.5141602 -5.8017578 7
-0.257568 -6.5341802 -5.789062 7
-0.25764501 -6.55127 -5.7744141 7
-0.26058999 -6.5756841 -5.766602 7
-0.27224699 -6.6401372 -5.7685552 7
-0.27950999 -6.6757808 -5.7724609 7
-0.127858 7.9668121 19.901657 7
-0.090967998 -4.305727 -15.690047 7
-0.077886999 -1.461736 -9.3069582 7
-0.46699601 -9.7654276 -8.7018471 7
-0.32210499 -7.2935619 -7.2815509 7
-0.27029499 -6.4955721 -5.9463921 7
-0.159292 1.764194 -10.224995 7
-0.24109501 -3.39534 -13.554481 7
-0.17249399 -2.1696701 -10.617138 7
-0.098646 -4.310533 -8.8899498 7
-0.159885 1.431672 -10.502034 7
-0.29406101 -7.719244 -8.6222305 7
-0.057190999 -0.84590602 -7.0887241 7
