# .PCD v0.7 - Point Cloud Data file format
VERSION 0.7
FIELDS x y z intensity
SIZE 4 4 4 4
TYPE F F F F
COUNT 1 1 1 1
WIDTH 918
HEIGHT 1
VIEWPOINT 0 0 0 1 0 0 0
POINTS 918
DATA ascii
1.671455 54.455078 -24.869141 7
1.419456 47.612305 -21.288086 7
1.420105 47.531738 -21.387695 7
1.314819 45.438965 -16.429688 7
1.30706 45.749512 -16.928711 7
1.230225 43.489258 -15.759766 7
1.125885 42.015137 -14.740234 7
1.124657 42.003418 -14.963867 7
0.011032 30.935059 66.061523 7
0.13574199 32.40625 60.995117 7
-0.023894999 37.748535 64.302734 7
0.029739 36.983398 62.701172 7
0.064156003 36.541016 61.648438 7
0.124985 35.637207 59.849609 7
1.044533 40.287598 -13.932617 7
0.035484001 27.345703 59.550781 7
-0.0087280003 27.956055 60.499023 7
0.120789 29.121094 55.827148 7
0.103119 29.504395 56.231445 7
0.090346999 29.819824 56.506836 7
0.073188998 30.47168 56.771484 7
0.97138202 38.285156 -12.870117 7
0.965675 38.436523 -13.03125 7
0.971771 38.216309 -13.050781 7
0.963287 38.45459 -13.246094 7
0.042374 24.158203 53.765625 7
-0.003426 24.804688 54.833984 7
-0.049644001 25.460449 55.90918 7
0.112755 26.160156 50.873047 7
0.077293001 26.72998 51.663086 7
0.088440001 26.710449 51.341797 7
0.058990002 28.19043 51.524414 7
0.085274003 27.962402 50.84668 7
0.083641 28.105469 50.827148 7
0.116615 27.782715 49.994141 7
0.91409302 34.776855 -14.729492 7
0.913284 34.764648 -14.824219 7
0.91190302 34.767578 -14.926758 7
0.911102 34.755371 -15.020508 7
-0.62231398 -28.498047 -66.773438 7
-0.65228999 -29.118652 -67.34375 7
-0.64167798 -31.954102 -65.52832 7
-0.0065919999 22.167969 50.013672 7
-0.035583001 22.57959 50.609375 7
-0.108276 23.442383 52.170898 7
0.05587 24.177734 47.362305 7
0.072952002 24.094238 46.943359 7
0.032448001 24.668945 47.763672 7
0.01973 26.38916 47.28125 7
0.05957 26.121094 46.327148 7
0.076149002 26.025879 45.921875 7
0.110657 25.707031 45.139648 7
-0.014229 29.712402 46.43457 7
0.001358 29.61084 46.051758 7
0.029335 29.339355 45.417969 7
-0.59200299 -25.026367 -60.161133 7
-0.65332001 -25.724121 -61.448242 7
-0.57557702 -25.159668 -59.662109 7
-0.65577698 -26.035645 -61.364258 7
-0.754852 -27.09375 -63.476562 7
-0.016647 20.08252 46.052734 7
-0.055344 20.544922 46.792969 7
-0.076134004 20.846191 47.169922 7
0.02317 22.331543 44.136719 7
0.016083 22.507812 44.228516 7
0.018707 22.583984 44.129883 7
0.002838 24.812012 43.426758 7
0.039749 24.492676 42.665039 7
0.037399001 24.619629 42.657227 7
0.048401002 24.593262 42.393555 7
0.061751999 24.538574 42.085938 7
0.114326 24.026855 41.027344 7
-0.013908 27.73877 42.21582 7
0.005409 27.593262 41.797852 7
0.024208 27.452637 41.390625 7
0.76197797 32.588379 -10.192383 7
-0.54686701 -21.754883 -53.933594 7
-0.58731103 -22.207031 -54.692383 7
-0.62857097 -22.668945 -55.464844 7
-0.67306501 -23.160645 -56.300781 7
-0.62681597 -22.916504 -55.308594 7
-0.66835803 -23.388184 -56.082031 7
-0.45624501 -24.068848 -50.608398 7
-0.47979701 -24.404297 -51.007812 7
-0.522789 -24.920898 -51.786133 7
-0.46315801 -24.490723 -50.552734 7
-0.49374399 -24.894043 -51.085938 7
-0.41382599 -24.267578 -49.460938 7
-0.59581 -28.912598 -51.296875 7
-0.586945 -28.939453 -51.052734 7
-0.093620002 18.872559 43.834961 7
-0.100838 19.034668 43.929688 7
-0.141357 19.476562 44.641602 7
0.0043720002 20.712402 40.771484 7
0.032393999 20.633789 40.177734 7
0.062729001 20.434082 39.587891 7
0.028793 22.891602 39.116211 7
0.030471999 22.964844 39.037109 7
0.035301 23.004395 38.902344 7
0.071571 22.705078 38.22168 7
-0.03083 26.112793 38.646484 7
-0.0091859996 25.947266 38.225586 7
0.019585 25.695801 37.6875 7
0.032097001 25.635254 37.422852 7
0.68943 31.132324 -9.4394531 7
-0.52089697 -19.292969 -49.508789 7
-0.55671698 -19.667969 -50.12793 7
-0.59924299 -20.09375 -50.873047 7
-0.63682598 -20.48877 -51.524414 7
-0.68810999 -20.98584 -52.428711 7
-0.72629499 -21.391113 -53.085938 7
-0.427315 -21.532715 -46.375977 7
-0.42526999 -21.625977 -46.283203 7
-0.48017099 -22.193359 -47.225586 7
-0.52172899 -23.21875 -47.623047 7
-0.446899 -22.686523 -46.212891 7
-0.48491701 -23.125 -46.838867 7
-0.41329199 -22.611816 -45.489258 7
-0.60137898 -27.086426 -47.213867 7
-0.017647 21.760742 37.115234 7
0.024811 21.425781 36.383789 7
0.0021820001 21.821777 36.65332 7
0.031372 21.61377 36.135742 7
-0.041862 24.742188 35.871094 7
-0.018890001 24.569336 35.461914 7
0.002235 24.416504 35.083008 7
0.016602 24.336914 34.807617 7
0.63096601 29.89502 -8.8222656 7
-0.40316001 -15.833496 -43.533203 7
-0.43429601 -16.129883 -44.029297 7
-0.46766701 -16.441895 -44.5625 7
-0.49212599 -16.70166 -44.942383 7
-0.527412 -17.030273 -45.506836 7
-0.56590301 -17.382324 -46.123047 7
-0.337975 -18.133789 -41.214844 7
-0.33312199 -18.197266 -41.085938 7
-0.353172 -18.44043 -41.374023 7
-0.37764001 -18.817383 -41.6875 7
-0.33258799 -20.033203 -40.133789 7
-0.37252 -20.448242 -40.738281 7
-0.60724598 -25.027832 -43.013672 7
-0.57158703 -24.908691 -42.320312 7
-0.53434002 -24.67041 -41.667969 7
0.014503 19.931641 33.579102 7
0.059547 19.669434 32.826172 7
0.041976999 19.908691 33.041992 7
0.063995004 19.779297 32.674805 7
-0.034561001 23.026855 32.678711 7
0.004005 22.775391 32.035156 7
0.019943001 22.682617 31.761719 7
0.026512001 22.687012 31.620117 7
0.58179498 28.297363 -7.688477 7
0.58792102 28.169922 -7.719727 7
0.58429003 28.214355 -7.8085942 7
-0.37624401 -13.800781 -39.955078 7
-0.394371 -13.995605 -40.209961 7
-0.42284399 -14.248047 -40.629883 7
-0.45510101 -14.523438 -41.110352 7
-0.47840899 -14.750977 -41.445312 7
-0.51308399 -15.043945 -41.961914 7
-0.53915399 -15.291016 -42.339844 7
-0.30835 -16.194336 -37.699219 7
-0.317902 -16.347168 -37.805664 7
-0.31571999 -16.423828 -37.729492 7
-0.34771001 -16.725586 -38.185547 7
-0.375572 -17.001953 -38.575195 7
-0.36129001 -18.810547 -37.385742 7
-0.32104501 -18.601562 -36.728516 7
-0.354164 -18.936035 -37.181641 7
-0.32014501 -18.77002 -36.618164 7
-0.54432702 -22.976562 -38.513672 7
-0.51371002 -22.809082 -38.009766 7
-0.490372 -22.70166 -37.612305 7
0.021103 18.641602 31.040039 7
0.062346999 18.425781 30.394531 7
0.058403 18.599609 30.366211 7
0.073775999 18.535156 30.118164 7
-0.020729 21.632812 29.944336 7
-0.012596 21.621582 29.791016 7
0.003822 21.52832 29.53125 7
0.026581001 21.437988 29.143555 7
-0.41964 -12.256348 -37.435547 7
-0.39399001 -12.224609 -37.022461 7
-0.41294101 -12.404785 -37.271484 7
-0.43563801 -12.604492 -37.575195 7
-0.46434799 -12.833984 -37.966797 7
-0.48593101 -13.030273 -38.251953 7
-0.51276398 -13.254883 -38.615234 7
-0.28601801 -14.32373 -34.366211 7
-0.31215701 -14.55957 -34.708008 7
-0.28530899 -14.485352 -34.283203 7
-0.31558999 -14.746582 -34.681641 7
-0.32368499 -14.877441 -34.758789 7
-0.32458499 -17.349121 -33.533203 7
-0.32970399 -17.465332 -33.55957 7
-0.52407098 -21.282227 -34.77832 7
-0.49371299 -21.125977 -34.321289 7
-0.46485099 -20.978516 -33.883789 7
-0.50062603 -21.344238 -34.304688 7
-1.957863 -53.545898 29.869141 7
0.020020001 17.388184 28.608398 7
0.017464001 17.474121 28.600586 7
0.041954 17.341309 28.256836 7
0.040755998 17.480469 28.194336 7
-0.034561001 20.44043 27.585938 7
-0.031242 20.472656 27.500977 7
-0.01619 20.396484 27.27832 7
0.0019759999 20.290527 27.020508 7
0.018578 20.197754 26.78125 7
0.010971 20.330078 26.824219 7
0.475647 25.639648 -6.4277339 7
0.47093999 25.693359 -6.5107422 7
-0.34233099 -10.612793 -34.014648 7
-0.36654699 -10.797852 -34.325195 7
-0.377556 -10.928223 -34.450195 7
-0.32523301 -13.596191 -32.585938 7
-0.30895999 -13.585449 -32.331055 7
-0.28826901 -13.550293 -32.016602 7
-0.266357 -13.506836 -31.6875 7
-0.26815799 -13.593262 -31.676758 7
-0.25871301 -13.617188 -31.514648 7
-0.24002101 -13.588379 -31.229492 7
-0.30777001 -16.031738 -31.104492 7
-0.31804699 -16.172852 -31.197266 7
-0.499329 -20.023926 -31.946289 7
-0.47773701 -19.938477 -31.628906 7
-0.477974 -20.016113 -31.582031 7
-1.689774 -46.891602 26.597656 7
0.0083689997 16.565918 26.948242 7
0.045921002 16.400879 26.436523 7
0.038741998 16.576172 26.446289 7
0.056465 16.499023 26.203125 7
-0.053284001 19.61084 25.947266 7
-0.042266998 19.573242 25.782227 7
-0.026245 19.490723 25.563477 7
-0.010651 19.412109 25.351562 7
-0.002968 19.401855 25.223633 7
-0.30086499 -9.1494141 -31.040039 7
-0.32264701 -9.3061523 -31.298828 7
-0.25552401 -14.412109 -28.162109 7
-0.27222401 -14.57959 -28.327148 7
-0.26024601 -14.577148 -28.146484 7
-0.46150199 -18.509766 -28.930664 7
-1.43634 -39.04248 26.108398 7
-1.379761 -38.374023 25.810547 7
-1.391319 -38.439453 25.980469 7
-1.337029 -37.796875 25.694336 7
-0.021469001 13.143555 26.831055 7
-0.023094 13.25293 26.753906 7
-0.011673 13.244629 26.594727 7
-0.01152 13.303711 26.5625 7
0.041655999 15.443848 24.59375 7
0.047660999 15.455566 24.494141 7
0.01725 15.731445 24.785156 7
0.044838 15.586914 24.455078 7
0.046799 15.628418 24.399414 7
-0.023155 18.248047 23.679688 7
-0.050147999 18.580078 23.868164 7
-0.042351 18.569336 23.748047 7
-0.030075001 18.520508 23.583008 7
-0.016907001 18.463867 23.40918 7
-0.006424 18.428711 23.263672 7
-0.0071490002 18.487793 23.229492 7
0.39741501 23.305664 -5.2275391 7
0.39238 23.356934 -5.3027339 7
0.39465299 23.312988 -5.3486328 7
0.402946 23.189941 -5.3720698 7
-0.39523301 -8.7075195 -30.101562 7
-0.411751 -8.9116211 -30.255859 7
-0.24006701 -13.17627 -26.160156 7
-0.236053 -13.217773 -26.081055 7
-0.24925201 -13.354492 -26.197266 7
-0.24988601 -13.421875 -26.170898 7
-0.45806101 -17.45752 -26.792969 7
-0.44753301 -17.452637 -26.637695 7
0.002785 14.815918 23.459961 7
0.018928999 14.810547 23.230469 7
0.021156 14.899902 23.141602 7
0.038109001 14.834961 22.939453 7
0.026749 14.96582 23.019531 7
-0.043373 17.72998 22.070312 7
-0.034591999 17.710449 21.949219 7
-0.021515001 17.655273 21.789062 7
-0.020865999 17.699219 21.742188 7
-0.034095999 17.854492 21.824219 7
-0.311607 -7.1040039 -27.147461 7
-0.315247 -7.1811519 -27.169922 7
-0.36142701 -7.5180659 -27.636719 7
-0.213203 -12.173828 -23.910156 7
-0.20985401 -12.21582 -23.844727 7
-0.226013 -12.356934 -23.982422 7
-0.22517399 -12.411133 -23.942383 7
-0.22934 -12.491699 -23.955078 7
-0.430298 -16.124023 -24.500977 7
-0.452553 -16.321289 -24.679688 7
-0.434174 -16.267578 -24.458984 7
-0.42832899 -16.290527 -24.361328 7
-1.052536 -29.943359 21.547852 7
-1.035904 -29.741699 21.513672 7
-1.054817 -29.866699 21.702148 7
-1.035561 -29.641113 21.651367 7
-0.030014001 11.595703 23.605469 7
-0.0242 11.618164 23.521484 7
-0.024063 11.669922 23.494141 7
-0.020827999 11.705078 23.43457 7
-0.017601 11.740723 23.376953 7
-0.021591 11.814453 23.389648 7
0.020119 13.796387 21.722656 7
0.002235 13.959473 21.858398 7
0.022461001 13.878418 21.638672 7
0.034446999 13.849121 21.495117 7
0.0098799998 14.056152 21.691406 7
0.016197 14.063965 21.601562 7
0.031265002 14.014648 21.430664 7
0.032951001 14.05127 21.383789 7
-0.035805002 16.82959 20.279297 7
-0.032058999 16.84668 20.208984 7
-0.26557201 -5.8964839 -24.950195 7
-0.25347099 -5.9282231 -24.803711 7
-0.25413501 -5.9912109 -24.794922 7
-0.265434 -6.0805659 -24.901367 7
-0.216682 -11.554199 -22.208984 7
-0.223251 -11.640137 -22.244141 7
-0.234779 -11.805664 -22.296875 7
-0.42304999 -15.13623 -22.676758 7
-0.44574699 -15.324219 -22.848633 7
-0.43197599 -15.299805 -22.683594 7
-0.42517099 -15.314941 -22.583008 7
-0.41943401 -15.335938 -22.492188 7
-0.95920599 -27.032227 20.051758 7
-0.95037103 -26.911133 20.0625 7
-0.96160901 -26.962891 20.192383 7
-0.043388002 10.922363 22.325195 7
-0.030586001 10.908691 22.180664 7
-0.026596 10.937988 22.118164 7
0.0063709999 13.133301 20.464844 7
0.0099409996 13.203125 20.375 7
0.018866999 13.194336 20.268555 7
0.018448001 13.241699 20.240234 7
0.0026469999 13.383301 20.347656 7
0.01432 13.356934 20.21582 7
0.020500001 13.36377 20.133789 7
-0.059105001 16.087402 19.118164 7
-0.068810001 16.200684 19.158203 7
-0.064834997 16.214355 19.089844 7
-0.053734001 16.176758 18.96582 7
-0.047568999 16.174316 18.880859 7
-0.043044999 16.183594 18.808594 7
-0.046172999 16.248047 18.795898 7
0.28943601 20.134766 -3.7871089 7
0.29537201 20.060547 -3.8173831 7
-0.30159801 -5.4848628 -23.655273 7
-0.29604301 -5.5307622 -23.584961 7
-0.149536 -7.73877 -21.333984 7
-0.154221 -7.8076172 -21.360352 7
-0.16073599 -7.9345698 -21.381836 7
-0.17509501 -8.0366211 -21.5 7
-0.19688401 -10.625977 -20.578125 7
-0.210152 -10.736816 -20.673828 7
-0.201157 -10.74707 -20.564453 7
-0.20929 -10.834961 -20.612305 7
-0.43204501 -14.430664 -21.083984 7
-0.41788501 -14.40332 -20.926758 7
-0.41460401 -14.436523 -20.863281 7
-0.41132399 -14.469727 -20.800781 7
-0.42637599 -14.60498 -20.891602 7
-0.43055701 -14.680176 -20.891602 7
-0.511536 -16.27832 -20.728516 7
-0.89688098 -26.43457 16.084961 7
-0.837219 -24.135742 18.56543 7
-0.81768799 -23.938477 18.511719 7
-0.84210998 -24.092285 18.706055 7
-0.82733202 -23.932617 18.678711 7
-0.82858998 -23.901367 18.742188 7
0.0070420001 12.48584 19.158203 7
-0.0033720001 12.587402 19.213867 7
0.013153 12.535156 19.051758 7
0.019722 12.539062 18.97168 7
0.001701 12.685547 19.086914 7
0.0054700002 12.748047 18.998047 7
0.014381 12.738281 18.898438 7
-0.062720999 15.387695 17.791992 7
-0.070754997 15.482422 17.814453 7
-0.071777001 15.528809 17.787109 7
-0.058807001 15.478516 17.658203 7
-0.054001 15.484375 17.587891 7
-0.050361998 15.498047 17.526367 7
-0.053139001 15.556152 17.510742 7
-0.055328 15.609863 17.491211 7
0.262642 19.143066 -3.339844 7
0.25821701 19.176758 -3.3964839 7
-0.231567 -4.359375 -21.650391 7
-0.231079 -4.4125981 -21.634766 7
-0.156532 -7.1411128 -20.103516 7
-0.156654 -7.191895 -20.085938 7
-0.164635 -7.2670898 -20.140625 7
-0.18483 -7.4301758 -20.287109 7
-0.202126 -10.008789 -19.323242 7
-0.200432 -10.049805 -19.285156 7
-0.20359799 -10.11084 -19.286133 7
-0.21161699 -10.192871 -19.330078 7
-0.41897601 -13.741211 -19.485352 7
-0.41304001 -13.757324 -19.404297 7
-0.54647797 -15.650879 -19.579102 7
-0.037941001 9.6669922 19.828125 7
-0.037094001 9.7504883 19.777344 7
-0.032616001 9.7749023 19.71875 7
-0.031876002 9.8144531 19.689453 7
-0.026779 9.8354492 19.625977 7
-0.028534001 9.8876953 19.619141 7
-0.025931999 9.918457 19.575195 7
-0.079017997 14.959473 16.62207 7
-0.070229001 14.9375 16.527344 7
-0.062660001 14.922852 16.443359 7
-0.061287001 14.949707 16.399414 7
-0.067962997 15.03125 16.410156 7
-0.241905 -3.710449 -20.426758 7
-0.243294 -3.7631841 -20.428711 7
-0.249809 -3.824707 -20.477539 7
-0.26082599 -3.8930659 -20.56543 7
-0.27632901 -3.969727 -20.694336 7
-0.28607199 -4.0375981 -20.770508 7
-0.267555 -4.0585942 -20.595703 7
-0.146072 -6.4472661 -18.794922 7
-0.13652 -6.467773 -18.696289 7
-0.146393 -6.589355 -18.748047 7
-0.166458 -6.6933589 -18.90332 7
-0.149193 -6.6904302 -18.738281 7
-0.164505 -8.9892578 -17.902344 7
-0.16397899 -9.0327148 -17.875977 7
-0.167328 -9.090332 -17.880859 7
-0.16680899 -9.1328115 -17.853516 7
-0.17144801 -9.1953115 -17.868164 7
-0.176727 -9.2607422 -17.888672 7
-0.193634 -9.371582 -18.001953 7
-0.186653 -9.3896484 -17.922852 7
-0.188713 -9.4423828 -17.916016 7
-0.203033 -9.5444336 -18.007812 7
-0.201874 -9.5844727 -17.974609 7
-0.407341 -12.899902 -18.105469 7
-0.40618101 -12.939453 -18.06543 7
-0.39595801 -12.933105 -17.958008 7
-0.511971 -14.745605 -17.887695 7
-0.501091 -14.72998 -17.774414 7
-0.50124401 -14.774902 -17.739258 7
-0.49230999 -14.769531 -17.640625 7
-0.50218999 -14.868164 -17.673828 7
-0.52049297 -15.013672 -17.766602 7
-0.69918102 -20.079102 16.407227 7
-0.69655597 -20.025391 16.44043 7
-0.68257099 -19.891602 16.415039 7
-0.69739503 -19.922363 16.585938 7
-0.041893002 8.9633789 18.860352 7
-0.039131001 8.9936523 18.818359 7
-0.037392002 9.0170898 18.767578 7
-0.030663 9.0307617 18.693359 7
-0.035193998 9.0908203 18.709961 7
-0.024498001 9.0878906 18.606445 7
-0.023064001 9.1230469 18.574219 7
-0.02018 11.540527 17.098633 7
0.001816 11.499023 16.890625 7
-0.024344999 11.711914 17.021484 7
-0.068412997 14.311523 15.34668 7
-0.065659001 14.327637 15.297852 7
-0.059624001 14.322266 15.227539 7
-0.064750999 14.388672 15.226562 7
-0.15145101 -5.78125 -17.830078 7
-0.147469 -5.815918 -17.783203 7
-0.14893299 -5.8642578 -17.780273 7
-0.13474301 -5.8730469 -17.649414 7
-0.132805 -5.9125981 -17.619141 7
-0.141075 -5.9780269 -17.671875 7
-0.150024 -6.0454102 -17.727539 7
-0.180305 -8.7104492 -16.878906 7
-0.18247201 -8.7607422 -16.873047 7
-0.19009399 -8.831543 -16.910156 7
-0.19294 -8.8837891 -16.908203 7
-0.38881701 -12.177246 -16.848633 7
-0.38005099 -12.177734 -16.757812 7
-0.40071899 -12.318359 -16.873047 7
-0.39811701 -12.347656 -16.824219 7
-0.39003 -12.351074 -16.737305 7
-0.39084601 -12.396973 -16.712891 7
-0.39371499 -12.452637 -16.702148 7
-0.49884 -14.106445 -16.541992 7
-0.49624601 -14.134277 -16.491211 7
-0.494324 -14.165039 -16.443359 7
-0.49034899 -14.185059 -16.382812 7
-0.51313001 -14.34668 -16.49707 7
-0.51258099 -14.385254 -16.458984 7
-0.67153198 -20.436523 13.057617 7
-0.65467101 -20.288086 13.037109 7
-0.049660001 8.6855469 17.874023 7
-0.043265998 8.6992188 17.806641 7
-0.042473 8.7353516 17.782227 7
-0.036072001 8.7490234 17.71582 7
-0.038764998 8.7983398 17.71582 7
-0.033767998 8.8173828 17.65918 7
-0.023979001 10.995605 16.238281 7
-0.032233998 11.071777 16.267578 7
-0.016785 11.030273 16.140625 7
-0.0069200001 11.015625 16.049805 7
-0.002625 11.02832 15.996094 7
-0.01088 11.105469 16.025391 7
-0.026108 11.217773 16.100586 7
-0.0023040001 11.130859 15.916992 7
0.0033799999 11.136719 15.854492 7
-0.072327003 13.800781 14.376953 7
-0.072205 13.831055 14.344727 7
-0.065834001 13.822266 14.276367 7
-0.059464 13.813965 14.208984 7
-0.064902999 13.878418 14.207031 7
-0.075889997 13.978027 14.238281 7
-0.202309 -2.436523 -17.875 7
-0.222702 -2.593262 -18.017578 7
-0.228539 -2.6455081 -18.057617 7
-0.237259 -2.7006841 -18.120117 7
-0.24885599 -2.7592771 -18.206055 7
-0.241035 -2.796387 -18.136719 7
-0.231056 -2.8305659 -18.048828 7
-0.228256 -2.871582 -18.018555 7
-0.128639 -5.3188481 -16.59668 7
-0.114311 -5.327148 -16.472656 7
-0.117294 -5.375977 -16.482422 7
-0.123886 -5.4326172 -16.518555 7
-0.152428 -8.003418 -15.707031 7
-0.149635 -8.0327148 -15.666016 7
-0.15625 -8.0957031 -15.694336 7
-0.160698 -8.1508789 -15.707031 7
-0.166595 -8.2109385 -15.729492 7
-0.163811 -8.2412109 -15.689453 7
-0.169701 -8.3017578 -15.710938 7
-0.373779 -11.54248 -15.638672 7
-0.37390101 -11.582031 -15.610352 7
-0.38852701 -11.687988 -15.678711 7
-0.37789899 -11.718262 -15.551758 7
-0.378014 -11.757324 -15.523438 7
-0.373795 -11.776855 -15.466797 7
-0.040520001 8.1386719 16.913086 7
-0.044128001 8.1889648 16.919922 7
-0.034416001 8.1894531 16.833008 7
-0.035057001 8.2280273 16.818359 7
-0.029793 8.2451172 16.763672 7
-0.028953999 8.2783203 16.739258 7
-0.028114 8.3120117 16.714844 7
0.0053019999 10.54541 15.011719 7
-0.013763 10.669434 15.105469 7
-0.0099719996 10.684082 15.057617 7
-0.075630002 13.286133 13.424805 7
-0.069518998 13.308105 13.331055 7
-0.064262003 13.304688 13.272461 7
-0.061211001 13.31543 13.226562 7
-0.065513998 13.368652 13.217773 7
-0.067589 13.410645 13.198242 7
-0.106407 -4.8183589 -15.50293 7
-0.107262 -4.8588872 -15.49707 7
-0.110397 -4.905273 -15.507812 7
-0.115059 -4.9550781 -15.529297 7
-0.126572 -5.0195308 -15.601562 7
-0.12133 -5.0473628 -15.549805 7
-0.115326 -5.0732422 -15.493164 7
-0.112358 -5.105957 -15.458008 7
-0.12623601 -7.3657231 -14.652344 7
-0.127869 -7.4086909 -14.645508 7
-0.13636801 -7.473145 -14.686523 7
-0.132751 -7.535645 -14.623047 7
-0.137444 -7.5883789 -14.636719 7
-0.143654 -7.6455078 -14.660156 7
-0.149101 -7.7011719 -14.678711 7
-0.15541799 -7.796875 -14.683594 7
-0.15933999 -7.8476558 -14.691406 7
-0.165565 -7.9057622 -14.714844 7
-0.46283001 -12.847168 -14.036133 7
-0.460655 -12.871094 -13.992188 7
-0.45462 -12.876953 -13.925781 7
-0.45475 -12.913086 -13.895508 7
-0.48406199 -13.092285 -14.032227 7
-0.091316 12.872559 12.625977 7
-0.088104002 12.881348 12.580078 7
-0.081795 12.87207 12.519531 7
-0.110954 -4.264648 -14.703125 7
-0.106201 -4.2929692 -14.65918 7
-0.097427003 -4.3139648 -14.586914 7
-0.088646002 -4.3349609 -14.515625 7
-0.087921001 -4.370605 -14.5 7
-0.089615002 -4.4111328 -14.500977 7
-0.094527997 -4.45752 -14.523438 7
-0.113716 -7.0654302 -13.628906 7
-0.130775 -7.152832 -13.722656 7
-0.13087501 -7.1879878 -13.705078 7
-0.12853201 -7.2158198 -13.671875 7
-0.13105799 -7.2583008 -13.669922 7
-0.139229 -7.3193359 -13.705078 7
-0.35694101 -10.59375 -13.487305 7
-0.34895301 -10.594238 -13.415039 7
-0.34662601 -10.618652 -13.375977 7
-0.34592399 -10.648926 -13.344727 7
-0.356567 -10.728516 -13.380859 7
-0.362358 -10.786621 -13.387695 7
-0.44621301 -12.203125 -12.990234 7
-0.454445 -12.274414 -13.004883 7
-0.455383 -12.312012 -12.979492 7
-0.44657099 -12.303223 -12.902344 7
-0.44262701 -12.318359 -12.851562 7
-0.44274101 -12.352051 -12.823242 7
-0.44854 -12.411621 -12.824219 7
-0.037726998 7.3789058 15.228516 7
-0.034348 7.4003911 15.19043 7
-0.030136 7.4194341 15.148438 7
-0.02758 7.4433589 15.115234 7
-0.026665 7.4726558 15.092773 7
-0.174049 -0.85888702 -14.900391 7
-0.17333201 -0.93505901 -14.890625 7
-0.175156 -1.012207 -14.897461 7
-0.177826 -1.089844 -14.910156 7
-0.187187 -1.132812 -14.970703 7
-0.19148301 -1.172363 -14.995117 7
-0.18486001 -1.2451169 -14.943359 7
-0.095435999 -3.8408201 -13.848633 7
-0.093819 -3.8735349 -13.827148 7
-0.087967001 -3.8999021 -13.779297 7
-0.084663004 -3.9287109 -13.74707 7
-0.083893001 -3.9628911 -13.732422 7
-0.084816001 -3.999512 -13.727539 7
-0.086585999 -4.0380859 -13.729492 7
-0.095138997 -4.0883789 -13.775391 7
-0.101143 -4.1347661 -13.805664 7
-0.091049001 -4.1513672 -13.727539 7
-0.110825 -6.7314448 -12.848633 7
-0.113457 -6.7719731 -12.847656 7
-0.118645 -6.8208008 -12.863281 7
-0.118736 -6.8535161 -12.84668 7
-0.129868 -6.9199219 -12.897461 7
-0.12826499 -6.9482422 -12.870117 7
-0.130898 -6.9892578 -12.869141 7
-0.1866 -0.34375 -13.893555 7
-0.178734 -0.41552699 -13.839844 7
-0.182365 -0.489746 -13.860352 7
-0.076286003 -3.5219729 -13.00293 7
-0.073684998 -3.550781 -12.976562 7
-0.079102002 -3.593262 -13.001953 7
-0.080955997 -3.629395 -13.003906 7
-0.082809001 -3.6660161 -13.006836 7
-0.089126997 -3.710449 -13.037109 7
-0.098099001 -3.758301 -13.083984 7
-0.089263998 -3.777344 -13.019531 7
-0.078658998 -3.793457 -12.943359 7
-0.084076002 -3.835449 -12.966797 7
-0.100533 -6.2451172 -12.148438 7
-0.104187 -6.2866211 -12.154297 7
-0.118736 -6.4213872 -12.192383 7
-0.116142 -6.4458008 -12.161133 7
-0.116226 -6.4770508 -12.145508 7
-0.119881 -6.5185552 -12.150391 7
-0.125328 -6.5654302 -12.166992 7
-0.131668 -6.6157231 -12.1875 7
-0.137108 -6.6625981 -12.202148 7
-0.13898499 -6.699707 -12.197266 7
-0.330055 -9.6142578 -11.794922 7
-0.33374 -9.6591797 -11.791016 7
-0.34190401 -9.7211914 -11.810547 7
-0.33841699 -9.7382812 -11.768555 7
-0.330452 -9.737793 -11.703125 7
-0.33412901 -9.7827148 -11.700195 7
-0.33422899 -9.8129883 -11.676758 7
-0.334328 -9.8432617 -11.652344 7
-0.433319 -11.375977 -11.165039 7
-0.42983201 -11.388672 -11.119141 7
-0.432632 -11.430176 -11.105469 7
-0.436333 -11.475098 -11.095703 7
-0.43733999 -11.508301 -11.073242 7
-0.42033401 -14.07666 9.875 7
-0.41671801 -14.037109 9.8955078 7
-0.092704996 -5.9243159 -11.470703 7
-0.102226 -6.0083008 -11.493164 7
-0.120094 -6.0854492 -11.578125 7
-0.104256 -6.07373 -11.474609 7
-0.124077 -6.186523 -11.554688 7
-0.142113 -6.3251948 -11.608398 7
-0.134872 -6.3959961 -11.522461 7
-0.33214599 -9.3374023 -11.055664 7
-0.31909901 -9.3178711 -10.96875 7
-0.31824499 -9.3432617 -10.941406 7
-0.31552899 -9.3608398 -10.905273 7
-0.32895699 -9.496582 -10.901367 7
-0.059760999 -2.889648 -11.630859 7
-0.059822001 -2.9194341 -11.623047 7
-0.058906998 -2.9482419 -11.610352 7
-0.069756001 -2.9936521 -11.665039 7
-0.071785003 -3.0263669 -11.668945 7
-0.067932002 -3.0522461 -11.639648 7
-0.066032 -3.0795901 -11.620117 7
-0.065117002 -3.108398 -11.607422 7
-0.065186001 -3.1386721 -11.599609 7
-0.065246999 -3.1689451 -11.591797 7
-0.065315001 -3.199219 -11.583984 7
-0.085381001 -5.4736328 -10.87207 7
-0.089386001 -5.5117192 -10.879883 7
-0.088477999 -5.5380859 -10.861328 7
-0.089530997 -5.5688481 -10.853516 7
-0.08371 -5.5830078 -10.808594 7
-0.084770001 -5.61377 -10.800781 7
-0.085831001 -5.64502 -10.792969 7
-0.096717998 -5.7006841 -10.836914 7
-0.105644 -5.7514648 -10.870117 7
-0.301422 -8.9057617 -10.198242 7
-0.301514 -8.9331055 -10.177734 7
-0.066551 -2.562988 -11.139648 7
-0.055335999 -2.579102 -11.071289 7
-0.056426998 -2.609375 -11.071289 7
-0.056488 -2.6386721 -11.064453 7
-0.061668001 -2.6738279 -11.086914 7
-0.060706999 -2.7016599 -11.074219 7
-0.063850001 -2.734375 -11.083984 7
-0.073128 -2.7749021 -11.12793 7
-0.071144 -2.8017581 -11.110352 7
-0.066078 -2.824219 -11.075195 7
-0.064094998 -2.851074 -11.057617 7
-0.060051002 -2.874512 -11.02832 7
-0.063575998 -5.230957 -10.194336 7
-0.068787001 -5.2705078 -10.208008 7
-0.070914999 -5.3027339 -10.207031 7
-0.074065998 -5.3369141 -10.209961 7
-0.078400001 -5.4277339 -10.191406 7
-0.29708901 -8.621582 -9.5664062 7
-0.134712 0.91650403 -11.477539 7
-0.127617 0.88330102 -11.438477 7
-0.12458 0.85107398 -11.423828 7
-0.12767 0.821289 -11.443359 7
-0.12871601 0.79101598 -11.450195 7
-0.13282 0.76220697 -11.474609 7
-0.13488799 0.73144501 -11.487305 7
-0.137978 0.70117199 -11.506836 7
-0.059783999 -2.2939451 -10.537109 7
-0.059845001 -2.3217771 -10.53125 7
-0.053444002 -2.343262 -10.492188 7
-0.050278001 -2.367188 -10.469727 7
-0.055716999 -2.4003911 -10.491211 7
-0.062224999 -2.4350591 -10.518555 7
-0.062339999 -2.4907229 -10.507812 7
-0.062401 -2.5180659 -10.500977 7
-0.062447 -2.546387 -10.495117 7
-0.077156 -5.1386719 -9.6464844 7
-0.075126998 -5.1845698 -9.6113281 7
-0.078429997 -5.2172852 -9.6132812 7
-0.078491002 -5.2436519 -9.6015615 7
-0.086112998 -5.2866211 -9.625 7
-0.087256998 -5.3154302 -9.6181641 7
-0.088408999 -5.3432622 -9.6103516 7
-0.092795998 -5.379395 -9.6181641 7
-0.096169002 -5.4379878 -9.6074219 7
-0.28675801 -8.2685547 -8.9228516 7
-0.285835 -8.3139648 -8.8798828 7
-0.059601001 -1.923828 -10.075195 7
-0.054047 -1.945801 -10.041992 7
-0.058586001 -1.976562 -10.060547 7
-0.055275001 -2.000488 -10.039062 7
-0.056449998 -2.027832 -10.039062 7
-0.047522999 -2.045898 -9.9882812 7
-0.044211999 -2.0688479 -9.9658203 7
-0.047637999 -2.0991211 -9.9785156 7
-0.046569999 -2.124512 -9.9677734 7
-0.054482002 -2.1586909 -10.001953 7
-0.056777999 -2.1875 -10.007812 7
-0.065109 -4.813477 -9.1533203 7
-0.073050998 -4.85498 -9.1787109 7
-0.070868999 -4.8745122 -9.15625 7
-0.072059996 -4.9013672 -9.1484385 7
-0.070998996 -4.9233398 -9.1318359 7
-0.072189003 -4.9506841 -9.1259766 7
-0.072250001 -4.9750981 -9.1142578 7
-0.077933997 -5.012207 -9.1279297 7
-0.081382997 -5.0444341 -9.1308594 7
-0.088202998 -5.0844731 -9.1503906 7
-0.087142996 -5.1054692 -9.1318359 7
-0.294846 -8.0029297 -8.4560547 7
-0.288147 -8.0039062 -8.4101562 7
-0.28710201 -8.0234385 -8.3867188 7
-0.28943601 -8.0537109 -8.3769531 7
-0.28620899 -8.0883789 -8.3251953 7
-0.29531899 -8.1401367 -8.3398438 7
-0.29878199 -8.1738281 -8.3339844 7
-0.30684701 -8.2456055 -8.3261719 7
-0.051787999 -1.812012 -9.5566406 7
-0.047157001 -1.833984 -9.5292969 7
-0.054237001 -1.864746 -9.5576172 7
-0.054276001 -1.890137 -9.5537109 7
-0.054329 -1.915527 -9.5488281 7
-0.071021996 -4.5961909 -8.7431641 7
-0.075843997 -4.6533198 -8.7421885 7
-0.080605 -4.686523 -8.7509766 7
-0.071273997 -4.690918 -8.6992188 7
-0.071396001 -4.737793 -8.6767578 7
-0.074982002 -4.7685552 -8.6806641 7
-0.28446999 -7.6943359 -7.9443359 7
-0.292786 -7.7412109 -7.9560552 7
-0.29050401 -7.7558589 -7.929688 7
-0.285873 -7.7631841 -7.8935552 7
-0.28476 -7.78125 -7.8710942 7
-0.28836799 -7.8129878 -7.8642578 7
-0.28607899 -7.827148 -7.8369141 7
-0.28027299 -7.8305659 -7.796875 7
-0.289772 -7.8813481 -7.8125 7
-0.29573801 -7.921875 -7.8154302 7
-0.29698899 -7.9472661 -7.8017578 7
-0.29942301 -7.9760742 -7.7910161 7
-0.056007002 -1.611328 -9.140625 7
-0.056099001 -1.660645 -9.1318359 7
-0.053711001 -1.683105 -9.1162109 7
-0.056198001 -1.708984 -9.1230469 7
-0.061172001 -1.762207 -9.1376953 7
-0.059997998 -1.7861331 -9.1279297 7
-0.061271999 -1.811523 -9.1289062 7
-0.058929 -1.85791 -9.1074219 7
-0.045563001 -1.871094 -9.0410156 7
-0.043175001 -1.893066 -9.0253906 7
-0.27234599 -7.5161128 -7.3525391 7
-0.27732101 -7.55127 -7.351562 7
-0.27623001 -7.5888672 -7.3125 7
-0.28244001 -7.6279302 -7.3154302 7
-0.28005999 -7.640625 -7.2880859 7
-0.27767199 -7.652832 -7.2617192 7
-0.038947999 -1.412598 -8.6210938 7
-0.038993999 -1.436035 -8.6171885 7
-0.042862002 -1.461426 -8.6298828 7
-0.046905998 -1.580566 -8.6279297 7
-0.056876998 -4.2626948 -7.795898 7
-0.058205001 -4.2871089 -7.7919922 7
-0.05954 -4.3100591 -7.7851558 7
-0.062157001 -4.3364258 -7.7851558 7
-0.064773999 -4.362793 -7.7851558 7
-0.071213 -4.3969731 -7.8007808 7
-0.075111002 -4.4257808 -7.8056641 7
-0.075165004 -4.4477539 -7.795898 7
-0.075218 -4.4692378 -7.7851558 7
-0.25585899 -7.0566411 -6.9824219 7
-0.25976601 -7.0874019 -6.9785161 7
-0.25727099 -7.0996089 -6.953125 7
-0.25990301 -7.1264648 -6.9443359 7
-0.261253 -7.1499019 -6.9326172 7
-0.26388499 -7.1767578 -6.9238281 7
-0.270363 -7.214355 -6.9267578 7
-0.265297 -7.21875 -6.8925781 7
-0.25767499 -7.215332 -6.8496089 7
-0.26030701 -7.242188 -6.8417969 7
-0.26037601 -7.26123 -6.8242192 7
-0.260445 -7.280273 -6.8066411 7
-0.264359 -7.3110352 -6.8017578 7
-0.272118 -7.3535161 -6.8105469 7
-0.052329998 -1.1142581 -8.3125 7
-0.047072999 -1.134277 -8.2861328 7
-0.051093999 -1.15918 -8.3007812 7
-0.051132001 -1.1806639 -8.296875 7
-0.051178001 -1.203613 -8.2939453 7
-0.048569001 -1.224609 -8.2802734 7
-0.043311998 -1.244141 -8.2548828 7
-0.043358002 -1.266602 -8.2509766 7
-0.068366997 -4.1298828 -7.4619141 7
-0.067093 -4.1479492 -7.4472661 7
-0.26498401 -7.0517578 -6.4433589 7
-0.265053 -7.070312 -6.4257808 7
-0.27044699 -7.1040039 -6.4257808 7
-0.26785299 -7.1147461 -6.4013672 7
-0.28131899 -7.1894531 -6.4082031 7
-0.058334 -3.921875 -7.0742192 7
-0.059769001 -3.9438479 -7.070312 7
-0.057053 -3.9584961 -7.0498052 7
-0.068168998 -3.9975591 -7.0810552 7
-0.073746003 -4.0273442 -7.0917969 7
-0.071029998 -4.0419922 -7.0722661 7
-0.073853001 -4.066895 -7.0722661 7
-0.069756001 -4.0786128 -7.046875 7
-0.076782003 -4.1308589 -7.0527339 7
-0.080986001 -4.1582031 -7.0585942 7
-0.2472 -6.7280269 -6.0537109 7
-0.24865 -6.749023 -6.0419922 7
-0.25287601 -6.777832 -6.0380859 7
-0.24322499 -6.7680659 -5.9931641 7
-0.241898 -6.7817378 -5.9726558 7
-0.24335501 -6.8027339 -5.960938 7
-0.243416 -6.8198242 -5.945312 7
-0.24764299 -6.8486328 -5.9414058 7
-0.247704 -6.8652339 -5.9238281 7
-0.243599 -6.8701172 -5.8945308 7
-0.24921399 -6.9033198 -5.8955078 7
-0.26177201 -6.9560552 -5.9160161 7
-0.261841 -6.9726558 -5.8994141 7
-0.261902 -6.9897461 -5.882812 7
-0.26473999 -7.0151372 -5.874023 7
-0.053024001 -3.7597661 -6.733398 7
-0.053078 -3.7788091 -6.7246089 7
-0.05455 -3.7998049 -6.7207031 7
-0.056038 -3.8212891 -6.7167969 7
-0.053222999 -3.835449 -6.6982422 7
-0.059691999 -3.6069341 -6.4550781 7
-0.059737999 -3.625 -6.4462891 7
-0.056807999 -3.6386721 -6.4277339 7
-0.064300999 -3.6689451 -6.4443359 7
-0.062866002 -3.6850591 -6.4306641 7
-0.059937 -3.6977539 -6.4111328 7
-0.070412003 -3.733398 -6.4375 7
-0.068970002 -3.749023 -6.4238281 7
-0.079596996 -3.839355 -6.422852 7
-0.056256998 -4.551774 -14.849492 7
0.046309002 -2.584985 -11.074286 7
-0.107212 -1.871444 -9.5272417 7
-0.083273001 -4.2481561 -8.1557436 7
-0.054251999 -3.827261 -6.676146 7
-0.25671801 -0.61150599 -14.106709 7
-0.079563998 -2.5146279 -10.731086 7
-0.068479002 -1.730772 -9.0836916 7
-0.105611 -4.7191639 -8.8463135 7
-0.013095 -0.81577402 -7.3424311 7
-0.017368 -1.086056 -7.3690171 7
-0.073847003 -4.0320492 -7.2838831 7
-0.29701799 -8.125185 -8.3809566 7
-0.24737699 -7.1831989 -6.5356269 7
-0.19058201 -6.8042598 -5.9254322 7
