# .PCD v0.7 - Point Cloud Data file format
VERSION 0.7
FIELDS x y z intensity
SIZE 4 4 4 4
TYPE F F F F
COUNT 1 1 1 1
WIDTH 888
HEIGHT 1
VIEWPOINT 0 0 0 1 0 0 0
POINTS 888
DATA ascii
1.293076 46.073242 -25.03125 7
1.292969 46.025391 -25.149414 7
1.1080019 42.913574 -19.324219 7
0.109329 34.087402 61.307617 7
0.064315997 34.979492 62.538086 7
0.170715 36.084473 58.097656 7
0.17608599 36.129395 57.875 7
0.19180299 35.98584 57.360352 7
0.053268 41.163086 60.101562 7
0.096771002 40.467773 58.823242 7
0.129807 39.969727 57.834961 7
0.177628 39.179688 56.445312 7
1.025391 41.034668 -18.259766 7
1.023926 41.044922 -18.384766 7
1.0230711 41.035156 -18.499023 7
1.020981 39.756836 -21.489258 7
0.16320799 29.481445 54.332031 7
0.072205 30.945312 56.651367 7
0.165497 32.418457 52.836914 7
0.173691 32.413574 52.5625 7
0.112213 33.927734 53.850586 7
0.15419 33.368652 52.72168 7
0.150925 33.550293 52.736328 7
0.178146 33.227539 51.982422 7
0.93914801 39.163574 -17.148438 7
0.94837999 38.834473 -17.104492 7
0.073563002 27.558105 51.450195 7
0.048629999 28.007812 51.984375 7
0.151245 29.237305 48.296875 7
0.131165 29.643555 48.699219 7
0.143829 29.57666 48.34668 7
0.123993 31.030273 48.173828 7
0.136627 30.955078 47.823242 7
0.141312 30.999023 47.65332 7
0.17392001 30.616699 46.851562 7
0.050887998 34.960938 48.364258 7
0.073715001 34.703125 47.790039 7
0.093337998 34.495117 47.287109 7
0.0867 24.407227 46.458008 7
0.037903 25.088379 47.454102 7
0.0068509998 25.564941 48.066406 7
0.111847 26.80127 44.597656 7
0.090103 27.297363 44.935547 7
0.099274002 27.284668 44.688477 7
0.076691002 29.182129 44.263672 7
0.108932 28.840332 43.547852 7
0.110962 28.916504 43.447266 7
0.12583899 28.8125 43.085938 7
0.147827 28.606445 42.580078 7
0.022141 32.616211 43.71875 7
0.045731001 32.364258 43.188477 7
0.070983998 32.166992 42.734375 7
-0.71461499 -30.253906 -61.611328 7
-0.651627 -29.73877 -60.170898 7
-0.71160901 -30.51416 -61.394531 7
-0.78179902 -31.403809 -62.834961 7
-0.89210498 -32.727051 -65.137695 7
-0.64251697 -32.591309 -58.337891 7
0.0082860002 23.040039 44.212891 7
-0.001099 23.244141 44.348633 7
-0.014404 23.490723 44.560547 7
0.0858 24.702148 41.459961 7
0.068893 25 41.729492 7
0.087219 24.881348 41.328125 7
0.049957 25.42334 41.983398 7
0.097336002 27.036133 39.967773 7
0.117447 26.963379 39.481445 7
0.022461001 30.433105 39.790039 7
0.045821998 30.19873 39.311523 7
0.067107998 29.991211 38.870117 7
0.071335003 30.025391 38.732422 7
-0.60554498 -25.684082 -54.05957 7
-0.634323 -26.07959 -54.56543 7
-0.68183899 -26.651367 -55.44043 7
-0.72856098 -27.220703 -56.296875 7
-0.67602497 -26.86084 -55.192383 7
-0.731049 -27.512207 -56.209961 7
-0.79222101 -28.226074 -57.345703 7
-0.50549299 -27.69873 -50.506836 7
-0.52816802 -28.054688 -50.874023 7
-0.53504902 -28.246582 -50.936523 7
-0.51513702 -28.160156 -50.484375 7
-0.52281201 -28.36084 -50.560547 7
-0.70315599 -33.275391 -52.119141 7
-0.61506701 -32.379395 -50.410156 7
-0.062210001 21.661621 41.836914 7
-0.076812997 22.000488 42.006836 7
0.0087280003 23.41748 39.336914 7
0.030731 23.271973 38.904297 7
0.049896002 23.155273 38.522461 7
0.050751001 23.236816 38.458008 7
0.069031 23.12793 38.091797 7
0.084747002 23.044922 37.771484 7
0.098449998 22.982422 37.484375 7
0.111298 22.928223 37.213867 7
0.109299 23.038086 37.199219 7
0.1427 22.753418 36.575195 7
0.046615999 25.516602 37.222656 7
0.083632998 25.161133 36.549805 7
0.062316999 25.503418 36.850586 7
0.087952003 25.282227 36.369141 7
0.0045929998 28.546875 36.353516 7
0.015381 28.491211 36.118164 7
0.042571999 28.219238 35.623047 7
0.067199998 27.978516 35.168945 7
0.068085 28.049805 35.09375 7
0.65730298 31.356934 -12.714844 7
0.650711 31.460938 -12.852539 7
-0.61039698 -23.254883 -50.157227 7
-0.64962798 -23.702637 -50.820312 7
-0.70248401 -24.269043 -51.731445 7
-0.741714 -24.725098 -52.391602 7
-0.78675801 -25.23291 -53.155273 7
-0.48744199 -25.052734 -46.424805 7
-0.52037001 -25.474609 -46.950195 7
-0.56576502 -26.016602 -47.695312 7
-0.54284698 -26.362305 -46.962891 7
-0.59028602 -26.935059 -47.735352 7
-0.482559 -25.997559 -45.767578 7
-0.72509801 -31.172852 -48.275391 7
-0.66398603 -30.629883 -47.158203 7
0.040282998 24.020508 34.671875 7
0.069931 23.768555 34.161133 7
0.051270001 24.05957 34.398438 7
0.077866003 23.838867 33.935547 7
0.092834003 23.749512 33.654297 7
-0.021880999 27.186035 33.943359 7
0.001892 26.973145 33.536133 7
0.02475 26.769043 33.141602 7
0.04332 26.616699 32.810547 7
0.059464 26.493164 32.516602 7
0.60717797 30.008789 -11.652344 7
-0.47586101 -19.064453 -43.959961 7
-0.50070202 -19.349121 -44.333984 7
-0.533768 -19.695801 -44.84668 7
-0.56938201 -20.062988 -45.401367 7
-0.59834301 -20.384766 -45.841797 7
-0.63459802 -20.762207 -46.404297 7
-0.67878699 -21.201172 -47.099609 7
-0.417999 -21.498047 -41.583008 7
-0.41813701 -21.599609 -41.532227 7
-0.43000799 -21.798828 -41.673828 7
-0.47045901 -22.237305 -42.283203 7
-0.435684 -23.335449 -40.928711 7
-0.42533901 -23.34082 -40.705078 7
-0.63767999 -28.03418 -42.344727 7
0.050507002 22.045898 31.617188 7
0.060120001 22.020508 31.433594 7
0.086410999 21.819824 31.014648 7
0.072479002 22.077148 31.217773 7
0.094070002 21.923828 30.866211 7
0.014252 25.030762 30.364258 7
0.045272999 24.884277 29.787109 7
0.549896 28.38916 -10.71582 7
0.54570001 28.435547 -10.814453 7
0.55232197 28.292969 -10.833008 7
-0.44265699 -16.703613 -40.279297 7
-0.47363299 -16.999023 -40.726562 7
-0.4991 -17.26123 -41.085938 7
-0.52424598 -17.523438 -41.439453 7
-0.54972798 -17.789551 -41.797852 7
-0.58311498 -18.108887 -42.27832 7
-0.36056501 -18.869141 -37.722656 7
-0.36241099 -18.973633 -37.705078 7
-0.41449001 -19.54834 -38.40625 7
-0.41259801 -21.540039 -37.262695 7
-0.60986298 -25.823242 -38.501953 7
-0.53239399 -25.285645 -37.275391 7
0.056107 20.623047 29.264648 7
0.053482 20.716797 29.253906 7
0.080321997 20.522949 28.859375 7
0.082351997 20.569824 28.787109 7
0.077941999 20.680176 28.798828 7
0.096146002 20.567383 28.517578 7
-0.0037380001 23.720215 28.214844 7
0.0026090001 23.717285 28.084961 7
0.023621 23.553711 27.776367 7
0.037842002 23.462891 27.550781 7
0.053482 23.356445 27.30957 7
0.49502599 27.101074 -10.004883 7
0.49012801 27.154785 -10.103516 7
0.50131202 26.949707 -10.09082 7
0.49542201 27.019043 -10.195312 7
-0.43025199 -14.541992 -36.958984 7
-0.440063 -14.687012 -37.066406 7
-0.464432 -14.913574 -37.384766 7
-0.48358199 -15.112793 -37.626953 7
-0.50795001 -15.343262 -37.944336 7
-0.53607202 -15.59668 -38.316406 7
-0.57202101 -15.896973 -38.799805 7
-0.32794201 -16.598145 -34.293945 7
-0.36319 -16.915527 -34.75293 7
-0.33451799 -16.808105 -34.305664 7
-0.37162799 -17.140625 -34.789062 7
-0.39755201 -17.398926 -35.110352 7
-0.36662301 -17.274414 -34.632812 7
-0.34608501 -19.263184 -33.179688 7
-0.363922 -19.560547 -33.327148 7
-0.37153599 -19.699707 -33.382812 7
-0.56146199 -23.625 -34.364258 7
-0.52897602 -23.426758 -33.885742 7
-0.499863 -23.255859 -33.451172 7
0.057158999 19.206055 26.835938 7
0.050368998 19.32959 26.874023 7
0.073242001 19.183594 26.558594 7
0.063704997 19.331543 26.629883 7
0.068222001 19.351074 26.533203 7
0.091187 19.230957 26.257812 7
-0.011597 22.339844 25.824219 7
0.002228 22.258789 25.621094 7
0.012573 22.212402 25.457031 7
0.030289 22.089355 25.211914 7
0.040619001 22.041992 25.048828 7
0.034271002 22.165039 25.069336 7
0.43716401 25.680664 -9.3378906 7
0.433624 25.708496 -9.4208984 7
-0.40184 -12.935547 -34.275391 7
-0.416702 -13.09375 -34.447266 7
-0.42875701 -13.238281 -34.581055 7
-0.36853001 -15.756836 -32.518555 7
-0.32074001 -15.616699 -31.808594 7
-0.31964099 -15.686523 -31.754883 7
-0.30654901 -15.681152 -31.543945 7
-0.286652 -15.631836 -31.244141 7
-0.355652 -18.142578 -31.018555 7
-0.36056501 -18.25293 -31.036133 7
-0.56691003 -22.355469 -31.955078 7
-0.52934301 -22.125488 -31.447266 7
0.031097 18.420898 25.464844 7
0.048354998 18.330566 25.231445 7
0.069762997 18.205078 24.954102 7
0.043807998 18.48584 25.201172 7
0.058577999 18.416016 24.99707 7
0.07666 18.316406 24.755859 7
0.0033259999 21.22998 23.773438 7
-0.351807 -11.144531 -31.22168 7
-0.36784399 -11.291504 -31.398438 7
-0.376968 -11.408691 -31.487305 7
-0.264191 -15.181152 -28.12207 7
-0.26040599 -15.226074 -28.039062 7
-0.252289 -15.243652 -27.905273 7
-0.30676299 -16.483398 -28.046875 7
-0.52127099 -20.508301 -28.882812 7
-0.50927699 -20.486328 -28.699219 7
-0.52381903 -20.736816 -28.759766 7
-1.2928309 -38.147949 24.553711 7
-1.245255 -35.790527 26.884766 7
-1.196716 -35.223145 26.604492 7
-1.215271 -35.291992 26.908203 7
-1.15715 -34.627441 26.553711 7
0.055388998 17.054199 23.335938 7
0.064498998 17.139648 23.128906 7
0.063750997 17.303711 23.020508 7
0.066192999 17.335449 22.957031 7
-0.026657 20.183594 22.254883 7
-0.028214 20.249023 22.224609 7
0.008072 20.067383 21.75 7
0.0069579999 20.12793 21.714844 7
0.35345501 23.408691 -7.7998052 7
0.35060099 23.424805 -7.8701172 7
0.36267099 23.228027 -7.9189448 7
-0.45808399 -10.754395 -30.376953 7
-0.46737701 -10.867676 -30.461914 7
-0.28262299 -14.852539 -26.075195 7
-0.271622 -14.850098 -25.916992 7
-0.28280601 -14.980469 -26.00293 7
-0.28152499 -15.037109 -25.953125 7
-0.29411301 -15.177734 -26.054688 7
-0.30346701 -15.299316 -26.120117 7
-0.52638203 -19.311035 -26.862305 7
-0.50427198 -19.218262 -26.586914 7
0.019835999 16.498047 22.146484 7
0.041046001 16.385254 21.90625 7
0.059859999 16.291504 21.692383 7
0.036178999 16.522949 21.879883 7
0.042587001 16.522949 21.782227 7
0.055679001 16.470703 21.621094 7
0.063979998 16.455566 21.505859 7
0.048431002 16.625 21.615234 7
-0.033904999 19.32666 20.663086 7
-0.028945999 19.330566 20.577148 7
0.31808501 22.353027 -7.1162109 7
0.31456 22.375977 -7.186523 7
0.321594 22.252441 -7.2597661 7
0.31988499 22.253906 -7.320312 7
0.326828 20.820312 -10.257812 7
-0.38050801 -9.0288086 -27.493164 7
-0.402908 -9.1762695 -27.72168 7
-0.41537499 -9.2880859 -27.837891 7
-0.245865 -13.597656 -23.754883 7
-0.25003099 -13.737305 -23.729492 7
-0.0023960001 13.262695 22.366211 7
-0.001724 13.309082 22.331055 7
0.003082 13.330078 22.254883 7
0.012527 13.322266 22.135742 7
0.0070190001 13.405762 22.158203 7
0.035399999 15.393555 20.469727 7
0.029433999 15.483398 20.488281 7
0.049088001 15.387207 20.279297 7
0.052855998 15.405762 20.211914 7
0.029479999 15.620605 20.381836 7
0.044006001 15.560547 20.219727 7
0.052382998 15.544922 20.111328 7
-0.045485999 18.39209 19.12793 7
-0.044266 18.425293 19.076172 7
-0.036423001 18.40332 18.972656 7
-0.023987001 18.342773 18.833008 7
-0.020721 18.358398 18.765625 7
-0.016449001 18.364258 18.69043 7
-0.030014001 18.520996 18.755859 7
0.28796399 21.137695 -6.429688 7
0.28561401 21.145996 -6.4892578 7
0.279358 21.197266 -6.5664058 7
-0.309174 -7.391602 -25.098633 7
-0.297012 -7.4179692 -24.952148 7
-0.30874601 -7.5141602 -25.056641 7
-0.313034 -7.589355 -25.083984 7
-0.231812 -12.571777 -22.003906 7
-0.22984301 -12.67041 -21.923828 7
-0.23844901 -12.769043 -21.974609 7
-0.25131199 -12.89209 -22.067383 7
-0.247116 -12.924316 -21.996094 7
-0.25253299 -13.007812 -22.015625 7
-0.465103 -16.664062 -22.398438 7
-0.455612 -16.65918 -22.273438 7
-0.45251501 -16.694824 -22.206055 7
-0.44836399 -16.722656 -22.12793 7
-0.46713299 -16.896484 -22.253906 7
-0.46670499 -16.94873 -22.208984 7
-0.84698498 -25.20752 20.714844 7
-0.869919 -25.351074 20.919922 7
-0.025589 12.547852 21.246094 7
0.02417 14.698242 19.18457 7
0.036377002 14.657227 19.051758 7
0.040543001 14.714355 18.951172 7
0.019393999 14.902832 19.09082 7
0.033783 14.845703 18.939453 7
0.020462001 15.022461 18.980469 7
-0.055725001 17.610352 17.755859 7
-0.053344999 17.631348 17.698242 7
-0.041733 17.578613 17.574219 7
-0.036635999 17.577637 17.49707 7
-0.029372999 17.55957 17.404297 7
-0.33577001 -6.8164058 -23.714844 7
-0.34602401 -6.902832 -23.798828 7
-0.184341 -8.9545898 -21.330078 7
-0.182693 -9.0009766 -21.291992 7
-0.19468699 -9.1000977 -21.383789 7
-0.43881199 -15.697266 -20.470703 7
-0.73257399 -22.716309 18.893555 7
-0.77130097 -22.932129 19.233398 7
-0.75897199 -22.79248 19.212891 7
-0.73954803 -22.599609 19.147461 7
-0.0050809998 11.748047 19.78125 7
-0.002594 11.77832 19.734375 7
0.00048799999 11.805664 19.681641 7
0.0035550001 11.83252 19.628906 7
0.031799 13.970703 17.821289 7
0.038376 13.966309 17.739258 7
-0.058150999 16.743652 16.512695 7
-0.062606998 16.813477 16.503906 7
-0.064162999 16.861816 16.475586 7
-0.055282999 16.83252 16.378906 7
-0.043503001 16.779297 16.261719 7
-0.039276 16.783691 16.195312 7
-0.038513001 16.813477 16.151367 7
-0.047042999 16.914062 16.169922 7
-0.299088 -5.5961909 -22.067383 7
-0.26898199 -5.58252 -21.771484 7
-0.277466 -5.65625 -21.837891 7
-0.284729 -5.7275391 -21.891602 7
-0.18707301 -8.2709961 -20.064453 7
-0.21077 -8.5063477 -20.216797 7
-0.216858 -8.578125 -20.25 7
-0.216949 -10.98877 -19.082031 7
-0.23092701 -11.101074 -19.173828 7
-0.214081 -11.070801 -19.003906 7
-0.22863799 -11.185059 -19.099609 7
-0.44281 -14.729492 -19.242188 7
-0.454422 -14.841797 -19.296875 7
-0.44482401 -14.836426 -19.186523 7
-0.440079 -14.856934 -19.113281 7
-0.43714899 -14.888184 -19.054688 7
-0.53239399 -16.628418 -18.823242 7
-0.69958502 -20.889648 18.037109 7
-0.71162403 -20.937012 18.155273 7
-0.69036901 -20.743164 18.081055 7
-0.68041998 -20.631348 18.070312 7
-0.69004798 -20.619629 18.224609 7
-0.68135101 -20.516602 18.22168 7
-0.0186 11.087402 18.856445 7
-0.017075 11.162598 18.793945 7
-0.012589 11.181152 18.733398 7
-0.0067440001 13.462402 17.091797 7
0.0076449998 13.411621 16.958984 7
0.014587 13.405762 16.87793 7
0.01413 13.446289 16.851562 7
-0.0048830002 13.601562 16.955078 7
0.0094910003 13.549316 16.823242 7
0.015213 13.55127 16.75293 7
0.015991 13.583008 16.71582 7
-0.0048679998 13.750488 16.831055 7
-0.068893 16.212402 15.306641 7
-0.060104001 16.183594 15.216797 7
-0.05748 16.197754 15.163086 7
-0.059142999 16.243652 15.135742 7
-0.323975 -5.1567378 -20.899414 7
-0.32850599 -5.2182622 -20.926758 7
-0.18351699 -7.3818359 -18.876953 7
-0.182281 -7.425293 -18.849609 7
-0.16369601 -7.4135742 -18.672852 7
-0.163147 -7.5058589 -18.631836 7
-0.17604101 -7.59375 -18.722656 7
-0.199203 -7.7163091 -18.900391 7
-0.21070901 -10.295898 -17.789062 7
-0.212708 -10.348633 -17.779297 7
-0.21019 -10.382812 -17.734375 7
-0.21733101 -10.458984 -17.765625 7
-0.41592401 -13.827637 -17.692383 7
-0.428253 -13.9375 -17.749023 7
-0.41481 -13.910156 -17.617188 7
-0.41424599 -13.951172 -17.579102 7
-0.408539 -13.964355 -17.504883 7
-0.419586 -14.067871 -17.549805 7
-0.60971099 -18.785645 16.882812 7
-0.017975001 10.353027 17.853516 7
-0.021149 10.406738 17.853516 7
-0.022338999 10.45166 17.838867 7
-0.012955 10.446777 17.746094 7
-0.0082090003 10.462891 17.686523 7
-0.0033110001 10.51709 17.603516 7
0.005539 10.551758 17.491211 7
-0.005936 12.833984 15.994141 7
0.0037080001 12.882324 15.842773 7
-0.00074799999 12.943359 15.842773 7
0.008591 12.922852 15.751953 7
0.021225 12.881348 15.639648 7
0.013489 12.961914 15.660156 7
0.00116 13.070801 15.712891 7
-0.075957999 15.447754 14.327148 7
-0.077102996 15.487305 14.297852 7
-0.080215 15.540039 14.280273 7
-0.073517002 15.525391 14.207031 7
-0.068130001 15.519043 14.141602 7
-0.060759999 15.499023 14.063477 7
-0.057326999 15.505859 14.008789 7
-0.059142999 15.548828 13.983398 7
-0.062256001 15.600586 13.964844 7
-0.149765 -6.6420898 -17.571289 7
-0.17834499 -6.7685552 -17.785156 7
-0.18042 -6.8188481 -17.785156 7
-0.185913 -6.8798828 -17.8125 7
-0.172363 -6.8852539 -17.686523 7
-0.174454 -6.9355469 -17.686523 7
-0.179932 -6.996582 -17.713867 7
-0.201492 -9.6362305 -16.686523 7
-0.211777 -9.7202148 -16.740234 7
-0.20706201 -9.7431641 -16.681641 7
-0.21121199 -9.8022461 -16.689453 7
-0.218079 -9.8725586 -16.71582 7
0.001144 12.290527 15.009766 7
0.0089109996 12.278809 14.933594 7
-0.0048369998 12.388672 14.990234 7
-0.015106 12.47998 15.025391 7
-0.00177 12.436523 14.915039 7
0.0053099999 12.428711 14.842773 7
0.010986 12.428711 14.779297 7
-0.080383003 14.865723 13.395508 7
-0.08783 14.943848 13.400391 7
-0.082840003 14.939941 13.339844 7
-0.093735002 15.040527 13.362305 7
-0.076995999 14.958984 13.241211 7
-0.071319997 14.950195 13.176758 7
-0.069091998 14.963867 13.131836 7
-0.057891998 14.91748 13.039062 7
-0.066024996 15.000977 13.046875 7
-0.23925801 -3.3452151 -18.036133 7
-0.240723 -3.3925779 -18.040039 7
-0.245041 -3.4443359 -18.06543 7
-0.25585899 -3.5053711 -18.142578 7
-0.28541601 -3.6875 -18.351562 7
-0.29766801 -3.7524409 -18.439453 7
-0.29984999 -3.8017581 -18.448242 7
-0.27613801 -3.8110349 -18.25 7
-0.154938 -6.112793 -16.59668 7
-0.15856899 -6.164062 -16.610352 7
-0.144943 -6.1699219 -16.491211 7
-0.14280701 -6.2060552 -16.459961 7
-0.15077201 -6.269043 -16.504883 7
-0.15730301 -6.3286128 -16.540039 7
-0.166702 -6.3959961 -16.594727 7
-0.190643 -9.0092773 -15.608398 7
-0.175568 -8.9916992 -15.480469 7
-0.185715 -9.0698242 -15.530273 7
-0.190109 -9.1254883 -15.539062 7
-0.202408 -9.2133789 -15.604492 7
-0.20175201 -9.2495117 -15.576172 7
-0.40371701 -12.529785 -15.335938 7
-0.39657599 -12.533691 -15.259766 7
-0.394501 -12.562012 -15.21582 7
-0.39096099 -12.583496 -15.163086 7
-0.40045199 -12.668457 -15.193359 7
-0.41064501 -12.756836 -15.227539 7
-0.410721 -12.795898 -15.197266 7
-0.489227 -14.336426 -14.699219 7
-0.022766 9.5107422 15.993164 7
-0.021164 9.5385742 15.959961 7
-0.019577 9.565918 15.927734 7
-0.015015 9.5810547 15.876953 7
-0.010468 9.5957031 15.825195 7
0.01384 11.690918 14.037109 7
0.012497 11.728516 14.018555 7
-0.0057219998 11.856934 14.09668 7
0.014496 11.838379 13.899414 7
-0.064727999 14.361328 12.118164 7
-0.060196001 14.358887 12.063477 7
-0.15307599 -5.570312 -15.671875 7
-0.14398199 -5.5883789 -15.591797 7
-0.13641401 -5.609375 -15.523438 7
-0.137207 -5.6503911 -15.514648 7
-0.14105199 -5.6992192 -15.52832 7
-0.165466 -8.3842773 -14.533203 7
-0.16703799 -8.4272461 -14.523438 7
-0.162521 -8.4482422 -14.473633 7
-0.17248499 -8.5209961 -14.518555 7
-0.179398 -8.5830078 -14.544922 7
-0.18098401 -8.6264648 -14.53418 7
-0.39047199 -11.888672 -14.259766 7
-0.378342 -11.868652 -14.158203 7
-0.37840301 -11.904785 -14.128906 7
-0.37619001 -11.930176 -14.085938 7
-0.39544699 -12.092285 -14.144531 7
-0.39552301 -12.128418 -14.115234 7
-0.469574 -13.44873 -13.713867 7
-0.47653201 -13.519043 -13.720703 7
-0.48426801 -13.593262 -13.730469 7
-0.475952 -13.585449 -13.651367 7
-0.47297701 -13.60498 -13.601562 7
-0.473831 -13.644531 -13.574219 7
-0.48690799 -13.746094 -13.613281 7
-0.026733 8.980957 15.258789 7
-0.029739 9.0268555 15.257812 7
-0.022598 9.0307617 15.192383 7
-0.022476001 9.0629883 15.171875 7
-0.020035001 9.0854492 15.135742 7
-0.016799999 9.1044922 15.094727 7
-0.012009 9.1176758 15.044922 7
-0.012772 11.28125 13.429688 7
-0.0072169998 11.281738 13.375 7
0.001434 11.265625 13.301758 7
0.0054319999 11.273438 13.253906 7
0.0047909999 11.305176 13.232422 7
-0.012146 11.421387 13.296875 7
-0.005814 11.41748 13.237305 7
0.000504 11.412109 13.176758 7
0.0037380001 11.42334 13.132812 7
-0.084105998 13.822754 11.473633 7
-0.090149 13.883789 11.467773 7
-0.081511997 13.855469 11.398438 7
-0.077529997 13.85498 11.348633 7
-0.075836003 13.869141 11.30957 7
-0.071837999 13.868652 11.259766 7
-0.072463997 13.896484 11.231445 7
-0.075424001 13.937988 11.210938 7
-0.12898301 -4.8735352 -14.68457 7
-0.129013 -4.9111328 -14.672852 7
-0.129852 -4.9501948 -14.666992 7
-0.128281 -4.9848628 -14.643555 7
-0.121872 -5.0083008 -14.587891 7
-0.112244 -5.0244141 -14.509766 7
-0.114685 -5.0664058 -14.513672 7
-0.116333 -5.1074219 -14.512695 7
-0.12565599 -7.686523 -13.467773 7
-0.146652 -7.7915039 -13.583008 7
-0.137848 -7.795898 -13.507812 7
-0.13627601 -7.8251948 -13.478516 7
-0.141968 -7.879395 -13.496094 7
-0.150894 -7.9448242 -13.533203 7
-0.359299 -11.234863 -13.119141 7
-0.359375 -11.269531 -13.091797 7
-0.358643 -11.299805 -13.061523 7
-0.36677599 -11.369629 -13.080078 7
-0.375 -11.473633 -13.072266 7
-0.37669399 -11.514648 -13.053711 7
-0.45529199 -13.000977 -12.474609 7
-0.455383 -13.032715 -12.443359 7
-0.019073 8.5952148 14.387695 7
-0.014847 8.609375 14.34375 7
0.011261 10.769531 12.458008 7
0.0097350003 10.802734 12.44043 7
-0.0048830002 10.902344 12.490234 7
-0.199524 -1.562012 -15.009766 7
-0.20292699 -1.641113 -15.024414 7
-0.20886201 -1.684082 -15.060547 7
-0.213943 -1.726074 -15.09082 7
-0.215652 -1.766113 -15.098633 7
-0.235947 -1.819824 -15.231445 7
-0.246124 -1.905762 -15.291992 7
-0.115738 -4.4902339 -13.829102 7
-0.114929 -4.5244141 -13.813477 7
-0.103958 -4.5380859 -13.729492 7
-0.106522 -4.579102 -13.736328 7
-0.108246 -4.6176758 -13.736328 7
-0.108261 -4.652832 -13.724609 7
-0.117615 -4.70752 -13.774414 7
-0.122711 -4.7524409 -13.794922 7
-0.113434 -4.7685552 -13.723633 7
-0.107544 -4.79248 -13.673828 7
-0.11348 -7.0605469 -12.757812 7
-0.1203 -7.1147461 -12.782227 7
-0.120346 -7.1474609 -12.765625 7
-0.117004 -7.1704102 -12.727539 7
-0.120438 -7.2138672 -12.731445 7
-0.12556501 -7.2626948 -12.745117 7
-0.134094 -7.3222661 -12.77832 7
-0.35133401 -10.602539 -12.379883 7
-0.346313 -10.61377 -12.328125 7
-0.34639001 -10.64502 -12.302734 7
-0.35578901 -10.716797 -12.327148 7
-0.35417199 -10.741699 -12.292969 7
-0.35084501 -10.759766 -12.25 7
-0.35345501 -10.802734 -12.237305 7
-0.352676 -10.830566 -12.207031 7
-0.100861 -4.1074219 -13.024414 7
-0.096436001 -4.1337891 -12.986328 7
-0.124039 -6.7412109 -12.119141 7
-0.12587 -6.777832 -12.113281 7
-0.12146 -6.796875 -12.071289 7
-0.129517 -6.851562 -12.101562 7
-0.130447 -6.88623 -12.09082 7
-0.142975 -6.9550781 -12.146484 7
-0.147461 -7 -12.155273 7
-0.137711 -7.0024409 -12.082031 7
-0.138641 -7.035645 -12.069336 7
-0.35080001 -10.255859 -11.549805 7
-0.354431 -10.300781 -11.543945 7
-0.44404599 -11.912598 -10.855469 7
-0.440552 -11.923828 -10.80957 7
-0.437958 -11.94043 -10.769531 7
-0.43891901 -11.973145 -10.745117 7
-0.44525099 -12.030273 -10.745117 7
-0.45962501 -12.124023 -10.782227 7
-0.116043 -6.454102 -11.410156 7
-0.117966 -6.4892578 -11.404297 7
-0.13294999 -6.561523 -11.47168 7
-0.131119 -6.5864258 -11.445312 7
-0.115295 -6.5708008 -11.342773 7
-0.127472 -6.6347661 -11.392578 7
-0.127518 -6.6645508 -11.376953 7
-0.129425 -6.7001948 -11.37207 7
-0.327133 -9.6748047 -10.831055 7
-0.318771 -9.6699219 -10.765625 7
-0.31883201 -9.6987305 -10.743164 7
-0.32545501 -9.7524414 -10.750977 7
-0.32832301 -9.7919922 -10.741211 7
-0.31996199 -9.7875977 -10.678711 7
-0.32282999 -9.8266602 -10.667969 7
-0.32757601 -9.8735352 -10.667969 7
-0.32016 -9.8725586 -10.608398 7
-0.097228996 -3.219727 -11.789062 7
-0.096267998 -3.249512 -11.776367 7
-0.092361003 -3.2749021 -11.746094 7
-0.084549002 -3.293457 -11.692383 7
-0.079666004 -3.316895 -11.657227 7
-0.077728003 -3.344238 -11.637695 7
-0.077758998 -3.374512 -11.629883 7
-0.078750998 -3.406738 -11.626953 7
-0.081711002 -3.441406 -11.635742 7
-0.093506001 -3.4902339 -11.694336 7
-0.090576001 -3.516113 -11.668945 7
-0.106049 -6.1381841 -10.716797 7
-0.104126 -6.1616211 -10.692383 7
-0.092391998 -6.157227 -10.615234 7
-0.097336002 -6.1992192 -10.625977 7
-0.100311 -6.235352 -10.626953 7
-0.117035 -6.309082 -10.698242 7
-0.119049 -6.3422852 -10.693359 7
-0.121048 -6.375977 -10.688477 7
-0.30598399 -9.2807617 -10.00293 7
-0.31684899 -9.3476562 -10.029297 7
-0.31002799 -9.3486328 -9.9765615 7
-0.308121 -9.3676758 -9.9453115 7
-0.309158 -9.3979492 -9.9277344 7
-0.306274 -9.4125977 -9.8916016 7
-0.307327 -9.4428711 -9.8730469 7
-0.31819201 -9.5102539 -9.8994141 7
-0.32415801 -9.559082 -9.9033203 7
-0.32127401 -9.5742188 -9.8671885 7
-0.410492 -10.948242 -9.2607422 7
-0.40663099 -10.956543 -9.21875 7
-0.405716 -10.977051 -9.1894531 7
-0.40577701 -11.001465 -9.1621094 7
-0.40782201 -11.035156 -9.1445312 7
-0.41577101 -11.092285 -9.1494141 7
-0.427643 -11.167969 -9.1699219 7
-0.089782998 -2.9467771 -11.196289 7
-0.087752998 -2.9736331 -11.177734 7
-0.087784 -3.0024409 -11.169922 7
-0.080627002 -3.0224609 -11.124023 7
-0.076553002 -3.046387 -11.094727 7
-0.080673002 -3.0810549 -11.109375 7
-0.080688 -3.109375 -11.101562 7
-0.085814998 -3.1455081 -11.121094 7
-0.095062003 -3.187988 -11.164062 7
-0.096709996 -5.7851558 -10.164062 7
-0.093658 -5.8037109 -10.133789 7
-0.090622 -5.8232422 -10.105469 7
-0.093735002 -5.8579102 -10.107422 7
-0.097884998 -5.8955078 -10.113281 7
-0.103043 -5.9355469 -10.124023 7
-0.108215 -5.9755859 -10.135742 7
-0.107224 -6 -10.116211 7
-0.113419 -6.0429692 -10.132812 7
-0.114487 -6.0727539 -10.123047 7
-0.309692 -8.9794922 -9.4306641 7
-0.31694001 -9.0307617 -9.4394531 7
-0.30775499 -9.0219727 -9.3789062 7
-0.306793 -9.0439453 -9.3525391 7
-0.307877 -9.0727539 -9.3359385 7
-0.30895999 -9.1020508 -9.3193359 7
-0.306961 -9.1191406 -9.2880859 7
-0.32141101 -9.1972656 -9.328125 7
-0.32147199 -9.2216797 -9.3056641 7
-0.32153299 -9.246582 -9.2832031 7
-0.40545699 -10.57959 -8.6210938 7
-0.40450999 -10.598633 -8.5927734 7
-0.40046701 -10.604492 -8.5507812 7
-0.40052801 -10.628418 -8.5263672 7
-0.396469 -10.634277 -8.4853516 7
-0.399643 -10.669922 -8.4716797 7
-0.40792799 -10.726562 -8.4765615 7
-0.41726699 -10.788086 -8.4853516 7
-0.42144799 -10.828613 -8.4765615 7
-0.42152399 -10.852051 -8.4501953 7
-0.42262301 -10.878906 -8.4277344 7
-0.182404 0.015137 -12.088867 7
-0.199799 -0.047851998 -12.186523 7
-0.073867999 -2.702148 -10.532227 7
-0.076035 -2.7324221 -10.537109 7
-0.072829999 -2.7563479 -10.512695 7
-0.076064996 -2.7880859 -10.522461 7
-0.083603002 -2.8251951 -10.555664 7
-0.082565002 -2.8798831 -10.536133 7
-0.075301997 -5.327148 -9.5751953 7
-0.079636 -5.362793 -9.5830078 7
-0.081817999 -5.3935552 -9.5810547 7
-0.086150996 -5.429688 -9.5878906 7
-0.088348001 -5.4599609 -9.5849609 7
-0.093764998 -5.499023 -9.5976562 7
-0.086258002 -5.5058589 -9.5488281 7
-0.090590999 -5.5419922 -9.5556641 7
-0.088486001 -5.5625 -9.5332031 7
-0.096054003 -5.6064448 -9.5546885 7
-0.099303998 -5.6401372 -9.5576172 7
-0.100433 -5.668457 -9.5488281 7
-0.108002 -5.7124019 -9.5703115 7
-0.108032 -5.737793 -9.5566406 7
-0.29872099 -8.6508789 -8.7460938 7
-0.29776001 -8.6943359 -8.7001953 7
-0.296738 -8.7143555 -8.6748047 7
-0.297867 -8.7407227 -8.6582031 7
-0.30654901 -8.7954102 -8.671875 7
-0.30660999 -8.8183594 -8.6513672 7
-0.084702 -2.2446289 -10.150391 7
-0.086960003 -2.2744141 -10.15625 7
-0.088088997 -2.3022461 -10.15625 7
-0.083618 -2.324707 -10.128906 7
-0.084762998 -2.3525391 -10.12793 7
-0.078048997 -2.371582 -10.087891 7
-0.071335003 -2.391113 -10.047852 7
-0.070220999 -2.4169919 -10.037109 7
-0.071364999 -2.444824 -10.037109 7
-0.074738003 -2.4750979 -10.047852 7
-0.079254001 -2.5068359 -10.064453 7
-0.082626 -2.5371089 -10.075195 7
-0.078445002 -5.148438 -9.09375 7
-0.087462999 -5.1928711 -9.1220703 7
-0.088623002 -5.2202148 -9.1142578 7
-0.081923999 -5.2294922 -9.0712891 7
-0.085326999 -5.2617192 -9.0742188 7
-0.087600999 -5.2910161 -9.0722656 7
-0.088760003 -5.3183589 -9.0644531 7
-0.100021 -5.3696289 -9.1025391 7
-0.096694998 -5.3852539 -9.0742188 7
-0.096725002 -5.4101558 -9.0615234 7
-0.098999001 -5.4399409 -9.0585938 7
-0.066559002 -2.1586909 -9.5673828 7
-0.071258999 -2.1889651 -9.5849609 7
-0.082993001 -2.2514651 -9.6298828 7
-0.086516999 -2.28125 -9.6416016 7
-0.091201998 -2.311523 -9.6582031 7
-0.085372999 -2.3305659 -9.6240234 7
-0.070099004 -4.8164058 -8.6582031 7
-0.072479002 -4.8452148 -8.6572266 7
-0.078368999 -4.8813481 -8.6708984 7
-0.083084002 -4.9150391 -8.6796885 7
-0.076110996 -4.9458008 -8.625 7
-0.082047001 -5.0058589 -8.6269531 7
-0.084412001 -5.0341802 -8.625 7
-0.083282001 -5.0551758 -8.6083984 7
-0.095031999 -5.1044922 -8.6474609 7
-0.294083 -8.0097656 -7.7851558 7
-0.29530299 -8.0351562 -7.7705078 7
-0.28949001 -8.0375977 -7.7304692 7
-0.28955099 -8.0585938 -7.710938 7
-0.29194599 -8.0874023 -7.7001948 7
-0.071304001 -4.5224609 -8.2890615 7
-0.056685999 -4.515625 -8.2167969 7
-0.068924002 -4.5629878 -8.2578115 7
-0.073836997 -4.5952148 -8.2666016 7
-0.068985 -4.6079102 -8.2353516 7
-0.073898003 -4.6401372 -8.2451172 7
-0.071487002 -4.6582031 -8.2246094 7
-0.073959 -4.6850591 -8.2216797 7
-0.076430999 -4.7124019 -8.2207031 7
-0.075226001 -4.7319341 -8.2041016 7
-0.082595997 -4.7705078 -8.2246094 7
-0.27654999 -7.6972661 -7.2705078 7
-0.28149399 -7.7324219 -7.2685552 7
-0.27909899 -7.7451172 -7.2412109 7
-0.27914399 -7.764648 -7.2226558 7
-0.28286701 -7.7963872 -7.2167969 7
-0.27925101 -7.8051758 -7.186523 7
-0.282974 -7.8369141 -7.1806641 7
-0.279358 -7.844727 -7.148438 7
-0.283081 -7.8769531 -7.1425781 7
-0.294128 -7.9316411 -7.1611328 7
-0.29663101 -7.9594731 -7.1503911 7
-0.29545599 -7.9755859 -7.1279302 7
-0.046417002 -1.605469 -8.6259766 7
-0.050246999 -1.6318361 -8.6386719 7
-0.048981 -1.654297 -8.6298828 7
-0.046448 -1.675781 -8.6142578 7
-0.047729 -1.699219 -8.6142578 7
-0.050292999 -1.724609 -8.6220703 7
-0.050308 -1.748047 -8.6171885 7
-0.050308 -1.771484 -8.6132812 7
-0.050322998 -1.794922 -8.609375 7
-0.049072001 -1.816895 -8.5986328 7
-0.049072001 -1.840332 -8.5947266 7
-0.049088001 -1.863281 -8.5898438 7
-0.051635999 -1.88916 -8.5976562 7
-0.056747001 -1.916504 -8.6142578 7
-0.061386 -4.28125 -7.8339839 7
-0.057587001 -4.2954102 -7.8085942 7
-0.052521002 -4.3071289 -7.7773442 7
-0.052536 -4.3276372 -7.766602 7
-0.053847998 -4.351562 -7.7607422 7
-0.057693001 -4.3803711 -7.765625 7
-0.066650003 -4.4194341 -7.7919922 7
-0.066680998 -4.4404302 -7.780273 7
-0.070525996 -4.4702148 -7.7861328 7
-0.061629999 -4.4736328 -7.7392578 7
-0.25772101 -7.4101558 -6.719727 7
-0.25521901 -7.4213872 -6.6943359 7
-0.259094 -7.4516602 -6.688477 7
-0.25914001 -7.4711909 -6.670898 7
-0.25791901 -7.485352 -6.648438 7
-0.26307699 -7.5195308 -6.6464839 7
-0.27462801 -7.57373 -6.6660161 7
-0.278503 -7.60498 -6.6611328 7
-0.27854899 -7.6235352 -6.6435552 7
-0.28626999 -7.6660161 -6.6494141 7
-0.28120399 -7.6689448 -6.6152339 7
-0.065444998 -4.1748052 -7.4492192 7
-0.064148001 -4.1928711 -7.4345698 7
-0.066817999 -4.2182622 -7.4345698 7
-0.065521002 -4.2363281 -7.4189448 7
-0.065552004 -4.2568359 -7.4082031 7
-0.068236999 -4.282227 -7.4082031 7
-0.069595002 -4.3051758 -7.4033198 7
-0.070937999 -4.328125 -7.3974609 7
-0.072296001 -4.3510742 -7.3925781 7
-0.073638998 -4.374023 -7.3867192 7
-0.073669001 -4.3945308 -7.375977 7
-0.072388001 -4.4125981 -7.3613281 7
-0.079040997 -4.4458008 -7.375977 7
-0.081726 -4.4716802 -7.375977 7
-0.056338001 -6.1941552 -10.497705 7
-0.43733701 -12.196401 -11.358245 7
-0.027649 -1.809444 -8.5917025 7
-0.090894997 -4.6013899 -8.038764 7
-0.41348699 -8.8116388 -8.9363384 7
-0.31550199 -1.6908489 -15.113532 7
-0.124975 -6.1887479 -10.566774 7
-0.088127002 -2.05691 -9.3342962 7
-0.070058003 -4.6735892 -8.2607956 7
-0.39245901 -10.117683 -11.152614 7
