# .PCD v0.7 - Point Cloud Data file format
VERSION 0.7
FIELDS x y z intensity
SIZE 4 4 4 4
TYPE F F F F
COUNT 1 1 1 1
WIDTH 951
HEIGHT 1
VIEWPOINT 0 0 0 1 0 0 0
POINTS 951
DATA ascii
1.477577 52.400391 -31.501953 7
0.18705 41.82959 62.500977 7
1.061844 42.522461 -21.132812 7
1.057678 42.634277 -21.321289 7
1.060722 42.472168 -21.363281 7
1.053688 42.69043 -21.611328 7
1.051826 42.713379 -21.75293 7
0.044220001 37.576172 62.016602 7
0.18679801 37.867188 56.494141 7
0.048508 43.256348 58.662109 7
0.091132998 42.533691 57.432617 7
0.132164 41.838379 56.249023 7
0.96601099 41.032715 -20.302734 7
0.97523499 40.677246 -20.236328 7
0.96376801 41.016602 -20.543945 7
0.96424901 39.554688 -23.381836 7
0.96669 39.421875 -23.426758 7
0.96532398 39.412109 -23.551758 7
0.098182999 32.434082 55.085938 7
0.060608 33.152832 55.984375 7
0.020119 33.92334 56.955078 7
0.152496 34.525879 52.125977 7
0.13388801 34.969238 52.516602 7
0.133904 35.09668 52.444336 7
0.116699 35.774414 52.650391 7
0.143059 35.444336 51.924805 7
0.145004 35.536133 51.802734 7
0.89319599 38.708496 -19.085938 7
0.88785601 38.824707 -19.265625 7
0.090149 29.151367 50.19043 7
0.046287999 29.884277 51.149414 7
-0.0097049996 30.918457 52.322266 7
0.13078301 31.37207 47.745117 7
0.128143 31.527344 47.739258 7
0.111046 32.020508 47.988281 7
0.079963997 33.438477 48.124023 7
0.110771 33.0625 47.371094 7
0.113266 33.136719 47.245117 7
0.13398699 32.91748 46.717773 7
0.81250799 36.75293 -17.81543 7
0.80243701 36.980469 -18.046875 7
-0.66798401 -34.851074 -64.897461 7
0.062514998 26.566406 46.079102 7
0.014091 27.28418 47.040039 7
-0.024765 27.886719 47.797852 7
0.082840003 28.980957 44.192383 7
0.099128999 28.861816 43.800781 7
0.078743003 29.249023 44.152344 7
0.063971996 30.925781 43.551758 7
0.090195 30.645996 42.96582 7
0.084122002 30.838867 43.021484 7
0.112709 30.52002 42.389648 7
0.013443 34.285645 42.771484 7
0.036963999 34.015625 42.25 7
0.050551999 33.901367 41.918945 7
0.73836499 34.765625 -16.261719 7
0.72791302 34.978516 -16.475586 7
0.73283398 34.822266 -16.498047 7
0.73124701 34.821289 -16.601562 7
-0.724419 -31.848633 -60.297852 7
-0.65603602 -31.237793 -58.769531 7
-0.73418403 -32.23877 -60.337891 7
-0.81333202 -33.259277 -61.922852 7
-0.0091629997 24.990723 43.695312 7
-0.03421 25.379883 44.124023 7
0.049164001 26.806641 41.207031 7
0.065598004 26.696777 40.84375 7
0.049231999 27 41.089844 7
0.05703 28.814453 39.743164 7
0.070052996 28.731445 39.447266 7
0.073729999 28.775391 39.318359 7
0.097953998 28.629883 38.759766 7
-0.026908999 32.360352 39.560547 7
0.0055539999 32.072266 38.861328 7
0.021133 31.935059 38.524414 7
0.031799 31.869141 38.272461 7
0.66077399 33.238281 -15.363281 7
0.66622901 33.008789 -15.541992 7
-0.58232099 -26.692871 -52.444336 7
-0.62981403 -27.277344 -53.295898 7
-0.66814399 -27.776855 -53.96875 7
-0.70728302 -28.287109 -54.65332 7
-0.68032801 -28.150879 -54.060547 7
-0.70681 -28.540527 -54.499023 7
-0.74489599 -29.046875 -55.15918 7
-0.52230799 -29.087402 -49.509766 7
-0.53693402 -29.361816 -49.708984 7
-0.51183301 -29.321777 -49.089844 7
-0.52078199 -29.535156 -49.180664 7
-0.683182 -34.075195 -50.295898 7
-0.72203797 -34.656738 -50.907227 7
-0.645859 -33.86377 -49.454102 7
-0.040482 22.996094 40.699219 7
-0.054207001 23.233887 40.892578 7
-0.088821001 23.689941 41.451172 7
0.0071410001 24.897461 38.535156 7
0.044762 24.555664 37.841797 7
0.019966001 24.931152 38.209961 7
0.059006002 24.569824 37.494141 7
0.078079 24.436523 37.118164 7
0.019234 27.152832 36.810547 7
0.039696001 27.068359 36.359375 7
0.062141001 26.870117 35.935547 7
0.095931999 26.526367 35.329102 7
-0.037262 30.222656 36.004883 7
-0.028763 30.191895 35.805664 7
-0.0083769998 29.998047 35.423828 7
0.017387001 29.729004 34.958984 7
0.028717 29.65625 34.719727 7
0.60015899 31.429688 -14.1875 7
0.59739703 31.449707 -14.290039 7
-0.60208899 -24.345703 -48.967773 7
-0.64088398 -24.802246 -49.603516 7
-0.69368702 -25.385742 -50.489258 7
-0.731323 -25.839355 -51.100586 7
-0.77801502 -26.376465 -51.87207 7
-0.81509399 -26.830566 -52.467773 7
-0.48521399 -26.054199 -45.282227 7
-0.51093298 -26.414062 -45.664062 7
-0.55567902 -26.962891 -46.375 7
-0.526627 -27.324219 -45.457031 7
-0.54944599 -27.662598 -45.780273 7
-0.468613 -26.949219 -44.320312 7
-0.667328 -31.723633 -45.81543 7
-0.61155701 -31.208008 -44.81543 7
-0.0034099999 25.672852 34.431641 7
0.025627 25.411133 33.9375 7
0.048232999 25.224121 33.542969 7
0.035950001 25.448242 33.671875 7
0.071091004 25.109375 33.089844 7
-0.05204 28.666504 33.347656 7
-0.032547001 28.494629 33.006836 7
-0.0063550002 28.234863 32.571289 7
0.012207 28.071289 32.245117 7
0.029556001 27.922363 31.9375 7
0.56020403 29.726562 -13.30957 7
-0.47075701 -20.085938 -43.051758 7
-0.49872601 -20.401367 -43.466797 7
-0.534042 -20.775391 -44.00293 7
-0.567451 -21.137207 -44.504883 7
-0.59927398 -21.490234 -44.980469 7
-0.63620001 -21.884277 -45.538086 7
-0.386444 -22.183105 -40.160156 7
-0.40299201 -22.421875 -40.370117 7
-0.42784101 -22.734375 -40.711914 7
-0.365715 -23.688477 -38.785156 7
-0.40535 -24.150879 -39.347656 7
-0.633614 -28.966797 -41.051758 7
-0.59567302 -28.671387 -40.40918 7
0.027381999 23.45166 31.120117 7
0.031959999 23.474121 31.005859 7
0.063193999 23.204102 30.525391 7
-0.030396 26.543945 30.00293 7
-0.015853999 26.439453 29.756836 7
-0.002319 26.346191 29.523438 7
0.013206 26.227539 29.265625 7
0.025413999 26.148438 29.051758 7
0.50386798 28.140137 -12.285156 7
-0.44704399 -17.725098 -39.641602 7
-0.474152 -18.004395 -40.016602 7
-0.506432 -18.319824 -40.47168 7
-0.52699298 -18.558105 -40.744141 7
-0.55757099 -18.866699 -41.169922 7
-0.586411 -19.164551 -41.567383 7
-0.61803401 -19.484375 -42.006836 7
-0.36345699 -19.870605 -36.930664 7
-0.37992099 -20.088379 -37.126953 7
-0.41920501 -20.486328 -37.664062 7
-0.36241099 -21.946777 -35.651367 7
-0.41113999 -22.454102 -36.300781 7
-0.35835299 -22.081055 -35.480469 7
-0.591515 -26.637695 -37.073242 7
-0.52300298 -26.064453 -36.061523 7
0.032341 21.888184 28.75293 7
0.032203998 21.956055 28.705078 7
0.061760001 21.786133 28.234375 7
0.057312001 21.896484 28.242188 7
-0.022376999 24.959961 27.43457 7
-0.010689 24.891113 27.241211 7
0.0060200002 24.765137 26.990234 7
0.015556 24.719238 26.823242 7
0.021515001 24.713379 26.698242 7
0.45559701 26.799316 -11.387695 7
0.454353 26.789551 -11.460938 7
-0.46266201 -15.754883 -36.791016 7
-0.47523499 -15.918945 -36.931641 7
-0.49343899 -16.117188 -37.152344 7
-0.51878399 -16.359375 -37.473633 7
-0.54488403 -16.608398 -37.804688 7
-0.574745 -16.882812 -38.19043 7
-0.33590701 -17.485352 -33.734375 7
-0.35265401 -17.682617 -33.922852 7
-0.32611799 -17.578613 -33.510742 7
-0.356415 -17.872559 -33.885742 7
-0.39649999 -18.237305 -34.394531 7
-0.32342499 -19.849121 -32.112305 7
-0.35643801 -20.187988 -32.500977 7
-0.34381101 -20.165527 -32.283203 7
-0.36400601 -20.404785 -32.5 7
-0.36345699 -20.478027 -32.441406 7
-0.53136402 -24.177246 -33.001953 7
-0.50738502 -24.041992 -32.639648 7
-0.48227701 -23.894043 -32.263672 7
-1.448456 -44.788086 30.083984 7
0.029724 20.493164 26.391602 7
0.045134999 20.406738 26.167969 7
0.064438 20.281738 25.899414 7
0.068359002 20.363281 25.763672 7
0.076362997 20.345215 25.625977 7
-0.030440999 23.419434 25.140625 7
-0.02478 23.41748 25.027344 7
-0.0086359996 23.303223 24.802734 7
0.0036239999 23.230469 24.620117 7
0.018211 23.131836 24.413086 7
-0.41496301 -13.879883 -33.927734 7
-0.438393 -14.087402 -34.208984 7
-0.450607 -14.236328 -34.338867 7
-0.36164901 -16.583008 -31.759766 7
-0.336487 -16.494629 -31.391602 7
-0.321381 -16.47168 -31.155273 7
-0.30505401 -16.438965 -30.902344 7
-0.30040699 -16.48291 -30.800781 7
-0.292137 -16.501465 -30.652344 7
-0.27516899 -16.535645 -30.351562 7
-0.304115 -18.338379 -29.758789 7
-0.346405 -18.795898 -30.193359 7
-0.34741199 -18.875488 -30.158203 7
-0.50279999 -22.439941 -30.398438 7
-0.52142298 -22.740723 -30.504883 7
-0.505463 -22.679688 -30.261719 7
0.017914001 19.477051 24.835938 7
0.021431001 19.501953 24.753906 7
0.052147001 19.446777 24.249023 7
0.058577999 19.443848 24.137695 7
-0.052406002 22.483398 23.579102 7
-0.040603999 22.418457 23.411133 7
-0.025886999 22.324219 23.216797 7
-0.012848 22.245117 23.037109 7
-0.0055999998 22.224609 22.916016 7
-0.0095370002 22.316895 22.904297 7
-0.360962 -11.923828 -30.928711 7
-0.36241099 -12.006348 -30.916992 7
-0.383766 -12.182617 -31.155273 7
-0.39949799 -12.333008 -31.322266 7
-0.41133901 -12.466309 -31.44043 7
-0.272926 -16.719727 -27.15625 7
-0.30266601 -16.989258 -27.458008 7
-0.28238699 -16.916504 -27.181641 7
-0.30169699 -17.115723 -27.361328 7
-0.50646198 -21.034668 -27.956055 7
-0.483978 -20.925781 -27.661133 7
-0.469345 -20.876953 -27.450195 7
-1.103683 -33.402832 26.790039 7
-1.0571671 -32.870117 26.506836 7
-1.08654 -33.106934 26.811523 7
0.018386999 18.299805 22.983398 7
0.050071999 18.134766 22.586914 7
0.026093001 18.390137 22.783203 7
-0.056807999 21.220215 21.732422 7
-0.051711999 21.220703 21.637695 7
-0.040367 21.162109 21.487305 7
-0.028137 21.094727 21.329102 7
-0.015907001 21.026367 21.171875 7
-0.010376 21.021484 21.074219 7
0.31451401 23.200195 -8.9990234 7
0.30777001 23.259766 -9.0927734 7
0.32585099 23.012207 -9.0449219 7
0.31867999 23.07666 -9.140625 7
0.308083 23.18457 -9.2558594 7
0.31674999 23.053223 -9.2617188 7
-0.27864799 -15.395996 -25.508789 7
-0.289505 -15.525879 -25.587891 7
-0.26175699 -15.413574 -25.248047 7
-0.26935601 -15.522949 -25.291992 7
-0.27928901 -15.648438 -25.361328 7
-0.264557 -15.616211 -25.164062 7
-0.283333 -15.797363 -25.327148 7
-0.297447 -15.950195 -25.44043 7
-0.50859803 -19.783203 -25.970703 7
-0.48732799 -19.689453 -25.707031 7
-0.47257999 -19.642578 -25.510742 7
-0.46109799 -19.619141 -25.344727 7
-1.016495 -32.235352 22.128906 7
-1.003471 -32.053711 22.119141 7
-0.0046689999 15.259277 23.304688 7
0.0084300004 15.220215 23.140625 7
0.021591 17.336914 21.400391 7
0.014763 17.48877 21.384766 7
0.028786 17.42334 21.21582 7
-0.058883999 20.189941 20.149414 7
-0.067261003 20.311035 20.172852 7
-0.053268 20.230957 20.010742 7
-0.040709998 20.162109 19.861328 7
-0.030060001 20.11084 19.727539 7
-0.024643 20.105957 19.636719 7
-0.40074199 -9.7680664 -27.396484 7
-0.40484601 -9.8510742 -27.416992 7
-0.407455 -9.9282227 -27.420898 7
-0.25151801 -14.329102 -23.239258 7
-0.243156 -14.336914 -23.120117 7
-0.43773699 -18.027832 -23.297852 7
-0.46047199 -18.241211 -23.46582 7
-0.43907201 -18.150391 -23.22168 7
-0.44023901 -18.214844 -23.186523 7
-0.016121 14.093262 22.035156 7
-0.013908 14.128418 21.982422 7
-0.018890001 14.209961 21.99707 7
-0.012558 14.21875 21.90625 7
-0.0055539999 14.270996 21.777344 7
0.013763 16.388184 19.938477 7
0.027267 16.330566 19.787109 7
0.037673999 16.295898 19.661133 7
0.019378999 16.479492 19.779297 7
0.022102 16.50293 19.71875 7
0.035590999 16.443848 19.567383 7
0.022583 16.631348 19.601562 7
-0.062614001 19.210449 18.487305 7
-0.062447 19.250488 18.441406 7
-0.052567001 19.208008 18.324219 7
-0.046264999 19.194824 18.232422 7
-0.038437001 19.167969 18.129883 7
0.252716 20.857422 -7.6914058 7
0.245903 20.910156 -7.7744141 7
0.249451 20.850586 -7.8066411 7
-0.29363999 -7.9560552 -24.675781 7
-0.299606 -8.0366211 -24.71875 7
-0.31674999 -8.152832 -24.876953 7
-0.32485199 -8.2412109 -24.941406 7
-0.33667001 -8.3417969 -25.043945 7
-0.347969 -8.440918 -25.140625 7
-0.224663 -13.133789 -21.448242 7
-0.23336799 -13.234375 -21.49707 7
-0.237244 -13.308594 -21.500977 7
-0.242195 -13.388672 -21.514648 7
-0.440056 -16.967285 -21.630859 7
-0.44826499 -17.073242 -21.660156 7
-0.43769801 -17.057617 -21.526367 7
-0.438393 -17.114746 -21.491211 7
-0.44392401 -17.204102 -21.49707 7
-0.77675599 -26.01123 18.213867 7
-0.81236303 -24.431152 20.976562 7
-0.79293102 -24.226074 20.905273 7
-0.788544 -24.144043 20.933594 7
-0.803123 -24.214844 21.086914 7
-0.015572 13.467773 20.537109 7
0.026794 15.492676 18.445312 7
0.011635 15.643555 18.529297 7
0.024521001 15.633301 18.358398 7
0.026862999 15.656738 18.303711 7
-0.074225999 18.338379 17.188477 7
-0.076241001 18.393555 17.160156 7
-0.072806999 18.40332 17.09375 7
-0.063369997 18.365234 16.987305 7
-0.057213001 18.352539 16.90332 7
-0.052147001 18.348633 16.826172 7
-0.060699001 18.456055 16.841797 7
0.214653 19.937012 -7.0585942 7
0.22161099 19.84668 -7.0751948 7
0.21907 19.853027 -7.1337891 7
-0.180618 -9.4501953 -20.992188 7
-0.187675 -9.5830078 -21.010742 7
-0.21296699 -9.7910156 -21.201172 7
-0.198929 -12.066895 -19.827148 7
-0.21048 -12.174316 -19.899414 7
-0.230591 -12.327148 -20.046875 7
-0.210724 -12.274414 -19.841797 7
-0.22399101 -12.391602 -19.927734 7
-0.51179498 -17.809082 -19.505859 7
-0.50794202 -17.831543 -19.432617 7
-0.68239599 -21.675781 19.28125 7
-0.693748 -21.719238 19.40332 7
-0.68557 -21.570801 19.454102 7
-0.026366999 12.561035 19.516602 7
-0.023155 12.629883 19.433594 7
-0.015991 12.631348 19.34668 7
-0.014091 12.664062 19.303711 7
-0.0098569999 12.682129 19.240234 7
-0.012505 12.782715 19.204102 7
0.003296 14.762207 17.482422 7
0.0081179999 14.768555 17.414062 7
0.018753 14.734375 17.302734 7
0.020065 14.763672 17.259766 7
0.00038099999 14.937012 17.369141 7
0.011017 14.902344 17.257812 7
0.021072 14.870605 17.150391 7
0.012474 14.968262 17.178711 7
-0.063727997 17.531738 15.649414 7
-0.058922 17.52832 15.579102 7
-0.062256001 17.588867 15.55957 7
-0.297562 -6.0888672 -21.876953 7
-0.27227801 -6.0800781 -21.625977 7
-0.277206 -6.1459961 -21.65625 7
-0.28937501 -6.2304692 -21.753906 7
-0.299133 -6.3095698 -21.829102 7
-0.30949399 -6.390625 -21.90918 7
-0.18329599 -8.6928711 -19.775391 7
-0.18158001 -8.7358398 -19.739258 7
-0.188942 -8.8120117 -19.782227 7
-0.202171 -11.217285 -18.682617 7
-0.191368 -11.212891 -18.564453 7
-0.206039 -11.329102 -18.65918 7
-0.213448 -11.410156 -18.692383 7
-0.21720099 -11.474609 -18.695312 7
-0.217316 -11.521973 -18.668945 7
-0.225327 -11.606934 -18.706055 7
-0.236977 -11.709961 -18.774414 7
-0.23709901 -11.757812 -18.74707 7
-0.23782299 -11.808105 -18.723633 7
-0.42606401 -15.135254 -18.570312 7
-0.42315701 -15.164062 -18.510742 7
-0.41600001 -15.168457 -18.419922 7
-0.43744701 -15.338867 -18.543945 7
-0.032683998 11.901855 18.494141 7
-0.031319 11.935547 18.457031 7
-0.034912001 11.995605 18.457031 7
-0.023605 11.974609 18.342773 7
-0.02224 12.008301 18.305664 7
-0.019005001 12.030273 18.253906 7
-0.011093 14.097168 16.560547 7
-0.017143 14.172363 16.569336 7
-0.0046310001 14.128418 16.451172 7
0.0023040001 14.119141 16.371094 7
-3.1e-05 14.17041 16.354492 7
-0.018456001 14.326172 16.448242 7
-0.0059429999 14.280762 16.330078 7
0.0042340001 14.286133 16.196289 7
-0.090645 16.925293 14.716797 7
-0.083717003 16.90625 14.637695 7
-0.076180004 16.882812 14.555664 7
-0.077262998 16.922852 14.523438 7
-0.076508 16.948242 14.479492 7
-0.16198 -7.820312 -18.435547 7
-0.156914 -7.8491211 -18.374023 7
-0.159576 -7.9033198 -18.375977 7
-0.173195 -7.995605 -18.469727 7
-0.19004101 -8.0991211 -18.59082 7
-0.174706 -10.42041 -17.253906 7
-0.198174 -10.611328 -17.386719 7
-0.197632 -10.651855 -17.355469 7
-0.198387 -10.69873 -17.335938 7
-0.20688599 -10.780273 -17.375977 7
-0.39965099 -14.122559 -17.143555 7
-0.41014099 -14.222656 -17.182617 7
-0.39667499 -14.191406 -17.052734 7
-0.39421099 -14.219238 -17 7
-0.38722199 -14.223633 -16.916016 7
-0.406784 -14.374023 -17.019531 7
-0.49000499 -15.944824 -16.633789 7
-0.48690799 -15.968262 -16.575195 7
-0.48056 -15.970703 -16.493164 7
-0.57102197 -18.112305 17.075195 7
-0.57309002 -18.088379 17.128906 7
-0.58985102 -18.160156 17.268555 7
-0.57920802 -18.052246 17.25 7
-0.152191 9.1430664 19.825195 7
-0.152733 9.1884766 19.808594 7
-0.153938 9.2373047 19.797852 7
-0.038887002 11.345703 17.44043 7
-0.021606 11.295898 17.291016 7
-0.017348999 13.469727 15.53418 7
-0.020508001 13.522949 15.523438 7
-0.0065609999 13.47168 15.404297 7
0.0047380002 13.435547 15.301758 7
-0.00038899999 13.500488 15.303711 7
-0.016693 13.635254 15.375977 7
-0.00605 13.602051 15.277344 7
0.001312 13.589844 15.200195 7
0.006691 13.588867 15.134766 7
-0.012238 13.740723 15.22168 7
-0.086098 16.004883 13.739258 7
-0.10154 16.17334 13.748047 7
-0.099441998 16.187988 13.699219 7
-0.093406998 16.175293 13.629883 7
-0.086060002 16.152832 13.553711 7
-0.079369001 16.135254 13.481445 7
-0.264099 -4.5083008 -19.193359 7
-0.26485401 -4.5576172 -19.1875 7
-0.170258 -7.0498052 -17.550781 7
-0.175789 -7.1108398 -17.578125 7
-0.17382801 -7.1489258 -17.544922 7
-0.154846 -7.1357422 -17.375977 7
-0.14879601 -7.1611328 -17.310547 7
-0.15229 -7.2148442 -17.320312 7
-0.172142 -7.320312 -17.459961 7
-0.181633 -9.7802734 -16.328125 7
-0.191406 -9.9038086 -16.353516 7
-0.20994601 -10.022461 -16.466797 7
-0.217186 -10.218262 -16.419922 7
-0.394371 -13.506836 -15.928711 7
-0.397926 -13.564941 -15.919922 7
-0.391197 -13.569336 -15.841797 7
-0.40639499 -13.689941 -15.910156 7
-0.403099 -13.711914 -15.854492 7
-0.4039 -13.756348 -15.827148 7
-0.48227701 -15.284668 -15.342773 7
-0.011086 10.804199 16.25 7
-0.0088499999 12.809082 14.616211 7
-0.017067 12.888672 14.635742 7
-0.030144 12.99707 14.683594 7
-0.021683 12.979004 14.603516 7
-0.0090640001 12.936523 14.498047 7
-0.012413 12.987305 14.488281 7
-0.024788 13.091797 14.532227 7
-0.020485001 13.098145 14.476562 7
-0.013428 13.087891 14.405273 7
-0.00080899999 13.043457 14.300781 7
-0.096863002 15.476562 12.786133 7
-0.099365003 15.54834 12.726562 7
-0.097153001 15.560547 12.679688 7
-0.088027999 15.525879 12.599609 7
-0.087890998 15.552246 12.563477 7
-0.267418 -3.851562 -18.148438 7
-0.264595 -3.8920901 -18.115234 7
-0.26970699 -3.9467771 -18.146484 7
-0.27121699 -3.9946289 -18.148438 7
-0.28352401 -4.0605469 -18.235352 7
-0.297279 -4.1298828 -18.333984 7
-0.30382499 -4.186523 -18.375 7
-0.15676101 -6.4077148 -16.461914 7
-0.157555 -6.4516602 -16.452148 7
-0.150429 -6.473145 -16.381836 7
-0.138237 -6.4804692 -16.274414 7
-0.13470501 -6.512207 -16.232422 7
-0.14776599 -6.589355 -16.313477 7
-0.153625 -6.6479492 -16.341797 7
-0.163086 -6.7158198 -16.395508 7
-0.15514401 -9.0107422 -15.211914 7
-0.14655299 -9.0161133 -15.129883 7
-0.15532701 -9.0888672 -15.169922 7
-0.160492 -9.1469727 -15.182617 7
-0.17721599 -9.2509766 -15.27832 7
-0.167908 -9.2529297 -15.19043 7
-0.170174 -9.3007812 -15.183594 7
-0.176056 -9.362793 -15.202148 7
-0.192802 -9.4667969 -15.293945 7
-0.188545 -9.4882812 -15.241211 7
-0.194443 -9.5507812 -15.259766 7
-0.19381 -9.5869141 -15.232422 7
-0.471809 -14.44043 -14.272461 7
-0.46540099 -14.441895 -14.200195 7
-0.46843699 -14.494141 -14.182617 7
-0.46202099 -14.494629 -14.109375 7
-0.47885901 -14.623047 -14.172852 7
-0.52163702 -17.692383 12.827148 7
-0.539581 -17.782227 12.945312 7
-0.53145599 -17.70166 12.952148 7
-0.029144 10.120605 15.65332 7
-0.034935001 10.180664 15.666016 7
-0.027442999 10.180176 15.595703 7
-0.025855999 10.207031 15.5625 7
-0.020683 10.218262 15.503906 7
-0.01107 12.258301 13.746094 7
-0.019653 12.366211 13.738281 7
-0.015129 12.370117 13.68457 7
-0.0076680002 12.357422 13.614258 7
0.001266 12.335938 13.536133 7
-0.003761 12.393555 13.536133 7
-0.083587997 14.731445 11.811523 7
-0.090057001 14.797852 11.806641 7
-0.097976997 14.875 11.808594 7
-0.105171 14.946777 11.805664 7
-0.102112 14.952148 11.757812 7
-0.094665997 14.929199 11.69043 7
-0.090157002 14.924316 11.635742 7
-0.085631996 14.919434 11.581055 7
-0.081855997 14.918457 11.529297 7
-0.124664 -5.8530269 -15.303711 7
-0.124748 -5.8920898 -15.289062 7
-0.12939499 -5.9433589 -15.308594 7
-0.13861801 -6.0058589 -15.359375 7
-0.146393 -6.1044922 -15.385742 7
-0.13294201 -8.3251953 -14.223633 7
-0.13303401 -8.3623047 -14.204102 7
-0.13312501 -8.3979492 -14.183594 7
-0.138649 -8.4902344 -14.178711 7
-0.145615 -8.5522461 -14.204102 7
-0.15717299 -8.6313477 -14.259766 7
-0.158783 -8.6738281 -14.25 7
-0.14969601 -8.6762695 -14.168945 7
-0.161255 -8.7548828 -14.223633 7
-0.172821 -8.8349609 -14.27832 7
-0.175201 -8.8793945 -14.271484 7
-0.182175 -8.9423828 -14.295898 7
-0.36339599 -12.078125 -13.740234 7
-0.36196899 -12.105469 -13.701172 7
-0.36438799 -12.151855 -13.685547 7
-0.44885299 -13.733398 -13.098633 7
-0.44743299 -13.759277 -13.057617 7
-0.020781999 11.842285 12.948242 7
-0.022995001 11.881836 12.933594 7
-0.018677 11.968262 12.801758 7
-0.106674 14.402832 10.892578 7
-0.100372 14.385742 10.833984 7
-0.093177997 14.38623 10.738281 7
-0.089980997 14.388184 10.691406 7
-0.222969 -2.3691411 -15.944336 7
-0.210152 -2.3959961 -15.845703 7
-0.211815 -2.4375 -15.850586 7
-0.214279 -2.480957 -15.862305 7
-0.21513399 -2.5219729 -15.862305 7
-0.109322 -5.2397461 -14.383789 7
-0.106964 -5.2709961 -14.354492 7
-0.108643 -5.3120122 -14.352539 7
-0.113548 -5.3598628 -14.373047 7
-0.129807 -5.472168 -14.457031 7
-0.128273 -5.5058589 -14.432617 7
-0.132759 -8.0058594 -13.295898 7
-0.121529 -8.0009766 -13.205078 7
-0.130501 -8.065918 -13.242188 7
-0.13462099 -8.1147461 -13.248047 7
-0.15006299 -8.203125 -13.325195 7
-0.142876 -8.2119141 -13.259766 7
-0.150223 -8.2714844 -13.285156 7
-0.153542 -8.3173828 -13.286133 7
-0.34683999 -11.37793 -12.798828 7
-0.34947199 -11.45459 -12.757812 7
-0.34715301 -11.476562 -12.716797 7
-0.34563401 -11.502441 -12.680664 7
-0.44116199 -13.103516 -12.116211 7
-0.43315899 -13.094238 -12.043945 7
-0.023887999 9.1904297 14.02832 7
-0.022964001 9.2163086 14.001953 7
-0.021217 9.2397461 13.97168 7
-0.020293999 9.265625 13.945312 7
-0.020073 11.381836 12.137695 7
-0.010963 11.360352 12.067383 7
-0.003487 11.347168 12.004883 7
-0.000107 11.35498 11.962891 7
-0.0098339999 11.430664 11.982422 7
-0.016280999 11.489746 11.987305 7
-0.01371 11.501465 11.949219 7
-0.0070500001 11.491699 11.890625 7
-0.0044940002 11.503906 11.852539 7
-0.100945 13.779785 10.068359 7
-0.08918 13.770996 9.9287109 7
-0.208397 -1.847168 -15.032227 7
-0.201683 -1.8798831 -14.981445 7
-0.205956 -1.921387 -15.004883 7
-0.209381 -1.962402 -15.023438 7
-0.21535499 -2.0058589 -15.058594 7
-0.218788 -2.047363 -15.076172 7
-0.225609 -2.0917971 -15.118164 7
-0.23749501 -2.141113 -15.193359 7
-0.247696 -2.1894529 -15.256836 7
-0.246902 -2.2275391 -15.245117 7
-0.118042 -4.7089839 -13.75 7
-0.117264 -4.7426758 -13.733398 7
-0.106308 -4.7553711 -13.650391 7
-0.102135 -4.7817378 -13.611328 7
-0.116821 -7.38623 -12.561523 7
-0.117744 -7.421875 -12.549805 7
-0.121223 -7.4658198 -12.552734 7
-0.12979899 -7.5253911 -12.584961 7
-0.13073 -7.5605469 -12.571289 7
-0.129951 -7.5908198 -12.548828 7
-0.134285 -7.6376948 -12.556641 7
-0.135208 -7.672852 -12.542969 7
-0.34629801 -10.925293 -11.987305 7
-0.335327 -10.90918 -11.90332 7
-0.33713499 -10.948242 -11.886719 7
-0.341492 -10.997559 -11.882812 7
-0.34158301 -11.02832 -11.856445 7
-0.35275999 -11.107422 -11.886719 7
-0.35030401 -11.127441 -11.847656 7
-0.35636899 -11.185059 -11.852539 7
-0.114738 -4.1694341 -13.079102 7
-0.108559 -4.1914058 -13.030273 7
-0.115746 -4.2382808 -13.064453 7
-0.108673 -4.2587891 -13.009766 7
-0.109619 -4.2944341 -13.004883 7
-0.107002 -4.3232422 -12.978516 7
-0.100822 -4.344727 -12.929688 7
-0.099991001 -4.3764648 -12.913086 7
-0.100052 -4.409668 -12.902344 7
-0.098328002 -4.4394531 -12.880859 7
-0.121437 -7.066895 -11.883789 7
-0.137596 -7.1474609 -11.958008 7
-0.131409 -7.1586909 -11.904297 7
-0.127014 -7.17627 -11.862305 7
-0.13155399 -7.2211909 -11.871094 7
-0.13520101 -7.2631841 -11.874023 7
-0.14510299 -7.3256841 -11.913086 7
-0.13446 -7.3227539 -11.833984 7
-0.129173 -7.3369141 -11.787109 7
-0.317909 -10.27002 -11.1875 7
-0.31710801 -10.295898 -11.158203 7
-0.33431199 -10.425781 -11.194336 7
-0.324554 -10.413574 -11.120117 7
-0.32643899 -10.450195 -11.103516 7
-0.325638 -10.475586 -11.075195 7
-0.32124299 -10.48584 -11.02832 7
-0.099593997 -3.842773 -12.337891 7
-0.096901 -3.901855 -12.301758 7
-0.091407999 -3.956543 -12.25 7
-0.088661 -3.983398 -12.223633 7
-0.094322003 -4.0249019 -12.248047 7
-0.103767 -4.1054692 -12.283203 7
-0.092666999 -4.148438 -12.196289 7
-0.089951001 -6.4594731 -11.185547 7
-0.093764998 -6.4995122 -11.19043 7
-0.100449 -6.5776372 -11.195312 7
-0.123138 -6.7314448 -11.270508 7
-0.12601499 -6.77002 -11.269531 7
-0.120544 -6.811523 -11.206055 7
-0.142433 -7.0239258 -11.240234 7
-0.40762299 -11.539062 -9.6630859 7
-0.405846 -11.556641 -9.6289062 7
-0.406883 -11.586426 -9.6044922 7
-0.16685501 -0.32226601 -12.618164 7
-0.16099501 -0.35351601 -12.582031 7
-0.165932 -0.38769501 -12.610352 7
-0.167923 -0.42089799 -12.621094 7
-0.16892999 -0.45361301 -12.625977 7
-0.170921 -0.48632801 -12.634766 7
-0.173897 -0.51953101 -12.650391 7
-0.17883299 -0.553711 -12.678711 7
-0.186699 -0.58886701 -12.723633 7
-0.19652601 -0.62451202 -12.779297 7
-0.205368 -0.66015601 -12.830078 7
-0.075705998 -3.526855 -11.55957 7
-0.079681002 -3.5625 -11.573242 7
-0.078750998 -3.5913091 -11.558594 7
-0.084693998 -3.6313479 -11.583008 7
-0.091614 -3.671875 -11.612305 7
-0.093627997 -3.7060549 -11.615234 7
-0.083870001 -3.7202151 -11.550781 7
-0.084899999 -3.7519529 -11.547852 7
-0.079781003 -6.0883789 -10.536133 7
-0.072959997 -6.0976558 -10.485352 7
-0.077941999 -6.1381841 -10.495117 7
-0.078994997 -6.168457 -10.485352 7
-0.085937999 -6.215332 -10.506836 7
-0.093872003 -6.264648 -10.533203 7
-0.093933001 -6.2929692 -10.517578 7
-0.086135998 -6.2988281 -10.461914 7
-0.091124997 -6.340332 -10.472656 7
-0.093147002 -6.3730469 -10.467773 7
-0.384857 -10.949707 -8.9560547 7
-0.389893 -10.994629 -8.9492188 7
-0.39294401 -11.03125 -8.9345703 7
-0.38909101 -11.038574 -8.8925781 7
-0.39214301 -11.075684 -8.8789062 7
-0.389267 -11.085938 -8.8398438 7
-0.388374 -11.105957 -8.8105469 7
-0.39242601 -11.146973 -8.7988281 7
-0.198586 -0.246582 -12.178711 7
-0.081215002 -3.2016599 -11.067383 7
-0.075111002 -3.2216799 -11.025391 7
-0.078239001 -3.2553711 -11.03418 7
-0.083411999 -3.2910161 -11.053711 7
-0.091666996 -3.3330081 -11.09082 7
-0.096832 -3.3696289 -11.110352 7
-0.092781 -3.3925779 -11.080078 7
-0.090782002 -3.418457 -11.060547 7
-0.083641 -3.436523 -11.013672 7
-0.083701998 -3.4658201 -11.005859 7
-0.077591002 -3.484863 -10.962891 7
-0.079696998 -3.516602 -10.96582 7
-0.083159998 -5.7709961 -10.054688 7
-0.076018997 -5.7792969 -10.005859 7
-0.081215002 -5.8188481 -10.016602 7
-0.081284001 -5.8452148 -10.00293 7
-0.085456997 -5.8823242 -10.008789 7
-0.094765 -5.9335942 -10.041992 7
-0.095856003 -5.9628911 -10.032227 7
-0.089752004 -5.973145 -9.9873047 7
-0.092896 -6.007812 -9.9882812 7
-0.092964001 -6.034668 -9.9746094 7
-0.28681201 -8.9731445 -9.2099609 7
-0.28999299 -9.0092773 -9.2011719 7
-0.28594199 -9.0185547 -9.1621094 7
-0.29427299 -9.0737305 -9.1757812 7
-0.30465701 -9.1362305 -9.1972656 7
-0.29648599 -9.1303711 -9.140625 7
-0.29657 -9.1547852 -9.1191406 7
-0.29665399 -9.1791992 -9.0966797 7
-0.29879799 -9.2114258 -9.0839844 7
-0.293724 -9.2167969 -9.0410156 7
-0.38542899 -10.666504 -8.2744141 7
-0.379318 -10.663574 -8.2265615 7
-0.37941 -10.686035 -8.2011719 7
-0.37950099 -10.708496 -8.1757812 7
-0.379585 -10.730957 -8.1503906 7
-0.396202 -10.822266 -8.1855469 7
-0.40352601 -10.875488 -8.1865234 7
-0.198433 -0.087890998 -12.181641 7
-0.19846299 -0.120117 -12.182617 7
-0.19648001 -0.18261699 -12.168945 7
-0.078217 -2.8227539 -10.515625 7
-0.076103002 -2.847656 -10.49707 7
-0.077216998 -2.8764651 -10.495117 7
-0.071442001 -5.4648442 -9.4541016 7
-0.074730001 -5.4980469 -9.4560547 7
-0.079102002 -5.5336909 -9.4638672 7
-0.088859998 -5.58252 -9.4951172 7
-0.086760998 -5.6030269 -9.4726562 7
-0.080344997 -5.6118159 -9.4287109 7
-0.0858 -5.6508789 -9.4404297 7
-0.084778003 -5.6733398 -9.4228516 7
-0.086998001 -5.704102 -9.4189453 7
-0.097838998 -5.7563481 -9.4550781 7
-0.28578201 -8.6542969 -8.5966797 7
-0.29025999 -8.7158203 -8.5722656 7
-0.29032901 -8.7392578 -8.5527344 7
-0.28607899 -8.7475586 -8.5146484 7
-0.286156 -8.7705078 -8.4941406 7
-0.28839901 -8.8012695 -8.4814453 7
-0.28631601 -8.8164062 -8.4521484 7
-0.287476 -8.8432617 -8.4355469 7
-0.29944599 -8.9082031 -8.4599609 7
-0.302773 -8.9433594 -8.4521484 7
-0.29743999 -8.9462891 -8.4091797 7
-0.075768001 -2.61377 -10.011719 7
-0.08371 -2.67627 -10.038086 7
-0.083793998 -2.7290039 -10.023438 7
-0.080475003 -2.7519529 -10.000977 7
-0.079391003 -2.7763669 -9.9882812 7
-0.071608998 -2.820312 -9.9355469 7
-0.071700998 -2.8725591 -9.921875 7
-0.068213999 -5.1201172 -9.0244141 7
-0.067139 -5.1420898 -9.0068359 7
-0.060447998 -5.1508789 -8.9638672 7
-0.067253001 -5.190918 -8.9824219 7
-0.068435997 -5.217773 -8.9755859 7
-0.07412 -5.2548828 -8.9882812 7
-0.083168 -5.300293 -9.0166016 7
-0.077598996 -5.3110352 -8.9775391 7
-0.074280001 -5.327148 -8.9501953 7
-0.079963997 -5.3647461 -8.9628906 7
-0.080025002 -5.3886719 -8.9501953 7
-0.081200004 -5.4155269 -8.9423828 7
-0.28965801 -8.3999023 -8.0839844 7
-0.27957901 -8.3876953 -8.0263672 7
-0.27852601 -8.4057617 -8.0019531 7
-0.075232998 -2.2485349 -9.5849609 7
-0.083466001 -2.282227 -9.6181641 7
-0.069458 -2.2939451 -9.5458984 7
-0.078856997 -2.328613 -9.5839844 7
-0.082413003 -2.358398 -9.5957031 7
-0.083626002 -2.3847661 -9.5957031 7
-0.089515999 -2.4165039 -9.6171885 7
-0.088386998 -2.440918 -9.6064453 7
-0.084899999 -2.4624021 -9.5830078 7
-0.081421003 -2.484375 -9.5605469 7
-0.077950001 -2.5058589 -9.5380859 7
-0.077987999 -2.531738 -9.5322266 7
-0.075684004 -2.5537109 -9.5136719 7
-0.062392998 -4.820312 -8.59375 7
-0.071837999 -4.8632808 -8.6220703 7
-0.061377998 -4.887207 -8.5537109 7
-0.068466 -4.9257808 -8.5722656 7
-0.070862003 -4.954102 -8.5703115 7
-0.080352999 -5.0214839 -8.5878906 7
-0.081580997 -5.0473628 -8.5810547 7
-0.075774997 -5.058105 -8.5439453 7
-0.081740998 -5.1162109 -8.5439453 7
-0.272919 -8.0078115 -7.6035161 7
-0.28005201 -8.0517578 -7.609375 7
-0.28366101 -8.0844727 -7.6035161 7
-0.28607899 -8.1123047 -7.5917969 7
-0.279091 -8.1103516 -7.547852 7
-0.27915999 -8.1308594 -7.5283198 7
-0.279221 -8.1518555 -7.5087891 7
-0.28282899 -8.184082 -7.5019531 7
-0.27936599 -8.1933594 -7.4707031 7
-0.28650701 -8.2373047 -7.4755859 7
-0.29598999 -8.2900391 -7.4892578 7
-0.294891 -8.3061523 -7.4648442 7
-0.069297999 -1.946777 -9.140625 7
-0.073021002 -2 -9.1484385 7
-0.071837999 -2.023438 -9.1376953 7
-0.066993997 -2.043457 -9.1103516 7
-0.067032002 -2.0673831 -9.1054688 7
-0.069504 -2.094238 -9.1113281 7
-0.063446 -2.1123049 -9.0771484 7
-0.063477002 -2.137207 -9.0722656 7
-0.064742997 -2.1625979 -9.0732422 7
-0.064781003 -2.187012 -9.0683594 7
-0.067253001 -2.2138669 -9.0732422 7
-0.067290999 -2.23877 -9.0683594 7
-0.053185001 -4.483398 -8.1943359 7
-0.064240001 -4.5283198 -8.2304688 7
-0.047173001 -4.515625 -8.1474609 7
-0.052108999 -4.547852 -8.1572266 7
-0.058272999 -4.5830078 -8.1728516 7
-0.063216999 -4.6157231 -8.1826172 7
-0.060814001 -4.6323242 -8.1601562 7
-0.068207003 -4.6694341 -8.1796885 7
-0.063369997 -4.6821289 -8.1484385 7
-0.064644001 -4.706543 -8.1416016 7
-0.076912001 -4.7548828 -8.1816406 7
-0.067176998 -4.7558589 -8.1289062 7
-0.070900001 -4.7861328 -8.1337891 7
-0.064842001 -4.795898 -8.0966797 7
-0.048836 -1.611816 -8.6318359 7
-0.048866 -1.635254 -8.6269531 7
-0.050170999 -1.660156 -8.6298828 7
-0.047653001 -1.681152 -8.6132812 7
-0.047683999 -1.704102 -8.609375 7
-0.047722001 -1.7275389 -8.6054688 7
-0.046478 -1.75 -8.5957031 7
-0.045235001 -1.771484 -8.5849609 7
-0.047821 -1.797363 -8.5927734 7
-0.046569999 -1.8193361 -8.5820312 7
-0.045334 -1.841797 -8.5722656 7
-0.045364 -1.864746 -8.5673828 7
-0.045403 -1.888184 -8.5634766 7
-0.045433 -1.9111331 -8.5585938 7
-0.04747 -4.420898 -7.6767578 7
-0.04879 -4.4448242 -7.670898 7
-0.24494199 -7.3745122 -6.6367192 7
-0.24628399 -7.3969731 -6.6230469 7
-0.248909 -7.4233398 -6.6132808 7
-0.252823 -7.454102 -6.608398 7
-0.243919 -7.4443359 -6.561523 7
-0.240135 -7.4516602 -6.53125 7
-0.24276701 -7.4775391 -6.5214839 7
-0.24411 -7.5004878 -6.507812 7
-0.248016 -7.5307622 -6.5029302 7
-0.24295799 -7.5327148 -6.467773 7
-0.25326499 -7.5830078 -6.4824219 7
-0.26486999 -7.6376948 -6.5019531 7
-0.26364899 -7.6523442 -6.4794922 7
-0.26628101 -7.6782231 -6.46875 7
-0.059677001 -4.1616211 -7.4121089 7
-0.058403 -4.179688 -7.3964839 7
-0.061104 -4.2055659 -7.3974609 7
-0.063804999 -4.230957 -7.3974609 7
-0.067841001 -4.2583008 -7.4013672 7
-0.066559002 -4.2763672 -7.3867192 7
-0.066605002 -4.296875 -7.375977 7
-0.070633002 -4.324707 -7.3808589 7
-0.072013997 -4.3476558 -7.375977 7
-0.073386997 -4.3710942 -7.3701172 7
-0.074767999 -4.394043 -7.3652339 7
-0.112256 11.68525 17.743401 7
-0.067663997 9.4155502 14.194387 7
-0.060860001 11.589704 12.20751 7
-0.290402 -12.28801 9.4540253 7
-0.021090001 -4.92909 -13.899291 7
0.053059999 -2.997452 -10.760242 7
0.012435 -5.7321968 -9.6786137 7
-0.00321 -1.671295 -8.344039 7
-0.091404997 -4.6030931 -8.044136 7
-0.072696 9.5238276 14.363669 7
-0.34784701 -2.374269 -15.639777 7
-0.143714 -3.61692 -11.709085 7
-0.28679401 -0.416821 -12.504442 7
-0.128686 -2.5830441 -9.8649902 7
-0.325923 -9.8056898 -10.063926 7
-0.244976 -8.1700954 -7.4116702 7
