# .PCD v0.7 - Point Cloud Data file format
VERSION 0.7
FIELDS x y z intensity
SIZE 4 4 4 4
TYPE F F F F
COUNT 1 1 1 1
WIDTH 888
HEIGHT 1
VIEWPOINT 0 0 0 1 0 0 0
POINTS 888
DATA ascii
0.196358 44.143066 60.922852 7
0.19535799 47.000488 59.18457 7
1.05751 41.872559 -23.083984 7
0.036178999 39.896973 61.246094 7
0.050200999 39.933105 60.694336 7
0.05381 45.509277 57.158203 7
0.091026001 44.853027 56.09375 7
0.13654301 44.013184 54.814453 7
0.968925 40.1875 -21.927734 7
0.96815503 40.162109 -22.040039 7
0.96723199 40.141602 -22.155273 7
0.96415699 40.191406 -22.3125 7
0.073638998 35.133789 54.604492 7
0.050200999 35.657227 55.121094 7
0.147644 36.917969 50.972656 7
0.149193 37.013672 50.858398 7
0.120125 37.918945 51.327148 7
0.14636201 37.55957 50.614258 7
0.0038379999 42.533691 52.484375 7
0.061416999 31.766602 49.771484 7
0.046753 32.106445 50.039062 7
0.12439 33.56543 46.712891 7
0.136307 33.482422 46.379883 7
0.109039 34.942383 46.321289 7
0.11795 34.904297 46.054688 7
0.130913 34.79541 45.701172 7
0.035964999 28.800293 45.686523 7
0.013206 29.215332 46.092773 7
-0.051201001 30.195312 47.353516 7
0.085143998 30.757812 43.107422 7
0.098990999 30.657227 42.767578 7
0.081779003 31.013672 43.041992 7
0.062035002 32.644043 42.541992 7
0.084380999 32.401367 42.039062 7
0.086617 32.467773 41.926758 7
0.101135 32.342285 41.576172 7
0.131027 31.976074 40.931641 7
0.01133 35.990234 41.648438 7
0.030769 35.768066 41.210938 7
0.051383998 35.523926 40.753906 7
0.72369403 34.389648 -18.029297 7
0.723068 34.317871 -18.202148 7
-0.63755798 -32.782715 -57.746094 7
-0.69195598 -33.552246 -58.796875 7
-0.633362 -33.003418 -57.489258 7
-0.71786499 -34.131836 -59.163086 7
-0.76762402 -34.858887 -60.109375 7
-0.84115601 -35.870605 -61.545898 7
0.025681 26.236328 42.204102 7
-0.0076219998 26.742188 42.774414 7
-0.041908 27.366699 43.303711 7
0.042296998 28.664062 40.305664 7
0.051445 28.636719 40.079102 7
0.048645001 30.554199 38.84668 7
0.068626001 30.36084 38.432617 7
0.069716997 30.437012 38.347656 7
0.092009999 30.206055 37.892578 7
0.096465997 30.232422 37.749023 7
-0.0030439999 33.711914 37.908203 7
0.016868999 33.495605 37.503906 7
0.032660998 33.34082 37.167969 7
0.66959399 32.316406 -16.831055 7
0.66137701 32.450684 -17.007812 7
-0.57360798 -28.283691 -51.643555 7
-0.62103301 -29.018555 -52.405273 7
-0.69717401 -29.932617 -53.785156 7
-0.69325298 -30.143555 -53.555664 7
-0.74232501 -30.915039 -54.333008 7
-0.448486 -29.73291 -47.498047 7
-0.466034 -30.042969 -47.746094 7
-0.51029998 -30.65918 -48.487305 7
-0.53730798 -31.081543 -48.907227 7
-0.56971699 -31.568359 -49.423828 7
-0.493164 -30.802246 -47.936523 7
-0.52557403 -31.289062 -48.452148 7
-0.73074299 -36.526855 -50.076172 7
-0.63992298 -35.501465 -48.387695 7
-0.030167 24.51709 39.68457 7
-0.042144999 24.743652 39.837891 7
-0.083755001 25.301758 40.500977 7
0.017379999 26.325684 37.449219 7
0.058295999 25.915527 36.713867 7
0.033859 26.300781 37.0625 7
0.067374997 25.976562 36.450195 7
0.086395003 25.828125 36.080078 7
0.075889997 26.04248 36.196289 7
0.025505001 28.557617 35.700195 7
0.056373999 28.23291 35.150391 7
0.048172001 28.424805 35.217773 7
0.062614001 28.315918 34.927734 7
0.085533001 28.091309 34.503906 7
-0.036148001 31.671387 34.866211 7
-0.00056499999 31.32666 34.193359 7
0.027381999 31.006348 33.706055 7
0.043182001 30.859863 33.40332 7
0.59571803 30.904785 -15.573242 7
0.597404 30.833496 -15.629883 7
0.59094203 30.919922 -15.774414 7
0.59342998 30.833984 -15.820312 7
-0.567307 -25.476074 -47.838867 7
-0.60336298 -25.925293 -48.416016 7
-0.689758 -26.963867 -49.817383 7
-0.73748797 -27.651855 -50.524414 7
-0.77503997 -28.128418 -51.119141 7
-0.46743801 -27.225586 -44.404297 7
-0.48463401 -27.612305 -44.55957 7
-0.517883 -28.063477 -45.060547 7
-0.48457301 -28.447754 -43.990234 7
-0.540039 -29.14502 -44.857422 7
-0.44194001 -28.196777 -43.124023 7
-0.64236498 -33.021973 -44.511719 7
-0.60403401 -32.67627 -43.808594 7
-0.0038379999 25.131348 34.864258 7
0.0083769998 25.073242 34.624023 7
0.027267 25.016602 34.226562 7
0.034874 25.007812 34.057617 7
-0.00092299999 27.025391 33.447266 7
0.031998001 26.695801 32.90625 7
0.049965002 26.549316 32.585938 7
0.036812 26.791016 32.719727 7
0.063621998 26.532227 32.271484 7
-0.045646999 29.943848 32.208008 7
-0.023178 29.717285 31.832031 7
-0.0058749998 29.559082 31.52832 7
0.019920001 29.284668 31.109375 7
0.02021 29.354492 31.041016 7
0.55391699 29.293457 -14.563477 7
0.54319799 29.450195 -14.739258 7
0.53685802 29.490234 -14.943359 7
-0.445328 -21.254883 -42.152344 7
-0.484375 -21.671875 -42.742188 7
-0.51101702 -21.991211 -43.125 7
-0.544662 -22.370117 -43.623047 7
-0.57164001 -22.696289 -44.008789 7
-0.61070299 -23.124023 -44.59082 7
-0.64373797 -23.504395 -45.073242 7
-0.36524999 -23.184082 -39.327148 7
-0.38685599 -23.475098 -39.611328 7
-0.38996899 -23.598145 -39.601562 7
-0.41477999 -23.92041 -39.93457 7
-0.38209501 -25.098145 -38.432617 7
-0.42067 -25.567871 -38.963867 7
-0.37844801 -25.243164 -38.248047 7
-0.60484302 -29.980469 -39.862305 7
-0.563797 -29.631348 -39.183594 7
0.031592999 24.641113 30.186523 7
0.035172001 24.67041 30.084961 7
0.050048999 24.569336 29.832031 7
0.063591003 24.482422 29.597656 7
0.051543999 24.690918 29.703125 7
0.067078002 24.580078 29.442383 7
0.083267003 24.460449 29.174805 7
-0.033279002 27.782227 29.040039 7
-0.018112 27.660156 28.790039 7
-0.0049359999 27.562012 28.564453 7
0.0092320004 27.450195 28.328125 7
0.025055001 27.316406 28.071289 7
-0.43513501 -18.902832 -39.03418 7
-0.45874 -19.166992 -39.348633 7
-0.49026501 -19.491211 -39.783203 7
-0.51525903 -19.769531 -40.117188 7
-0.53956598 -20.044434 -40.438477 7
-0.56904602 -20.359375 -40.837891 7
-0.601273 -20.696777 -41.27832 7
-0.35025799 -20.858887 -36.289062 7
-0.355652 -20.989746 -36.31543 7
-0.37345901 -21.225098 -36.526367 7
-0.401627 -21.546875 -36.887695 7
-0.33921799 -22.966797 -34.694336 7
-0.55184901 -27.435059 -35.825195 7
-0.52577198 -27.257324 -35.404297 7
-0.50177002 -27.099121 -35.012695 7
-1.62825 -49.879395 35.583008 7
0.028960999 23.189941 27.867188 7
0.047111999 23.058105 27.592773 7
0.064185999 22.9375 27.333008 7
0.067512996 23.02832 27.19043 7
0.086723 22.881836 26.90625 7
-0.026276 26.105957 26.542969 7
-0.013535 26.017578 26.34082 7
0.0034709999 25.876953 26.089844 7
0.012642 25.82959 25.929688 7
0.022514001 25.771973 25.759766 7
0.44761699 26.439941 -12.522461 7
0.449074 26.38623 -12.573242 7
0.44171101 26.46582 -12.697266 7
0.454689 26.236816 -12.65332 7
0.448349 26.300781 -12.768555 7
-0.47418201 -17.011719 -36.591797 7
-0.48521399 -17.155762 -36.685547 7
-0.51126099 -17.412598 -37.011719 7
-0.538818 -17.681152 -37.358398 7
-0.56282002 -18.018555 -37.608398 7
-0.33229101 -18.616699 -33.193359 7
-0.330612 -18.684082 -33.124023 7
-0.30265 -18.554688 -32.695312 7
-0.31512499 -20.812012 -31.480469 7
-0.34845001 -21.165039 -31.863281 7
-0.335114 -21.129395 -31.636719 7
-0.36129799 -21.425781 -31.924805 7
-0.53536999 -25.277344 -32.396484 7
-0.48187301 -24.930664 -31.611328 7
0.025299 21.570312 25.662109 7
0.038353 21.499023 25.46875 7
0.054512002 21.39502 25.240234 7
0.056281999 21.435547 25.171875 7
0.049492002 21.562012 25.199219 7
0.066428997 21.44873 24.963867 7
-0.036453001 24.531738 24.251953 7
-0.028084001 24.495117 24.111328 7
0.011505 24.175293 23.606445 7
0.021019001 24.123535 23.455078 7
-0.41482499 -14.958008 -33.592773 7
-0.43261701 -15.14209 -33.792969 7
-0.450409 -15.327637 -33.993164 7
-0.324799 -17.493164 -30.776367 7
-0.31374401 -17.489746 -30.59082 7
-0.30028501 -17.46875 -30.375977 7
-0.293648 -17.494629 -30.24707 7
-0.286201 -17.515625 -30.108398 7
-0.267921 -17.45752 -29.833008 7
-0.34223899 -19.663086 -29.694336 7
-0.31991601 -19.55957 -29.37207 7
-0.34585601 -19.833984 -29.639648 7
-0.51187098 -23.570801 -29.837891 7
-0.497177 -23.513184 -29.609375 7
-0.49899301 -23.599609 -29.572266 7
0.017082 20.506348 24.055664 7
0.016457001 20.567871 24.016602 7
0.042984001 20.423828 23.649414 7
0.050026 20.465332 23.485352 7
0.067222998 20.353516 23.261719 7
-0.032341 23.204102 22.535156 7
-0.050705001 23.44873 22.657227 7
-0.036858 23.35498 22.472656 7
-0.018882999 23.217285 22.25 7
-0.010406 23.179199 22.118164 7
-0.0044100001 23.166016 22.008789 7
-0.011215 23.289062 22.020508 7
-0.36625701 -12.943359 -30.71582 7
-0.38151601 -13.095703 -30.874023 7
-0.40152001 -13.273438 -31.091797 7
-0.42153901 -13.452637 -31.308594 7
-0.42341599 -13.538574 -31.297852 7
-0.248749 -16.969238 -26.731445 7
-0.248924 -17.035156 -26.691406 7
-0.243462 -17.060547 -26.584961 7
-0.236687 -17.077148 -26.464844 7
-0.234688 -17.12793 -26.400391 7
-0.255005 -17.400879 -26.546875 7
-0.30093399 -17.859375 -26.982422 7
-0.28505701 -17.810059 -26.757812 7
-1.089981 -32.565918 27.546875 7
-1.065964 -32.20166 27.504883 7
0.0022130001 17.101074 24.155273 7
0.0050809998 17.132812 24.086914 7
0.016518001 19.253418 22.253906 7
0.047706999 19.07666 21.870117 7
0.054512002 19.164062 21.675781 7
-0.048163999 22.125977 20.693359 7
-0.039069999 22.083008 20.56543 7
-0.029526001 22.035156 20.433594 7
-0.017325999 21.959961 20.279297 7
-0.009575 21.928711 20.163086 7
0.316277 22.623535 -10.236328 7
-0.33348101 -11.424805 -28.422852 7
-0.340103 -11.524902 -28.47168 7
-0.25484499 -16.060547 -24.842773 7
-0.280083 -16.288574 -25.072266 7
-0.25238001 -16.165527 -24.736328 7
-0.265549 -16.313477 -24.836914 7
-0.459793 -20.369629 -24.84375 7
-1.004532 -31.547852 22.890625 7
-0.99539202 -31.405273 22.902344 7
0.015015 18.26416 20.755859 7
0.018897999 18.371582 20.59668 7
0.046890002 18.226562 20.268555 7
-0.062508002 21.138184 19.259766 7
-0.048553001 21.049316 19.102539 7
-0.037926 20.992188 18.970703 7
0.27551299 21.685059 -9.4667969 7
0.27834299 21.627441 -9.5019531 7
-0.40281701 -10.720703 -27.160156 7
-0.229599 -14.831543 -22.707031 7
-0.23174299 -14.900391 -22.691406 7
-0.23538999 -14.979004 -22.691406 7
-0.25052601 -15.128906 -22.803711 7
-0.25866699 -15.235352 -22.84668 7
-0.25482899 -15.26709 -22.771484 7
-0.42874101 -18.771973 -22.668945 7
-0.424896 -18.799805 -22.587891 7
-0.86618 -26.111328 23.174805 7
-0.83123797 -25.760742 22.984375 7
-0.862167 -25.973145 23.267578 7
-0.83978301 -25.72998 23.166992 7
-0.84980798 -25.763184 23.298828 7
-0.017937001 15.091309 21.402344 7
-0.014175 15.11377 21.334961 7
-0.016068 15.174316 21.317383 7
-0.006668 15.156738 21.198242 7
-0.0039369999 15.186035 21.139648 7
0.019309999 17.317871 19.0625 7
0.028679 17.285156 18.948242 7
0.038054999 17.251953 18.833008 7
-0.056281999 19.983887 17.563477 7
-0.047951002 19.94873 17.458984 7
-0.041664001 19.931641 17.368164 7
-0.031303 19.87793 17.249023 7
-0.03418 19.941895 17.223633 7
-0.048758999 20.111816 17.28125 7
-0.292404 -8.6831055 -24.499023 7
-0.298897 -8.7666016 -24.544922 7
-0.31016499 -8.8666992 -24.639648 7
-0.321426 -8.9682617 -24.734375 7
-0.339607 -9.0947266 -24.899414 7
-0.35777301 -9.222168 -25.06543 7
-0.35896301 -9.2875977 -25.053711 7
-0.213974 -13.609863 -21.091797 7
-0.23455 -13.832031 -21.21582 7
-0.22988901 -13.856934 -21.138672 7
-0.235367 -13.940918 -21.155273 7
-0.44667101 -17.661133 -21.257812 7
-0.42968801 -17.598633 -21.069336 7
-0.805969 -23.845703 21.566406 7
-0.026245 14.268555 20.137695 7
-0.029381 14.333984 20.131836 7
-0.016075 14.291992 19.987305 7
-0.013184 14.317871 19.930664 7
-0.0097430004 14.339355 19.869141 7
0.0023960001 16.371582 18.029297 7
0.014023 16.324707 17.904297 7
0.025093 16.280762 17.783203 7
0.018158 16.372559 17.797852 7
0.010628 16.473633 17.821289 7
0.021698 16.428711 17.702148 7
0.027321 16.425781 17.62207 7
0.01548 16.555176 17.672852 7
0.01236 16.618652 17.658203 7
-0.066315003 19.072266 16.251953 7
-0.060706999 19.061035 16.171875 7
-0.056740001 19.0625 16.102539 7
-0.052756999 19.064941 16.032227 7
-0.056396 19.131836 16.012695 7
-0.178123 -9.9614258 -20.795898 7
-0.17198899 -9.9868164 -20.713867 7
-0.17779499 -10.062988 -20.743164 7
-0.183594 -10.13916 -20.772461 7
-0.197937 -10.252441 -20.879883 7
-0.20431501 -10.332031 -20.914062 7
-0.197823 -12.509766 -19.611328 7
-0.184265 -12.486816 -19.461914 7
-0.19751 -12.605469 -19.546875 7
-0.211891 -12.72998 -19.640625 7
-0.202324 -12.727539 -19.526367 7
-0.40921 -16.347656 -19.476562 7
-0.41336101 -16.422363 -19.470703 7
-0.42837501 -16.564941 -19.548828 7
-0.41365099 -16.52002 -19.391602 7
-0.413818 -16.568359 -19.352539 7
-0.50743097 -18.320801 -19.056641 7
-0.49899301 -18.310059 -18.948242 7
-0.49858099 -18.354004 -18.901367 7
-0.70875502 -21.469727 19.912109 7
-0.031197 13.494629 18.941406 7
-0.015274 13.438965 18.786133 7
0.025787 15.441895 16.573242 7
0.011536 15.617188 16.601562 7
0.020408999 15.589844 16.503906 7
0.021141 15.621094 16.463867 7
-0.065825999 18.170898 14.938477 7
-0.061615001 18.169922 14.87207 7
-0.060295001 18.191406 14.821289 7
-0.058394998 18.208008 14.768555 7
-0.26857799 -6.6040039 -21.5 7
-0.27048501 -6.6630859 -21.500977 7
-0.28383601 -6.7529302 -21.608398 7
-0.29296899 -6.8320308 -21.675781 7
-0.30271101 -6.9130859 -21.749023 7
-0.32028201 -7.016602 -21.893555 7
-0.33665499 -7.117188 -22.027344 7
-0.33313799 -7.1611328 -21.976562 7
-0.169083 -9.1787109 -19.46875 7
-0.17401899 -9.2460938 -19.490234 7
-0.18441001 -9.3359385 -19.558594 7
-0.19842499 -9.4404297 -19.658203 7
-0.20215601 -9.503418 -19.666016 7
-0.206779 -11.893555 -18.384766 7
-0.209938 -11.95459 -18.380859 7
-0.207634 -11.988281 -18.332031 7
-0.21381401 -12.064941 -18.352539 7
-0.405655 -15.438477 -18.143555 7
-0.41612199 -15.545898 -18.18457 7
-0.420517 -15.616699 -18.178711 7
-0.415802 -15.633789 -18.106445 7
-0.41168201 -15.653809 -18.038086 7
-0.51496899 -17.36377 -17.822266 7
-0.52485698 -17.47168 -17.850586 7
-0.51040602 -17.422363 -17.706055 7
-0.50933802 -17.458984 -17.65625 7
-0.50096101 -17.448242 -17.554688 7
-0.63055402 -19.461426 18.658203 7
-0.63501 -19.451172 18.730469 7
-0.640167 -19.40332 18.854492 7
-0.027084 12.679199 17.902344 7
-0.042442001 12.807129 17.987305 7
-0.026192 12.75293 17.837891 7
-0.021095 12.762695 17.770508 7
-0.020331999 12.797363 17.736328 7
-0.013382 12.795898 17.65625 7
0.0044940002 14.853516 15.672852 7
-0.001869 15.000488 15.612305 7
0.0093839997 14.95752 15.504883 7
0.0045850002 15.024902 15.501953 7
-0.097571999 17.559082 14.055664 7
-0.093108997 17.555664 13.991211 7
-0.083733 17.513672 13.899414 7
-0.078048997 17.500488 13.828125 7
-0.077278003 17.524902 13.783203 7
-0.15230601 -8.2470703 -18.209961 7
-0.15046699 -8.2866211 -18.174805 7
-0.16149101 -8.3710938 -18.246094 7
-0.169304 -8.4453115 -18.290039 7
-0.18225101 -8.5385742 -18.376953 7
-0.18042 -8.5771484 -18.34082 7
-0.186409 -10.951172 -17.110352 7
-0.202637 -11.068848 -17.208008 7
-0.188568 -11.046875 -17.073242 7
-0.191902 -11.10498 -17.071289 7
-0.38916001 -14.663574 -16.632812 7
-0.38412499 -14.676758 -16.5625 7
-0.48608401 -16.344727 -16.271484 7
-0.48556501 -16.382324 -16.229492 7
-0.48117101 -16.39502 -16.160156 7
-0.481323 -16.436523 -16.121094 7
-0.48275799 -16.485352 -16.09082 7
-0.028015001 11.935059 16.916016 7
-0.022621 11.942871 16.850586 7
-0.020508001 11.968262 16.80957 7
-0.038826 12.10498 16.90918 7
-0.020912001 12.044434 16.757812 7
-0.018805999 12.069824 16.71582 7
-0.014076 12.080566 16.65625 7
0.0031659999 14.104492 14.6875 7
-0.0026090001 14.174316 14.69043 7
-0.0062790001 14.261719 14.646484 7
0.00041199999 14.25 14.574219 7
0.0064539998 14.242676 14.505859 7
-0.0091549996 14.376465 14.566406 7
-0.089171998 16.647461 12.975586 7
-0.099486999 16.750977 12.989258 7
-0.101952 16.797363 12.962891 7
-0.098540999 16.799805 12.90625 7
-0.091216996 16.773926 12.831055 7
-0.085845999 16.762207 12.766602 7
-0.076560996 16.721191 12.681641 7
-0.077721 16.757324 12.648438 7
-0.074965999 16.76416 12.59668 7
-0.089194998 16.896973 12.62793 7
-0.25644699 -4.9672852 -19.064453 7
-0.26813501 -5.0874019 -19.136719 7
-0.28601101 -5.269043 -19.245117 7
-0.28270701 -5.3100591 -19.205078 7
-0.14856 -7.5488281 -17.195312 7
-0.14253201 -7.5722661 -17.128906 7
-0.149422 -7.6381841 -17.165039 7
-0.171379 -7.7973628 -17.299805 7
-0.174202 -7.8500981 -17.302734 7
-0.161018 -9.9833984 -16.057617 7
-0.165894 -10.044434 -16.068359 7
-0.1735 -10.116699 -16.099609 7
-0.155876 -10.081055 -15.944336 7
-0.168938 -10.177734 -16.015625 7
-0.179276 -10.263672 -16.067383 7
-0.196426 -10.378906 -16.167969 7
-0.184265 -10.366699 -16.053711 7
-0.187782 -10.421875 -16.053711 7
-0.199478 -10.51416 -16.113281 7
-0.38543701 -13.825684 -15.624023 7
-0.39924601 -13.939453 -15.680664 7
-0.38978601 -13.927246 -15.584961 7
-0.381699 -13.921875 -15.498047 7
-0.39756799 -14.046875 -15.567383 7
-0.48570299 -15.699219 -15.041992 7
-0.014801 11.281738 15.953125 7
-0.025459001 11.476074 15.919922 7
-0.015845999 13.479492 14.063477 7
-0.018494001 13.525879 14.047852 7
-0.024605 13.594238 14.051758 7
-0.025855999 13.631836 14.027344 7
-0.013947 13.588379 13.927734 7
-0.0082780002 13.583984 13.865234 7
-0.014381 13.651367 13.868164 7
-0.032272 13.792969 13.9375 7
-0.01413 13.710449 13.804688 7
-0.009842 13.712891 13.749023 7
-0.011787 13.754883 13.728516 7
-0.089377999 16.122559 11.813477 7
-0.087181002 16.132324 11.766602 7
-0.089798003 16.175781 11.740234 7
-0.152657 -6.8095698 -16.313477 7
-0.137703 -6.8476558 -16.166992 7
-0.126976 -6.8564448 -16.070312 7
-0.129227 -6.9038091 -16.069336 7
-0.13794699 -6.9702148 -16.117188 7
-0.14205199 -9.3051758 -14.963867 7
-0.147926 -9.3666992 -14.981445 7
-0.138634 -9.3666992 -14.893555 7
-0.14524101 -9.4306641 -14.916016 7
-0.152557 -9.4990234 -14.944336 7
-0.165665 -9.5898438 -15.010742 7
-0.160706 -9.6074219 -14.953125 7
-0.158638 -9.6367188 -14.916016 7
-0.16667899 -9.7075195 -14.947266 7
-0.17617001 -9.7851562 -14.989258 7
-0.174835 -9.8178711 -14.956055 7
-0.177094 -9.8642578 -14.946289 7
-0.46379101 -14.763184 -13.919922 7
-0.45666501 -14.757812 -13.842773 7
-0.45678699 -14.793457 -13.807617 7
-0.46429399 -14.905273 -13.77832 7
-0.51469398 -17.41748 13.136719 7
-0.51849401 -17.414062 13.193359 7
-0.52526897 -17.429199 13.264648 7
-0.52534503 -17.400879 13.305664 7
-0.52241498 -17.354004 13.333008 7
-0.033996999 10.882812 15.158203 7
-0.011917 12.961426 13.063477 7
-0.003731 12.94043 12.990234 7
0.0022509999 12.933594 12.929688 7
-0.013023 13.051758 12.979492 7
-0.015099 13.091309 12.959961 7
-0.0091089997 13.083984 12.899414 7
-0.00093099999 13.0625 12.826172 7
-0.100876 15.414551 11.094727 7
-0.105133 15.467285 11.077148 7
-0.099891998 15.455566 11.019531 7
-0.093918003 15.437988 10.958984 7
-0.090134002 15.435547 10.907227 7
-0.13134 -6.1801758 -15.274414 7
-0.117722 -6.1811519 -15.160156 7
-0.118561 -6.222168 -15.151367 7
-0.120926 -6.2670898 -15.152344 7
-0.12556501 -6.3183589 -15.170898 7
-0.13401 -6.3803711 -15.214844 7
-0.124908 -8.6557617 -14.00293 7
-0.125008 -8.6918945 -13.982422 7
-0.117455 -8.6987305 -13.912109 7
-0.128998 -8.777832 -13.96582 7
-0.13672601 -8.8427734 -13.995117 7
-0.15361001 -8.9428711 -14.083984 7
-0.13462099 -8.9057617 -13.9375 7
-0.14158601 -8.9682617 -13.961914 7
-0.147789 -9.027832 -13.980469 7
-0.163155 -9.1235352 -14.058594 7
-0.157143 -9.1357422 -13.99707 7
-0.162582 -9.1928711 -14.009766 7
-0.16649599 -9.2436523 -14.012695 7
-0.355423 -12.425781 -13.40918 7
-0.35476699 -12.457031 -13.375977 7
-0.440063 -14.058594 -12.726562 7
-0.035606001 10.395508 14.361328 7
-0.028496001 10.393066 14.296875 7
-0.027618 10.419922 14.267578 7
-0.028275 10.453125 14.24707 7
-0.023506001 10.461914 14.196289 7
-0.021842999 10.484375 14.163086 7
-0.022514001 10.517578 14.142578 7
-0.017967001 12.529297 12.212891 7
-0.016295999 12.545898 12.175781 7
-0.094971001 14.757324 10.212891 7
-0.104874 14.84375 10.217773 7
-0.1063 14.874023 10.188477 7
-0.103859 14.878906 10.143555 7
-0.096802004 14.854492 10.083008 7
-0.095138997 14.864746 10.042969 7
-0.088844001 14.844238 9.9833984 7
-0.090271004 14.874023 9.9550781 7
-0.227524 -2.6894529 -15.962891 7
-0.211533 -2.7119141 -15.841797 7
-0.205162 -2.7446289 -15.789062 7
-0.206825 -2.7866211 -15.793945 7
-0.21331 -2.8349609 -15.833008 7
-0.243256 -3.0336909 -16.016602 7
-0.25295299 -3.085938 -16.077148 7
-0.24337 -3.1142581 -16.000977 7
-0.120041 -5.519043 -14.399414 7
-0.110458 -5.5327148 -14.321289 7
-0.099266 -5.54248 -14.231445 7
-0.107384 -5.5986328 -14.273438 7
-0.109138 -5.6757808 -14.256836 7
-0.104744 -8.0097656 -13.097656 7
-0.110474 -8.0634766 -13.114258 7
-0.112167 -8.1030273 -13.105469 7
-0.101761 -8.1000977 -13.020508 7
-0.108307 -8.15625 -13.041016 7
-0.112427 -8.2045898 -13.046875 7
-0.131882 -8.3081055 -13.148438 7
-0.122284 -8.3071289 -13.068359 7
-0.33819601 -11.730957 -12.454102 7
-0.338303 -11.763184 -12.425781 7
-0.33679199 -11.787598 -12.388672 7
-0.42982501 -13.360352 -11.779297 7
-0.42994699 -13.391602 -11.748047 7
-0.429245 -13.41748 -11.711914 7
-0.034752 9.7163086 13.745117 7
-0.034653001 9.7451172 13.72168 7
-0.035378002 9.7773438 13.703125 7
-0.030342 9.784668 13.65332 7
-0.026031001 9.8237305 13.584961 7
-0.020088 9.8549805 13.506836 7
-0.018340999 9.8764648 13.475586 7
-0.015778 9.8935547 13.439453 7
-0.010742 9.8994141 13.388672 7
-0.011513 11.890625 11.512695 7
-0.0056759999 11.883789 11.458984 7
0.000153 11.876465 11.40625 7
-0.0046390002 11.92627 11.399414 7
-0.015976001 12.011719 11.422852 7
-0.013412 12.021973 11.383789 7
-0.0083999997 12.018555 11.333984 7
-0.0042039999 12.019043 11.287109 7
-0.004921 12.046387 11.262695 7
-0.0097120004 12.09668 11.255859 7
-0.100594 14.285156 9.2607422 7
-0.094779998 14.26709 9.2070312 7
-0.088965997 14.249512 9.1542969 7
-0.088042997 14.263184 9.1191406 7
-0.091888003 14.324219 9.0654297 7
-0.097473003 14.37793 9.0498047 7
-0.223885 -2.2744141 -15.113281 7
-0.23323099 -2.3222661 -15.170898 7
-0.232445 -2.360352 -15.160156 7
-0.232491 -2.3994141 -15.154297 7
-0.234238 -2.4394529 -15.160156 7
-0.241051 -2.485352 -15.199219 7
-0.24110401 -2.523926 -15.193359 7
-0.23102599 -2.5517581 -15.118164 7
-0.099632002 -5.155273 -13.494141 7
-0.108223 -5.2441411 -13.522461 7
-0.11422 -5.2929692 -13.548828 7
-0.101593 -5.2983398 -13.454102 7
-0.121208 -7.6899409 -12.457031 7
-0.114502 -7.6992192 -12.398438 7
-0.120522 -7.7514648 -12.415039 7
-0.127388 -7.8066411 -12.436523 7
-0.130867 -7.8510742 -12.438477 7
-0.126709 -7.8686519 -12.394531 7
-0.131035 -7.9160161 -12.401367 7
-0.13196599 -7.9501948 -12.386719 7
-0.41987601 -12.812012 -10.897461 7
-0.42509499 -12.866211 -10.891602 7
-0.43640101 -12.977539 -10.880859 7
-0.44332901 -13.040039 -10.881836 7
-0.037399001 9.3276367 13.09668 7
-0.037308 9.3549805 13.074219 7
-0.037209 9.3823242 13.051758 7
-0.034522999 9.3984385 13.016602 7
-0.041328002 9.4555664 13.03125 7
-0.033463001 9.4501953 12.96875 7
-0.029053001 9.4584961 12.923828 7
-0.026366999 9.4746094 12.888672 7
-0.024544001 9.4936523 12.857422 7
-0.018417001 9.4941406 12.803711 7
-0.106186 -4.4838872 -12.949219 7
-0.10714 -4.5195308 -12.944336 7
-0.099197 -4.5371089 -12.883789 7
-0.096588001 -4.5654302 -12.855469 7
-0.086037003 -4.610352 -12.768555 7
-0.095886 -4.6635742 -12.817383 7
-0.104843 -4.714355 -12.861328 7
-0.109352 -4.7568359 -12.876953 7
-0.112083 -4.795898 -12.881836 7
-0.107201 -7.08252 -11.798828 7
-0.101929 -7.0976558 -11.751953 7
-0.101997 -7.1279302 -11.735352 7
-0.110107 -7.1835942 -11.763672 7
-0.101257 -7.186523 -11.695312 7
-0.106697 -7.233398 -11.708984 7
-0.113014 -7.2836909 -11.726562 7
-0.116661 -7.3256841 -11.729492 7
-0.12654901 -7.3876948 -11.767578 7
-0.126625 -7.4189448 -11.75 7
-0.119568 -7.42627 -11.692383 7
-0.124107 -7.4716802 -11.700195 7
-0.138466 -7.547852 -11.760742 7
-0.136757 -7.5732422 -11.733398 7
-0.13772599 -7.6069341 -11.719727 7
-0.32859001 -10.633789 -10.995117 7
-0.31616199 -10.609863 -10.90918 7
-0.31445301 -10.631348 -10.875 7
-0.317238 -10.671387 -10.862305 7
-0.31464401 -10.687988 -10.824219 7
-0.32727101 -10.770508 -10.859375 7
-0.32916301 -10.807129 -10.842773 7
-0.33193201 -10.84668 -10.829102 7
-0.416107 -12.213867 -10.21582 7
-0.42248499 -12.27002 -10.213867 7
-0.41181901 -12.246582 -10.137695 7
-0.416504 -12.321777 -10.099609 7
-0.41302499 -12.331543 -10.054688 7
-0.42837501 -12.431152 -10.091797 7
-0.021354999 8.9672852 12.313477 7
-0.021255 8.9921885 12.291992 7
-0.020256 9.0141602 12.266602 7
-0.019165 9.0615234 12.219727 7
-0.016357001 9.0751953 12.18457 7
-0.169884 -1.015137 -13.341797 7
-0.168999 -1.04834 -13.332031 7
-0.17838299 -1.121582 -13.384766 7
-0.174751 -1.189453 -13.356445 7
-0.081565998 -4.124023 -12.15918 7
-0.078835003 -4.1503911 -12.132812 7
-0.088271998 -4.230957 -12.167969 7
-0.09584 -4.3085942 -12.192383 7
-0.094031997 -4.3369141 -12.170898 7
-0.11274 -4.4042969 -12.270508 7
-0.087096997 -6.7695308 -11.023438 7
-0.089973003 -6.8061519 -11.021484 7
-0.106873 -6.8852539 -11.095703 7
-0.087379001 -6.8842769 -10.957031 7
-0.094070002 -6.9619141 -10.958984 7
-0.109108 -7.0366211 -11.023438 7
-0.19404601 -0.44872999 -12.795898 7
-0.171638 -0.50976598 -12.661133 7
-0.162872 -0.54052699 -12.607422 7
-0.161934 -0.57275403 -12.600586 7
-0.162949 -0.60595697 -12.604492 7
-0.16689301 -0.64013702 -12.626953 7
-0.171829 -0.67382801 -12.65332 7
-0.17382 -0.70752001 -12.663086 7
-0.176788 -0.74072301 -12.678711 7
-0.18367 -0.77587903 -12.716797 7
-0.194473 -0.81298798 -12.77832 7
-0.202332 -0.84863299 -12.822266 7
-0.20530701 -0.88281202 -12.836914 7
-0.195564 -0.91259801 -12.777344 7
-0.189735 -0.94287097 -12.740234 7
-0.075684004 -3.7626951 -11.512695 7
-0.075737 -3.79248 -11.50293 7
-0.077744 -3.8261721 -11.504883 7
-0.082703002 -3.8642581 -11.523438 7
-0.092560001 -3.9116211 -11.569336 7
-0.090645 -3.937988 -11.547852 7
-0.093879998 -6.456543 -10.452148 7
-0.086089998 -6.460938 -10.395508 7
-0.080269001 -6.4716802 -10.350586 7
-0.085243002 -6.5131841 -10.359375 7
-0.086296 -6.5439448 -10.349609 7
-0.100128 -6.6113281 -10.404297 7
-0.096259996 -6.6269531 -10.368164 7
-0.096329004 -6.6542969 -10.352539 7
-0.103279 -6.7016602 -10.371094 7
-0.29003099 -9.609375 -9.5566406 7
-0.30292499 -9.6850586 -9.5898438 7
-0.29118299 -9.6640615 -9.5146484 7
-0.29324299 -9.6967773 -9.5 7
-0.29135099 -9.7143555 -9.4677734 7
-0.292427 -9.7436523 -9.4492188 7
-0.29151899 -9.7651367 -9.421875 7
-0.299492 -9.8217773 -9.4326172 7
-0.30647999 -9.8745117 -9.4394531 7
-0.30952501 -9.9121094 -9.4287109 7
-0.388138 -11.226562 -8.7050781 7
-0.38330099 -11.228516 -8.6591797 7
-0.090301998 -3.23877 -11.131836 7
-0.089325003 -3.266113 -11.118164 7
-0.089371003 -3.2954099 -11.110352 7
-0.087371998 -3.3217771 -11.091797 7
-0.077187002 -3.335449 -11.027344 7
-0.075240999 -3.390625 -11.000977 7
-0.074271999 -3.417969 -10.987305 7
-0.077385001 -3.4506841 -10.995117 7
-0.084595002 -3.4907229 -11.025391 7
-0.075286999 -5.9858398 -9.9130859 7
-0.078429997 -6.0205078 -9.9140615 7
-0.082595997 -6.058105 -9.9199219 7
-0.091903999 -6.1088872 -9.9501953 7
-0.095046997 -6.1435552 -9.9511719 7
-0.092032999 -6.1616211 -9.9208984 7
-0.107704 -6.3085942 -9.9365234 7
-0.300751 -9.2924805 -9.0527344 7
-0.289581 -9.2988281 -8.9619141 7
-0.084953003 -2.9091799 -10.550781 7
-0.082892999 -2.9624021 -10.525391 7
-0.081863001 -2.98877 -10.512695 7
-0.076537997 -3.0092771 -10.477539 7
-0.076583996 -3.0366211 -10.470703 7
-0.077705003 -3.0649409 -10.467773 7
-0.078818999 -3.094727 -10.466797 7
-0.081017002 -3.125 -10.469727 7
-0.089661002 -3.164551 -10.506836 7
-0.083267003 -3.183594 -10.46582 7
-0.27934301 -8.949707 -8.2998047 7
-0.086189002 -2.566895 -10.09668 7
-0.082869999 -2.589844 -10.073242 7
-0.079552002 -2.612793 -10.050781 7
-0.072867997 -2.6313479 -10.010742 7
-0.077399999 -2.663574 -10.026367 7
-0.076316997 -2.6889651 -10.014648 7
-0.070762999 -2.7080081 -9.9794922 7
-0.069687001 -2.733398 -9.9677734 7
-0.077568002 -2.769531 -10 7
-0.078735001 -2.797363 -9.9990234 7
-0.078781001 -2.824219 -9.9921885 7
-0.086669996 -2.8608401 -10.024414 7
-0.079986997 -2.878418 -9.9833984 7
-0.055252001 -5.184082 -8.9384766 7
-0.058731001 -5.2397461 -8.9287109 7
-0.062164001 -5.2719731 -8.9316406 7
-0.061096001 -5.2939448 -8.9140615 7
-0.065711997 -5.3520508 -8.9082031 7
-0.072577998 -5.4165039 -8.9130859 7
-0.26173401 -8.3276367 -7.983398 7
-0.266312 -8.3652344 -7.9804692 7
-0.268639 -8.3950195 -7.969727 7
-0.26870701 -8.4165039 -7.9492192 7
-0.26878399 -8.4384766 -7.9287109 7
-0.27224001 -8.472168 -7.921875 7
-0.281342 -8.5249023 -7.9355469 7
-0.27576399 -8.5268555 -7.8945308 7
-0.27359 -8.5400391 -7.8642578 7
-0.27591699 -8.5698242 -7.8535161 7
-0.27599299 -8.5908203 -7.8320308 7
-0.281708 -8.6323242 -7.8330078 7
-0.065552004 -2.3095701 -9.5400391 7
-0.072646998 -2.367676 -9.5615234 7
-0.068047002 -2.414062 -9.5273438 7
-0.065750003 -2.436523 -9.5107422 7
-0.066955999 -2.4633789 -9.5107422 7
-0.067001 -2.48877 -9.5048828 7
-0.076401003 -2.5249021 -9.5439453 7
-0.073119998 -5.140625 -8.5029297 7
-0.075516 -5.168457 -8.5 7
-0.070885003 -5.1806641 -8.4677734 7
-0.072113 -5.2070308 -8.4609385 7
-0.075691 -5.237793 -8.4628906 7
-0.076920003 -5.2636719 -8.4560547 7
-0.082840003 -5.300293 -8.4677734 7
-0.081726 -5.320312 -8.4501953 7
-0.082953997 -5.3466802 -8.4433594 7
-0.091216996 -5.3881841 -8.4648438 7
-0.092453003 -5.414062 -8.4570312 7
-0.092505999 -5.4370122 -8.4443359 7
-0.273415 -8.315918 -7.3330078 7
-0.058563001 -2.2485349 -9.0400391 7
-0.058600999 -2.2724609 -9.0341797 7
-0.065955997 -2.304688 -9.0625 7
-0.058685001 -2.320801 -9.0234385 7
-0.062378 -2.3491211 -9.0341797 7
-0.067290999 -2.378906 -9.0517578 7
-0.072205 -2.4082029 -9.0683594 7
-0.075905003 -2.437012 -9.0791016 7
-0.067413002 -2.4511721 -9.0332031 7
-0.062560998 -2.469727 -9.0048828 7
-0.069916002 -2.5024409 -9.0322266 7
-0.065086 -2.5214839 -9.0039062 7
-0.062683001 -2.542969 -8.9873047 7
-0.066909999 -4.8188481 -8.1142578 7
-0.065742001 -4.8388672 -8.0976562 7
-0.068236999 -4.8657231 -8.0957031 7
-0.069510996 -4.8911128 -8.0898438 7
-0.064681999 -4.901855 -8.0566406 7
-0.069626004 -4.9345698 -8.0654297 7
-0.074561998 -4.9667969 -8.0732422 7
-0.073394999 -4.9863281 -8.0566406 7
-0.078339003 -5.0195308 -8.0644531 7
-0.080833003 -5.046875 -8.0625 7
-0.077225 -5.0610352 -8.0361328 7
-0.072388001 -5.0717769 -8.0039062 7
-0.24763501 -7.7270508 -7.0361328 7
-0.257568 -7.7973628 -7.032227 7
-0.24660499 -7.7817378 -6.976562 7
-0.25034299 -7.8129878 -6.9707031 7
-0.258995 -7.860352 -6.9814448 7
-0.25416601 -7.86377 -6.9462891 7
-0.25790399 -7.89502 -6.9394531 7
-0.25797299 -7.9150391 -6.920898 7
-0.26293901 -7.949707 -6.9179692 7
-0.267914 -7.9848628 -6.9150391 7
-0.25694999 -7.967773 -6.859375 7
-0.124359 10.632358 14.583057 7
-0.017189 -3.73627 -11.504865 7
-0.069741003 -2.2189231 -8.9524307 7
-0.31472901 -8.5576973 -7.760911 7
-0.37962699 -3.104944 -16.133871 7
-0.088844001 -2.4094059 -9.2794867 7
-0.099496 -5.1930771 -8.5344238 7
-0.26854599 -8.4417181 -7.619678 7
