# .PCD v0.7 - Point Cloud Data file format
VERSION 0.7
FIELDS x y z intensity
SIZE 4 4 4 4
TYPE F F F F
COUNT 1 1 1 1
WIDTH 919
HEIGHT 1
VIEWPOINT 0 0 0 1 0 0 0
POINTS 919
DATA ascii
1.390213 45.350098 -31.364258 7
1.270645 42.669434 -29.285156 7
1.258392 41.435547 -32.603516 7
0.451141 48.152344 56.017578 7
0.444626 50.960449 54.240234 7
1.186096 40.640137 -27.647461 7
1.179993 40.76709 -28.030273 7
0.302643 43.491699 55.620117 7
0.40530401 43.774414 50.766602 7
0.40438801 43.922363 50.699219 7
0.42161599 43.620117 50.128906 7
0.28379801 49.257324 52.179688 7
0.322083 48.391113 51.052734 7
0.35296601 47.712891 50.12793 7
0.38822901 46.915527 49.089844 7
1.095383 38.420898 -25.951172 7
1.086334 36.881348 -29.007812 7
0.28019699 39.262207 51.138672 7
0.258865 39.827148 51.611328 7
0.22520401 40.776367 52.313477 7
0.356812 40.652344 47.314453 7
0.35069299 40.904297 47.379883 7
0.30899 42.071777 48.245117 7
0.34108001 41.468262 47.355469 7
0.34526101 41.489746 47.163086 7
0.21656799 46.462891 48.696289 7
1.003082 37.029785 -24.915039 7
0.995377 37.214355 -25.179688 7
0.27728301 35.34082 46.573242 7
0.25732401 35.823242 46.967773 7
0.22958399 36.453125 47.544922 7
0.33334401 36.855957 43.394531 7
0.323746 37.152832 43.532227 7
0.328293 37.166504 43.347656 7
0.311371 38.48877 43.224609 7
0.33136001 38.181152 42.695312 7
0.333801 38.234863 42.55957 7
0.251221 42.272461 42.423828 7
0.26058999 42.170898 42.132812 7
0.28416401 41.755371 41.542969 7
0.92018098 35.390137 -23.390625 7
0.922409 35.273438 -23.433594 7
0.92106599 35.257324 -23.546875 7
0.214752 32.938477 43.520508 7
0.278961 35.877441 39.31543 7
0.29676801 35.635742 38.883789 7
0.30049101 35.65918 38.731445 7
0.23052999 39.162109 38.19043 7
0.24382 38.987305 37.854492 7
0.86196899 31.151367 -24.360352 7
0.21061701 29.636719 39.647461 7
0.17981 30.194824 40.179688 7
0.160217 30.584473 40.489258 7
0.243881 31.482422 37.268555 7
0.22912601 31.811035 37.470703 7
0.247467 31.600586 37.063477 7
0.236435 33.538086 36.001953 7
0.26300001 33.25 35.384766 7
0.187149 36.623047 34.829102 7
0.20535301 36.37207 34.444336 7
0.224731 36.098633 34.041992 7
0.225494 36.166016 33.949219 7
0.77438402 31.449707 -20.401367 7
-0.93113703 -39.685059 -59.080078 7
-0.870193 -39.043457 -57.800781 7
-0.94953901 -40.196289 -59.233398 7
-1.0296479 -41.365723 -60.674805 7
0.152603 27.768066 37.449219 7
0.13324 28.12207 37.730469 7
0.107574 28.563477 38.121094 7
0.204712 29.319336 34.99707 7
0.213791 29.26709 34.77832 7
0.207275 29.445801 34.823242 7
0.24807701 28.999512 34.006836 7
0.210632 31.48291 33.009766 7
0.228241 31.279785 32.65918 7
0.237808 31.203613 32.4375 7
0.238571 31.268066 32.355469 7
0.259781 31.00293 31.949219 7
0.170807 34.293945 31.573242 7
0.184494 34.13623 31.291992 7
0.199707 33.949707 30.989258 7
0.226028 33.571777 30.521484 7
0.70416301 30.049316 -19.089844 7
0.70709199 29.898438 -19.195312 7
-0.80941802 -33.888672 -52.120117 7
-0.85804701 -34.687012 -52.810547 7
-0.900482 -35.296387 -53.475586 7
-0.85150099 -34.859375 -52.518555 7
-0.90530401 -35.602051 -53.380859 7
-0.98431402 -36.641113 -54.686523 7
-0.67837501 -35.147949 -47.738281 7
-0.694794 -35.461426 -47.929688 7
-0.757568 -36.350098 -48.912109 7
-0.68206799 -35.527832 -47.535156 7
-0.860443 -40.28125 -48.425781 7
-0.91615301 -41.134277 -49.233398 7
-0.86303699 -40.541504 -48.267578 7
0.167419 27.716309 32.238281 7
0.179306 27.626953 31.993164 7
0.185776 27.611816 31.833008 7
0.192261 27.59668 31.672852 7
0.203293 27.518555 31.445312 7
0.209198 27.509766 31.293945 7
0.21935999 27.440918 31.080078 7
0.227539 27.398438 30.894531 7
0.22633401 27.488281 30.851562 7
0.189514 29.241699 30.455078 7
0.187195 29.347168 30.423828 7
0.209793 29.084961 30.030273 7
0.202667 29.26123 30.068359 7
0.21818499 29.101562 29.77832 7
0.23142999 28.975586 29.523438 7
0.137253 32.21582 29.050781 7
0.155838 31.991211 28.728516 7
0.175552 31.747559 28.392578 7
0.19526701 31.503418 28.057617 7
0.203125 31.444336 27.880859 7
-0.75970501 -30.291992 -47.785156 7
-0.79612702 -30.780762 -48.314453 7
-0.87490797 -31.711914 -49.546875 7
-0.91671801 -32.263672 -50.160156 7
-0.96719402 -32.908691 -50.914062 7
-0.604141 -31.197754 -43.387695 7
-0.66607702 -31.995117 -44.299805 7
-0.68550098 -32.317383 -44.52832 7
-0.74118 -33.051758 -45.334961 7
-0.70578003 -33.071777 -44.442383 7
-0.65510601 -32.695801 -43.478516 7
-0.94093299 -38.625977 -45.755859 7
-0.82981902 -37.355469 -43.991211 7
0.18054201 27.658203 28.037109 7
0.201233 27.437012 27.700195 7
0.216721 27.287109 27.43457 7
0.102631 30.649414 27.129883 7
0.113235 30.556641 26.930664 7
0.13417099 30.310547 26.605469 7
0.150223 30.135742 26.34082 7
0.158371 30.077148 26.173828 7
0.167114 30.007812 25.999023 7
0.57652301 27.351562 -17.042969 7
0.59342998 27.022949 -16.912109 7
-0.596268 -25.009766 -41.894531 7
-0.62715101 -25.388184 -42.30957 7
-0.66032398 -25.790039 -42.759766 7
-0.69253498 -26.18457 -43.192383 7
-0.718216 -26.521973 -43.522461 7
-0.75663799 -26.977539 -44.047852 7
-0.789505 -27.384766 -44.485352 7
-0.83738703 -27.933594 -45.151367 7
-0.53382897 -27.014648 -39.181641 7
-0.54846197 -27.253418 -39.331055 7
-0.55360401 -27.397949 -39.338867 7
-0.58032203 -27.759766 -39.666016 7
-0.54421997 -28.678711 -38.15332 7
-0.56637597 -29.002441 -38.401367 7
-0.787552 -33.82373 -39.492188 7
-0.75926203 -33.68457 -38.936523 7
0.164001 25.722656 25.922852 7
0.187149 25.487305 25.584961 7
0.205643 25.311035 25.305664 7
0.194214 25.516113 25.385742 7
0.221542 25.281738 24.943359 7
0.121353 28.391113 24.212891 7
0.138138 28.216797 23.964844 7
0.149628 28.114258 23.775391 7
0.159775 28.029297 23.600586 7
0.16595501 27.998047 23.46875 7
0.52931201 25.773926 -15.723633 7
0.534576 25.614258 -15.791992 7
-0.55259699 -22.050781 -38.512695 7
-0.57218897 -22.300781 -38.741211 7
-0.606888 -22.675293 -39.1875 7
-0.63597101 -23.006836 -39.551758 7
-0.65978998 -23.29541 -39.837891 7
-0.68641698 -23.609863 -40.164062 7
-0.725357 -24.027344 -40.665039 7
-0.486664 -24.060547 -35.898438 7
-0.49076799 -24.183594 -35.895508 7
-0.51989698 -24.533203 -36.239258 7
-0.55079699 -24.900879 -36.604492 7
-0.51721197 -26.285645 -34.875977 7
-0.492706 -26.129883 -34.483398 7
-0.51730299 -26.452148 -34.746094 7
-0.703049 -30.677734 -35.18457 7
-0.68450898 -30.563965 -34.875977 7
-1.995926 -51.956055 42.373047 7
0.16011 24.105469 23.963867 7
0.1689 24.055664 23.811523 7
0.184158 23.928223 23.588867 7
0.19223 23.885742 23.445312 7
0.18630999 24.010254 23.455078 7
0.200836 23.889648 23.242188 7
0.20283499 23.918945 23.166016 7
0.120987 26.72168 22.068359 7
0.134048 26.603027 21.87793 7
0.141403 26.558105 21.744141 7
0.151962 26.471191 21.579102 7
-0.57176203 -19.728516 -35.951172 7
-0.582672 -19.893066 -36.047852 7
-0.60621601 -20.149902 -36.31543 7
-0.636917 -20.546875 -36.625 7
-0.66390997 -20.83252 -36.93457 7
-0.68783599 -21.097656 -37.203125 7
-0.441055 -21.199219 -32.683594 7
-0.46923801 -21.506836 -32.995117 7
-0.43418899 -21.300293 -32.490234 7
-0.465042 -21.630371 -32.833984 7
-0.507797 -22.058594 -33.328125 7
-0.47190899 -23.84082 -31.341797 7
-0.44751 -23.695801 -30.983398 7
-0.48268101 -24.088379 -31.355469 7
-0.65910298 -27.936523 -31.599609 7
-0.657013 -27.991211 -31.506836 7
-0.631805 -27.816895 -31.148438 7
0.149536 22.524902 22.083008 7
0.158676 22.474121 21.939453 7
0.171692 22.379883 21.757812 7
0.176147 22.380371 21.662109 7
0.194565 22.321289 21.325195 7
0.112823 25.077637 20.047852 7
0.12619001 24.961426 19.871094 7
0.13627601 24.929688 19.666992 7
0.42304999 23.283691 -13.824219 7
0.43055701 23.149414 -13.81543 7
0.419983 23.254395 -13.963867 7
0.42527801 23.149902 -13.972656 7
-0.51136798 -17.501953 -33.141602 7
-0.53074598 -17.708496 -33.344727 7
-0.55052203 -17.917969 -33.551758 7
-0.57194501 -18.140625 -33.779297 7
-0.460724 -20.067383 -30.728516 7
-0.42982501 -19.905762 -30.305664 7
-0.41120899 -19.835938 -30.03125 7
-0.40689099 -19.875488 -29.930664 7
-0.40135199 -19.903809 -29.813477 7
-0.38433799 -19.844727 -29.560547 7
-0.36366299 -19.755371 -29.263672 7
-0.35607901 -19.76709 -29.124023 7
-0.33947799 -19.707031 -28.875977 7
-0.396988 -21.487305 -28.585938 7
-0.42832899 -21.818359 -28.895508 7
-0.47319001 -22.263672 -29.358398 7
-0.44427499 -22.091309 -28.970703 7
-0.64881903 -26.210449 -29.296875 7
-0.63488799 -26.220703 -29.017578 7
-0.623169 -26.181152 -28.828125 7
0.13145401 21.52002 20.72168 7
0.15794399 21.334961 20.375977 7
0.063904002 24.211426 19.073242 7
0.072356999 24.158203 18.948242 7
0.084945999 24.057129 18.789062 7
0.092987001 24.007812 18.667969 7
0.104736 23.915039 18.516602 7
0.111115 23.883301 18.40918 7
0.38754299 22.321777 -12.875 7
0.38253799 22.351562 -12.96875 7
0.379105 22.361328 -13.049805 7
0.39027399 22.189453 -13.012695 7
-0.46037301 -15.193359 -30.404297 7
-0.46539301 -15.296387 -30.425781 7
-0.48008701 -15.455078 -30.5625 7
-0.50797999 -15.692383 -30.856445 7
-0.52136201 -15.845703 -30.976562 7
-0.510544 -15.855957 -30.807617 7
-0.364777 -19.043457 -26.53125 7
-0.356552 -19.045898 -26.395508 7
-0.34832799 -19.047852 -26.258789 7
-0.348068 -19.109863 -26.208984 7
-0.33805799 -19.096191 -26.052734 7
-0.33337399 -19.124023 -25.955078 7
-0.37336701 -19.683105 -26.195312 7
-0.40625 -20.000488 -26.5 7
-0.38476601 -19.898438 -26.220703 7
-0.59968603 -24.01709 -26.453125 7
-0.596771 -24.055176 -26.365234 7
-0.592529 -24.081543 -26.263672 7
-1.269333 -34.697266 28.504883 7
-1.283585 -34.775391 28.698242 7
-1.213425 -32.009766 30.551758 7
-1.255142 -32.332031 30.986328 7
0.103592 18.344238 21.353516 7
0.108215 18.350586 21.266602 7
0.117325 18.317383 21.137695 7
0.10939 18.436035 21.171875 7
0.106827 18.506348 21.154297 7
0.124359 20.239746 19.212891 7
0.15415999 20.032227 18.865234 7
0.153427 20.08252 18.826172 7
0.141068 20.246582 18.884766 7
0.154617 20.154785 18.722656 7
0.161026 20.133301 18.623047 7
0.065002002 22.875 17.270508 7
0.075851001 22.796387 17.137695 7
0.084014997 22.74707 17.025391 7
0.093520999 22.682129 16.902344 7
0.097259998 22.679688 16.823242 7
0.33895901 21.348145 -11.914062 7
0.34761 21.217773 -11.900391 7
0.34687799 21.196289 -11.956055 7
0.33760101 21.272461 -12.076172 7
0.352341 21.041016 -12.067383 7
-0.422501 -13.584473 -28.154297 7
-0.344208 -18.07959 -24.241211 7
-0.36512801 -18.289062 -24.407227 7
-0.36387599 -18.339355 -24.350586 7
-0.36734 -18.423828 -24.339844 7
-0.60473597 -22.569336 -24.685547 7
-0.58314502 -22.453613 -24.430664 7
-0.58046001 -22.490234 -24.350586 7
-0.58441198 -22.582031 -24.332031 7
0.12741099 19.256348 17.669922 7
0.138992 19.186523 17.53418 7
0.14820901 19.13916 17.417969 7
0.046112001 21.831055 16.051758 7
0.048172001 21.845703 15.987305 7
0.059737999 21.762695 15.858398 7
0.067505002 21.71875 15.755859 7
0.075255997 21.674316 15.654297 7
0.074478 21.717773 15.609375 7
0.30867001 20.260742 -11.204102 7
0.30282599 20.294434 -11.291992 7
0.298599 18.383301 -14.104492 7
0.304611 18.288574 -14.098633 7
0.31381199 18.163086 -14.06543 7
-0.30995199 -16.375 -22.293945 7
-0.29995701 -16.363281 -22.15918 7
-0.31277499 -16.502441 -22.240234 7
-0.34030199 -16.739746 -22.458008 7
-0.321686 -16.670898 -22.243164 7
-0.34161401 -16.858398 -22.387695 7
-0.54235798 -20.584473 -22.279297 7
-0.534531 -20.633301 -22.112305 7
-0.54942298 -20.799805 -22.189453 7
-1.043365 -28.45752 23.400391 7
-1.051254 -28.475098 23.520508 7
-0.98245198 -25.74707 25.508789 7
0.128342 18.186035 16.25 7
0.135635 18.157715 16.15625 7
0.048264001 20.541504 14.692383 7
0.036162999 20.690918 14.719727 7
0.039368 20.692383 14.652344 7
0.044631999 20.674316 14.573242 7
0.051406998 20.640625 14.484375 7
0.056136999 20.626953 14.407227 7
0.27993801 19.17041 -10.34375 7
0.27560401 19.186523 -10.416992 7
0.273743 19.178223 -10.474609 7
0.28614801 19.026367 -10.441406 7
0.28183001 19.04248 -10.514648 7
-0.37706 -10.482422 -24.394531 7
-0.38313299 -10.566895 -24.428711 7
-0.39190701 -10.664062 -24.491211 7
-0.414139 -10.816406 -24.685547 7
-0.43044999 -10.944336 -24.820312 7
-0.440292 -11.047363 -24.891602 7
-0.42050201 -11.023926 -24.666016 7
-0.26255801 -12.572754 -21.953125 7
-0.257294 -12.599609 -21.87207 7
-0.26226801 -12.679688 -21.887695 7
-0.29713401 -15.082031 -20.772461 7
-0.28968799 -15.087402 -20.669922 7
-0.29090899 -15.146484 -20.644531 7
-0.306732 -15.293945 -20.746094 7
-0.32800299 -15.475586 -20.895508 7
-0.30700701 -15.397461 -20.673828 7
-0.31906101 -15.522949 -20.741211 7
-0.53704798 -19.318848 -20.62793 7
-0.52741998 -19.300781 -20.503906 7
-0.53080702 -19.375 -20.484375 7
-0.879807 -23.194336 23.422852 7
-0.86030602 -22.994629 23.336914 7
-0.89103699 -23.174316 23.613281 7
0.064758003 15.422852 17.888672 7
0.073775999 15.435547 17.748047 7
0.077179 15.449707 17.686523 7
0.080611996 15.463867 17.625 7
0.093947999 17.301758 15.537109 7
0.114975 17.194336 15.31543 7
0.035080001 19.725098 13.335938 7
0.039581001 19.712402 13.265625 7
0.041901 19.720215 13.208008 7
0.036605999 19.79834 13.191406 7
0.243622 18.213379 -9.8056641 7
0.24371301 18.186035 -9.8486328 7
-0.32557699 -8.956543 -22.558594 7
-0.32513401 -9.0107422 -22.532227 7
-0.339066 -9.1171885 -22.640625 7
-0.235535 -11.344727 -20.407227 7
-0.234512 -11.390137 -20.370117 7
-0.24961901 -11.512207 -20.476562 7
-0.26416001 -11.631836 -20.578125 7
-0.27581799 -11.73877 -20.65332 7
-0.26442 -11.734863 -20.522461 7
-0.253189 -13.830566 -19.041992 7
-0.272385 -13.987305 -19.167969 7
-0.29390001 -14.157715 -19.3125 7
-0.27436799 -14.09375 -19.116211 7
-0.28315699 -14.190918 -19.15332 7
-0.30004901 -14.335938 -19.258789 7
-0.50624102 -17.987793 -18.920898 7
-0.50173998 -18.004395 -18.84375 7
-0.50071698 -18.043457 -18.792969 7
-0.52055401 -18.224121 -18.897461 7
-0.59684801 -19.857422 -18.345703 7
-0.620193 -20.069336 -18.461914 7
-0.78471398 -23.103027 19.083984 7
-0.794846 -23.139648 19.199219 7
-0.77046198 -20.794434 21.527344 7
-0.77346802 -20.768066 21.59668 7
-0.77293402 -20.668457 21.69043 7
0.056519002 14.503906 16.900391 7
0.055466 14.54834 16.875 7
0.059677001 14.556641 16.810547 7
0.059372 14.613281 16.797852 7
0.068832003 14.584473 16.696289 7
0.073624 14.588379 16.62793 7
0.076095998 14.60791 16.577148 7
0.083801001 14.59082 16.489258 7
0.072235003 14.70752 16.538086 7
0.106384 16.34668 14.30957 7
0.109421 16.353516 14.25293 7
0.093231 16.512695 14.31543 7
0.099762 16.492188 14.237305 7
0.107452 16.461914 14.151367 7
0.10408 16.519043 14.133789 7
0.100128 16.582031 14.120117 7
0.0095210001 18.899902 12.411133 7
0.011978 18.90625 12.355469 7
0.017914001 18.881348 12.282227 7
0.032104 18.80957 12.125 7
0.031647 18.839844 12.083008 7
0.209686 17.495117 -8.9716797 7
0.210342 17.46582 -9.0087891 7
0.201996 17.515625 -9.0947266 7
0.21167 17.40625 -9.0849609 7
0.215149 17.350586 -9.1074219 7
0.21130399 17.360352 -9.1699219 7
0.20463599 17.394531 -9.2480469 7
0.211487 17.30957 -9.2509766 7
-0.36561599 -8.0737305 -21.702148 7
-0.370621 -8.1430664 -21.726562 7
-0.34816 -8.1245117 -21.504883 7
-0.35133401 -8.1884766 -21.512695 7
-0.35879499 -8.2661133 -21.55957 7
-0.388336 -8.4702148 -21.78125 7
-0.398224 -8.5556641 -21.847656 7
-0.29284701 -13.27002 -18.133789 7
-0.26719701 -13.176758 -17.900391 7
-0.283279 -13.308594 -17.994141 7
-0.29812601 -13.434082 -18.077148 7
-0.50468397 -16.963867 -17.693359 7
-0.497437 -16.961914 -17.601562 7
-0.58476299 -18.567383 -17.169922 7
-0.60766602 -18.76416 -17.277344 7
-0.612122 -18.836914 -17.261719 7
-0.59991503 -18.797852 -17.135742 7
-0.59697002 -18.819824 -17.070312 7
-0.59585601 -18.85498 -17.017578 7
-0.70172101 -19.197754 19.880859 7
-0.70175201 -19.153809 19.926758 7
-0.73584002 -19.291992 20.236328 7
-0.71318102 -19.097168 20.135742 7
0.050934002 13.771973 15.999023 7
0.052276999 13.79834 15.958008 7
0.046799 13.868164 15.962891 7
0.048767 13.890625 15.917969 7
0.05632 13.875977 15.834961 7
0.057677999 13.901367 15.793945 7
0.062134001 13.907715 15.733398 7
0.077698 15.860352 13.407227 7
0.08461 15.836914 13.332031 7
0.092133 15.808105 13.25293 7
0.073729999 15.976562 13.319336 7
-0.011078 18.177734 11.499023 7
-0.0035550001 18.140137 11.422852 7
0.001511 18.122559 11.358398 7
0.0041049998 18.125977 11.305664 7
0.010376 18.097168 11.234375 7
0.0086669996 18.135742 11.200195 7
-0.225677 -9.3144531 -18.176758 7
-0.22642501 -9.3632812 -18.161133 7
-0.221985 -9.390625 -18.101562 7
-0.21363799 -9.4038086 -18.011719 7
-0.20724501 -9.4233398 -17.936523 7
-0.21516401 -9.4985352 -17.976562 7
-0.225693 -9.5859385 -18.037109 7
-0.23587 -11.852051 -16.772461 7
-0.23858599 -11.907227 -16.763672 7
-0.225647 -11.884766 -16.637695 7
-0.236191 -11.979004 -16.6875 7
-0.246094 -12.069824 -16.731445 7
-0.24371301 -12.141602 -16.655273 7
-0.25556901 -12.243164 -16.712891 7
-0.27539101 -12.426758 -16.797852 7
-0.277435 -12.478516 -16.782227 7
-0.46720901 -15.762695 -16.257812 7
-0.469284 -15.815918 -16.233398 7
-0.463516 -15.820801 -16.15625 7
-0.46167001 -15.850098 -16.105469 7
-0.46766701 -15.92627 -16.106445 7
0.03627 13.202637 15.054688 7
0.051543999 13.141113 14.927734 7
0.056915 13.140625 14.863281 7
0.058990002 13.159668 14.820312 7
0.065033004 13.153809 14.751953 7
0.060867 13.257324 14.730469 7
0.063216999 15.132324 12.621094 7
0.071213 15.102539 12.544922 7
-0.01236 17.310547 10.533203 7
-0.014847 17.353027 10.503906 7
-0.014725 17.374023 10.462891 7
-0.0093689999 17.354004 10.401367 7
-0.00074799999 17.307617 10.325195 7
0.0026400001 17.302246 10.271484 7
-0.305435 -6.1479492 -18.946289 7
-0.313095 -6.214355 -18.993164 7
-0.32280001 -6.2861328 -19.055664 7
-0.35673499 -6.516602 -19.282227 7
-0.36987299 -6.5986328 -19.371094 7
-0.37547299 -6.6621089 -19.400391 7
-0.22331201 -8.6586914 -17.166992 7
-0.19796801 -8.6088867 -16.951172 7
-0.207794 -8.7299805 -16.983398 7
-0.217529 -8.8081055 -17.035156 7
-0.230698 -8.8999023 -17.114258 7
-0.226685 -8.9282227 -17.061523 7
-0.206039 -11.059082 -15.584961 7
-0.235199 -11.274414 -15.736328 7
-0.25321999 -11.397461 -15.833984 7
-0.246429 -11.405762 -15.758789 7
-0.243774 -11.432129 -15.711914 7
-0.55558801 -16.695312 -14.549805 7
-0.57023603 -16.821289 -14.59375 7
-0.56135601 -16.803711 -14.501953 7
-0.560776 -16.836426 -14.458008 7
0.027267 12.600586 14.335938 7
0.040603999 12.553711 14.227539 7
0.048354998 12.539062 14.15332 7
0.051238999 12.552246 14.107422 7
0.039352 14.483887 12.112305 7
0.042236 14.489258 12.063477 7
0.066147 14.403809 11.84668 7
0.055160999 14.504395 11.867188 7
0.053192001 14.542969 11.84375 7
-0.0049129999 16.623535 9.4130859 7
0.002106 16.589355 9.3486328 7
-0.178711 -7.780273 -15.918945 7
-0.175171 -7.8085942 -15.874023 7
-0.18107601 -7.8686519 -15.897461 7
-0.197174 -7.9628911 -15.995117 7
-0.190689 -10.297363 -14.581055 7
-0.201736 -10.382812 -14.629883 7
-0.21278401 -10.468262 -14.677734 7
-0.20922901 -10.489258 -14.62793 7
-0.20057701 -10.488281 -14.544922 7
-0.43148801 -14.015625 -14.030273 7
-0.431595 -14.05127 -13.99707 7
-0.42948899 -14.075684 -13.951172 7
-0.53242499 -15.761719 -13.378906 7
-0.52519202 -15.75293 -13.301758 7
-0.52383399 -15.779297 -13.256836 7
-0.51586902 -15.766113 -13.175781 7
0.055023 13.771484 11.18457 7
0.062454 13.746094 11.118164 7
0.06842 13.730469 11.058594 7
0.071471997 13.735352 11.014648 7
0.060562 13.82959 11.032227 7
0.059204001 13.861328 11.005859 7
0.063689999 13.854492 10.953125 7
0.072600998 13.819336 10.881836 7
-0.006577 15.887207 8.5976562 7
-0.0050050002 15.893555 8.5556641 7
-0.00563 15.915527 8.5205078 7
-0.011368 15.974609 8.5029297 7
-0.25204501 -4.1967769 -16.71875 7
-0.249832 -4.235352 -16.692383 7
-0.25300601 -4.2832031 -16.704102 7
-0.255402 -4.3295898 -16.710938 7
-0.253952 -4.3691411 -16.689453 7
-0.26324499 -4.4282231 -16.74707 7
-0.15919501 -6.9902339 -14.993164 7
-0.154663 -7.014648 -14.944336 7
-0.18040501 -7.2446289 -15.050781 7
-0.18279999 -7.2905269 -15.049805 7
-0.174744 -9.6010742 -13.668945 7
-0.196426 -9.7241211 -13.782227 7
-0.17955001 -9.6904297 -13.652344 7
-0.181183 -9.7314453 -13.638672 7
-0.19053601 -9.8051758 -13.673828 7
-0.200653 -9.8823242 -13.713867 7
-0.411484 -13.153809 -13.09375 7
-0.410034 -13.179199 -13.052734 7
-0.425598 -13.291992 -13.107422 7
-0.416412 -13.278809 -13.025391 7
-0.421143 -13.335449 -13.018555 7
-0.41892999 -13.35791 -12.974609 7
-0.50602698 -14.762695 -12.454102 7
-0.50689697 -14.799316 -12.422852 7
-0.51086402 -14.852539 -12.407227 7
-0.52566499 -14.966309 -12.446289 7
-0.51571703 -14.942871 -12.359375 7
-0.50961298 -14.94043 -12.292969 7
-0.514359 -14.999023 -12.282227 7
-0.51367199 -15.026367 -12.242188 7
0.031052001 11.40625 12.78418 7
0.035018999 11.412109 12.736328 7
0.035889 11.435547 12.707031 7
0.037551999 11.453125 12.671875 7
0.040741 11.463379 12.628906 7
0.047821 11.451172 12.564453 7
0.047913 11.478027 12.538086 7
0.049561001 11.495605 12.50293 7
0.046721999 13.187012 10.545898 7
0.045272999 13.217285 10.521484 7
0.054657001 13.181152 10.451172 7
0.061737001 13.15918 10.391602 7
0.061829001 13.179688 10.359375 7
0.059601001 13.215332 10.338867 7
0.0504 13.293945 10.34668 7
0.055160999 13.286133 10.295898 7
0.059113 13.283203 10.249023 7
-0.033447001 15.355957 7.9775391 7
-0.030258 15.349609 7.9316411 7
-0.023193 15.316895 7.875977 7
-0.022307999 15.326172 7.8378911 7
-0.019119 15.320312 7.7939448 7
-0.017471001 15.32373 7.7529302 7
-0.018921001 15.349121 7.7207031 7
-0.239182 -3.550293 -15.742188 7
-0.241699 -3.59375 -15.750977 7
-0.243423 -3.636719 -15.753906 7
-0.249176 -3.6850591 -15.78418 7
-0.25979599 -3.741699 -15.849609 7
-0.26879901 -3.795898 -15.902344 7
-0.13479599 -6.2553711 -14.072266 7
-0.13812301 -6.3007808 -14.079102 7
-0.14236499 -6.382812 -14.074219 7
-0.157974 -6.4985352 -14.145508 7
-0.157242 -6.532227 -14.125 7
-0.16406199 -8.9711914 -12.833008 7
-0.180435 -9.0678711 -12.910156 7
-0.168304 -9.0537109 -12.81543 7
-0.170837 -9.0961914 -12.808594 7
-0.17581201 -9.1484385 -12.81543 7
-0.18486001 -9.2167969 -12.847656 7
-0.18656901 -9.2568359 -12.835938 7
-0.501526 -14.146973 -11.449219 7
-0.48934901 -14.112305 -11.357422 7
-0.48780799 -14.132324 -11.31543 7
-0.49116501 -14.180176 -11.297852 7
-0.49955699 -14.282715 -11.267578 7
-0.51437402 -14.390625 -11.302734 7
0.034072999 10.830566 12.104492 7
0.040725999 10.823242 12.046875 7
0.044188999 10.855957 11.979492 7
0.051743001 10.867676 11.892578 7
0.051041 12.753906 9.59375 7
0.056030001 12.743652 9.5458984 7
0.061859 12.728516 9.4941406 7
0.059509002 12.762207 9.4736328 7
-0.148849 -8.3110352 -12.151367 7
-0.15235899 -8.3544922 -12.151367 7
-0.15928601 -8.4111328 -12.170898 7
-0.16879299 -8.4770508 -12.205078 7
-0.180847 -8.5522461 -12.253906 7
-0.164673 -8.5249023 -12.140625 7
-0.172455 -8.5844727 -12.164062 7
-0.174225 -8.621582 -12.152344 7
-0.38142401 -11.917969 -11.264648 7
-0.39447001 -12.037598 -11.270508 7
-0.39552301 -12.100586 -11.217773 7
-0.39990199 -12.150391 -11.209961 7
-0.47993499 -13.447754 -10.597656 7
-0.48431399 -13.49707 -10.583984 7
-0.39852899 -11.51709 14.051758 7
-0.39329499 -11.463379 14.053711 7
0.031860001 10.397949 11.5 7
0.032806002 10.416992 11.47168 7
0.036331002 10.424316 11.431641 7
0.038132001 10.438965 11.398438 7
0.038222998 10.462402 11.374023 7
0.045212001 10.452148 11.318359 7
0.041839998 10.492676 11.30957 7
0.041916002 10.515625 11.285156 7
0.04631 10.517578 11.240234 7
0.044677999 10.549316 11.223633 7
0.058577999 12.185547 9.0039062 7
0.061234001 12.1875 8.9658203 7
-0.196945 -2.077637 -14.029297 7
-0.195236 -2.1123049 -14.012695 7
-0.19531199 -2.147949 -14.006836 7
-0.205231 -2.1933589 -14.06543 7
-0.124084 -5.1333008 -12.722656 7
-0.121475 -5.1601558 -12.694336 7
-0.118851 -5.1875 -12.666016 7
-0.12529001 -5.2670898 -12.677734 7
-0.129852 -5.3110352 -12.693359 7
-0.139801 -5.3662109 -12.740234 7
-0.14167801 -5.402832 -12.737305 7
-0.134583 -5.4189448 -12.681641 7
-0.122986 -5.4238281 -12.597656 7
-0.137573 -7.7441411 -11.5 7
-0.12326 -7.726562 -11.402344 7
-0.136841 -7.8017578 -11.458008 7
-0.14411899 -7.8564448 -11.478516 7
-0.153183 -7.9160161 -11.508789 7
-0.17305 -8.0141602 -11.597656 7
-0.145248 -7.9492192 -11.427734 7
-0.14801 -7.9882808 -11.422852 7
-0.36363199 -11.251465 -10.55957 7
-0.365509 -11.287109 -10.540039 7
-0.367401 -11.323242 -10.522461 7
-0.374695 -11.382812 -10.52832 7
-0.377487 -11.42334 -10.513672 7
-0.375763 -11.442871 -10.478516 7
-0.47175601 -12.874512 -9.8183594 7
-0.46099901 -12.848145 -9.7431641 7
-0.46197501 -12.877441 -9.7158203 7
-0.467484 -12.930176 -9.7070312 7
-0.46847501 -12.959961 -9.6806641 7
-0.48030099 -13.043945 -9.6982422 7
-0.490311 -13.118652 -9.7080078 7
0.031615999 9.940918 10.954102 7
0.034409001 9.9506836 10.918945 7
0.035399999 9.96875 10.891602 7
-0.187286 -1.519043 -13.3125 7
-0.19297799 -1.556641 -13.34375 7
-0.190247 -1.589355 -13.322266 7
-0.191254 -1.624512 -13.324219 7
-0.196945 -1.661621 -13.353516 7
-0.20134 -1.700195 -13.378906 7
-0.205154 -1.737305 -13.397461 7
-0.211777 -1.7763669 -13.433594 7
-0.220291 -1.8173831 -13.480469 7
-0.230682 -1.860352 -13.539062 7
-0.227936 -1.892578 -13.516602 7
-0.116898 -4.5576172 -12.144531 7
-0.11705 -4.620605 -12.12207 7
-0.113434 -4.675293 -12.078125 7
-0.100357 -4.679688 -11.990234 7
-0.105118 -4.7211909 -12.006836 7
-0.113647 -4.7695308 -12.043945 7
-0.133011 -7.390625 -10.863281 7
-0.127426 -7.4008789 -10.816406 7
-0.11618 -7.3925781 -10.739258 7
-0.134247 -7.507812 -10.797852 7
-0.14186101 -7.5605469 -10.818359 7
-0.14483599 -7.6269531 -10.797852 7
-0.13925201 -7.6367192 -10.75 7
-0.33300799 -10.567871 -9.9013672 7
-0.33497599 -10.602051 -9.8847656 7
-0.34741199 -10.706543 -9.8876953 7
-0.34748799 -10.732422 -9.8623047 7
-0.342834 -10.73877 -9.8164062 7
-0.35426301 -10.813477 -9.8408203 7
-0.34771699 -10.811035 -9.7861328 7
-0.35440099 -10.865723 -9.7890615 7
-0.450409 -12.389648 -8.9570312 7
-0.104401 -4.1625981 -11.46875 7
-0.105453 -4.1943359 -11.463867 7
-0.098618001 -4.2114258 -11.416016 7
-0.101654 -4.2475591 -11.422852 7
-0.101715 -4.276855 -11.412109 7
-0.101791 -4.3071289 -11.402344 7
-0.109756 -4.3520508 -11.435547 7
-0.117722 -4.3959961 -11.467773 7
-0.109894 -4.4111328 -11.413086 7
-0.106995 -4.4350591 -11.386719 7
-0.109039 -4.4692378 -11.386719 7
-0.115524 -6.7602539 -10.313477 7
-0.106689 -6.7617192 -10.253906 7
-0.10675 -6.7885742 -10.237305 7
-0.110779 -6.8276372 -10.241211 7
-0.109863 -6.851562 -10.219727 7
-0.126755 -6.9291992 -10.287109 7
-0.125824 -6.9536128 -10.265625 7
-0.117981 -6.956543 -10.209961 7
-0.11705 -6.97998 -10.1875 7
-0.121078 -7.0195308 -10.19043 7
-0.14003 -7.1313481 -10.25 7
-0.32867399 -10.107422 -9.2607422 7
-0.33575401 -10.185059 -9.2421885 7
-0.33583099 -10.209961 -9.2177734 7
-0.424683 -11.713379 -8.3037109 7
-0.42375201 -11.730957 -8.2705078 7
-0.42382801 -11.753418 -8.2431641 7
-0.43086201 -11.807129 -8.2402344 7
-0.308395 -9.2685547 12.234375 7
-0.30740401 -9.2397461 12.250977 7
-0.32453901 -9.2768555 12.348633 7
-0.32051101 -9.2358398 12.353516 7
-0.31951901 -9.2070312 12.370117 7
-0.31751999 -9.1733398 12.382812 7
-0.3125 -9.1289062 12.382812 7
-0.318542 -9.125 12.431641 7
-0.102722 -3.858887 -10.936523 7
-0.108963 -3.8974609 -10.958984 7
-0.114197 -3.9355471 -10.977539 7
-0.117355 -3.969727 -10.984375 7
-0.118454 -4.0004878 -10.980469 7
-0.113358 -4.02002 -10.943359 7
-0.107239 -4.0380859 -10.901367 7
-0.108337 -4.0683589 -10.896484 7
-0.107376 -4.0957031 -10.881836 7
-0.106812 -6.4350591 -9.7617188 7
-0.111008 -6.473145 -9.765625 7
-0.114182 -6.507812 -9.765625 7
-0.12768599 -6.5717769 -9.8134766 7
-0.123611 -6.5864258 -9.7792969 7
-0.111267 -6.5766602 -9.7041016 7
-0.121674 -6.6323242 -9.7373047 7
-0.122772 -6.6611328 -9.7265615 7
-0.129044 -6.7050781 -9.7402344 7
-0.33982801 -11.17334 9.5205078 7
-0.34089699 -11.158691 9.5507812 7
-0.339874 -11.134766 9.5732422 7
-0.33779901 -11.106445 9.5927734 7
-0.112015 -3.2211909 -10.543945 7
-0.109909 -3.245605 -10.525391 7
-0.107819 -3.2709961 -10.506836 7
-0.103546 -3.2915039 -10.476562 7
-0.098220997 -3.312012 -10.441406 7
-0.099349998 -3.3408201 -10.438477 7
-0.097259998 -3.3652339 -10.419922 7
-0.107056 -3.4077151 -10.460938 7
-0.095229998 -3.4169919 -10.392578 7
-0.098526001 -3.44873 -10.400391 7
-0.104004 -3.484863 -10.419922 7
-0.108383 -3.519043 -10.433594 7
-0.11351 -6.1201172 -9.2773438 7
-0.10498 -6.1464839 -9.2089844 7
-0.102875 -6.1655269 -9.1845703 7
-0.107269 -6.2011719 -9.1894531 7
-0.10733 -6.2260742 -9.1738281 7
-0.113907 -6.2685552 -9.1894531 7
-0.122635 -6.3173828 -9.2138672 7
-0.120529 -6.3349609 -9.1884766 7
-0.12059 -6.3598628 -9.1728516 7
-0.126083 -6.3999019 -9.1826172 7
-0.32333401 -9.2885742 -8.1835938 7
-0.31477401 -9.300293 -8.1054688 7
-0.31810001 -9.3349609 -8.0957031 7
-0.31707799 -9.3525391 -8.0703115 7
-0.320389 -9.387207 -8.0605469 7
-0.32916301 -9.4418945 -8.0703115 7
-0.333572 -9.4804688 -8.0634766 7
-0.329285 -9.4858398 -8.0253906 7
-0.334793 -9.5283203 -8.0224609 7
-0.083816998 -2.987793 -9.9130859 7
-0.085006997 -3.015137 -9.9111328 7
-0.085051998 -3.0415039 -9.9033203 7
-0.083984002 -3.065918 -9.8896484 7
-0.084045 -3.0922849 -9.8828115 7
-0.082993001 -3.117188 -9.8701172 7
-0.083038002 -3.1430659 -9.8623047 7
-0.084229 -3.170898 -9.8603516 7
-0.084289998 -3.1972661 -9.8525391 7
-0.103867 -5.782227 -8.8115234 7
-0.097136997 -5.7875981 -8.7675781 7
-0.098389 -5.8378911 -8.7441406 7
-0.103027 -5.8974609 -8.7363281 7
-0.10881 -5.9584961 -8.7324219 7
-0.115662 -6.0004878 -8.7480469 7
-0.115707 -6.0239258 -8.734375 7
-0.118088 -6.0766602 -8.7138672 7
-0.304245 -8.8828115 -7.6464839 7
-0.30658001 -8.9121094 -7.6337891 7
-0.30891401 -8.9418945 -7.6201172 7
-0.065369003 -5.1279302 -8.3974609 7
-0.066605002 -5.1533198 -8.390625 7
-0.070189998 -5.184082 -8.3925781 7
-0.069061004 -5.204102 -8.375 7
-0.072662003 -5.235352 -8.3779297 7
-0.069168001 -5.249023 -8.3496094 7
-0.076309003 -5.2885742 -8.3681641 7
-0.083449997 -5.328125 -8.3847656 7
-0.088225998 -5.3623052 -8.3925781 7
-0.089461997 -5.3876948 -8.3847656 7
-0.096602999 -5.4272461 -8.4013672 7
-0.096663997 -5.4501948 -8.3886719 7
-0.088454999 -5.453125 -8.3408203 7
-0.092055999 -5.4838872 -8.3427734 7
-0.096817002 -5.5175781 -8.3486328 7
-0.101608 -5.5517578 -8.3554688 7
-0.102844 -5.5776372 -8.3466797 7
-0.10762 -5.6118159 -8.3535156 7
-0.114761 -5.651855 -8.3691406 7
-0.112457 -5.6689448 -8.3466797 7
-0.114868 -5.6972661 -8.3427734 7
-0.116104 -5.723145 -8.3339844 7
-0.086014003 -5.1074219 -7.9941411 7
-0.088515997 -5.1352539 -7.992188 7
-0.089798003 -5.159668 -7.985352 7
-0.095992997 -5.195312 -7.9970698 7
-0.097290002 -5.2202148 -7.9902339 7
-0.101013 -5.2504878 -7.992188 7
-0.10231 -5.2753911 -7.984375 7
-0.099899001 -5.2910161 -7.9619141 7
-0.097503997 -5.3076172 -7.9394531 7
-0.103683 -5.342773 -7.9511719 7
-0.106201 -5.3701172 -7.9482422 7
-0.107483 -5.3955078 -7.9404302 7
-0.107529 -5.4165039 -7.9267578 7
-0.10759 -5.438477 -7.9150391 7
-0.078943998 13.641092 15.467806 7
0.015183 10.414392 11.382286 7
-0.078086004 15.169494 7.7037058 7
-0.103048 -3.966454 -16.135651 7
-0.06089 -8.2374334 -11.926171 7
-0.112571 -2.164402 -13.825324 7
0.027907999 -3.7509429 -10.758647 7
0.0074530002 -6.3393288 -9.266861 7
-0.42978999 -9.8286228 12.743097 7
-0.0099370005 12.61521 9.5547915 7
0.0096129999 10.132998 11.049963 7
-0.243319 -2.0685749 -13.774817 7
-0.17010701 -4.7358851 -11.9332 7
-0.161928 -7.5288939 -10.746609 7
