# .PCD v0.7 - Point Cloud Data file format
VERSION 0.7
FIELDS x y z intensity
SIZE 4 4 4 4
TYPE F F F F
COUNT 1 1 1 1
WIDTH 889
HEIGHT 1
VIEWPOINT 0 0 0 1 0 0 0
POINTS 889
DATA ascii
1.509933 47.002441 -40.657227 7
1.273056 42.283691 -32.15332 7
0.45747399 48.100098 56.453125 7
0.47261 47.819336 55.874023 7
0.470963 53.116699 51.978516 7
0.49978599 52.35498 51.020508 7
0.47760001 41.714844 49.769531 7
0.39447001 43.875977 52.03125 7
0.429169 43.15332 50.961914 7
0.400543 43.986816 51.679688 7
0.49737501 44.013672 47.175781 7
0.44914201 45.394531 48.388672 7
0.46795699 45.024902 47.787109 7
0.47430399 44.979004 47.522461 7
0.493561 44.591309 46.911133 7
0.37667799 49.791992 48.318359 7
0.44039899 48.274414 46.462891 7
0.34986901 40.50293 48.222656 7
0.412323 41.728516 44.670898 7
0.39003 42.814941 44.763672 7
0.40683001 42.525391 44.269531 7
0.41395599 42.463867 44.006836 7
0.437805 42.000977 43.345703 7
0.973557 35.413574 -30.526367 7
0.33985901 36.536133 43.99707 7
0.32446301 36.949707 44.274414 7
0.40547201 37.683594 40.632812 7
0.40142801 37.869141 40.640625 7
0.40524301 37.887695 40.475586 7
0.375687 39.42334 40.37207 7
0.39324999 39.138184 39.910156 7
0.393433 39.233398 39.822266 7
0.411926 38.925781 39.342773 7
0.290604 33.722656 40.921875 7
0.275803 34.086426 41.158203 7
0.35568199 34.911133 37.762695 7
0.35539201 35.008301 37.693359 7
0.33360299 36.801758 36.951172 7
0.35322601 36.501465 36.496094 7
0.36012301 36.45166 36.285156 7
0.36788899 36.385742 36.058594 7
0.386215 36.105469 35.629883 7
0.28211999 40.188477 35.729492 7
0.29702801 39.960938 35.373047 7
0.31130999 39.745605 35.029297 7
0.82572901 33.239746 -24.296875 7
0.26704401 30.623047 37.615234 7
0.24772599 31.023438 37.914062 7
0.225098 31.478027 38.272461 7
0.312897 32.135742 35.004883 7
0.284058 34.558594 33.837891 7
0.300354 34.344238 33.485352 7
0.31874099 34.089844 33.098633 7
0.31623799 34.215332 33.06543 7
0.33415201 33.966309 32.6875 7
0.34173599 33.905762 32.485352 7
0.248291 37.40918 32.290039 7
0.26475501 37.169434 31.946289 7
0.27888501 36.974121 31.640625 7
0.29275501 36.781738 31.338867 7
0.74508703 29.432617 -25.266602 7
0.20597801 28.847168 35.549805 7
0.194885 29.094238 35.677734 7
0.181061 29.382812 35.862305 7
0.25790399 30.1875 33.007812 7
0.25483701 30.313965 32.991211 7
0.28196701 29.96582 32.483398 7
0.27298 30.185547 32.563477 7
0.29338101 29.939941 32.166016 7
0.30423 29.844238 31.923828 7
0.27168301 32.184082 30.798828 7
0.29176301 31.919434 30.419922 7
0.285126 32.104492 30.451172 7
0.298004 31.959473 30.183594 7
0.30857801 31.852539 29.952148 7
0.228073 34.980469 29.362305 7
0.25631699 34.615234 28.804688 7
0.26481599 34.532227 28.607422 7
0.285065 34.236816 28.245117 7
-0.89871198 -37.520996 -52.875 7
-0.98710603 -38.725586 -54.332031 7
-0.920578 -38.037598 -53.071289 7
-0.98516798 -38.957031 -54.105469 7
-1.056335 -39.961914 -55.25 7
-1.1045229 -40.688965 -55.990234 7
-1.088257 -45.51416 -51.455078 7
-0.95477301 -44.000977 -48.979492 7
0.23394801 30.175781 28.546875 7
0.24435399 30.08252 28.335938 7
0.26908901 29.765625 27.926758 7
0.27470401 29.810547 27.716797 7
0.28454599 29.723145 27.515625 7
0.190659 32.932129 26.943359 7
0.20578 32.746582 26.676758 7
0.221191 32.554688 26.407227 7
0.238281 32.333984 26.117188 7
0.24807701 32.233398 25.920898 7
0.231583 32.571777 26.057617 7
0.61772197 28.149902 -19.833984 7
-0.919388 -34.459961 -49.538086 7
-0.97401398 -35.186035 -50.345703 7
-1.008545 -35.690918 -50.821289 7
-1.060547 -36.39502 -51.580078 7
-1.016144 -36.015625 -50.767578 7
-1.06015 -36.633301 -51.392578 7
-0.75883502 -35.174316 -44.981445 7
-0.80496198 -35.833984 -45.617188 7
-0.862656 -36.635742 -46.432617 7
-0.79525799 -36.14502 -45.111328 7
-1.0471801 -41.737793 -46.678711 7
-0.97967499 -41.07959 -45.475586 7
-0.96003699 -40.929688 -45.084961 7
0.24884 28.105957 26.020508 7
0.240601 28.286621 26.060547 7
0.25268599 28.172363 25.845703 7
0.15593 31.32666 25.155273 7
0.15983599 31.326172 25.040039 7
0.175217 31.147461 24.791016 7
0.190277 30.972656 24.546875 7
0.20504799 30.801758 24.306641 7
0.202301 30.902832 24.269531 7
0.55488598 26.997559 -18.925781 7
-0.98921198 -29.663086 -47.989258 7
-1.0226589 -30.092285 -48.43457 7
-0.73863202 -28.567871 -43.272461 7
-0.77435303 -29.021484 -43.744141 7
-0.81039399 -29.480957 -44.220703 7
-0.85678101 -30.044434 -44.850586 7
-0.89445502 -30.524414 -45.34668 7
-0.92404199 -30.926758 -45.71875 7
-0.96109003 -31.405273 -46.201172 7
-0.99845898 -31.889648 -46.686523 7
-0.66529799 -30.401855 -40.288086 7
-0.67747498 -30.627441 -40.389648 7
-0.69967699 -30.961426 -40.636719 7
-0.74356103 -31.53125 -41.197266 7
-0.68490601 -31.754883 -39.654297 7
-0.666336 -31.642578 -39.311523 7
-0.69114703 -32.012207 -39.586914 7
-0.87933302 -36.639648 -40.003906 7
0.21746799 26.307617 24.210938 7
0.24539199 26.047363 23.772461 7
0.243652 26.125488 23.733398 7
0.151978 29.209473 22.682617 7
0.16145299 29.126465 22.517578 7
0.175522 28.976562 22.305664 7
0.185654 28.883301 22.135742 7
0.205566 28.69873 21.799805 7
-0.67170697 -24.967285 -39.553711 7
-0.68513501 -25.179199 -39.683594 7
-0.716721 -25.553223 -40.072266 7
-0.75213599 -25.961914 -40.511719 7
-0.77882397 -26.295898 -40.826172 7
-0.80866998 -26.65918 -41.18457 7
-0.84338403 -27.067871 -41.610352 7
-0.87812799 -27.479492 -42.035156 7
-0.580872 -26.589844 -36.568359 7
-0.57301301 -26.601562 -36.395508 7
-0.61024499 -27.049316 -36.837891 7
-0.62159699 -27.247559 -36.925781 7
-0.64869702 -27.600586 -37.227539 7
-0.61164898 -28.706055 -35.557617 7
-0.60818499 -28.839355 -35.371094 7
-0.82826197 -33.501953 -36.124023 7
-0.789536 -33.155273 -35.5625 7
0.21199 24.648926 22.380859 7
0.202942 24.813965 22.420898 7
0.219574 24.657715 22.189453 7
0.230133 24.57666 22.023438 7
0.22395299 24.705566 22.032227 7
0.231644 24.65918 21.895508 7
0.245773 24.531738 21.693359 7
0.23210099 24.754883 21.779297 7
0.16528299 27.358887 20.37793 7
0.18040501 27.200195 20.174805 7
-0.58509803 -21.307129 -35.680664 7
-0.61409003 -21.617676 -36.013672 7
-0.64688098 -21.958008 -36.396484 7
-0.66676301 -22.200684 -36.606445 7
-0.69499201 -22.509277 -36.924805 7
-0.71983302 -22.792969 -37.198242 7
-0.75033599 -23.122559 -37.544922 7
-0.77252197 -23.388672 -37.782227 7
-0.79812598 -23.683105 -38.061523 7
-0.525406 -23.387695 -33.198242 7
-0.55558801 -23.728516 -33.523438 7
-0.58044398 -24.025391 -33.780273 7
-0.77630597 -30.415527 -32.348633 7
-0.74408001 -30.160645 -31.90918 7
-0.70230103 -29.805664 -31.364258 7
0.200027 23.162109 20.459961 7
0.212997 23.057617 20.28418 7
0.207794 23.165527 20.28125 7
0.20723 23.21875 20.234375 7
0.22097801 23.103027 20.050781 7
0.22737101 23.074219 19.938477 7
0.146072 25.762207 18.555664 7
0.15861499 25.646484 18.392578 7
0.16653401 25.588379 18.267578 7
0.155212 25.775391 18.304688 7
0.401871 23.025879 -15.179688 7
0.406479 22.889648 -15.24707 7
-0.56950402 -19.333984 -33.412109 7
-0.67379802 -20.400391 -34.525391 7
-0.66746497 -20.438477 -34.396484 7
-0.74945098 -21.111816 -35.368164 7
-0.75892597 -21.265625 -35.435547 7
-0.52960199 -21.762207 -31.155273 7
-0.48551899 -21.482422 -30.576172 7
-0.52787799 -21.898438 -31.027344 7
-0.477676 -21.565918 -30.376953 7
-0.44496199 -21.373047 -29.936523 7
-0.443878 -21.436523 -29.870117 7
-0.50723302 -23.688965 -29.283203 7
-0.56510901 -24.270508 -29.880859 7
-0.52827501 -24.016602 -29.405273 7
-0.74281299 -28.254883 -29.688477 7
-0.71975702 -28.103027 -29.375977 7
0.16879299 20.154785 21.460938 7
0.175613 20.134766 21.347656 7
0.16861001 22.168457 19.40332 7
0.194397 22.016113 19.023438 7
0.190475 22.103027 19.008789 7
0.207367 22.001953 18.759766 7
0.102676 24.838379 17.542969 7
0.113174 24.753906 17.40625 7
0.131271 24.617188 17.155273 7
0.137253 24.584473 17.052734 7
-0.51089501 -16.803711 -30.594727 7
-0.411789 -20.221191 -26.790039 7
-0.40799001 -20.256348 -26.700195 7
-0.48896801 -21.683105 -26.951172 7
-0.46165499 -21.59082 -26.557617 7
-0.68328899 -25.756348 -26.796875 7
-0.68301398 -25.818848 -26.732422 7
-0.67350799 -25.797852 -26.577148 7
-1.220703 -33.414062 29.208984 7
-1.232712 -33.464844 29.385742 7
0.118774 19.231445 20.430664 7
0.144592 19.083496 20.107422 7
0.15235899 19.056152 19.994141 7
0.159668 19.032715 19.883789 7
0.149139 19.17627 19.935547 7
0.157776 20.897949 17.949219 7
0.16729701 20.84082 17.825195 7
0.184113 20.74707 17.594727 7
0.17185999 20.914062 17.646484 7
0.197998 20.721191 17.34082 7
0.093964003 23.443359 16.000977 7
0.1017 23.393555 15.894531 7
0.110291 23.33252 15.78125 7
0.119339 23.266602 15.665039 7
0.123077 23.259277 15.585938 7
0.120178 23.328125 15.552734 7
0.31271401 20.960938 -13.460938 7
0.33059701 20.725586 -13.367188 7
0.31428501 20.839844 -13.597656 7
-0.62467998 -16.285645 -29.830078 7
-0.43794301 -19.634277 -24.820312 7
-0.42166099 -19.572754 -24.610352 7
-0.44664001 -19.820801 -24.810547 7
-0.42707801 -19.733398 -24.568359 7
-0.67068499 -24.067871 -24.739258 7
-0.65440398 -23.990234 -24.532227 7
-0.64233398 -23.947266 -24.364258 7
-1.0009919 -27.100586 28.128906 7
0.118271 18.078125 19.155273 7
0.120529 18.144531 19.053711 7
0.12690701 18.132324 18.959961 7
0.162628 19.760742 16.558594 7
0.165176 19.772949 16.495117 7
0.156342 19.895996 16.514648 7
0.160309 19.894531 16.439453 7
0.169983 19.836426 16.323242 7
0.17347699 19.838379 16.251953 7
0.073746003 22.404297 14.806641 7
0.081969999 22.350098 14.703125 7
0.091141 22.285645 14.594727 7
0.095123 22.276367 14.518555 7
0.105225 22.201172 14.405273 7
-0.54214501 -13.907227 -27.208008 7
-0.55192602 -14.09082 -27.241211 7
-0.56007397 -14.200195 -27.291992 7
-0.354965 -17.57373 -22.302734 7
-0.40455601 -18.02832 -22.674805 7
-0.37495399 -17.876465 -22.358398 7
-0.39622501 -18.081055 -22.510742 7
-0.59544402 -21.761719 -22.34668 7
-0.60125703 -21.916504 -22.291016 7
-0.603912 -21.991211 -22.258789 7
-0.91818202 -24.491699 25.799805 7
-0.89370698 -24.240723 25.663086 7
-0.92097503 -24.396484 25.935547 7
-0.90013099 -24.174805 25.827148 7
0.110718 17.020996 17.871094 7
0.119064 16.992188 17.766602 7
0.120773 17.017578 17.714844 7
0.123138 17.076172 17.618164 7
0.15141299 18.706543 15.325195 7
0.156158 18.697266 15.25 7
0.148178 18.805176 15.261719 7
0.147324 18.84668 15.223633 7
0.15564001 18.802734 15.125 7
0.164978 18.750488 15.019531 7
0.069320999 21.229492 13.361328 7
0.075089 21.201172 13.280273 7
0.080338001 21.177734 13.202148 7
0.085068002 21.15918 13.125977 7
0.068207003 21.388184 13.12207 7
0.25399801 18.866211 -11.621094 7
0.25956699 18.751465 -11.672852 7
0.25965899 18.719727 -11.716797 7
0.253387 18.75 -11.804688 7
-0.41426101 -11.487793 -24.544922 7
-0.41982999 -11.633301 -24.542969 7
-0.43655401 -11.768555 -24.679688 7
-0.45112601 -11.895508 -24.794922 7
-0.46356201 -12.012695 -24.888672 7
-0.48243701 -12.159668 -25.044922 7
-0.48843399 -12.249023 -25.074219 7
-0.34887701 -16.285156 -20.798828 7
-0.36244199 -16.424316 -20.876953 7
-0.385162 -16.622559 -21.03418 7
-0.36320499 -16.531738 -20.803711 7
-0.83924901 -22.262695 23.782227 7
-0.82762098 -22.124023 23.748047 7
-0.84170502 -22.120117 23.956055 7
0.09877 16.019043 16.911133 7
0.098511003 16.095215 16.838867 7
0.105225 16.081055 16.75293 7
0.13208 17.825684 14.356445 7
0.139313 17.794922 14.270508 7
0.13511699 17.863281 14.255859 7
0.135986 17.918457 14.168945 7
0.141037 17.905273 14.09668 7
0.045134999 20.249023 12.444336 7
0.039352 20.331055 12.426758 7
0.043853998 20.31543 12.357422 7
0.050522 20.279297 12.277344 7
0.055023 20.263672 12.208008 7
0.21273801 18.012207 -10.958008 7
0.219116 17.925293 -10.959961 7
-0.30122399 -12.551758 -20.643555 7
-0.31965601 -12.696777 -20.775391 7
-0.337524 -12.839355 -20.901367 7
-0.30950901 -12.747559 -20.624023 7
-0.35461399 -15.236816 -19.475586 7
-0.32597399 -15.112305 -19.205078 7
-0.34330699 -15.265625 -19.310547 7
-0.56884801 -19.01416 -19.075195 7
-0.55342102 -18.954102 -18.915039 7
-0.55815101 -19.03418 -18.904297 7
-0.55250502 -19.041016 -18.817383 7
-0.73970002 -20.005371 21.904297 7
-0.72373998 -19.848145 21.838867 7
-0.73753399 -19.844727 22.02832 7
0.088898003 15.124512 15.969727 7
0.088469997 15.162598 15.9375 7
0.084670998 15.260254 15.894531 7
0.088317998 15.269531 15.834961 7
0.102432 15.201172 15.704102 7
0.106064 15.208984 15.644531 7
0.11203 15.199219 15.568359 7
0.109253 15.253418 15.551758 7
0.102997 15.333984 15.560547 7
0.115723 16.988281 13.44043 7
0.12515301 16.94043 13.347656 7
0.132828 16.905762 13.263672 7
0.123703 17.009766 13.277344 7
0.119217 17.076172 13.263672 7
0.126892 17.041504 13.180664 7
0.129959 17.04541 13.125 7
0.031189 19.321777 11.411133 7
0.025574001 19.396973 11.391602 7
0.029205 19.389648 11.331055 7
0.037445001 19.340332 11.249023 7
0.074738003 19.971191 -7.3496089 7
-0.48348999 -7.3486328 -23.25293 7
-0.38410899 -9.0366211 -21.624023 7
-0.39210501 -9.1191406 -21.672852 7
-0.401306 -9.2055664 -21.732422 7
-0.411713 -9.296875 -21.801758 7
-0.43063399 -9.4194336 -21.946289 7
-0.44165 -9.5131836 -22.020508 7
-0.45207199 -9.605957 -22.09082 7
-0.43513501 -9.5981445 -21.916016 7
-0.281921 -11.325195 -19.415039 7
-0.278961 -11.360352 -19.363281 7
-0.29061899 -11.462402 -19.432617 7
-0.31080601 -11.604492 -19.573242 7
-0.31454501 -11.670898 -19.576172 7
-0.30708301 -13.791992 -18.09082 7
-0.31694001 -13.89209 -18.134766 7
-0.30056801 -13.846191 -17.973633 7
-0.314697 -13.969238 -18.048828 7
-0.33491501 -14.128418 -18.171875 7
-0.32037401 -14.091309 -18.025391 7
-0.32656899 -14.171387 -18.039062 7
-0.33947799 -14.289551 -18.103516 7
-0.34872401 -14.387207 -18.139648 7
-0.63920599 -19.688477 -16.93457 7
-0.64422601 -19.765137 -16.919922 7
0.085464001 14.489258 14.923828 7
0.086227 14.516602 14.885742 7
0.089432001 14.526367 14.832031 7
0.093902998 14.527832 14.770508 7
0.091080002 14.611816 14.72168 7
0.097686999 16.347168 12.548828 7
0.095367 16.392578 12.523438 7
0.0043179998 18.638672 10.525391 7
0.0038449999 18.664551 10.483398 7
0.0089109996 18.644043 10.419922 7
0.015198 18.611816 10.350586 7
0.020248 18.591309 10.288086 7
0.030974999 18.543457 10.15918 7
0.149094 16.405762 -9.6689453 7
0.15154999 16.359863 -9.6943359 7
-0.25402799 -10.20752 -18.114258 7
-0.254089 -10.252441 -18.089844 7
-0.26065099 -10.325195 -18.116211 7
-0.269806 -10.410156 -18.164062 7
-0.285431 -10.521484 -18.261719 7
-0.281616 -10.55127 -18.206055 7
-0.26679999 -10.533203 -18.063477 7
-0.259094 -10.544434 -17.976562 7
-0.29559299 -12.900391 -16.830078 7
-0.316452 -13.052246 -16.951172 7
-0.289276 -12.952148 -16.72168 7
-0.305603 -13.07959 -16.808594 7
-0.60571301 -18.283691 -15.626953 7
-0.60462999 -18.35498 -15.533203 7
-0.61061102 -18.433594 -15.525391 7
-0.60095203 -18.408691 -15.422852 7
0.072783999 13.772949 14.120117 7
0.084076002 13.730469 14.021484 7
0.086181998 13.746582 13.976562 7
0.090240002 13.750488 13.921875 7
0.096267998 13.740234 13.852539 7
0.101654 13.73584 13.790039 7
0.094070002 15.499023 11.746094 7
0.101379 15.469238 11.674805 7
0.104126 15.473633 11.625 7
0.089233004 15.610352 11.662109 7
0.092651002 15.610352 11.610352 7
0.098663002 15.589355 11.544922 7
-0.33862299 -6.784668 -19.105469 7
-0.339371 -6.8349609 -19.094727 7
-0.34831199 -6.90625 -19.150391 7
-0.36622599 -7.0517578 -19.259766 7
-0.37928799 -7.1367192 -19.347656 7
-0.38960299 -7.214355 -19.413086 7
-0.40539601 -7.3076172 -19.521484 7
-0.410934 -7.3720698 -19.547852 7
-0.25793499 -9.3056641 -17.266602 7
-0.24569701 -9.3027344 -17.151367 7
-0.247131 -9.3510742 -17.139648 7
-0.233505 -9.3413086 -17.013672 7
-0.241791 -9.4160156 -17.053711 7
-0.25624099 -9.5151367 -17.139648 7
-0.28309599 -11.922363 -15.901367 7
-0.27708399 -11.973633 -15.801758 7
-0.28334001 -12.044434 -15.816406 7
-0.30674699 -12.19873 -15.949219 7
-0.27595499 -12.087891 -15.707031 7
-0.29457101 -12.21875 -15.805664 7
-0.30561799 -12.312988 -15.852539 7
-0.300217 -12.325684 -15.785156 7
-0.314713 -12.437988 -15.854492 7
-0.59773302 -17.409668 -14.457031 7
-0.59509301 -17.429688 -14.400391 7
-0.60690302 -17.540039 -14.424805 7
-0.59324598 -17.489746 -14.305664 7
-0.067261003 11.514648 16.300781 7
0.056442 13.145508 13.508789 7
0.060715001 13.147949 13.455078 7
0.075424001 13.085449 13.341797 7
0.077606 13.100098 13.298828 7
0.071014002 15.044434 10.963867 7
-0.24034099 -8.3510742 -16.27832 7
-0.240402 -8.3920898 -16.257812 7
-0.23468 -8.4130859 -16.195312 7
-0.22314499 -8.4135742 -16.091797 7
-0.21232601 -8.4160156 -15.994141 7
-0.220383 -8.4848633 -16.03125 7
-0.22552501 -8.5439453 -16.047852 7
-0.237183 -8.6259766 -16.110352 7
-0.227539 -10.88623 -14.643555 7
-0.21963499 -10.887695 -14.56543 7
-0.239319 -11.01416 -14.667969 7
-0.25100699 -11.104492 -14.717773 7
-0.25691199 -11.169434 -14.730469 7
-0.238098 -11.120117 -14.580078 7
-0.26803601 -11.333008 -14.72168 7
-0.27973899 -11.423828 -14.770508 7
-0.57498199 -16.36377 -13.367188 7
-0.56779498 -16.35498 -13.289062 7
-0.56643701 -16.381348 -13.243164 7
-0.56944299 -16.432129 -13.219727 7
-0.56225598 -16.422852 -13.142578 7
-0.54718 -16.626953 14.626953 7
-0.55247498 -16.627441 14.692383 7
0.065475002 12.390137 12.750977 7
0.061919998 12.437988 12.741211 7
0.053955 12.512207 12.754883 7
0.065094002 12.474121 12.667969 7
0.071808003 12.461426 12.603516 7
0.071929999 12.487305 12.574219 7
0.072783999 12.509277 12.541016 7
0.074355997 12.526367 12.503906 7
0.088942997 14.19043 10.183594 7
0.086150996 14.230957 10.162109 7
0.075301997 14.325195 10.172852 7
0.076157004 14.34082 10.136719 7
0.084320001 14.306152 10.070312 7
0.087371998 14.306641 10.024414 7
0.088225998 14.321289 9.9873047 7
-0.013794 16.331543 7.889648 7
-0.010773 16.324707 7.842773 7
0.0072329999 16.253418 7.639648 7
0.0088200001 16.256836 7.5966802 7
0.0053099999 16.298828 7.5693359 7
-0.28759801 -4.8305659 -16.879883 7
-0.285355 -4.8686519 -16.850586 7
-0.29229701 -4.9248052 -16.889648 7
-0.29464701 -4.9726558 -16.895508 7
-0.29394501 -5.0136719 -16.876953 7
-0.30163601 -5.0722661 -16.920898 7
-0.20163 -7.7275391 -15.075195 7
-0.211639 -7.7983398 -15.125 7
-0.21935999 -7.8623052 -15.15918 7
-0.216354 -7.8901372 -15.119141 7
-0.199432 -9.9604492 -13.749023 7
-0.20488 -10.018066 -13.758789 7
-0.200333 -10.03418 -13.706055 7
-0.19810501 -10.060059 -13.667969 7
-0.205856 -10.12793 -13.691406 7
-0.21742199 -10.211914 -13.740234 7
-0.23439001 -10.319336 -13.820312 7
-0.21373001 -10.266113 -13.666992 7
-0.22070301 -10.330566 -13.68457 7
-0.229233 -10.402832 -13.712891 7
-0.24772599 -10.518066 -13.802734 7
-0.45893899 -13.828125 -13.058594 7
-0.45286599 -13.830078 -12.993164 7
-0.45680201 -13.883301 -12.980469 7
-0.455338 -13.908203 -12.938477 7
-0.46774301 -14.006836 -12.97168 7
-0.46629301 -14.032715 -12.930664 7
-0.54330403 -15.515625 -12.15625 7
-0.54725599 -15.568848 -12.137695 7
-0.55197102 -15.626953 -12.123047 7
0.048553001 11.890137 12.147461 7
0.046463002 11.954102 12.103516 7
0.052779999 11.944336 12.044922 7
0.055206001 11.956055 12.005859 7
0.059188999 11.958984 11.958008 7
0.059418 12.008301 11.901367 7
0.074309997 13.633301 9.5830078 7
0.077514999 13.632324 9.5390615 7
0.079177998 13.641602 9.5019531 7
0.069260001 13.726074 9.5078115 7
0.069381997 13.744629 9.4755859 7
0.072586 13.743652 9.4316406 7
0.076568998 13.736816 9.3847656 7
0.076674998 13.754883 9.3525391 7
-0.012497 15.663086 6.9599609 7
-0.0093080001 15.65332 6.9150391 7
-0.0053409999 15.638672 6.8691411 7
-0.280182 -4.1513672 -15.942383 7
-0.283447 -4.1967769 -15.955078 7
-0.28431699 -4.2392578 -15.950195 7
-0.291641 -4.29248 -15.991211 7
-0.30139199 -4.3500981 -16.047852 7
-0.31195101 -4.409668 -16.110352 7
-0.315231 -4.4555659 -16.12207 7
-0.189209 -6.7226558 -14.356445 7
-0.186829 -6.7524409 -14.324219 7
-0.17716999 -6.76123 -14.245117 7
-0.16507 -6.7631841 -14.148438 7
-0.16999801 -6.8129878 -14.164062 7
-0.16923501 -6.847168 -14.142578 7
-0.17253099 -6.8925781 -14.147461 7
-0.182312 -6.9580078 -14.195312 7
-0.19046 -7.0180659 -14.230469 7
-0.192001 -9.3212891 -12.927734 7
-0.19206201 -9.3544922 -12.905273 7
-0.17996199 -9.3398438 -12.811523 7
-0.190567 -9.4145508 -12.851562 7
-0.193069 -9.4580078 -12.84375 7
-0.208542 -9.5532227 -12.913086 7
-0.209427 -9.5898438 -12.894531 7
-0.203003 -9.5966797 -12.833984 7
-0.20710801 -9.6455078 -12.833984 7
-0.215286 -9.7119141 -12.858398 7
-0.227524 -9.7954102 -12.907227 7
-0.22192401 -9.8056641 -12.851562 7
-0.226044 -9.8549805 -12.851562 7
-0.22935501 -9.9018555 -12.84668 7
-0.52526897 -14.689941 -11.198242 7
0.048462 11.299316 11.512695 7
0.052657999 11.300781 11.466797 7
0.049484 11.342285 11.456055 7
0.045502 11.387695 11.448242 7
0.052979 11.371094 11.386719 7
0.059647001 11.359863 11.330078 7
0.062194999 11.369141 11.291992 7
0.065582 11.375488 11.25 7
0.065673999 11.398926 11.223633 7
0.067795001 13.063477 8.9492188 7
0.071167 13.061035 8.9072266 7
0.075347997 13.053223 8.8623047 7
0.076278999 13.065918 8.828125 7
-0.175293 -6.1005859 -13.597656 7
-0.173645 -6.1308589 -13.572266 7
-0.170288 -6.157227 -13.536133 7
-0.15928601 -6.1630859 -13.452148 7
-0.15593 -6.1889648 -13.416016 7
-0.16279601 -6.2412109 -13.444336 7
-0.16708399 -6.2871089 -13.455078 7
-0.16969299 -6.328125 -13.456055 7
-0.17485 -6.3769531 -13.472656 7
-0.20648199 -9.0014648 -12.240234 7
-0.19886801 -9.0039062 -12.174805 7
-0.203201 -9.0517578 -12.177734 7
-0.207535 -9.0996094 -12.180664 7
-0.222092 -9.1875 -12.240234 7
-0.21788 -9.2026367 -12.194336 7
-0.202591 -9.1738281 -12.085938 7
-0.20863301 -9.2290039 -12.097656 7
-0.41168201 -12.402832 -11.167969 7
-0.499084 -13.76709 -10.533203 7
-0.49916101 -13.794434 -10.5 7
-0.51217699 -13.916992 -10.491211 7
-0.51321399 -13.976562 -10.428711 7
-0.51594502 -14.044922 -10.373047 7
-0.385254 -11.180176 14.225586 7
-0.37655601 -11.112793 14.208008 7
-0.373108 -11.066895 14.216797 7
-0.39758301 -11.14209 14.366211 7
-0.39238 -11.089355 14.365234 7
-0.38717699 -11.036133 14.366211 7
-0.38632199 -11.000488 14.388672 7
0.049713001 10.88916 10.84375 7
0.050689999 10.907227 10.814453 7
0.054230001 10.912109 10.774414 7
0.056046002 10.924805 10.741211 7
0.056152001 10.946777 10.71582 7
0.059691999 10.950195 10.674805 7
0.059783999 10.972168 10.649414 7
0.059891 10.993652 10.623047 7
0.061707001 11.006348 10.589844 7
-0.256439 -2.4702151 -14.384766 7
-0.239502 -2.48877 -14.269531 7
-0.219879 -2.5053711 -14.137695 7
-0.21991 -2.5405271 -14.130859 7
-0.223526 -2.581543 -14.148438 7
-0.224457 -2.6181641 -14.147461 7
-0.22628801 -2.65625 -14.152344 7
-0.23078901 -2.6977539 -14.174805 7
-0.233521 -2.7368159 -14.18457 7
-0.25231901 -2.7954099 -14.297852 7
-0.25501999 -2.8349609 -14.307617 7
-0.253281 -2.8701169 -14.290039 7
-0.147797 -5.5688481 -12.762695 7
-0.14605699 -5.597168 -12.738281 7
-0.14878801 -5.6367192 -12.741211 7
-0.15330499 -5.6811519 -12.754883 7
-0.156036 -5.7211909 -12.757812 7
-0.16680899 -5.7797852 -12.807617 7
-0.17761201 -5.8398442 -12.857422 7
-0.150208 -8.1191406 -11.425781 7
-0.158325 -8.1777344 -11.450195 7
-0.16824301 -8.2416992 -11.483398 7
-0.174576 -8.293457 -11.498047 7
-0.195251 -8.3964844 -11.588867 7
-0.18187 -8.3789062 -11.49707 7
-0.172943 -8.3769531 -11.428711 7
-0.182861 -8.4423828 -11.461914 7
-0.19099399 -8.5009766 -11.484375 7
-0.203613 -8.5761719 -11.532227 7
-0.200073 -8.5932617 -11.492188 7
-0.198349 -8.6171885 -11.461914 7
-0.39544699 -11.66748 -10.536133 7
-0.39552301 -11.695801 -10.508789 7
-0.398285 -11.73584 -10.493164 7
-0.399261 -11.767578 -10.469727 7
-0.48877001 -13.140137 -9.7763672 7
-0.488846 -13.166504 -9.7460938 7
-0.49972501 -13.246094 -9.7597656 7
-0.49800101 -13.262695 -9.7207031 7
-0.49267599 -13.26123 -9.6660156 7
-0.49636799 -13.305176 -9.6494141 7
-0.496445 -13.331055 -9.6181641 7
-0.50642401 -13.405762 -9.6269531 7
-0.35997 -10.555664 13.457031 7
-0.358154 -10.519531 13.473633 7
-0.353607 -10.472168 13.476562 7
-0.36647001 -10.496582 13.5625 7
-0.37199399 -10.489746 13.614258 7
-0.361954 -10.419922 13.59082 7
-0.357407 -10.37207 13.59375 7
-0.35376 -10.328125 13.600586 7
-0.37762499 -10.395996 13.739258 7
-0.36848399 -10.330566 13.719727 7
-0.36393699 -10.283203 13.72168 7
-0.357559 -10.227539 13.71582 7
0.050705001 10.480469 10.223633 7
0.053513002 10.488281 10.1875 7
0.057236001 10.491211 10.148438 7
0.068161003 10.458008 10.079102 7
0.069168001 10.473145 10.050781 7
0.069260001 10.493652 10.026367 7
0.072067 10.5 9.9902344 7
0.071258999 10.524414 9.9697266 7
0.074051 10.530762 9.9345703 7
-0.243927 -1.947266 -13.630859 7
-0.237396 -1.976562 -13.585938 7
-0.232758 -2.007812 -13.552734 7
-0.242157 -2.050781 -13.605469 7
-0.234695 -2.079102 -13.553711 7
-0.234741 -2.1142581 -13.548828 7
-0.235718 -2.1503911 -13.549805 7
-0.246033 -2.1933589 -13.606445 7
-0.25543201 -2.237793 -13.65918 7
-0.124084 -4.9648442 -12.081055 7
-0.13069201 -5.0102539 -12.106445 7
-0.141983 -5.066895 -12.15918 7
-0.127029 -5.0649409 -12.060547 7
-0.130814 -5.1044922 -12.069336 7
-0.14721701 -7.6923828 -10.833008 7
-0.165115 -7.7807622 -10.908203 7
-0.16140699 -7.7963872 -10.870117 7
-0.148315 -7.78125 -10.783203 7
-0.160583 -7.8510742 -10.828125 7
-0.15969799 -7.875977 -10.804688 7
-0.171021 -7.941895 -10.842773 7
-0.17765801 -7.9926758 -10.857422 7
-0.16362 -7.9736328 -10.766602 7
-0.471771 -12.65625 -8.9248047 7
-0.47563201 -12.69873 -8.9101562 7
-0.47192401 -12.704102 -8.8652344 7
-0.48614499 -12.795898 -8.8886719 7
-0.138947 -4.4824219 -11.607422 7
-0.13015699 -4.5249019 -11.537109 7
-0.126312 -4.577148 -11.493164 7
-0.13029499 -4.6157231 -11.503906 7
-0.13034099 -4.6455078 -11.493164 7
-0.146118 -4.70752 -11.568359 7
-0.148132 -4.7416992 -11.568359 7
-0.139374 -4.7841802 -11.49707 7
-0.13812301 -7.0712891 -10.333008 7
-0.137192 -7.0957031 -10.310547 7
-0.131317 -7.10498 -10.264648 7
-0.133347 -7.1381841 -10.257812 7
-0.138321 -7.179688 -10.264648 7
-0.14726301 -7.235352 -10.291992 7
-0.15815701 -7.2963872 -10.328125 7
-0.14735401 -7.2895508 -10.256836 7
-0.145432 -7.3105469 -10.230469 7
-0.146469 -7.3408198 -10.217773 7
-0.16433699 -7.4516602 -10.269531 7
-0.16537499 -7.4814448 -10.256836 7
-0.35629299 -10.429199 -9.2402344 7
-0.35833699 -10.461914 -9.2236328 7
-0.36828601 -10.527344 -9.2392578 7
-0.362427 -10.527832 -9.1894531 7
-0.363464 -10.556641 -9.1689453 7
-0.44866899 -11.954102 -8.3105469 7
-0.45668 -12.013184 -8.3115234 7
-0.46070901 -12.053711 -8.296875 7
-0.44790599 -12.017578 -8.2226562 7
-0.446991 -12.035156 -8.1904297 7
-0.447052 -12.057129 -8.1611328 7
-0.449112 -12.088379 -8.1396484 7
-0.347 -11.48877 10.222656 7
-0.29512 -8.9550781 12.388672 7
-0.127106 -4.1723628 -11.004883 7
-0.133331 -4.2124019 -11.02832 7
-0.138504 -4.250977 -11.044922 7
-0.14267001 -4.2875981 -11.056641 7
-0.141663 -4.3144531 -11.041016 7
-0.136566 -4.3334961 -11.00293 7
-0.13249201 -4.3544922 -10.970703 7
-0.13047799 -4.379395 -10.949219 7
-0.129471 -4.40625 -10.933594 7
-0.129517 -4.4350591 -10.922852 7
-0.12956201 -4.4638672 -10.912109 7
-0.125992 -6.7207031 -9.7617188 7
-0.129135 -6.7553711 -9.7597656 7
-0.138458 -6.8085942 -9.7880859 7
-0.149857 -6.8686519 -9.8261719 7
-0.14474501 -6.8789058 -9.7851562 7
-0.13343801 -6.8710942 -9.7148438 7
-0.140701 -6.918457 -9.7324219 7
-0.14386 -6.9536128 -9.7294922 7
-0.153183 -7.0073242 -9.7568359 7
-0.35432401 -9.9345703 -8.7919922 7
-0.357483 -9.9707031 -8.7802734 7
-0.35444599 -9.9824219 -8.7451172 7
-0.35348499 -10.001465 -8.7167969 7
-0.37110901 -10.095215 -8.7617188 7
-0.35670501 -10.061035 -8.6816406 7
-0.35780299 -10.088867 -8.6611328 7
-0.124451 -3.526855 -10.549805 7
-0.12233 -3.55127 -10.530273 7
-0.120209 -3.5751951 -10.510742 7
-0.123474 -3.6079099 -10.517578 7
-0.115952 -3.624023 -10.470703 7
-0.121384 -3.660156 -10.489258 7
-0.119263 -3.684082 -10.469727 7
-0.119308 -3.7119141 -10.460938 7
-0.118256 -3.737793 -10.447266 7
-0.123703 -3.7749021 -10.464844 7
-0.13343801 -3.8178711 -10.504883 7
-0.12808201 -3.836426 -10.467773 7
-0.112335 -6.2114258 -9.2597656 7
-0.112396 -6.2368159 -9.2451172 7
-0.112427 -6.26123 -9.2304688 7
-0.117889 -6.3007808 -9.2402344 7
-0.129822 -6.358398 -9.2792969 7
-0.133102 -6.3925781 -9.2792969 7
-0.342224 -9.6108398 -8.0566406 7
-0.34228501 -9.6333008 -8.0341797 7
-0.34234601 -9.6547852 -8.0107422 7
-0.355423 -9.7265615 -8.0361328 7
-0.35440099 -9.7446289 -8.0087891 7
-0.098343 -3.226074 -9.9443359 7
-0.101791 -3.2836909 -9.9453115 7
-0.102951 -3.312012 -9.9423828 7
-0.100723 -3.3349609 -9.9238281 7
-0.103027 -3.3647461 -9.9267578 7
-0.103058 -3.391113 -9.9179688 7
-0.105331 -3.4204099 -9.9208984 7
-0.100861 -3.4389651 -9.8896484 7
-0.103149 -3.469238 -9.8925781 7
-0.105438 -3.499512 -9.8955078 7
-0.103271 -5.7749019 -8.8515615 7
-0.108948 -5.8129878 -8.8632812 7
-0.11351 -5.848145 -8.8691406 7
-0.105652 -5.8520508 -8.8203115 7
-0.106827 -5.8789058 -8.8115234 7
-0.111389 -5.9145508 -8.8173828 7
-0.11142 -5.9379878 -8.8027344 7
-0.119354 -5.9819341 -8.8222656 7
-0.130676 -6.0351558 -8.8574219 7
-0.121704 -6.035645 -8.8037109 7
-0.116104 -6.0439448 -8.7646484 7
-0.32914701 -9.105957 -7.6542969 7
-0.33598301 -9.1508789 -7.657227 7
-0.326996 -9.1391602 -7.6025391 7
-0.32931501 -9.1679688 -7.5888672 7
-0.33161899 -9.1962891 -7.5751948 7
-0.33393899 -9.2260742 -7.561523 7
-0.33174101 -9.2392578 -7.53125 7
-0.101181 -5.4550781 -8.4482422 7
-0.101212 -5.4780269 -8.4355469 7
-0.101257 -5.500977 -8.4228516 7
-0.101303 -5.5239258 -8.4091797 7
-0.104874 -5.5551758 -8.4111328 7
-0.104904 -5.578125 -8.3974609 7
-0.10495 -5.6005859 -8.3837891 7
-0.108521 -5.6318359 -8.3857422 7
-0.116791 -5.6748052 -8.40625 7
-0.108597 -5.6772461 -8.3583984 7
-0.114532 -5.7148442 -8.3701172 7
-0.115738 -5.7402339 -8.3603516 7
-0.31382799 -8.6420898 -7.2392578 7
-0.31623799 -8.6708984 -7.226562 7
-0.31864899 -8.6987305 -7.2138672 7
-0.32813999 -8.7519531 -7.2246089 7
-0.317581 -8.7348633 -7.1689448 7
-0.32116699 -8.7670898 -7.1591802 7
-0.322418 -8.7915039 -7.1425781 7
-0.326004 -8.8237305 -7.1337891 7
-0.32016 -8.8227539 -7.092773 7
-0.33319101 -8.887207 -7.1152339 7
-0.334427 -8.9111328 -7.0976558 7
-0.333298 -8.9272461 -7.0732422 7
0.013908 13.01259 13.208426 7
0.065976001 10.314559 10.090792 7
-0.101647 -6.7500381 -14.139905 7
-0.166025 -9.5297947 -12.867591 7
-0.105402 -2.15692 -13.713218 7
-0.043687001 -4.5332999 -11.464636 7
-0.0057239998 -6.411407 -9.4365597 7
-0.58967203 -7.0700049 -19.271229 7
-0.22575 -5.6751199 -12.728014 7
-0.134023 -3.361475 -9.7665281 7
-0.29124501 -9.0606403 -7.509603 7
