# .PCD v0.7 - Point Cloud Data file format
VERSION 0.7
FIELDS x y z intensity
SIZE 4 4 4 4
TYPE F F F F
COUNT 1 1 1 1
WIDTH 809
HEIGHT 1
VIEWPOINT 0 0 0 1 0 0 0
POINTS 809
DATA ascii
1.3451999 44.714844 -42.158203 7
0.45816001 50.942383 54.918945 7
0.47470099 50.594238 54.304688 7
0.47758499 55.604492 50.010742 7
0.51600599 54.480957 48.804688 7
1.122604 39.495605 -37.228516 7
1.131134 39.091309 -37.012695 7
0.50056499 43.55127 47.759766 7
0.40539601 46.140137 50.280273 7
0.447723 45.166992 49.026367 7
0.42417899 45.904785 49.576172 7
0.47167999 47.319824 46.174805 7
0.482162 47.147461 45.802734 7
0.48280299 47.247559 45.6875 7
0.50543201 46.734863 45.001953 7
0.345581 53.105469 47.333008 7
0.38534501 52.07666 46.231445 7
0.414368 51.354492 45.400391 7
0.44734201 50.512207 44.474609 7
0.478165 49.729492 43.607422 7
1.035675 38.92041 -31.964844 7
0.363464 42.472168 46.473633 7
0.352036 42.855469 46.666016 7
0.42887899 43.59082 42.72168 7
0.42640701 43.760742 42.6875 7
0.38397199 45.149414 43.396484 7
0.412292 44.546387 42.642578 7
0.42077601 44.441406 42.351562 7
0.43983501 44.066406 41.81543 7
0.34901401 48.558105 41.895508 7
0.34536701 38.604492 42.523438 7
0.33050501 39.021973 42.772461 7
0.40554801 39.691895 39.174805 7
0.40766901 39.742676 39.044922 7
0.411102 39.763184 38.887695 7
0.39347801 41.03418 38.476562 7
0.39976501 40.98584 38.258789 7
0.411163 40.819336 37.935547 7
0.87184101 35.048828 -28.327148 7
0.86496001 35.164551 -28.570312 7
0.86958301 34.974121 -28.549805 7
0.84925801 33.423828 -31.443359 7
0.30117801 35.522461 39.436523 7
0.28546101 35.916016 39.675781 7
0.346329 38.449219 35.182617 7
0.35975599 38.255859 34.854492 7
0.36434901 38.246094 34.6875 7
0.37858599 38.032715 34.345703 7
0.401016 37.644043 33.855469 7
0.27066001 32.361328 36.362305 7
0.25854501 32.654785 36.513672 7
0.236771 33.112305 36.837891 7
0.30989099 34.056641 33.650391 7
0.31655899 34.016602 33.461914 7
0.29139701 36.061035 32.325195 7
0.308777 35.809082 31.963867 7
0.31890899 35.692383 31.719727 7
0.32206699 35.709473 31.59082 7
0.34152201 35.413086 31.198242 7
0.237534 39.152832 31.022461 7
0.25299099 38.917969 30.701172 7
0.27168301 38.616699 30.333008 7
0.276932 38.585938 30.168945 7
0.70964098 28.955078 -27.449219 7
0.206085 30.614746 34.352539 7
0.20022599 30.788574 34.383789 7
0.25827 31.821289 31.714844 7
0.283737 31.476562 31.246094 7
0.26815799 31.810547 31.420898 7
0.29539499 31.432129 30.925781 7
0.310837 31.249023 30.617188 7
0.26300001 33.751465 29.695312 7
0.28384399 33.528809 29.242188 7
0.28416401 33.594238 29.163086 7
0.216537 36.64502 28.087891 7
0.228577 36.489746 27.84375 7
0.244415 36.261719 27.549805 7
0.25721699 36.09082 27.297852 7
0.27354401 35.851562 26.999023 7
0.63882399 29.73291 -23.302734 7
0.63124102 29.821289 -23.49707 7
0.64416498 29.516602 -23.359375 7
-1.041962 -41.762695 -54.055664 7
-0.986435 -41.16748 -53.000977 7
-1.050949 -42.131836 -54.000977 7
-1.124725 -43.223633 -55.154297 7
-1.193893 -44.258789 -56.224609 7
-1.12854 -48.220215 -50.699219 7
0.23083501 29.977051 28.996094 7
0.239288 29.916992 28.810547 7
0.246323 29.87793 28.646484 7
0.25390601 29.829102 28.473633 7
0.258423 29.827148 28.344727 7
0.26544201 29.785645 28.180664 7
0.27163699 29.757324 28.029297 7
0.27642801 29.75 27.897461 7
0.29005399 29.708496 27.493164 7
0.223373 31.694824 27.438477 7
0.235153 31.570312 27.211914 7
0.25866699 31.253906 26.832031 7
0.244995 31.540527 26.941406 7
0.26460299 31.286133 26.615234 7
0.279434 31.10791 26.351562 7
0.18337999 34.294922 25.737305 7
0.186768 34.299316 25.619141 7
0.20211799 34.097168 25.357422 7
0.21885701 33.870605 25.080078 7
0.230591 33.729004 24.864258 7
0.234253 33.726562 24.745117 7
-0.973373 -37.185547 -49.28418 7
-1.022156 -37.87793 -49.97168 7
-1.065659 -38.511719 -50.571289 7
-1.018555 -38.069824 -49.726562 7
-1.064713 -38.737793 -50.365234 7
-1.115875 -39.46875 -51.081055 7
-0.84704602 -38.199707 -45.163086 7
-0.88414001 -38.774902 -45.636719 7
-0.83902001 -38.309082 -44.851562 7
-0.969055 -42.731445 -44.191406 7
0.23497 29.543945 25.024414 7
0.220779 29.819336 25.129883 7
0.25904801 29.35498 24.537109 7
0.13798501 32.829102 24.049805 7
0.153 32.645508 23.80957 7
0.16922 32.442871 23.55957 7
0.18423501 32.256348 23.322266 7
0.19773901 32.094727 23.102539 7
-0.78320301 -30.852539 -43.012695 7
-0.83291602 -31.474121 -43.677734 7
-0.87266499 -31.994141 -44.191406 7
-0.91239899 -32.515625 -44.701172 7
-0.94477803 -32.962891 -45.100586 7
-0.97715801 -33.412109 -45.499023 7
-1.020447 -33.97998 -46.055664 7
-1.067627 -34.591309 -46.666992 7
-0.66412401 -31.911133 -39.418945 7
-0.69557202 -32.358887 -39.788086 7
-0.70672601 -32.578613 -39.867188 7
-0.73045301 -32.941406 -40.124023 7
-0.76481599 -33.425781 -40.529297 7
-0.701096 -33.540039 -38.894531 7
-0.71292102 -33.769531 -38.976562 7
-0.90005499 -38.428711 -39.206055 7
0.21899401 27.463379 23.029297 7
0.21070901 27.633789 23.057617 7
0.230057 27.416504 22.78418 7
0.24084499 27.318848 22.605469 7
0.234207 27.465332 22.616211 7
0.243668 27.384766 22.451172 7
0.15469401 30.243164 21.421875 7
0.14776599 30.397949 21.421875 7
0.16081201 30.253418 21.225586 7
0.17189001 30.138184 21.049805 7
0.18559299 29.98291 20.848633 7
0.192734 29.925293 20.711914 7
0.189743 30.019043 20.671875 7
0.471863 25.061035 -19.211914 7
0.46580499 25.102051 -19.345703 7
-0.71130401 -26.990234 -39.291992 7
-0.77572602 -27.686523 -40.126953 7
-0.80821198 -28.087891 -40.512695 7
-0.82994097 -28.388672 -40.745117 7
-0.86453199 -28.812988 -41.157227 7
-0.90538001 -29.298828 -41.65332 7
-0.931274 -29.64502 -41.94043 7
-0.60531598 -28.294922 -36.073242 7
-0.625687 -28.588379 -36.275391 7
-0.63526899 -28.772461 -36.333008 7
-0.65390003 -29.050293 -36.509766 7
-0.695862 -29.567871 -36.996094 7
-0.62559497 -30.198242 -34.905273 7
-0.84454298 -35.064941 -35.326172 7
-0.80078101 -34.639648 -34.712891 7
-1.574707 -44.160156 41.454102 7
0.199921 25.933594 21.345703 7
0.202988 25.942383 21.255859 7
0.215317 25.831055 21.075195 7
0.220535 25.811523 20.964844 7
0.22822601 25.759766 20.831055 7
0.14236499 28.543457 19.545898 7
0.135208 28.690918 19.543945 7
0.15383901 28.474609 19.31543 7
0.163635 28.383301 19.165039 7
0.171661 28.315918 19.03125 7
0.181458 28.222656 18.881836 7
0.169006 28.442871 18.924805 7
-0.654724 -23.368652 -35.893555 7
-0.67529303 -23.625 -36.105469 7
-0.69699103 -23.891602 -36.330078 7
-0.72624201 -24.22168 -36.652344 7
-0.75135797 -24.519531 -36.918945 7
-0.77496302 -24.806641 -37.166016 7
-0.802719 -25.129883 -37.464844 7
-0.83349597 -25.479004 -37.801758 7
-0.86845398 -25.866699 -38.191406 7
-0.55004901 -24.773926 -32.900391 7
-0.547943 -24.833496 -32.813477 7
-0.57423401 -25.152344 -33.080078 7
-0.59368902 -25.409668 -33.259766 7
-0.62187201 -25.748047 -33.547852 7
-0.621292 -25.823242 -33.477539 7
-0.58196998 -27.314453 -31.441406 7
-0.80140698 -31.837891 -31.791992 7
-0.74444598 -31.378418 -31.008789 7
-0.70475799 -31.025879 -30.496094 7
-1.368713 -38.678223 36.161133 7
0.177139 24.364258 19.679688 7
0.191635 24.233887 19.494141 7
0.20343 24.135254 19.333008 7
0.201736 24.201172 19.293945 7
0.202728 24.233398 19.229492 7
0.212982 24.15332 19.083984 7
0.220535 24.104004 18.961914 7
0.114624 26.946289 17.821289 7
0.13353001 26.782715 17.549805 7
0.146423 26.655273 17.388672 7
0.15242 26.617188 17.28125 7
0.364227 22.713379 -16.739258 7
0.35273701 22.771973 -16.963867 7
0.36593601 22.56543 -16.884766 7
-0.71557599 -21.984863 -34.46582 7
-0.72139001 -22.112305 -34.483398 7
-0.77362102 -22.594727 -35.071289 7
-0.79800397 -22.865723 -35.314453 7
-0.53822303 -22.990723 -30.624023 7
-0.55010998 -23.166016 -30.707031 7
-0.53125 -23.079102 -30.429688 7
-0.48410001 -22.749512 -29.824219 7
-0.470108 -22.702148 -29.605469 7
-0.50550801 -24.699707 -28.619141 7
-0.564331 -25.452148 -29.087891 7
-0.75769001 -29.483887 -29.082031 7
-0.73149103 -29.289551 -28.739258 7
-0.71707201 -29.212891 -28.520508 7
0.18324301 23.04248 18.125 7
0.182632 23.09082 18.078125 7
0.179977 23.163086 18.047852 7
0.203003 22.978516 17.75293 7
0.099593997 25.64502 16.557617 7
0.091643997 25.78125 16.557617 7
0.094742 25.78125 16.474609 7
0.106842 25.669434 16.329102 7
0.113617 25.623047 16.22168 7
0.12326 25.541016 16.095703 7
0.126343 25.539551 16.014648 7
0.116348 25.701172 16.027344 7
0.30985999 21.842773 -16.023438 7
-0.53185999 -18.067383 -30.37207 7
-0.546341 -18.238281 -30.496094 7
-0.55952501 -18.399414 -30.603516 7
-0.45207199 -21.294922 -26.829102 7
-0.44872999 -21.333008 -26.742188 7
-0.43664601 -21.299805 -26.561523 7
-0.430237 -21.310547 -26.441406 7
-0.42382801 -21.322754 -26.322266 7
-0.41523701 -21.31543 -26.178711 7
-0.40838599 -21.322754 -26.054688 7
-0.40591401 -21.365723 -25.977539 7
-0.49630699 -22.693848 -26.4375 7
-0.458893 -22.439941 -25.996094 7
-0.499237 -22.846191 -26.356445 7
-0.53302002 -23.199219 -26.648438 7
-1.067078 -28.747559 31.313477 7
-1.015991 -28.224609 30.90918 7
-1.057236 -28.517578 31.356445 7
-1.004761 -27.984863 30.936523 7
0.119553 20.219727 19.512695 7
0.14978001 20.041992 19.105469 7
0.164658 19.939941 18.932617 7
0.14974999 21.85498 17.010742 7
0.161926 21.763184 16.868164 7
0.167404 21.819336 16.678711 7
0.180893 21.711426 16.527344 7
0.187729 21.674316 16.426758 7
0.076874003 24.36084 15.095703 7
0.081923999 24.336914 15.006836 7
0.089203 24.287109 14.904297 7
0.098236002 24.216309 14.791016 7
0.28385901 20.448242 -14.922852 7
-0.637878 -17.382324 -29.548828 7
-0.65150499 -17.538574 -29.655273 7
-0.66699201 -17.707031 -29.780273 7
-0.42910799 -20.371094 -24.238281 7
-0.45773301 -20.653809 -24.467773 7
-0.433121 -20.520508 -24.178711 7
-0.46734601 -20.848145 -24.460938 7
-0.442734 -20.714355 -24.171875 7
-0.46575901 -20.954102 -24.342773 7
-0.66216999 -24.943359 -23.936523 7
-0.95727497 -25.849609 28.650391 7
-0.90762299 -25.376465 28.27832 7
-0.95015001 -25.660645 28.708008 7
0.120407 19.059082 18.189453 7
0.122971 19.076172 18.125 7
0.13218699 19.031738 18.007812 7
0.128296 19.149902 17.953125 7
0.15419 20.646484 15.672852 7
0.15815701 20.641113 15.597656 7
0.15222199 20.737305 15.591797 7
0.159973 20.693359 15.490234 7
0.16301 20.697266 15.422852 7
0.094070002 23.030762 13.400391 7
-0.55403101 -14.897949 -26.969727 7
-0.56314099 -15.013672 -27.027344 7
-0.57775903 -15.160645 -27.140625 7
-0.58787501 -15.282227 -27.207031 7
-0.37812799 -18.466309 -22.068359 7
-0.37272599 -18.481445 -21.974609 7
-0.39695701 -18.711426 -22.150391 7
-0.39518699 -18.806641 -22.042969 7
-0.81115699 -22.686035 25.901367 7
0.099655002 17.961914 17.135742 7
0.122116 17.881836 16.845703 7
0.150391 19.477051 14.386719 7
0.053298999 22.01123 12.467773 7
0.060059 21.96875 12.381836 7
0.066298999 21.931152 12.297852 7
0.075591996 21.862305 12.200195 7
0.221848 18.442383 -12.943359 7
0.22143599 18.412598 -12.990234 7
0.210297 18.48291 -13.117188 7
-0.44998199 -12.490723 -24.597656 7
-0.43991101 -12.50293 -24.46875 7
-0.45445299 -12.632812 -24.580078 7
-0.46579 -12.748535 -24.660156 7
-0.49804699 -13.025391 -24.911133 7
-0.51207 -13.154785 -25.016602 7
-0.35119599 -16.975098 -20.402344 7
-0.39491299 -17.370605 -20.691406 7
-0.374634 -17.284668 -20.477539 7
-0.38601699 -17.412109 -20.53125 7
-0.59162903 -21.147461 -20.097656 7
-0.59285003 -21.205566 -20.055664 7
-0.58815002 -21.21875 -19.96875 7
-0.60926801 -21.430176 -20.079102 7
-0.60186797 -21.422852 -19.970703 7
0.083861999 17.004395 16.166016 7
0.103958 16.948242 15.90918 7
0.106842 16.959961 15.850586 7
0.11409 16.936035 15.761719 7
0.13371301 18.547363 13.401367 7
0.043411002 20.831543 11.519531 7
0.03334 20.955566 11.518555 7
0.034072999 20.973633 11.46582 7
0.036407001 20.976074 11.407227 7
0.039291002 20.972656 11.345703 7
0.044876002 20.943359 11.271484 7
0.049896002 20.918457 11.200195 7
0.175522 17.711426 -12.163086 7
0.18499801 17.596191 -12.139648 7
-0.305801 -13.086426 -20.469727 7
-0.30246001 -13.118652 -20.408203 7
-0.30770901 -13.197266 -20.421875 7
-0.315231 -13.288574 -20.455078 7
-0.34219399 -15.745117 -19.023438 7
-0.36234999 -15.917969 -19.146484 7
-0.337814 -15.812012 -18.912109 7
-0.353394 -15.957031 -18.998047 7
-0.55844098 -19.520996 -18.543945 7
-0.55927998 -19.618652 -18.455078 7
-0.56457502 -19.702148 -18.446289 7
-0.56239301 -19.731445 -18.381836 7
-0.64587402 -21.375977 -17.824219 7
-0.69117701 -19.050781 22.170898 7
-0.69790602 -18.945801 22.354492 7
0.081802003 16.086914 15.100586 7
0.094162002 16.025879 14.983398 7
0.098968998 16.021484 14.916016 7
0.100861 16.040039 14.867188 7
0.110306 16.000488 14.770508 7
0.103653 16.116699 14.739258 7
0.124725 17.618652 12.447266 7
0.116791 17.713379 12.449219 7
0.113495 17.769043 12.425781 7
0.121735 17.725098 12.34082 7
0.124207 17.730469 12.287109 7
0.120911 17.786133 12.263672 7
0.122223 17.800781 12.21582 7
0.111984 17.916992 12.228516 7
-0.41395599 -9.8837891 -21.650391 7
-0.41888401 -9.9560547 -21.669922 7
-0.42684901 -10.040039 -21.714844 7
-0.45367399 -10.252441 -21.901367 7
-0.46710199 -10.359375 -21.994141 7
-0.47749299 -10.45459 -22.05957 7
-0.47029099 -10.480469 -21.970703 7
-0.313492 -14.414062 -17.782227 7
-0.31481901 -14.46582 -17.757812 7
-0.33256501 -14.61377 -17.857422 7
-0.32727101 -14.671387 -17.746094 7
-0.34136999 -14.79834 -17.817383 7
-0.361572 -14.961914 -17.933594 7
-0.358612 -14.98877 -17.875 7
-0.35751301 -15.026855 -17.831055 7
-0.67237902 -20.376465 -16.769531 7
-0.656021 -20.300781 -16.617188 7
-0.65127599 -20.307617 -16.539062 7
-0.63735998 -20.249023 -16.40332 7
-0.62422198 -17.222168 20.798828 7
0.089813001 16.98877 11.792969 7
0.100388 16.928223 11.701172 7
0.101166 16.947266 11.65918 7
0.084762998 17.105957 11.699219 7
0.096573003 17.034668 11.603516 7
-0.0047149998 19.245117 9.5615234 7
-0.00088499999 19.231934 9.5029297 7
0.0066069998 19.186523 9.4316406 7
0.0098270001 19.178223 9.375 7
0.017318999 19.131348 9.3037109 7
-0.27035499 -10.904785 -17.961914 7
-0.27818301 -10.984863 -17.996094 7
-0.28924599 -11.079102 -18.055664 7
-0.30677801 -11.202637 -18.165039 7
-0.29392999 -11.19043 -18.038086 7
-0.286194 -13.190918 -16.589844 7
-0.27731299 -13.225586 -16.461914 7
-0.28710899 -13.320312 -16.5 7
-0.30013999 -13.431641 -16.561523 7
-0.32937601 -13.632324 -16.738281 7
-0.29643199 -13.494141 -16.469727 7
-0.30689999 -13.593262 -16.511719 7
-0.32316601 -13.722656 -16.59375 7
-0.60720801 -18.902344 -15.060547 7
-0.63604701 -19.173828 -15.138672 7
0.068801999 14.501953 13.404297 7
0.081390001 14.444336 13.299805 7
0.082184002 14.467773 13.262695 7
0.084274001 14.481934 13.217773 7
0.091628999 14.459961 13.143555 7
0.087844998 16.171875 10.868164 7
0.080825999 16.249512 10.863281 7
0.086181998 16.231445 10.801758 7
0.09285 16.203125 10.735352 7
0.099503003 16.174316 10.667969 7
0.091826998 16.256348 10.664062 7
-0.012177 18.348145 8.6171885 7
-0.011368 18.359375 8.5712891 7
-0.0040739998 18.316406 8.5058594 7
0.00062599999 18.294434 8.4482422 7
0.00856 18.245605 8.3798828 7
0.010666 18.246094 8.3320312 7
-0.36642501 -7.5131841 -19.149414 7
-0.37057501 -7.5732422 -19.164062 7
-0.387741 -7.7216802 -19.264648 7
-0.395309 -7.79248 -19.305664 7
-0.40969801 -7.8847661 -19.401367 7
-0.423401 -7.9750981 -19.491211 7
-0.430969 -8.0473633 -19.532227 7
-0.43580601 -8.1108398 -19.550781 7
-0.27618399 -9.9296885 -17.168945 7
-0.257202 -9.9394531 -16.978516 7
-0.269577 -10.032715 -17.046875 7
-0.275879 -10.144043 -17.044922 7
-0.28511 -12.487305 -15.572266 7
-0.30024701 -12.602539 -15.644531 7
-0.30581701 -12.670898 -15.652344 7
-0.28947401 -12.626465 -15.510742 7
-0.305298 -12.74707 -15.586914 7
0.055695001 13.845215 12.777344 7
0.050980002 13.90332 12.769531 7
0.06842 13.816895 12.645508 7
0.069945998 13.833984 12.606445 7
0.076309003 13.819824 12.541016 7
0.079208001 13.827148 12.494141 7
0.077376999 15.468262 10.238281 7
0.075455002 15.503906 10.210938 7
0.070770003 15.560059 10.194336 7
0.064727999 15.626465 10.183594 7
0.069687001 15.611816 10.12793 7
0.079467997 15.560547 10.051758 7
0.075470001 15.61084 10.03125 7
0.071471997 15.661621 10.011719 7
-0.226959 -8.902832 -15.929688 7
-0.22052 -8.9189453 -15.861328 7
-0.25038099 -9.1513672 -16.007812 7
-0.25407401 -9.2060547 -16.011719 7
-0.231186 -11.233887 -14.491211 7
-0.228348 -11.256836 -14.445312 7
-0.22480799 -11.277344 -14.395508 7
-0.24308801 -11.437012 -14.458984 7
-0.26637301 -11.583984 -14.582031 7
-0.24324 -11.509766 -14.40332 7
-0.257889 -11.652832 -14.442383 7
-0.26884499 -11.742676 -14.484375 7
-0.27835101 -11.824707 -14.517578 7
-0.474731 -15.081543 -13.691406 7
-0.46902499 -15.083008 -13.62207 7
-0.47201499 -15.134277 -13.602539 7
-0.47430399 -15.182129 -13.579102 7
-0.486038 -15.283203 -13.608398 7
-0.48976099 -15.338867 -13.591797 7
-0.55621302 -16.770996 -12.75 7
-0.49572799 -15.976074 14.805664 7
0.052368 13.17041 12.05957 7
0.063477002 13.127441 11.974609 7
0.062134001 14.82666 9.5898438 7
0.069564998 14.794922 9.5273438 7
0.076981001 14.762207 9.4648438 7
0.081496999 14.750488 9.4140615 7
0.074340999 14.821289 9.4072266 7
0.069366001 14.875488 9.3916016 7
0.073867999 14.862793 9.3398438 7
0.080550998 14.834961 9.2802734 7
-0.023987001 16.792969 6.9960942 7
-0.019485001 16.772461 6.9462891 7
-0.017166 16.769531 6.9023442 7
-0.010498 16.732422 6.8466802 7
-0.0081940005 16.728027 6.8017578 7
-0.0095060002 16.751465 6.766602 7
-0.007187 16.74707 6.7216802 7
-0.30775499 -5.405273 -16.915039 7
-0.31085199 -5.4550781 -16.923828 7
-0.31623799 -5.5092769 -16.950195 7
-0.32162499 -5.5639648 -16.975586 7
-0.324738 -5.6142578 -16.984375 7
-0.33088699 -5.6713872 -17.015625 7
-0.33856201 -5.7304692 -17.056641 7
-0.208344 -8.0058594 -15.043945 7
-0.22003201 -8.1972656 -15.043945 7
-0.229279 -8.2680664 -15.086914 7
-0.230865 -8.3110352 -15.077148 7
-0.224411 -10.62207 -13.564453 7
-0.23826601 -10.717773 -13.623047 7
-0.215363 -10.650879 -13.457031 7
-0.226166 -10.733398 -13.49707 7
-0.236191 -10.812988 -13.533203 7
-0.44946301 -14.087891 -12.776367 7
-0.45262101 -14.137695 -12.759766 7
-0.46116599 -14.215332 -12.769531 7
-0.454346 -14.211426 -12.700195 7
-0.45597801 -14.251953 -12.673828 7
-0.45607001 -14.285156 -12.640625 7
-0.46153301 -14.347168 -12.634766 7
-0.54177898 -15.892578 -11.765625 7
0.04631 12.492188 11.517578 7
0.051849 12.484375 11.463867 7
0.048096001 12.530762 11.452148 7
0.049773999 12.544922 11.416016 7
0.042160001 12.614258 11.421875 7
0.051559001 12.583008 11.349609 7
0.055542 12.58252 11.301758 7
0.058761999 12.587891 11.258789 7
0.060424998 12.601562 11.22168 7
0.054184001 14.203613 8.9521484 7
0.059691999 14.185547 8.9003906 7
0.065978996 14.161133 8.8457031 7
0.069182999 14.158691 8.8017578 7
0.070846997 14.165039 8.7626953 7
0.060196001 14.254395 8.7666016 7
0.061081 14.266113 8.7304688 7
0.066605002 14.248047 8.6796885 7
-0.02829 16.03418 6.3369141 7
-0.031998001 16.074219 6.3076172 7
-0.036469001 16.118164 6.2792969 7
-0.035567999 16.124512 6.2412109 7
-0.030060001 16.09668 6.1914058 7
-0.02916 16.102051 6.1523442 7
-0.024444999 16.07959 6.1044922 7
-0.31541401 -4.5595698 -16.143555 7
-0.31785601 -4.6044922 -16.149414 7
-0.31387299 -4.6376948 -16.110352 7
-0.31390399 -4.6791992 -16.099609 7
-0.326859 -4.7441411 -16.177734 7
-0.19819599 -7.3920898 -14.157227 7
-0.20228601 -7.440918 -14.166016 7
-0.202347 -7.4770508 -14.147461 7
-0.195618 -9.6279297 -12.797852 7
-0.201401 -9.7172852 -12.785156 7
-0.197418 -9.7338867 -12.738281 7
-0.20638999 -9.8032227 -12.766602 7
-0.212128 -9.8598633 -12.776367 7
-0.22757 -9.956543 -12.842773 7
-0.210648 -9.9189453 -12.720703 7
-0.214752 -9.9682617 -12.719727 7
-0.218872 -10.018555 -12.719727 7
-0.23431399 -10.115723 -12.785156 7
-0.23277301 -10.142578 -12.751953 7
-0.236145 -10.222168 -12.722656 7
-0.42373699 -13.249512 -11.814453 7
-0.42952001 -13.30957 -11.811523 7
-0.42796299 -13.331543 -11.771484 7
-0.42643699 -13.354492 -11.732422 7
-0.43220499 -13.414062 -11.728516 7
-0.42742899 -13.419922 -11.672852 7
-0.52902198 -15.041016 -10.887695 7
0.046494 11.907715 10.856445 7
0.049056999 11.915527 10.817383 7
0.045898002 11.955566 10.803711 7
0.041931 12.000488 10.793945 7
0.051849 11.967285 10.722656 7
0.057677999 11.957031 10.669922 7
0.059432998 11.969238 10.634766 7
0.060364 11.987305 10.604492 7
-0.037459999 15.375 5.5849609 7
-0.039779998 15.400879 5.5527339 7
-0.038024999 15.399414 5.5136719 7
-0.035477001 15.391602 5.4736328 7
-0.027145 15.354492 5.3867192 7
-0.169907 -6.5566411 -13.393555 7
-0.169098 -6.5883789 -13.37207 7
-0.17933699 -6.651855 -13.419922 7
-0.18194599 -6.6938481 -13.419922 7
-0.184113 -8.9726562 -12.119141 7
-0.187576 -9.0166016 -12.116211 7
-0.18769801 -9.0795898 -12.073242 7
-0.19464099 -9.1694336 -12.068359 7
-0.209244 -9.2885742 -12.105469 7
-0.221222 -9.3662109 -12.149414 7
-0.20255999 -9.3242188 -12.023438 7
-0.22226 -9.4638672 -12.086914 7
-0.22409099 -9.5332031 -12.051758 7
-0.49804699 -14.097656 -10.186523 7
-0.51181 -14.196777 -10.210938 7
-0.50335699 -14.178223 -10.140625 7
-0.50173998 -14.195801 -10.099609 7
-0.507797 -14.254883 -10.091797 7
-0.51046801 -14.29541 -10.069336 7
-0.52250701 -14.385742 -10.085938 7
-0.35781899 -10.669434 14.427734 7
-0.37268099 -10.699707 14.529297 7
-0.35791001 -10.576172 14.503906 7
-0.092758 9.9106445 13.107422 7
0.044112999 11.498047 10.199219 7
0.051102001 11.481934 10.145508 7
0.055603001 11.499023 10.074219 7
0.060120001 11.516602 10.00293 7
0.063660003 11.518066 9.9619141 7
-0.250397 -2.844238 -14.3125 7
-0.239731 -2.8681641 -14.237305 7
-0.237076 -2.9013669 -14.213867 7
-0.241577 -2.9428711 -14.234375 7
-0.245178 -2.983887 -14.250977 7
-0.24966399 -3.026855 -14.272461 7
-0.25415 -3.0683589 -14.292969 7
-0.266693 -3.1586909 -14.357422 7
-0.27027899 -3.19873 -14.37207 7
-0.28280601 -3.2524409 -14.443359 7
-0.28640699 -3.2944341 -14.458008 7
-0.16626 -5.8964839 -12.790039 7
-0.160934 -5.9160161 -12.745117 7
-0.15741 -5.9399409 -12.709961 7
-0.161026 -5.9824219 -12.716797 7
-0.16821299 -6.0336909 -12.744141 7
-0.187103 -6.1806641 -12.811523 7
-0.170151 -8.3305664 -11.480469 7
-0.16662601 -8.3476562 -11.441406 7
-0.16757201 -8.3813477 -11.426758 7
-0.15332 -8.3588867 -11.329102 7
-0.155167 -8.3950195 -11.318359 7
-0.16505399 -8.4604492 -11.351562 7
-0.171371 -8.5126953 -11.364258 7
-0.190292 -8.6416016 -11.423828 7
-0.169769 -8.5952148 -11.293945 7
-0.17788699 -8.6552734 -11.316406 7
-0.188675 -8.7241211 -11.352539 7
-0.19946299 -8.7929688 -11.387695 7
-0.20228601 -8.862793 -11.360352 7
-0.205093 -8.9321289 -11.332031 7
-0.395172 -12.02002 -10.21582 7
-0.40599099 -12.097656 -10.235352 7
-0.40606701 -12.124023 -10.206055 7
-0.49244699 -13.473633 -9.4648438 7
-0.49342301 -13.503418 -9.4365234 7
-0.48992899 -13.510254 -9.3896484 7
-0.49539199 -13.562988 -9.3798828 7
-0.492798 -13.574219 -9.3369141 7
-0.49735999 -13.62207 -9.3222656 7
-0.50912499 -13.707031 -9.3359385 7
-0.34605399 -9.9799805 13.832031 7
-0.34059101 -9.9287109 13.829102 7
-0.14421099 -5.3388672 -12.09668 7
-0.15361001 -5.3920898 -12.136719 7
-0.149902 -5.4150391 -12.102539 7
-0.163498 -8.0214844 -10.769531 7
-0.176682 -8.0952148 -10.817383 7
-0.15330499 -8.043457 -10.679688 7
-0.158981 -8.090332 -10.688477 7
-0.167465 -8.1469727 -10.710938 7
-0.17221101 -8.1918945 -10.714844 7
-0.177902 -8.2402344 -10.724609 7
-0.181702 -8.2817383 -10.723633 7
-0.179886 -8.3032227 -10.694336 7
-0.38269001 -11.418457 -9.5986328 7
-0.381836 -11.44043 -9.5673828 7
-0.383789 -11.473633 -9.5478516 7
-0.37353501 -11.453125 -9.4775391 7
-0.46778899 -12.83252 -8.7167969 7
-0.47351101 -12.883789 -8.7080078 7
-0.46983299 -12.88916 -8.6630859 7
-0.47933999 -12.958496 -8.6669922 7
-0.292862 -9.2426758 13.072266 7
-0.144577 -4.8095698 -11.549805 7
-0.142654 -4.835938 -11.527344 7
-0.143677 -4.8681641 -11.521484 7
-0.150589 -4.9130859 -11.547852 7
-0.15258799 -4.9462891 -11.545898 7
-0.157547 -4.9868159 -11.55957 7
-0.160538 -5.023438 -11.564453 7
-0.138733 -7.3608398 -10.182617 7
-0.14469901 -7.4067378 -10.194336 7
-0.14474501 -7.4335942 -10.176758 7
-0.15365601 -7.4892578 -10.203125 7
-0.16159099 -7.5419922 -10.223633 7
-0.14686599 -7.5209961 -10.132812 7
-0.150848 -7.5605469 -10.134766 7
-0.15387 -7.5976558 -10.131836 7
-0.163757 -7.6557622 -10.15918 7
-0.27775601 -8.6342773 12.522461 7
-0.292862 -8.6601562 12.612305 7
-0.28181499 -8.5957031 12.582031 7
-0.28285199 -8.5722656 12.607422 7
-0.28086901 -8.5390615 12.618164 7
-0.28491199 -8.5263672 12.657227 7
-0.29600501 -8.5380859 12.727539 7
-0.30107099 -8.5288086 12.771484 7
-0.30108601 -8.5014648 12.791992 7
-0.154816 -7.0805659 -9.7509766 7
-0.13942 -7.0600591 -9.6621094 7
-0.144623 -7.1010742 -9.6689453 7
-0.15397599 -7.1811519 -9.6787109 7
-0.165344 -7.242188 -9.7138672 7
-0.16442899 -7.2910161 -9.6738281 7
-0.165512 -7.3198242 -9.6611328 7
-0.169678 -7.3579102 -9.6630859 7
-0.32372999 -10.853516 9.8134766 7
-0.32693499 -10.847168 9.8505859 7
-0.326965 -10.827148 9.8759766 7
-0.317581 -10.766602 9.8691406 7
-0.30816701 -10.706055 9.8623047 7
-0.30926499 -10.69043 9.8916016 7
-0.309311 -10.669922 9.9169922 7
-0.26855499 -8.3041992 11.938477 7
-0.27174401 -8.2641602 11.992188 7
-0.26861599 -8.2290039 11.998047 7
-0.26969901 -8.1816406 12.041992 7
-0.263428 -8.1362305 12.033203 7
-0.282379 -8.1738281 12.134766 7
-0.27084401 -8.0844727 12.123047 7
-0.26876801 -8.0522461 12.133789 7
-0.26878399 -8.0263672 12.15332 7
-0.129196 -3.851074 -10.496094 7
-0.127075 -3.875 -10.475586 7
-0.124954 -3.898438 -10.455078 7
-0.123886 -3.9233401 -10.439453 7
-0.123932 -3.9516599 -10.430664 7
-0.124008 -4.0068359 -10.412109 7
-0.121887 -4.030273 -10.390625 7
-0.122986 -4.0600591 -10.386719 7
-0.120865 -4.0834961 -10.366211 7
-0.12413 -4.1162109 -10.373047 7
-0.127396 -4.1499019 -10.378906 7
-0.124283 -6.4082031 -9.2421885 7
-0.116776 -6.4121089 -9.1933594 7
-0.12114 -6.4492192 -9.1982422 7
-0.125504 -6.485352 -9.2011719 7
-0.127716 -6.516602 -9.1962891 7
-0.13961799 -6.5742192 -9.2333984 7
-0.139679 -6.5986328 -9.2177734 7
-0.127838 -6.5908198 -9.1494141 7
-0.132202 -6.625977 -9.1523438 7
-0.135483 -6.6601558 -9.1513672 7
-0.13446 -6.6816411 -9.1308594 7
-0.339798 -9.6904297 -7.9980469 7
-0.33667001 -9.7216797 -7.9394531 7
-0.34214801 -9.7636719 -7.9355469 7
-0.34112501 -9.7807617 -7.9082031 7
-0.341187 -9.8032227 -7.8857422 7
-0.34666401 -9.8457031 -7.8818359 7
-0.35105899 -9.8837891 -7.874023 7
-0.35112 -9.9057617 -7.8505859 7
-0.110474 -3.5444341 -9.9306641 7
-0.112747 -3.574219 -9.9335938 7
-0.120773 -3.718262 -9.9277344 7
-0.12754799 -3.7558589 -9.9521484 7
-0.12648 -3.8061521 -9.9277344 7
-0.119812 -6.1152339 -8.7695312 7
-0.124359 -6.1508789 -8.7744141 7
-0.128922 -6.186523 -8.7792969 7
-0.127838 -6.20752 -8.7597656 7
-0.125626 -6.2246089 -8.734375 7
-0.125671 -6.2485352 -8.7197266 7
-0.126831 -6.2749019 -8.7099609 7
-0.132523 -6.313477 -8.7197266 7
-0.139328 -6.355957 -8.7333984 7
-0.142746 -6.3886719 -8.7324219 7
-0.32748401 -9.2856445 -7.4882808 7
-0.32641599 -9.3017578 -7.4619141 7
-0.32760599 -9.3261719 -7.4443359 7
-0.32992601 -9.3549805 -7.429688 7
-0.33111599 -9.3803711 -7.4111328 7
-0.335693 -9.4169922 -7.4042969 7
-0.340271 -9.4545898 -7.3974609 7
-0.340332 -9.4750977 -7.375 7
-0.347168 -9.5209961 -7.375977 7
-0.31596401 -8.8857422 -7.03125 7
-0.31602499 -8.9057617 -7.0107422 7
-0.318436 -8.934082 -6.9970698 7
-0.31613201 -8.9448242 -6.967773 7
0.032648001 11.293758 9.8922291 7
-0.166776 -3.1177011 -14.260295 7
-0.087020002 -7.4597092 -9.9404707 7
-0.200105 -3.5867021 -9.9487619 7
-0.362297 -9.4191313 -7.5026269 7
-0.39807299 -9.1824598 13.028419 7
-0.073233999 12.885287 11.603244 7
-0.43972099 -5.378664 -16.84981 7
-0.288562 -6.763597 -13.599624 7
-0.25230801 -9.1605043 -11.868706 7
-0.179225 -4.0205131 -10.303033 7
