# .PCD v0.7 - Point Cloud Data file format
VERSION 0.7
FIELDS x y z intensity
SIZE 4 4 4 4
TYPE F F F F
COUNT 1 1 1 1
WIDTH 838
HEIGHT 1
VIEWPOINT 0 0 0 1 0 0 0
POINTS 838
DATA ascii
1.11821 45.262695 -45.621094 7
0.466263 55.566406 50.8125 7
0.53228801 56.128906 46.553711 7
1.01236 43.099609 -43.112305 7
0.99826002 41.186523 -46.043945 7
0.39363101 51.113281 46.8125 7
0.43820199 49.960938 45.581055 7
0.48902899 50.898438 42.117188 7
0.48942599 50.998047 42 7
0.349197 57.228516 43.318359 7
0.38157699 56.332031 42.460938 7
0.41441301 55.417969 41.59668 7
0.45027199 54.40625 40.669922 7
0.356323 46.825195 43.264648 7
0.31063801 48.110352 44.207031 7
0.380463 49.109375 39.989258 7
0.39621001 48.78418 39.549805 7
0.41007999 48.508789 39.152344 7
0.267075 54.168945 40.365234 7
0.29675299 53.435547 39.648438 7
0.31698599 52.967773 39.126953 7
0.29887399 53.585938 39.375977 7
0.80995202 36.010742 -40.447266 7
0.339706 42.451172 39.513672 7
0.337524 42.601562 39.46875 7
0.390091 43.668945 36.196289 7
0.383957 43.910156 36.219727 7
0.35415599 45.295898 36.117188 7
0.37039199 44.986328 35.712891 7
0.37574801 44.945312 35.514648 7
0.38992301 44.683594 35.152344 7
0.29762301 39.091797 36.518555 7
0.289215 39.358398 36.589844 7
0.31971699 42.020508 32.695312 7
0.33453399 41.768555 32.356445 7
0.34455901 41.625 32.099609 7
0.353104 41.511719 31.866211 7
0.237656 45.819336 31.811523 7
0.24620099 45.700195 31.579102 7
0.268433 45.256836 31.134766 7
0.64181501 31.691406 -35.426758 7
0.66039997 31.224609 -35.055664 7
0.25444001 35.928711 33.817383 7
0.25343299 36.03125 33.755859 7
0.25634801 39.470703 30.070312 7
0.27803001 39.101562 29.663086 7
0.28839099 38.963867 29.424805 7
0.29434201 38.915039 29.250977 7
0.30700701 38.727539 28.980469 7
0.32058701 38.519531 28.697266 7
0.19544999 42.683594 28.577148 7
0.205322 42.543945 28.348633 7
0.226227 42.166016 27.97168 7
0.234009 42.069336 27.772461 7
0.19558699 33.773438 31.90332 7
0.204926 33.693359 31.686523 7
0.202225 33.816406 31.65332 7
0.245178 34.926758 29.134766 7
0.253052 34.926758 28.869141 7
0.231232 36.933594 27.342773 7
0.24200401 36.797852 27.119141 7
0.243652 36.833984 27.015625 7
0.25921601 36.604492 26.730469 7
0.26541099 36.551758 26.567383 7
0.162582 40.001953 25.989258 7
0.17811599 39.759766 25.711914 7
0.19111601 39.566406 25.466797 7
0.20661899 39.322266 25.192383 7
0.20701601 39.376953 25.099609 7
-0.98805201 -44.483398 -50.300781 7
-1.058838 -45.595703 -51.339844 7
-0.996185 -44.832031 -50.213867 7
-1.065369 -45.927734 -51.220703 7
-1.1307369 -46.974609 -52.162109 7
-1.1852421 -47.87207 -52.923828 7
-1.007965 -49.598633 -45.649414 7
-1.098206 -51.110352 -46.850586 7
-0.95169097 -48.932617 -44.583008 7
0.198883 32.820312 27.064453 7
0.21786501 32.566406 26.742188 7
0.229691 32.5 26.445312 7
0.241455 32.368164 26.223633 7
0.25155601 32.262695 26.023438 7
0.258591 32.209961 25.863281 7
0.26451099 32.173828 25.717773 7
0.27096599 32.126953 25.564453 7
0.263794 32.30957 25.583008 7
0.28756699 32.033203 25.142578 7
0.187912 34.728516 25.165039 7
0.206589 34.464844 24.866211 7
0.229706 34.121094 24.517578 7
0.21534701 34.433594 24.609375 7
0.23844901 34.088867 24.262695 7
0.248505 33.97168 24.068359 7
0.13578799 37.402344 23.410156 7
0.146667 37.262695 23.210938 7
0.162781 37.024414 22.955078 7
0.18275499 36.71582 22.661133 7
0.198578 36.480469 22.411133 7
0.43746901 28.231445 -26.646484 7
0.44429001 27.991211 -26.671875 7
-0.96693403 -40.28418 -46.619141 7
-1.013092 -40.986328 -47.220703 7
-1.05484 -41.634766 -47.751953 7
-1.0983731 -42.307617 -48.306641 7
-1.059464 -41.917969 -47.616211 7
-1.0979919 -42.529297 -48.092773 7
-0.772232 -39.90625 -41.65918 7
-0.79753101 -40.34668 -41.928711 7
-0.83493 -40.951172 -42.370117 7
-0.88176 -41.6875 -42.945312 7
-1.060486 -46.701172 -42.749023 7
-0.98274201 -45.776367 -41.470703 7
-0.96971101 -45.683594 -41.183594 7
0.213928 31.334961 23.654297 7
0.219955 31.352539 23.446289 7
0.174698 32.649414 23.227539 7
0.190323 32.451172 22.986328 7
0.19215401 32.478516 22.894531 7
0.20387299 32.342773 22.696289 7
0.218262 32.162109 22.469727 7
0.213211 32.299805 22.452148 7
0.100189 35.545898 21.691406 7
0.111862 35.399414 21.498047 7
0.132782 35.094727 21.216797 7
0.146835 34.90625 21.00293 7
0.15910301 34.748047 20.807617 7
0.15914901 34.798828 20.728516 7
-1.037521 -35.139648 -45.624023 7
-1.072113 -35.626953 -46.041016 7
-1.102203 -36.066406 -46.389648 7
-1.135834 -36.545898 -46.789062 7
-0.774872 -33.357422 -40.917969 7
-0.80850202 -33.833008 -41.314453 7
-0.85243201 -34.429688 -41.855469 7
-0.88093603 -34.852539 -42.174805 7
-0.925201 -35.458008 -42.716797 7
-0.95017999 -35.844727 -42.982422 7
-0.98738098 -36.374023 -43.419922 7
-1.0294189 -36.959961 -43.920898 7
-1.062439 -37.445312 -44.294922 7
-0.64218098 -34.03125 -37.092773 7
-0.68457001 -34.630859 -37.583008 7
-0.72139001 -35.256836 -37.911133 7
-0.75445598 -35.748047 -38.269531 7
-0.68177801 -35.737305 -36.429688 7
-0.68810999 -35.90332 -36.425781 7
-0.86007702 -40.433594 -36.101562 7
-0.84901398 -40.37207 -35.867188 7
-1.272141 -40.913086 43.900391 7
0.183777 29.972656 21.023438 7
0.180481 30.072266 20.987305 7
0.194168 29.916016 20.786133 7
0.203629 29.824219 20.628906 7
0.20327801 29.878906 20.56543 7
0.227722 29.607422 20.196289 7
0.112259 32.779297 19.195312 7
0.127823 32.625 18.913086 7
0.13855 32.500977 18.748047 7
0.1353 32.597656 18.702148 7
-0.71365398 -29.396484 -37.585938 7
-0.74580401 -29.814453 -37.945312 7
-0.77654999 -30.216797 -38.283203 7
-0.806274 -30.613281 -38.605469 7
-0.83390802 -30.988281 -38.898438 7
-0.86050397 -31.355469 -39.175781 7
-0.89614898 -31.817383 -39.572266 7
-0.92761201 -32.238281 -39.911133 7
-0.597031 -30.313477 -34.236328 7
-0.60382098 -30.469727 -34.249023 7
-0.61444098 -30.666992 -34.310547 7
-0.63688701 -30.996094 -34.519531 7
-0.66456598 -31.383789 -34.794922 7
-0.60823101 -32.273438 -32.623047 7
-0.814224 -36.907227 -32.686523 7
-0.79069501 -36.694336 -32.331055 7
-0.74865699 -36.250977 -31.768555 7
0.16514599 28.283203 19.366211 7
0.17423999 28.201172 19.22168 7
0.190735 28.014648 19.013672 7
0.193497 28.020508 18.925781 7
0.19589201 28.03125 18.84082 7
0.205338 27.943359 18.695312 7
0.208084 27.948242 18.608398 7
0.094391003 30.93457 17.460938 7
0.101013 30.87793 17.339844 7
0.109024 30.800781 17.208008 7
0.130035 30.530273 16.981445 7
0.134537 30.503906 16.87793 7
0.272324 21.515625 -24.399414 7
0.28262299 21.337891 -24.311523 7
-0.64350897 -25.370117 -34.300781 7
-0.66595501 -25.654297 -34.521484 7
-0.69271898 -26.063477 -34.730469 7
-0.71594203 -26.358398 -34.957031 7
-0.74180597 -26.677734 -35.21582 7
-0.76728803 -26.995117 -35.467773 7
-0.791641 -27.303711 -35.704102 7
-0.81297302 -27.585938 -35.902344 7
-0.841492 -27.935547 -36.188477 7
-0.86738598 -28.262695 -36.44043 7
-0.54574603 -26.738281 -31.261719 7
-0.565979 -27.012695 -31.4375 7
-0.56271398 -27.056641 -31.333008 7
-0.59088099 -27.40918 -31.600586 7
-0.61300701 -27.704102 -31.794922 7
-0.63740498 -28.023438 -32.015625 7
-0.530716 -28.69043 -29.132812 7
-0.58700597 -29.356445 -29.693359 7
-0.56216401 -29.164062 -29.344727 7
-0.75575298 -33.324219 -29.233398 7
-0.716034 -32.942383 -28.741211 7
-0.67707801 -32.567383 -28.258789 7
0.156509 26.411133 17.571289 7
0.17054699 26.269531 17.400391 7
0.174255 26.260742 17.311523 7
0.18550099 26.195312 17.104492 7
0.197632 26.076172 16.950195 7
0.075499997 28.994141 15.766602 7
0.078429997 28.990234 15.679688 7
0.088638 28.887695 15.544922 7
0.099197 28.779297 15.408203 7
0.107864 28.695312 15.285156 7
0.118042 28.59082 15.152344 7
0.25266999 22.272461 -20.166016 7
0.24911501 22.262695 -20.259766 7
0.24520899 22.256836 -20.356445 7
0.24638399 22.192383 -20.396484 7
-0.61990398 -22.984375 -32.131836 7
-0.630539 -23.149414 -32.202148 7
-0.71264601 -23.904297 -33.121094 7
-0.72006202 -24.045898 -33.151367 7
-0.80625898 -25.087891 -33.929688 7
-0.81126398 -25.211914 -33.927734 7
-0.57179302 -25.101562 -29.585938 7
-0.52865601 -24.77832 -29.041992 7
-0.50372303 -24.620117 -28.703125 7
-0.52531397 -24.887695 -28.883789 7
-0.484604 -24.582031 -28.371094 7
-0.46452299 -24.464844 -28.087891 7
-0.45253 -24.421875 -27.896484 7
-0.49769601 -26.37793 -26.96582 7
-0.52337599 -26.695312 -27.171875 7
-0.54824799 -27.006836 -27.368164 7
-0.58180201 -27.472656 -27.586914 7
-0.70318598 -30.743164 -26.62207 7
-0.94563299 -30.099609 32.070312 7
0.132965 25.166992 16.508789 7
0.14100599 25.106445 16.393555 7
0.157028 24.985352 16.163086 7
0.151962 25.084961 16.141602 7
0.168152 24.922852 15.969727 7
0.168396 24.956055 15.911133 7
0.053771999 27.694336 14.501953 7
0.054443002 27.71875 14.43457 7
0.066101 27.601562 14.300781 7
0.080994003 27.439453 14.146484 7
0.086960003 27.395508 14.048828 7
0.088027999 27.414062 13.979492 7
-0.59005702 -20.431641 -29.789062 7
-0.59945703 -20.646484 -29.794922 7
-0.41926599 -23.443359 -24.405273 7
-0.48113999 -24.12207 -24.900391 7
-0.45506299 -23.946289 -24.585938 7
-0.48579401 -24.286133 -24.829102 7
-0.51347399 -24.597656 -25.040039 7
-0.64811701 -27.90332 -24.143555 7
-0.65705901 -28.050781 -24.157227 7
-0.65985101 -28.136719 -24.114258 7
-0.74215698 -23.990234 30.013672 7
0.114868 22.06543 17.547852 7
0.12660199 21.980469 17.407227 7
0.132599 21.957031 17.311523 7
0.141663 21.898438 17.191406 7
0.14808699 21.869141 17.092773 7
0.14289901 23.504883 14.905273 7
0.146652 23.496094 14.826172 7
0.139847 23.608398 14.817383 7
0.150635 23.517578 14.693359 7
0.157471 23.47168 14.595703 7
0.16297901 23.441406 14.505859 7
0.039429002 26.12207 13.076172 7
0.044937 26.083984 12.986328 7
0.054825 25.994141 12.874023 7
0.069077 25.848633 12.737305 7
0.070633002 25.859375 12.669922 7
0.163651 20.162109 -17.927734 7
-0.43064901 -21.827148 -23.00293 7
-0.418625 -21.782227 -22.837891 7
-0.439789 -22.016602 -22.981445 7
-0.43991101 -22.073242 -22.929688 7
-0.434448 -22.083008 -22.825195 7
-0.65005499 -26.143555 -22.451172 7
-0.63148499 -26.026367 -22.233398 7
-0.62321502 -26.003906 -22.101562 7
-0.76010102 -24.923828 26.31543 7
0.100067 20.822266 16.59668 7
0.094131 20.918945 16.591797 7
0.091995001 20.977539 16.558594 7
0.103088 20.904297 16.432617 7
0.108032 20.890625 16.348633 7
0.126892 20.774414 16.119141 7
0.136887 22.357422 13.588867 7
0.138519 22.370117 13.52832 7
0.027603 24.831055 11.839844 7
0.034393001 24.780273 11.75 7
0.039779998 24.746094 11.667969 7
0.049835 24.655273 11.563477 7
0.045853 24.727539 11.525391 7
0.02832 24.958008 11.549805 7
0.13717701 16.539062 -19.164062 7
-0.39733899 -19.936523 -21.098633 7
-0.39254799 -20.00293 -20.960938 7
-0.420807 -20.274414 -21.15625 7
-0.57466102 -23.71875 -20.135742 7
-0.580338 -23.816406 -20.12207 7
-0.58551002 -23.910156 -20.104492 7
-0.58715802 -23.973633 -20.05957 7
-0.66044599 -25.538086 -19.476562 7
-0.60139501 -19.678711 25.431641 7
0.102478 19.5625 15.25293 7
0.107254 19.551758 15.176758 7
0.111008 19.549805 15.107422 7
0.116653 21.058594 12.746094 7
0.125137 21.029297 12.603516 7
0.119781 21.111328 12.583984 7
0.116959 21.168945 12.549805 7
0.130997 21.081055 12.378906 7
0.033386 23.338867 10.379883 7
0.035613999 23.337891 10.316406 7
0.114594 17.898438 -15.646484 7
-0.483704 -14.200195 -24.080078 7
-0.48806801 -14.282227 -24.086914 7
-0.496185 -14.385742 -24.128906 7
-0.51498401 -14.546875 -24.272461 7
-0.533813 -14.708984 -24.415039 7
-0.54620397 -14.835938 -24.495117 7
-0.54360998 -14.881836 -24.43457 7
-0.351547 -18.0625 -19.489258 7
-0.35165399 -18.110352 -19.446289 7
-0.38934299 -18.428711 -19.708984 7
-0.366364 -18.3125 -19.477539 7
-0.38096601 -18.464844 -19.551758 7
-0.57992601 -20.686523 21.606445 7
-0.58724999 -20.693359 21.708008 7
0.066040002 18.650391 14.551758 7
0.070037998 18.647461 14.484375 7
0.083786003 18.558594 14.357422 7
0.087219 18.55957 14.293945 7
0.091216996 18.555664 14.227539 7
0.097900003 18.527344 14.144531 7
0.094085999 20.091797 11.813477 7
0.103455 20.027344 11.72168 7
0.100418 20.083984 11.691406 7
0.095215 20.15918 11.669922 7
0.100815 20.130859 11.595703 7
0.104248 20.123047 11.533203 7
-0.0042269998 22.349609 9.5908203 7
0.00025899999 22.323242 9.5214844 7
0.002625 22.321289 9.4619141 7
0.0092620002 22.273438 9.3857422 7
0.003571 22.352539 9.3544922 7
0.081055 16.966797 -14.745117 7
-0.42079201 -12.269531 -22.292969 7
-0.426559 -12.352539 -22.31543 7
-0.435776 -12.452148 -22.369141 7
-0.312958 -14.214844 -19.806641 7
-0.31361401 -14.267578 -19.77832 7
-0.317123 -14.336914 -19.773438 7
-0.33322099 -14.479492 -19.874023 7
-0.34761 -14.611328 -19.958984 7
-0.346542 -14.655273 -19.915039 7
-0.32887301 -16.672852 -18.069336 7
-0.351318 -16.866211 -18.201172 7
-0.328491 -16.758789 -17.984375 7
-0.34349099 -16.90332 -18.058594 7
-0.62628198 -22.172852 -16.56543 7
-0.63445997 -22.279297 -16.564453 7
-0.61908001 -22.198242 -16.414062 7
-0.61978102 -22.244141 -16.364258 7
-0.50167799 -16.541016 21.899414 7
-0.495224 -16.453125 21.888672 7
-0.50900298 -16.439453 22.071289 7
0.064636 17.606445 13.566406 7
0.082351997 17.518555 13.386719 7
0.084839001 17.527344 13.333008 7
0.092545003 17.492188 13.249023 7
0.096190996 17.490234 13.188477 7
0.091888003 19.004883 10.856445 7
0.098984003 18.963867 10.782227 7
0.088242002 19.085938 10.786133 7
0.087844998 19.113281 10.743164 7
0.094360001 19.077148 10.670898 7
0.098557003 19.061523 10.608398 7
0.095291004 19.114258 10.578125 7
-0.021865999 21.283203 8.6357422 7
-0.014221 21.228516 8.5625 7
-0.0077360002 21.183594 8.4921885 7
-0.00296 21.155273 8.4277344 7
-0.001053 21.155273 8.3730469 7
-0.001434 21.176758 8.3251953 7
-0.482407 -11.538086 -21.560547 7
-0.49529999 -11.702148 -21.615234 7
-0.491119 -11.736328 -21.550781 7
-0.30867001 -13.154297 -18.651367 7
-0.32637 -13.294922 -18.760742 7
-0.33981299 -13.414062 -18.835938 7
-0.33078 -13.412109 -18.731445 7
-0.31932101 -13.397461 -18.608398 7
-0.30296299 -15.260742 -16.958984 7
-0.30425999 -15.311523 -16.931641 7
-0.32080099 -15.456055 -17.015625 7
-0.340363 -15.619141 -17.120117 7
-0.325241 -15.568359 -16.972656 7
-0.32958999 -15.637695 -16.966797 7
-0.34368899 -15.768555 -17.03125 7
-0.36750799 -15.959961 -17.165039 7
-0.351181 -15.900391 -17.008789 7
-0.35308799 -15.956055 -16.984375 7
0.055725001 16.776367 12.724609 7
0.062652998 16.750977 12.650391 7
0.065292001 16.757812 12.598633 7
0.071594 16.734375 12.526367 7
0.065338001 18.240234 10.176758 7
0.073455997 18.192383 10.101562 7
0.069962002 18.244141 10.074219 7
0.060364 18.348633 10.070312 7
0.066040002 18.321289 10.004883 7
0.072327003 18.289062 9.9375 7
0.081038997 18.233398 9.8603516 7
-0.032729998 20.336914 7.648438 7
-0.027679 20.306641 7.5869141 7
-0.023254 20.282227 7.5273442 7
-0.027313 20.334961 7.4912109 7
-0.035629001 20.427734 7.4667969 7
-0.40270999 -9.5820312 -19.989258 7
-0.39308199 -9.5957031 -19.886719 7
-0.39312699 -9.6445312 -19.863281 7
-0.39770499 -9.7119141 -19.87793 7
-0.40420499 -9.7861328 -19.907227 7
-0.28334001 -11.710938 -17.59375 7
-0.26530501 -11.668945 -17.427734 7
-0.26666301 -11.71875 -17.40918 7
-0.26995799 -11.77832 -17.40625 7
-0.28230301 -11.882812 -17.47168 7
-0.299835 -12.011719 -17.576172 7
-0.30700701 -12.089844 -17.601562 7
-0.28767401 -12.040039 -17.425781 7
-0.284302 -14.113281 -15.821289 7
-0.304535 -14.310547 -15.893555 7
-0.31109601 -14.387695 -15.90332 7
-0.28981 -14.304688 -15.722656 7
-0.306732 -14.442383 -15.804688 7
-0.33271801 -14.633789 -15.947266 7
-0.315323 -14.572266 -15.792969 7
-0.32188401 -14.650391 -15.803711 7
-0.495056 -17.894531 -14.719727 7
-0.55676299 -19.395508 -13.731445 7
0.049683001 15.763672 12.137695 7
0.056366 15.740234 12.068359 7
0.060454998 15.736328 12.012695 7
0.049667001 15.868164 11.992188 7
0.046555001 15.916016 11.970703 7
0.059783999 15.84375 11.870117 7
-0.044707999 19.291016 7.0224609 7
-0.054230001 19.387695 7 7
-0.051468 19.37793 6.9492192 7
-0.051284999 19.390625 6.9033198 7
-0.046599999 19.364258 6.8466802 7
-0.040603999 19.326172 6.7871089 7
-0.039138999 19.327148 6.7392578 7
-0.42536899 -8.6894531 -19.188477 7
-0.41250601 -8.7421885 -19.044922 7
-0.424164 -8.8291016 -19.115234 7
-0.431732 -8.9033203 -19.15332 7
-0.45576501 -9.1308594 -19.275391 7
-0.46331799 -9.2041016 -19.310547 7
-0.25868201 -10.694336 -16.53418 7
-0.25807199 -10.734375 -16.503906 7
-0.25950599 -10.782227 -16.488281 7
-0.269135 -10.865234 -16.532227 7
-0.292496 -11.053711 -16.649414 7
-0.254318 -12.864258 -14.9375 7
-0.26808199 -12.974609 -14.998047 7
-0.25515699 -12.944336 -14.880859 7
-0.247696 -12.942383 -14.799805 7
-0.259415 -13.041992 -14.845703 7
-0.27592501 -13.167969 -14.923828 7
-0.29653901 -13.316406 -15.027344 7
-0.28156999 -13.274414 -14.897461 7
-0.28369099 -13.323242 -14.878906 7
-0.29609701 -13.428711 -14.927734 7
-0.32980299 -13.6875 -15.082031 7
-0.070602 18.608398 6.2373052 7
-0.067016996 18.591797 6.1875 7
-0.055755999 18.523438 6.078125 7
-0.050140001 18.488281 6.0224609 7
-0.049286 18.493164 5.9785161 7
-0.042984001 18.452148 5.922852 7
-0.045563001 18.485352 5.8837891 7
-0.049484 18.530273 5.8486328 7
-0.238022 -9.6132812 -15.617188 7
-0.22723401 -9.6103516 -15.518555 7
-0.223663 -9.6347656 -15.470703 7
-0.227341 -9.6894531 -15.472656 7
-0.238251 -9.7724609 -15.525391 7
-0.246994 -9.8466797 -15.561523 7
-0.21652199 -11.844727 -13.865234 7
-0.218842 -11.927734 -13.823242 7
-0.23339801 -12.035156 -13.885742 7
-0.24942 -12.150391 -13.957031 7
-0.24876399 -12.182617 -13.922852 7
-0.22926299 -12.120117 -13.772461 7
-0.24673501 -12.243164 -13.851562 7
-0.26058999 -12.348633 -13.908203 7
-0.276611 -12.46582 -13.978516 7
-0.26942399 -12.463867 -13.90332 7
-0.44589201 -15.592773 -12.799805 7
-0.44671601 -15.629883 -12.766602 7
-0.541641 -17.287109 -11.908203 7
-0.54247999 -17.323242 -11.871094 7
-0.52905297 -17.261719 -11.759766 7
-0.39370701 -14.725586 15.054688 7
-0.42067 -14.813477 15.266602 7
0.034958001 14.43457 10.668945 7
0.052032001 14.364258 10.530273 7
0.057280999 14.350586 10.474609 7
0.055969 14.381836 10.447266 7
0.059753001 14.37793 10.397461 7
0.067932002 14.344727 10.331055 7
0.073181003 14.330078 10.276367 7
0.045456 15.839844 7.9638672 7
0.047058001 15.84375 7.921875 7
0.034866001 15.950195 7.920898 7
0.037186 15.949219 7.8769531 7
0.040970001 15.936523 7.828125 7
0.046936002 15.90918 7.7744141 7
0.047072999 15.923828 7.7373052 7
-0.076095998 17.736328 5.4335942 7
-0.074492998 17.734375 5.389648 7
-0.070006996 17.708984 5.3398442 7
-0.065521002 17.683594 5.2919922 7
-0.060302999 17.654297 5.242188 7
-0.059432998 17.65625 5.2001948 7
-0.057098001 17.648438 5.1542969 7
-0.34469599 -6.2011719 -16.920898 7
-0.32867399 -6.204102 -16.790039 7
-0.331009 -6.2529302 -16.791992 7
-0.33873001 -6.3574219 -16.816406 7
-0.34484899 -6.414062 -16.844727 7
-0.35411099 -6.523438 -16.878906 7
-0.36712599 -6.6005859 -16.957031 7
-0.37709001 -6.6689448 -17.011719 7
-0.38707 -6.7382808 -17.067383 7
-0.38862601 -6.7851558 -17.061523 7
-0.37951699 -6.804688 -16.980469 7
-0.207901 -8.6738281 -14.665039 7
-0.209488 -8.7167969 -14.655273 7
-0.216415 -8.7792969 -14.679688 7
-0.22335801 -8.8427734 -14.705078 7
-0.22876 -8.8994141 -14.71875 7
-0.237213 -8.96875 -14.75293 7
-0.23651101 -9.0039062 -14.727539 7
-0.206329 -11.013672 -13.083984 7
-0.20867901 -11.058594 -13.071289 7
-0.215637 -11.124023 -13.085938 7
-0.227203 -11.211914 -13.128906 7
-0.23799101 -11.294922 -13.166016 7
-0.215073 -11.22168 -13.001953 7
-0.224335 -11.298828 -13.030273 7
-0.233597 -11.375977 -13.058594 7
-0.248978 -11.481445 -13.12207 7
-0.242157 -11.482422 -13.053711 7
-0.43164101 -14.720703 -11.889648 7
-0.43556201 -14.773438 -11.874023 7
-0.438721 -14.822266 -11.854492 7
-0.325378 -11.166992 16.137695 7
-0.33728001 -11.149414 16.259766 7
-0.33653301 -11.110352 16.28125 7
0.025497001 13.816406 10.054688 7
0.036437999 13.766602 9.9794922 7
0.044280998 13.736328 9.9160156 7
0.044434 13.756836 9.8847656 7
0.054871 13.750977 9.7490234 7
0.038956001 15.140625 7.3544922 7
0.043701001 15.12207 7.3056641 7
0.041533999 15.152344 7.2763672 7
0.035537999 15.208008 7.2568359 7
0.032623 15.243164 7.2294922 7
0.038116001 15.21875 7.179688 7
0.038268998 15.232422 7.1435552 7
0.037643 15.25 7.109375 7
0.035491999 15.280273 7.0800781 7
0.027969001 15.347656 7.063477 7
-0.210327 -7.7441411 -14.056641 7
-0.207184 -7.8056641 -13.999023 7
-0.18864401 -7.78125 -13.862305 7
-0.18626399 -7.8085942 -13.827148 7
-0.19519 -7.8730469 -13.865234 7
-0.19927999 -7.922852 -13.87207 7
-0.190781 -10.25 -12.282227 7
-0.198944 -10.316406 -12.304688 7
-0.210327 -10.397461 -12.34375 7
-0.226578 -10.500977 -12.412109 7
-0.207214 -10.448242 -12.276367 7
-0.212143 -10.500977 -12.279297 7
-0.40316799 -13.766602 -11.032227 7
-0.404053 -13.799805 -11.003906 7
-0.41638201 -13.922852 -10.995117 7
-0.423859 -14.020508 -10.963867 7
-0.42394999 -14.048828 -10.930664 7
-0.29356399 -10.204102 15.34668 7
0.021133 13.150391 9.5087891 7
0.026138 13.139648 9.4589844 7
0.043761998 13.108398 9.2734385 7
0.048904002 13.115234 9.1943359 7
0.051483002 13.118164 9.1552734 7
0.039856002 14.44043 6.6914058 7
0.043228 14.430664 6.6494141 7
0.038513001 14.475586 6.6269531 7
0.034591999 14.514648 6.6025391 7
0.035537999 14.521484 6.5673828 7
0.038910002 14.511719 6.5253911 7
0.042296998 14.501953 6.484375 7
0.040801998 14.524414 6.454102 7
0.036880001 14.563477 6.4287109 7
0.026489001 14.646484 6.4189448 7
-0.073059 16.023438 4.079102 7
-0.071304001 16.017578 4.039062 7
-0.077620998 16.069336 4.0087891 7
-0.082305998 16.109375 3.976562 7
-0.082976997 16.121094 3.9394529 7
-0.079620004 16.103516 3.898438 7
-0.076263003 16.085938 3.8574221 7
-0.28379801 -4.2519531 -15.03418 7
-0.282974 -4.289062 -15.018555 7
-0.28215 -4.3261719 -15.00293 7
-0.27963299 -4.360352 -14.975586 7
-0.28813201 -4.414062 -15.020508 7
-0.188049 -7.079102 -13.258789 7
-0.18383799 -7.1005859 -13.21582 7
-0.17707799 -7.1142578 -13.157227 7
-0.17797901 -7.1503911 -13.145508 7
-0.185654 -7.2080078 -13.174805 7
-0.190796 -7.2568359 -13.188477 7
-0.198486 -7.3144531 -13.217773 7
-0.190063 -7.3564448 -13.130859 7
-0.188492 -9.6318359 -11.663086 7
-0.202179 -9.71875 -11.713867 7
-0.20053101 -9.7421885 -11.682617 7
-0.186111 -9.7138672 -11.581055 7
-0.19468699 -9.7792969 -11.603516 7
-0.20581099 -9.8554688 -11.640625 7
-0.379547 -12.820312 -10.466797 7
-0.38140899 -12.883789 -10.413086 7
-0.38752699 -12.96875 -10.378906 7
-0.38420099 -12.980469 -10.333984 7
-0.385986 -13.015625 -10.310547 7
-0.389465 -13.060547 -10.294922 7
-0.39041099 -13.091797 -10.267578 7
-0.46757501 -14.400391 -9.4404297 7
-0.47023001 -14.439453 -9.4160156 7
-0.47886699 -14.511719 -9.4169922 7
-0.47039801 -14.490234 -9.3476562 7
-0.47647101 -14.547852 -9.3369141 7
-0.482544 -14.605469 -9.3261719 7
-0.48091099 -14.621094 -9.2851562 7
-0.27865601 -9.5898438 14.629883 7
-0.28218099 -9.5722656 14.670898 7
0.030365 12.551758 8.9140615 7
0.034759998 12.543945 8.8701172 7
0.035751 12.556641 8.8378906 7
0.040146001 12.547852 8.7939453 7
0.039413001 12.570312 8.7675781 7
0.044677999 12.556641 8.7207031 7
0.043212999 12.600586 8.6669922 7
-0.29296899 -3.657227 -14.382812 7
-0.292099 -3.6933589 -14.368164 7
-0.29388401 -3.7324221 -14.370117 7
-0.293015 -3.7675779 -14.355469 7
-0.30018601 -3.8144529 -14.391602 7
-0.30912799 -3.8662109 -14.438477 7
-0.316284 -3.914062 -14.472656 7
-0.32165501 -3.9599609 -14.49707 7
-0.326141 -4.0039058 -14.515625 7
-0.31546 -4.023438 -14.438477 7
-0.169479 -6.4189448 -12.552734 7
-0.17130999 -6.4560552 -12.547852 7
-0.17495701 -6.53125 -12.537109 7
-0.19017 -6.6064448 -12.611328 7
-0.192917 -6.6787109 -12.594727 7
-0.18562301 -9.0302734 -11.09082 7
-0.173141 -9.0117188 -11.003906 7
-0.166031 -9.0126953 -10.945312 7
-0.17414901 -9.0732422 -10.96582 7
-0.18045001 -9.1259766 -10.975586 7
-0.19392399 -9.2070312 -11.024414 7
-0.202042 -9.2675781 -11.043945 7
-0.18956 -9.2470703 -10.957031 7
-0.37269601 -12.206055 -9.7919922 7
-0.365585 -12.197266 -9.7324219 7
-0.37461901 -12.266602 -9.7421885 7
-0.37200901 -12.279297 -9.7011719 7
-0.375671 -12.323242 -9.6884766 7
-0.38119501 -12.400391 -9.6523438 7
-0.384918 -12.469727 -9.6083984 7
-0.26510599 -9.2158203 13.8125 7
-0.261475 -9.1728516 13.81543 7
-0.254181 -9.1162109 13.800781 7
-0.25329599 -9.0830078 13.817383 7
-0.25515699 -9.0615234 13.847656 7
-0.26893601 -9.0830078 13.939453 7
-0.26620501 -9.0419922 13.947266 7
-0.26074201 -8.9921885 13.94043 7
-0.257126 -8.9492188 13.943359 7
-0.26263401 -8.9404297 13.992188 7
-0.27094999 -8.9111328 14.077148 7
-0.181107 -5.7949219 -12.125 7
-0.164322 -5.8154302 -12.001953 7
-0.165298 -5.8496089 -11.993164 7
-0.168137 -5.8876948 -11.995117 7
-0.176605 -5.9404302 -12.02832 7
-0.174759 -5.9667969 -12.003906 7
-0.18042 -6.0117192 -12.020508 7
-0.183258 -6.0507808 -12.021484 7
-0.177673 -6.0673828 -11.976562 7
-0.16609199 -8.3896484 -10.512695 7
-0.172699 -8.4414062 -10.526367 7
-0.15685999 -8.4394531 -10.40625 7
-0.166336 -8.5283203 -10.413086 7
-0.174835 -8.5869141 -10.43457 7
-0.18144201 -8.6376953 -10.445312 7
-0.17211901 -8.6308594 -10.378906 7
-0.36122099 -11.623047 -9.1699219 7
-0.355652 -11.621094 -9.1191406 7
-0.355728 -11.646484 -9.0917969 7
-0.366135 -11.717773 -9.1064453 7
-0.364319 -11.733398 -9.0703115 7
-0.35311899 -11.706055 -8.9970703 7
-0.36070299 -11.764648 -8.9990234 7
-0.36642501 -11.81543 -8.9941406 7
-0.166748 -5.1787109 -11.516602 7
-0.160873 -5.195312 -11.47168 7
-0.155991 -5.2138672 -11.431641 7
-0.156021 -5.2441411 -11.419922 7
-0.157028 -5.2763672 -11.412109 7
-0.16099501 -5.3154302 -11.420898 7
-0.170853 -5.3681641 -11.461914 7
-0.173843 -5.405273 -11.464844 7
-0.17485 -5.4375 -11.457031 7
-0.139633 -7.7050781 -9.9365234 7
-0.14065599 -7.734375 -9.9228516 7
-0.157455 -7.8173828 -9.9853516 7
-0.155533 -7.8378911 -9.9580078 7
-0.14375301 -7.8242192 -9.8818359 7
-0.14871199 -7.867188 -9.8867188 7
-0.15171801 -7.9042969 -9.8828115 7
-0.15866099 -7.954102 -9.8964844 7
-0.170517 -8.0205078 -9.9335938 7
-0.34316999 -10.952148 -8.6103516 7
-0.35407999 -11.022461 -8.6269531 7
-0.343292 -10.998047 -8.5576172 7
-0.348297 -11.042969 -8.5507812 7
-0.35032699 -11.074219 -8.5322266 7
-0.34941101 -11.09375 -8.5019531 7
-0.34847999 -11.112305 -8.4716797 7
-0.35743701 -11.174805 -8.4804688 7
-0.24638399 -10.530273 10.53418 7
-0.246429 -10.508789 10.558594 7
-0.215012 -7.9882808 12.592773 7
-0.21705601 -7.967773 12.621094 7
-0.223114 -7.960938 12.667969 7
-0.22316 -7.9345698 12.686523 7
-0.222183 -7.905273 12.700195 7
-0.220184 -7.8720698 12.709961 7
-0.219193 -7.8417969 12.724609 7
-0.228287 -7.844727 12.785156 7
-0.13269 -7.061523 -9.5976562 7
-0.130676 -7.0800781 -9.5722656 7
-0.130722 -7.1054692 -9.5546885 7
-0.136932 -7.1503911 -9.5654297 7
-0.132874 -7.1630859 -9.5302734 7
-0.128784 -7.1757808 -9.4941406 7
-0.13191199 -7.210938 -9.4912109 7
-0.1371 -7.2529302 -9.4980469 7
-0.142288 -7.2939448 -9.5039062 7
-0.15365601 -7.3554692 -9.5390615 7
-0.14546201 -7.3544922 -9.4833984 7
-0.13726801 -7.3535161 -9.4277344 7
-0.256973 -10.219727 10.052734 7
-0.24234 -10.138672 10.025391 7
-0.24867199 -10.143555 10.071289 7
-0.24452201 -10.106445 10.080078 7
-0.254013 -10.125 10.138672 7
-0.25300601 -10.099609 10.15918 7
-0.24675 -10.052734 10.160156 7
-0.24574301 -10.027344 10.179688 7
-0.243698 -9.9980469 10.196289 7
-0.241638 -9.96875 10.212891 7
-0.22003201 -7.530273 12.217773 7
-0.213745 -7.484375 12.207031 7
-0.21061701 -7.4501948 12.210938 7
-0.21170001 -7.4277339 12.232422 7
-0.211716 -7.4023442 12.250977 7
-0.21490499 -7.3867192 12.282227 7
-0.221222 -7.3798828 12.328125 7
-0.122253 -6.7392578 -8.9951172 7
-0.13200399 -6.7919922 -9.0214844 7
-0.13096599 -6.813477 -9.0009766 7
-0.13101199 -6.8378911 -8.984375 7
-0.21769699 -9.578125 9.5107422 7
-0.21994001 -9.5673828 9.5410156 7
-0.23426799 -9.6044922 9.6123047 7
-0.220016 -9.5283203 9.5869141 7
-0.18837 -7.1494141 11.521484 7
-0.190598 -7.132812 11.546875 7
-0.18512 -7.0917969 11.541016 7
-0.18293799 -7.061523 11.547852 7
-0.185165 -7.0439448 11.574219 7
-0.171616 -6.686523 11.103516 7
-0.17167699 -6.641602 11.134766 7
-0.17860401 -6.6152339 11.195312 7
-0.29067999 -8.96875 -6.742188 7
-0.089410998 16.807863 12.737089 7
-0.044105999 13.331278 9.5842514 7
0.022118 12.431648 8.6122799 7
-0.11566 10.469802 11.25716 7
-0.21309499 -3.9201479 -14.598397 7
0.0036549999 -4.5051851 -10.698262 7
-0.29967701 -11.635503 -9.2147312 7
-0.315575 -10.133873 15.144126 7
-0.29302499 -9.5239649 9.3646088 7
-0.36040899 -10.864357 5.1742072 7
-0.116559 15.843871 11.923431 7
-0.093777999 14.222997 6.422853 7
-0.29791099 -7.5714588 -13.497967 7
-0.21366 -4.76759 -10.622785 7
-0.372228 -11.978484 -9.3730602 7
