# .PCD v0.7 - Point Cloud Data file format
VERSION 0.7
FIELDS x y z intensity
SIZE 4 4 4 4
TYPE F F F F
COUNT 1 1 1 1
WIDTH 891
HEIGHT 1
VIEWPOINT 0 0 0 1 0 0 0
POINTS 891
DATA ascii
0.92646801 41.426758 -45.479492 7
0.90364099 39.811523 -48.431641 7
0.919891 39.191406 -47.891602 7
0.38006601 53.501953 44.987305 7
0.41957101 52.444336 43.922852 7
0.494385 52.455078 39.802734 7
0.304306 60.397461 41.790039 7
0.34343001 59.248047 40.823242 7
0.38117999 58.138672 39.889648 7
0.41648901 57.103516 39.013672 7
0.44753999 56.202148 38.233398 7
0.354904 48.785156 41.211914 7
0.324112 49.819336 41.665039 7
0.371048 50.586914 38.308594 7
0.410294 49.586914 37.40332 7
0.406982 49.776367 37.362305 7
0.362793 51.112305 38.140625 7
0.38253799 50.655273 37.633789 7
0.224869 56.739258 38.829102 7
0.25114399 56.076172 38.205078 7
0.28129601 55.299805 37.510742 7
0.306366 54.666992 36.916992 7
0.31404099 54.538086 36.651367 7
0.71835297 34.860352 -42.625 7
0.32360801 44.583984 37.93457 7
0.330246 44.519531 37.707031 7
0.35823101 45.936523 34.898438 7
0.37873799 45.506836 34.422852 7
0.37498501 45.689453 34.390625 7
0.34179699 47.056641 34.375977 7
0.35552999 46.792969 34.02832 7
0.35966501 46.773438 33.851562 7
0.382568 46.270508 33.342773 7
0.68109101 34.248047 -36.614258 7
0.28228801 40.9375 35.12793 7
0.290207 40.852539 34.897461 7
0.33512899 41.931641 31.847656 7
0.33422899 42.032227 31.769531 7
0.351089 41.727539 31.401367 7
0.299988 43.770508 31.026367 7
0.318497 43.416016 30.639648 7
0.318436 43.495117 30.543945 7
0.33444199 43.197266 30.198242 7
0.34417701 43.044922 29.952148 7
0.219513 47.443359 29.894531 7
0.229645 47.274414 29.641602 7
0.24559 46.962891 29.307617 7
0.57344103 30.262695 -37.004883 7
0.59021002 29.858398 -36.674805 7
0.230728 37.865234 32.583984 7
0.244598 37.674805 32.280273 7
0.27664199 39.008789 29.573242 7
0.28764299 38.856445 29.325195 7
0.285889 38.964844 29.263672 7
0.25672901 40.779297 28.163086 7
0.27465799 40.469727 27.825195 7
0.27549699 40.458008 27.680664 7
0.28880301 40.244141 27.408203 7
0.302551 40.019531 27.130859 7
0.165512 44.331055 27.03125 7
0.18455499 43.979492 26.692383 7
0.202209 43.657227 26.371094 7
0.209686 43.557617 26.178711 7
0.50585902 30.550781 -32.180664 7
0.197128 35.202148 30.287109 7
0.19923399 35.238281 30.178711 7
0.22372399 36.505859 27.796875 7
0.251297 36.058594 27.345703 7
0.227631 36.566406 27.580078 7
0.256973 36.083984 27.107422 7
0.21845999 38.173828 25.847656 7
0.228714 38.099609 25.549805 7
0.238144 37.977539 25.34668 7
0.25981101 37.677734 24.912109 7
0.137329 41.452148 24.370117 7
0.15104701 41.233398 24.124023 7
0.16401701 41.03125 23.887695 7
0.19616701 40.43457 23.44043 7
-1.008438 -46.275391 -48.930664 7
-1.064377 -47.199219 -49.691406 7
-1.101761 -47.857422 -50.158203 7
-1.0691071 -47.495117 -49.527344 7
-1.127838 -48.467773 -50.324219 7
-1.192032 -49.523438 -51.200195 7
0.109406 33.542969 28.896484 7
0.108566 33.625977 28.832031 7
0.17513999 34.295898 25.930664 7
0.19049101 34.095703 25.667969 7
0.204987 33.908203 25.415039 7
0.209442 33.892578 25.285156 7
0.21949799 33.780273 25.087891 7
0.233429 33.600586 24.84375 7
0.241531 33.520508 24.671875 7
0.253784 33.367188 24.451172 7
0.25573701 33.393555 24.353516 7
0.26771501 33.244141 24.135742 7
0.205063 35.505859 23.1875 7
0.203674 35.586914 23.12207 7
0.21647599 35.413086 22.902344 7
0.235107 35.131836 22.620117 7
0.12999 38.407227 21.614258 7
0.147736 38.12793 21.353516 7
0.159927 37.951172 21.148438 7
0.36018401 24.776367 -30.658203 7
-0.95321703 -41.40625 -44.996094 7
-0.97901899 -41.851562 -45.271484 7
-1.032318 -42.661133 -45.949219 7
-1.069656 -43.264648 -46.389648 7
-1.112045 -43.935547 -46.901367 7
-1.0743411 -43.540039 -46.241211 7
-1.11142 -44.143555 -46.671875 7
-0.79782099 -41.461914 -40.480469 7
-0.81451398 -41.788086 -40.610352 7
-0.86676002 -42.611328 -41.233398 7
-0.80345201 -42.095703 -39.93457 7
-1.001266 -47.143555 -39.918945 7
-0.92138702 -46.050781 -38.772461 7
0.184219 32.413086 22.941406 7
0.18959001 32.380859 22.811523 7
0.191055 32.410156 22.72168 7
0.196136 32.381836 22.594727 7
0.201492 32.348633 22.463867 7
0.151352 33.918945 21.927734 7
0.16333 33.771484 21.730469 7
0.179199 33.557617 21.495117 7
0.176147 33.65918 21.449219 7
0.18901099 33.495117 21.245117 7
0.098526001 36.381836 19.939453 7
0.108978 36.248047 19.764648 7
0.12538099 36.007812 19.538086 7
0.128342 36.00293 19.429688 7
0.14714099 35.719727 19.18457 7
-0.77018702 -34.494141 -39.710938 7
-0.805664 -35.000977 -40.116211 7
-0.83598298 -35.452148 -40.448242 7
-0.876984 -36.124023 -40.833984 7
-0.91055298 -36.616211 -41.204102 7
-0.97090101 -37.426758 -41.94043 7
-1.015182 -38.150391 -42.356445 7
-1.046204 -38.619141 -42.683594 7
-0.608459 -34.563477 -35.539062 7
-0.65535003 -35.3125 -35.983398 7
-0.66990697 -35.576172 -36.085938 7
-0.69222999 -35.94043 -36.288086 7
-0.71972698 -36.368164 -36.556641 7
-0.65748602 -36.488281 -34.761719 7
-0.66528302 -36.668945 -34.769531 7
-0.67857403 -36.921875 -34.845703 7
-0.84521502 -41.209961 -34.368164 7
-1.216934 -38.584961 44.229492 7
0.15771499 31.214844 19.783203 7
0.18399 30.947266 19.334961 7
0.186508 30.954102 19.242188 7
0.099547997 33.731445 17.592773 7
0.110886 33.589844 17.428711 7
0.119278 33.495117 17.287109 7
-0.724747 -30.631836 -36.741211 7
-0.74002099 -30.878906 -36.863281 7
-0.77758801 -31.364258 -37.276367 7
-0.80888402 -31.78418 -37.605469 7
-0.83184803 -32.117188 -37.822266 7
-0.86456299 -32.555664 -38.166016 7
-0.89030498 -32.920898 -38.417969 7
-0.92231798 -33.353516 -38.748047 7
-0.591187 -31.226562 -33.114258 7
-0.60855103 -31.578125 -33.172852 7
-0.62072802 -31.793945 -33.245117 7
-0.64302099 -32.125 -33.439453 7
-0.67546099 -32.572266 -33.755859 7
-0.59887701 -33.125977 -31.293945 7
-0.60267597 -33.243164 -31.255859 7
-0.77091998 -37.261719 -30.806641 7
-0.76001 -37.195312 -30.59668 7
-1.037964 -34.152344 38.944336 7
0.153687 29.211914 18.068359 7
0.174622 28.993164 17.764648 7
0.179428 28.964844 17.65918 7
0.18693499 28.939453 17.466797 7
0.19337501 28.926758 17.282227 7
0.082641996 31.777344 15.939453 7
0.098709002 31.572266 15.757812 7
0.104568 31.519531 15.644531 7
0.110428 31.466797 15.532227 7
0.110657 31.5 15.458008 7
-0.652924 -26.577148 -33.512695 7
-0.679703 -26.908203 -33.774414 7
-0.70002699 -27.178711 -33.955078 7
-0.72908002 -27.53418 -34.242188 7
-0.75018299 -27.81543 -34.430664 7
-0.778503 -28.166016 -34.705078 7
-0.799622 -28.450195 -34.890625 7
-0.83210802 -28.842773 -35.212891 7
-0.84953302 -29.102539 -35.357422 7
-0.87861598 -29.466797 -35.635742 7
-0.53265399 -27.452148 -30.268555 7
-0.56289703 -27.830078 -30.550781 7
-0.56468201 -27.920898 -30.501953 7
-0.57557702 -28.104492 -30.55957 7
-0.60659802 -28.493164 -30.84668 7
-0.62889099 -28.794922 -31.033203 7
-0.50135797 -29.117188 -27.887695 7
-0.54576099 -29.666016 -28.297852 7
-0.576859 -30.072266 -28.561523 7
-0.569534 -30.05957 -28.408203 7
-0.685669 -33.395508 -27.193359 7
-0.85139501 -27.383789 36.000977 7
-0.829346 -27.103516 35.8125 7
0.13659699 27.326172 16.483398 7
0.142563 27.28418 16.376953 7
0.15312199 27.180664 16.237305 7
0.161011 27.112305 16.117188 7
0.157364 27.197266 16.081055 7
0.16449 27.139648 15.967773 7
0.18158001 26.946289 15.78418 7
0.175644 27.0625 15.763672 7
0.054047 29.854492 14.467773 7
0.061142001 29.788086 14.356445 7
0.072448999 29.663086 14.219727 7
0.081832998 29.563477 14.094727 7
0.090453997 29.474609 13.974609 7
0.096771002 29.416992 13.869141 7
0.096619003 29.452148 13.802734 7
0.20571899 21.219727 -21.430664 7
-0.63223302 -24.079102 -31.526367 7
-0.648651 -24.294922 -31.657227 7
-0.66870099 -24.542969 -31.829102 7
-0.54536402 -25.862305 -28.318359 7
-0.50427198 -25.538086 -27.80957 7
-0.51789898 -25.735352 -27.893555 7
-0.49949601 -25.625 -27.630859 7
-0.473373 -25.439453 -27.286133 7
-0.448883 -25.269531 -26.961914 7
-0.432098 -25.172852 -26.719727 7
-0.424225 -25.160156 -26.573242 7
-0.50724798 -27.047852 -26.348633 7
-0.48190299 -26.855469 -26.022461 7
-0.47850001 -26.882812 -25.920898 7
-0.523453 -27.400391 -26.314453 7
-0.55053699 -27.736328 -26.522461 7
-0.52966303 -27.586914 -26.242188 7
-0.57180798 -28.079102 -26.600586 7
-0.77789301 -25.026367 33.15332 7
-0.77839702 -24.878906 33.276367 7
0.119003 26.013672 15.306641 7
0.12085 26.025391 15.234375 7
0.138428 25.871094 14.999023 7
0.13739 25.918945 14.946289 7
0.14578199 25.84668 14.830078 7
0.15744001 25.733398 14.695312 7
0.153946 25.811523 14.65918 7
0.044601001 28.373047 13.056641 7
0.055404998 28.258789 12.932617 7
0.068664998 28.112305 12.796875 7
0.07457 28.0625 12.700195 7
0.1577 20.359375 -20.37207 7
0.15419 20.342773 -20.458984 7
-0.56996202 -21.134766 -28.96875 7
-0.59371901 -21.387695 -29.176758 7
-0.61311299 -21.607422 -29.335938 7
-0.61901897 -21.723633 -29.345703 7
-0.43974301 -23.879883 -24.275391 7
-0.42988601 -23.848633 -24.121094 7
-0.42793301 -23.887695 -24.042969 7
-0.42158499 -23.886719 -23.922852 7
-0.410873 -23.845703 -23.760742 7
-0.41636699 -24.067383 -23.637695 7
-0.446381 -24.402344 -23.864258 7
-0.478165 -24.755859 -24.108398 7
-0.45034799 -24.553711 -23.782227 7
-0.479065 -24.878906 -23.995117 7
-0.631805 -28.385742 -23.03418 7
-0.64418 -28.621094 -23.001953 7
-0.64707899 -28.704102 -22.957031 7
-0.69784498 -25.074219 28.083008 7
-0.70932001 -22.526367 30.428711 7
0.107773 24.456055 14.021484 7
0.117661 24.371094 13.90625 7
0.134354 24.236328 13.694336 7
0.12616 24.364258 13.686523 7
0.134277 24.298828 13.582031 7
0.143723 24.216797 13.470703 7
0.024109 26.78125 11.805664 7
0.032653999 26.702148 11.704102 7
0.040755998 26.626953 11.603516 7
0.050597999 26.530273 11.495117 7
0.054489002 26.53418 11.354492 7
0.124161 19.324219 -18.891602 7
0.116104 19.351562 -19.018555 7
-0.54487598 -18.967773 -27.167969 7
-0.54009998 -19.004883 -27.073242 7
-0.426346 -22.40918 -22.275391 7
-0.42140201 -22.420898 -22.175781 7
-0.44737199 -22.697266 -22.353516 7
-0.44056699 -22.692383 -22.237305 7
-0.440308 -22.744141 -22.178711 7
-0.47427401 -23.092773 -22.426758 7
-0.624695 -26.458984 -21.40625 7
-0.61882001 -26.455078 -21.294922 7
-0.61718798 -26.490234 -21.216797 7
-0.72061199 -23.709961 26.604492 7
0.075745001 21.854492 15.595703 7
0.10466 21.658203 15.253906 7
0.112396 21.612305 15.15332 7
0.113037 21.638672 15.099609 7
0.115204 23.043945 12.71582 7
0.113968 23.084961 12.668945 7
0.108948 23.168945 12.641602 7
0.119019 23.085938 12.536133 7
0.128143 23.010742 12.432617 7
0.028534001 25.270508 10.44043 7
0.031525001 25.258789 10.370117 7
0.031693 25.279297 10.310547 7
0.092651002 18.229492 -17.886719 7
-0.34658799 -20.011719 -20.146484 7
-0.36540201 -20.210938 -20.256836 7
-0.38673401 -20.429688 -20.387695 7
-0.38087499 -20.432617 -20.289062 7
-0.38560501 -20.519531 -20.27832 7
-0.409958 -20.763672 -20.431641 7
-0.56010401 -24.004883 -19.388672 7
-0.55983001 -24.048828 -19.327148 7
-0.56457502 -24.136719 -19.304688 7
-0.56935102 -24.225586 -19.28125 7
-0.64529401 -25.866211 -18.554688 7
-0.57548499 -18.739258 25.65625 7
-0.55450398 -18.540039 25.515625 7
-0.58027601 -18.657227 25.786133 7
0.078720003 20.441406 14.399414 7
0.093612999 20.329102 14.262695 7
0.105103 20.279297 14.099609 7
0.090134002 21.832031 11.796875 7
0.106949 21.757812 11.513672 7
0.111832 21.756836 11.389648 7
0.119064 21.705078 11.303711 7
-0.000397 24.009766 9.4150391 7
0.012009 23.913086 9.2587891 7
0.017731 23.871094 9.1835938 7
0.021423001 23.849609 9.1142578 7
0.016037 23.928711 9.078125 7
0.068862997 17.279297 -16.541992 7
0.072890997 17.161133 -16.588867 7
0.074417002 17.106445 -16.616211 7
-0.51399201 -15.085938 -23.966797 7
-0.51042199 -15.124023 -23.895508 7
-0.51701403 -15.21875 -23.919922 7
-0.53161597 -15.360352 -24.018555 7
-0.54678297 -15.504883 -24.121094 7
-0.557648 -15.625977 -24.183594 7
-0.56904602 -15.75 -24.250977 7
-0.364685 -16.391602 -21.057617 7
-0.36056501 -16.416992 -20.981445 7
-0.34251401 -16.351562 -20.783203 7
-0.351257 -16.458984 -20.819336 7
-0.35786399 -16.552734 -20.835938 7
-0.36820999 -16.670898 -20.884766 7
-0.33831799 -18.460938 -18.869141 7
-0.34494001 -18.554688 -18.875977 7
-0.367172 -18.764648 -19.007812 7
-0.37974501 -18.904297 -19.061523 7
-0.363235 -18.828125 -18.884766 7
-0.381165 -19.007812 -18.980469 7
-0.392838 -19.1875 -18.979492 7
-0.55545002 -22.448242 -17.959961 7
-0.52807599 -19.643555 21.706055 7
0.070648 19.342773 13.396484 7
0.077301003 19.310547 13.314453 7
0.081786998 19.298828 13.245117 7
0.092254996 19.231445 13.142578 7
0.076629996 20.714844 10.863281 7
0.081100002 20.694336 10.794922 7
0.089905001 20.629883 10.708008 7
0.091141 20.641602 10.655273 7
0.084807999 20.726562 10.634766 7
0.087112002 20.726562 10.576172 7
-0.017914001 22.758789 8.5957031 7
-0.023697 22.836914 8.5605469 7
-0.023544 22.852539 8.5068359 7
-0.021225 22.84668 8.4462891 7
-0.01622 22.8125 8.3769531 7
-0.444397 -12.949219 -22.236328 7
-0.436005 -12.961914 -22.128906 7
-0.43785101 -13.024414 -22.112305 7
-0.450562 -13.142578 -22.193359 7
-0.45527601 -13.220703 -22.203125 7
-0.46342501 -13.316406 -22.243164 7
-0.314392 -14.804688 -19.399414 7
-0.31855801 -14.876953 -19.397461 7
-0.327301 -14.976562 -19.432617 7
-0.34992999 -15.208008 -19.544922 7
-0.311005 -16.886719 -17.587891 7
-0.30658001 -16.899414 -17.512695 7
-0.32051101 -17.037109 -17.576172 7
-0.343063 -17.233398 -17.704102 7
-0.32429501 -17.148438 -17.520508 7
-0.32962 -17.228516 -17.518555 7
-0.34874001 -17.40332 -17.620117 7
-0.359238 -17.518555 -17.655273 7
-0.52163702 -20.807617 -16.463867 7
-0.52642798 -20.885742 -16.444336 7
-0.53468299 -20.990234 -16.448242 7
-0.53486598 -21.032227 -16.398438 7
-0.60366797 -22.441406 -15.674805 7
-0.607315 -22.508789 -15.642578 7
-0.592529 -22.427734 -15.498047 7
0.053725999 18.323242 12.642578 7
0.062560998 18.275391 12.554688 7
0.071960002 18.22168 12.463867 7
0.074997 18.222656 12.407227 7
0.080338001 18.203125 12.336914 7
0.087417997 18.167969 12.258789 7
0.086975001 18.198242 12.21875 7
0.073821999 19.601562 9.9121094 7
0.082015999 19.546875 9.8349609 7
0.086777002 19.523438 9.7705078 7
0.078262001 19.623047 9.7578115 7
0.081298999 19.615234 9.7011719 7
0.086623996 19.585938 9.6347656 7
-0.026642 21.561523 7.6630859 7
-0.030517999 21.615234 7.624023 7
-0.037842002 21.702148 7.592773 7
-0.038833998 21.727539 7.545898 7
-0.036254998 21.733398 7.436523 7
-0.026916999 21.658203 7.3613281 7
0.014297 15.620117 -14.500977 7
0.015457 15.574219 -14.529297 7
0.0087430002 15.584961 -14.616211 7
0.018921001 15.473633 -14.577148 7
0.017273 15.448242 -14.625977 7
0.012802 15.441406 -14.696289 7
-0.50247198 -12.280273 -21.418945 7
-0.50988799 -12.366211 -21.450195 7
-0.51124603 -12.425781 -21.430664 7
-0.49502599 -12.40332 -21.263672 7
-0.317734 -13.526367 -18.501953 7
-0.30328399 -13.493164 -18.354492 7
-0.30039999 -13.523438 -18.298828 7
-0.31147799 -13.628906 -18.352539 7
-0.32652301 -13.759766 -18.438477 7
-0.300217 -15.685547 -16.508789 7
-0.313171 -15.808594 -16.563477 7
-0.33223 -15.970703 -16.661133 7
-0.32141101 -15.943359 -16.545898 7
-0.35601801 -16.289062 -16.673828 7
-0.50856 -19.477539 -15.338867 7
-0.595474 -21.121094 -14.52832 7
-0.596268 -21.163086 -14.482422 7
-0.595245 -21.191406 -14.424805 7
-0.60522503 -21.302734 -14.430664 7
-0.615219 -21.415039 -14.435547 7
0.046386998 17.429688 11.834961 7
0.053268 17.399414 11.761719 7
0.058945 17.37793 11.694336 7
0.064606003 17.356445 11.626953 7
0.071487002 17.325195 11.554688 7
0.067322001 17.384766 11.53418 7
0.058136001 18.677734 9.2705078 7
0.048477001 18.782227 9.2626953 7
0.046172999 18.822266 9.2265615 7
0.050583001 18.801758 9.1669922 7
0.061110999 18.727539 9.0859385 7
0.060637999 18.750977 9.0439453 7
0.054047 18.828125 9.0234385 7
0.055404998 18.834961 8.9755859 7
0.065917999 18.760742 8.8945312 7
0.05751 18.854492 8.8808594 7
-0.055969 20.764648 6.6660161 7
-0.052779999 20.749023 6.609375 7
-0.047775 20.714844 6.5488281 7
-0.040924001 20.664062 6.485352 7
-0.040176 20.669922 6.4355469 7
-0.40461701 -10.149414 -19.78418 7
-0.40409899 -10.196289 -19.754883 7
-0.408081 -10.260742 -19.760742 7
-0.41657999 -10.342773 -19.803711 7
-0.42121899 -10.411133 -19.816406 7
-0.42327899 -10.46875 -19.806641 7
-0.43693501 -10.574219 -19.891602 7
-0.43901101 -10.630859 -19.881836 7
-0.43783599 -10.675781 -19.84668 7
-0.28015101 -12.177734 -17.261719 7
-0.269943 -12.169922 -17.155273 7
-0.272659 -12.226562 -17.145508 7
-0.28378299 -12.325195 -17.199219 7
-0.29361001 -12.416992 -17.242188 7
-0.30538899 -12.519531 -17.299805 7
-0.27449 -14.435547 -15.397461 7
-0.289536 -14.563477 -15.464844 7
-0.31108099 -14.729492 -15.574219 7
-0.285934 -14.619141 -15.369141 7
-0.295151 -14.712891 -15.395508 7
-0.30827299 -14.829102 -15.448242 7
-0.33305401 -15.016602 -15.578125 7
-0.32022101 -14.977539 -15.456055 7
-0.32035801 -15.016602 -15.418945 7
-0.47949201 -17.932617 -14.380859 7
-0.48030099 -17.973633 -14.341797 7
-0.47851601 -17.998047 -14.288086 7
-0.47477701 -18.007812 -14.22168 7
-0.48078901 -18.083984 -14.212891 7
-0.48291001 -18.133789 -14.182617 7
-0.488922 -18.209961 -14.172852 7
-0.55267298 -19.581055 -13.293945 7
-0.55740398 -19.648438 -13.272461 7
-0.55821198 -19.6875 -13.229492 7
-0.56883198 -19.796875 -13.237305 7
-0.394775 -13.335938 19.362305 7
-0.385391 -13.245117 19.328125 7
-0.403534 -13.295898 19.485352 7
0.050934002 16.351562 11.179688 7
0.049759001 16.384766 11.147461 7
0.048583999 16.416992 11.114258 7
0.037597999 16.524414 11.125 7
0.044266 16.498047 11.057617 7
0.055481002 16.433594 10.969727 7
0.059525002 16.425781 10.914062 7
0.055466 17.787109 8.3046885 7
0.045821998 17.884766 8.2939453 7
0.051162999 17.856445 8.2353516 7
0.05452 17.844727 8.1826172 7
0.056609999 17.844727 8.1347656 7
0.056731999 17.859375 8.0927734 7
-0.058883999 19.697266 5.703125 7
-0.054214001 19.667969 5.648438 7
-0.054733001 19.682617 5.6035161 7
-0.052673001 19.675781 5.5537109 7
-0.062912002 19.776367 5.5263672 7
-0.066024996 19.813477 5.485352 7
-0.264038 -11.134766 -16.319336 7
-0.262802 -11.169922 -16.283203 7
-0.27795401 -11.280273 -16.364258 7
-0.29037499 -11.37793 -16.424805 7
-0.290512 -11.419922 -16.398438 7
-0.29061899 -11.460938 -16.371094 7
-0.27424601 -13.520508 -14.579102 7
-0.288773 -13.636719 -14.639648 7
-0.271072 -13.575195 -14.492188 7
-0.27327001 -13.624023 -14.472656 7
-0.286423 -13.734375 -14.524414 7
-0.47119099 -17.020508 -13.313477 7
-0.47271699 -17.063477 -13.28125 7
-0.473557 -17.101562 -13.244141 7
-0.49366799 -17.265625 -13.313477 7
-0.47471601 -17.209961 -13.126953 7
0.027419999 15.756836 10.550781 7
0.022705 15.813477 10.53418 7
0.027664 15.799805 10.476562 7
0.026397999 15.830078 10.445312 7
0.042389002 15.734375 10.342773 7
0.038376 15.785156 10.322266 7
0.046767998 15.745117 10.251953 7
-0.073273003 18.84668 4.9902339 7
-0.071106002 18.837891 4.9433589 7
-0.070297003 18.838867 4.8974609 7
-0.072113 18.87207 4.811523 7
-0.37884501 -7.7548828 -17.860352 7
-0.36524999 -7.7587891 -17.740234 7
-0.36824 -7.8125 -17.743164 7
-0.384918 -7.9082031 -17.847656 7
-0.25483701 -9.9228516 -15.608398 7
-0.247711 -9.9335938 -15.535156 7
-0.24781799 -9.9726562 -15.510742 7
-0.24142499 -9.9853516 -15.442383 7
-0.229965 -9.9765615 -15.339844 7
-0.22718801 -10.003906 -15.295898 7
-0.241043 -10.100586 -15.365234 7
-0.249832 -10.175781 -15.401367 7
-0.25285301 -10.227539 -15.396484 7
-0.262375 -10.306641 -15.436523 7
-0.25741601 -10.324219 -15.37793 7
-0.22258 -12.251953 -13.577148 7
-0.23431399 -12.345703 -13.619141 7
-0.245316 -12.436523 -13.657227 7
-0.225113 -12.367188 -13.50293 7
-0.235397 -12.455078 -13.535156 7
-0.24714699 -12.549805 -13.577148 7
-0.26541099 -12.678711 -13.658203 7
-0.264801 -12.709961 -13.623047 7
-0.26420599 -12.742188 -13.588867 7
-0.26504499 -12.780273 -13.5625 7
-0.43301401 -15.708008 -12.442383 7
-0.43243399 -15.736328 -12.401367 7
-0.431122 -15.759766 -12.357422 7
-0.43708801 -15.827148 -12.350586 7
-0.43940699 -15.873047 -12.324219 7
-0.44101 -15.913086 -12.292969 7
-0.443344 -15.958008 -12.266602 7
-0.51773101 -17.326172 -11.429688 7
-0.52954102 -17.430664 -11.443359 7
-0.519485 -17.395508 -11.354492 7
-0.51744097 -17.411133 -11.302734 7
-0.51832598 -17.445312 -11.264648 7
-0.53015101 -17.550781 -11.277344 7
-0.35070801 -14.078125 15.151367 7
-0.33079499 -11.491211 17.180664 7
-0.32707199 -11.4375 17.18457 7
-0.066559002 13.779297 12.818359 7
0.045196999 14.8125 9.8603516 7
0.036559999 14.894531 9.8603516 7
0.035202 14.923828 9.8310547 7
0.031661998 14.967773 9.8095703 7
0.042006999 14.916992 9.7353516 7
0.051727001 14.888672 9.6289062 7
0.037354 16.227539 7.0283198 7
0.034561001 16.261719 6.9970698 7
0.037918001 16.291016 6.8369141 7
-0.086914003 17.953125 4.46875 7
-0.091155998 17.995117 4.4316411 7
-0.091034003 18.000977 4.389648 7
-0.089461997 17.99707 4.3457031 7
-0.084274001 17.962891 4.296875 7
-0.081284001 17.946289 4.250977 7
-0.075363003 17.90625 4.202148 7
-0.076706 17.923828 4.1611328 7
-0.356949 -6.7138672 -16.881836 7
-0.347137 -6.7304692 -16.795898 7
-0.347992 -6.7753911 -16.78418 7
-0.35266101 -6.8300781 -16.800781 7
-0.356567 -6.882812 -16.811523 7
-0.364288 -6.9472661 -16.849609 7
-0.37428299 -7.016602 -16.90332 7
-0.38505599 -7.0888672 -16.960938 7
-0.39506501 -7.1582031 -17.014648 7
-0.39973399 -7.2148442 -17.030273 7
-0.39679 -7.249023 -16.991211 7
-0.22787499 -9.0136719 -14.666016 7
-0.21727 -9.0107422 -14.573242 7
-0.216599 -9.0449219 -14.545898 7
-0.220535 -9.0976562 -14.550781 7
-0.224457 -9.1494141 -14.553711 7
-0.231445 -9.2128906 -14.577148 7
-0.236313 -11.581055 -12.902344 7
-0.221085 -11.541016 -12.786133 7
-0.22427399 -11.588867 -12.776367 7
-0.229752 -11.647461 -12.779297 7
-0.243668 -11.74707 -12.832031 7
-0.245331 -11.787109 -12.8125 7
-0.24237099 -11.805664 -12.766602 7
-0.423904 -14.916992 -11.506836 7
-0.42556801 -14.956055 -11.479492 7
-0.427246 -14.995117 -11.451172 7
-0.50204498 -16.396484 -10.511719 7
-0.50296003 -16.428711 -10.475586 7
-0.50155598 -16.447266 -10.430664 7
-0.52252197 -16.602539 -10.482422 7
0.030228 14.22168 9.2685547 7
0.028015001 14.255859 9.2441406 7
0.019653 14.330078 9.2402344 7
0.031326 14.270508 9.1660156 7
0.038361002 14.243164 9.1074219 7
0.040024001 14.25 9.0683594 7
0.043212999 14.24707 9.0244141 7
0.044861 14.254883 8.9853516 7
-0.194168 -8.1230469 -13.742188 7
-0.193451 -8.1552734 -13.717773 7
-0.202438 -8.2216797 -13.754883 7
-0.213943 -8.3320312 -13.786133 7
-0.22048999 -8.390625 -13.807617 7
-0.218155 -8.4160156 -13.771484 7
-0.18760701 -10.448242 -12.087891 7
-0.19339 -10.505859 -12.094727 7
-0.201599 -10.572266 -12.116211 7
-0.216766 -10.673828 -12.175781 7
-0.22418199 -10.738281 -12.19043 7
-0.20242301 -10.672852 -12.043945 7
-0.21061701 -10.740234 -12.063477 7
-0.22044399 -10.814453 -12.09082 7
-0.48196399 -15.415039 -9.7470703 7
-0.478012 -15.416992 -9.6943359 7
-0.47244301 -15.410156 -9.6337891 7
-0.48153701 -15.488281 -9.6347656 7
-0.50054902 -15.648438 -9.6367188 7
-0.26556399 -9.9013672 15.276367 7
-0.26724201 -9.8759766 15.30957 7
0.032515999 13.576172 8.5830078 7
0.033431999 13.587891 8.5478516 7
0.040970001 13.574219 8.4609385 7
0.048508 13.55957 8.3730469 7
0.048615001 13.576172 8.3408203 7
0.038940001 13.654297 8.3408203 7
-0.094788 16.280273 2.871094 7
-0.088211 16.237305 2.829102 7
-0.085602 16.225586 2.750977 7
-0.085510001 16.227539 2.7119141 7
-0.08783 16.248047 2.6767581 7
-0.094208002 16.296875 2.641602 7
-0.29118299 -4.6582031 -15.021484 7
-0.296417 -4.7441411 -15.032227 7
-0.30249 -4.8330078 -15.047852 7
-0.30595401 -4.8779302 -15.058594 7
-0.31535301 -4.9355469 -15.108398 7
-0.317184 -5.015625 -15.095703 7
-0.180191 -7.3652339 -13.072266 7
-0.187912 -7.422852 -13.101562 7
-0.19053601 -7.4638672 -13.098633 7
-0.194885 -7.5117192 -13.107422 7
-0.198364 -7.5566411 -13.109375 7
-0.206955 -7.617188 -13.142578 7
-0.207031 -7.6513672 -13.124023 7
-0.19099399 -7.6337891 -13.008789 7
-0.19108599 -7.6669922 -12.991211 7
-0.170609 -9.6171885 -11.519531 7
-0.165604 -9.6259766 -11.46875 7
-0.15888999 -9.6269531 -11.408203 7
-0.165787 -9.6855469 -11.422852 7
-0.170151 -9.7324219 -11.422852 7
-0.180466 -9.8056641 -11.455078 7
-0.191635 -9.8818359 -11.491211 7
-0.17726099 -9.8515615 -11.389648 7
-0.17735299 -9.8808594 -11.366211 7
-0.18257099 -9.9326172 -11.370117 7
-0.192902 -10.005859 -11.401367 7
-0.20747399 -10.09668 -11.455078 7
-0.20927399 -10.133789 -11.439453 7
-0.201721 -10.130859 -11.375 7
-0.200119 -10.15332 -11.341797 7
-0.37501499 -13.12207 -10.023438 7
-0.37768599 -13.161133 -10.003906 7
-0.37866199 -13.192383 -9.9755859 7
-0.386475 -13.258789 -9.9785156 7
-0.38745099 -13.290039 -9.9511719 7
-0.390991 -13.333008 -9.9335938 7
-0.45628399 -14.597656 -8.9599609 7
-0.46498099 -14.669922 -8.9580078 7
-0.46853599 -14.712891 -8.9365234 7
-0.2509 -9.2753906 14.588867 7
-0.258789 -9.2744141 14.65332 7
-0.27104199 -9.2900391 14.742188 7
-0.259689 -9.2158203 14.702148 7
0.032883 13.026367 7.9980469 7
0.035537999 13.025391 7.9599609 7
0.040771 13.008789 7.914062 7
0.041733 13.019531 7.8808589 7
0.040970001 13.039062 7.8525391 7
0.036789 13.081055 7.8349609 7
0.038589001 13.084961 7.7998052 7
0.038681 13.099609 7.7685552 7
0.042220999 13.09375 7.7285161 7
0.012665 14.219727 5.405273 7
0.020431999 14.177734 5.3574219 7
0.023087 14.169922 5.320312 7
0.027450999 14.151367 5.2792969 7
0.020721 14.204102 5.257812 7
0.016541 14.241211 5.2314448 7
0.014938 14.260742 5.2011719 7
0.019301999 14.242188 5.1601558 7
0.021957001 14.234375 5.1230469 7
-0.17509501 -6.6992192 -12.479492 7
-0.190506 -6.8398442 -12.519531 7
-0.19683801 -6.890625 -12.540039 7
-0.20048501 -6.9335942 -12.543945 7
-0.156921 -9.0019531 -10.87793 7
-0.159714 -9.0410156 -10.870117 7
-0.168137 -9.1865234 -10.825195 7
-0.170029 -9.2216797 -10.811523 7
-0.17549101 -9.2714844 -10.817383 7
-0.43919399 -13.766602 -8.4208984 7
-0.44291699 -13.808594 -8.4013672 7
-0.44482401 -13.84082 -8.375 7
-0.445847 -13.868164 -8.3457031 7
-0.44866899 -13.905273 -8.3222656 7
-0.447891 -13.923828 -8.2871094 7
-0.46060199 -14.013672 -8.2988281 7
-0.467926 -14.074219 -8.2910156 7
-0.24439999 -8.6181641 14.039062 7
-0.241653 -8.578125 14.045898 7
0.025284 12.472656 7.6005859 7
0.028076001 12.470703 7.5644531 7
0.029068001 12.479492 7.532227 7
0.032761 12.473633 7.4931641 7
0.034653001 12.476562 7.4580078 7
0.03923 12.464844 7.4169922 7
0.039337002 12.478516 7.3876948 7
-0.174118 -6.125 -11.946289 7
-0.181686 -6.1767578 -11.974609 7
-0.189255 -6.2275391 -12.001953 7
-0.195862 -6.2763672 -12.023438 7
-0.18847699 -6.2880859 -11.966797 7
-0.194153 -6.3339839 -11.982422 7
-0.178497 -6.3837891 -11.848633 7
-0.150452 -8.3320312 -10.4375 7
-0.152496 -8.3945312 -10.407227 7
-0.14321899 -8.3876953 -10.339844 7
-0.148941 -8.4365234 -10.348633 7
-0.14621 -8.4521484 -10.313477 7
-0.15567 -8.5146484 -10.34082 7
-0.16325399 -8.5693359 -10.357422 7
-0.17366 -8.6337891 -10.387695 7
-0.158737 -8.6064453 -10.292969 7
-0.156021 -8.6240234 -10.258789 7
-0.24597199 -8.2070312 13.486328 7
-0.22962999 -8.0947266 13.444336 7
-0.234451 -8.0263672 13.525391 7
0.015289 11.939453 7.3564448 7
0.017258 11.941406 7.3232422 7
0.0079190005 12.007812 7.320312 7
0.0051879999 12.037109 7.2998052 7
0.013763 12.003906 7.25 7
0.027984999 11.939453 7.1845698 7
0.024307 11.972656 7.1660161 7
0.024398999 11.986328 7.1376948 7
0.036727998 11.931641 7.078125 7
0.033050999 11.964844 7.0595698 7
-0.163895 -5.4462891 -11.407227 7
-0.16198701 -5.4716802 -11.382812 7
-0.167953 -5.515625 -11.402344 7
-0.17784099 -5.5683589 -11.441406 7
-0.176926 -5.5957031 -11.422852 7
-0.17308 -5.6162109 -11.388672 7
-0.17216501 -5.6435552 -11.369141 7
-0.16535901 -5.657227 -11.318359 7
-0.164459 -5.6845698 -11.300781 7
-0.162567 -5.7089839 -11.276367 7
-0.160675 -5.734375 -11.251953 7
-0.158783 -5.7587891 -11.227539 7
-0.132889 -7.6816411 -9.9091797 7
-0.136902 -7.7207031 -9.9091797 7
-0.13502499 -7.7412109 -9.8818359 7
-0.14298999 -7.7929692 -9.9013672 7
-0.13519301 -7.7929692 -9.8447266 7
-0.132309 -7.8085942 -9.8115234 7
-0.137329 -7.851562 -9.8164062 7
-0.141342 -7.891602 -9.8164062 7
-0.148331 -7.9414058 -9.8310547 7
-0.157272 -7.9980469 -9.8544922 7
-0.33902001 -11.165039 -8.2900391 7
-0.34108001 -11.196289 -8.2705078 7
-0.196823 -7.6757808 12.654297 7
-0.196823 -7.648438 12.672852 7
-0.195816 -7.6181641 12.686523 7
-0.208939 -7.6337891 12.766602 7
-0.208939 -7.6074219 12.78418 7
-0.205933 -7.5712891 12.788086 7
-0.149078 -4.828125 -10.914062 7
-0.146072 -4.8505859 -10.885742 7
-0.15023801 -4.8876948 -10.895508 7
-0.150299 -4.9160161 -10.883789 7
-0.15037499 -4.945312 -10.87207 7
-0.150436 -4.9736328 -10.860352 7
-0.151535 -5.0048828 -10.854492 7
-0.15055799 -5.030273 -10.835938 7
-0.151657 -5.061523 -10.829102 7
-0.15171801 -5.0888672 -10.817383 7
-0.135483 -7.3710942 -9.40625 7
-0.139679 -7.4091802 -9.4072266 7
-0.153137 -7.4775391 -9.4511719 7
-0.152191 -7.5 -9.4287109 7
-0.137863 -7.4775391 -9.34375 7
-0.141022 -7.5126948 -9.3408203 7
-0.14624 -7.554688 -9.3457031 7
-0.149414 -7.5898442 -9.3417969 7
-0.15978999 -7.648438 -9.3710938 7
-0.235443 -9.9199219 10.168945 7
-0.222855 -9.8476562 10.146484 7
-0.226044 -9.8398438 10.180664 7
-0.227112 -9.8232422 10.208984 7
-0.201508 -7.358398 12.1875 7
-0.18782 -7.2900391 12.143555 7
-0.189926 -7.2714839 12.169922 7
-0.18783601 -7.2392578 12.177734 7
-0.189941 -7.2207031 12.205078 7
-0.202591 -7.233398 12.279297 7
-0.196274 -7.188477 12.267578 7
-0.19522101 -7.1601558 12.280273 7
-0.196274 -7.1376948 12.301758 7
-0.195236 -7.109375 12.313477 7
-0.20576499 -7.1152339 12.378906 7
-0.20576499 -7.0888672 12.395508 7
-0.213135 -7.0839839 12.446289 7
-0.21629301 -7.0673828 12.478516 7
-0.199036 -9.3261719 9.6064453 7
-0.211197 -9.3535156 9.6708984 7
-0.21232601 -9.3378906 9.6972656 7
-0.205734 -9.2929688 9.6962891 7
-0.177689 -6.719727 11.722656 7
-0.17659 -6.6923828 11.733398 7
-0.17659 -6.6679692 11.749023 7
-0.17770401 -6.6464839 11.770508 7
-0.18211401 -6.6347661 11.805664 7
-0.18653899 -6.6230469 11.839844 7
-0.014046 16.222815 10.584179 7
0.0021500001 13.173804 8.1155052 7
-0.19525801 -9.996706 10.478881 7
-0.18159799 -7.37046 12.69129 7
-0.199192 -8.8951483 -14.245133 7
-0.149205 -10.181924 -11.740531 7
-0.040362 -7.2894158 -9.2575951 7
-0.282096 -7.7006569 12.989999 7
-0.203693 -6.7187381 11.559433 7
-0.013747 11.67324 6.7780552 7
-0.47949499 -7.225615 -17.142429 7
-0.35672501 -8.7799082 -14.207359 7
