# .PCD v0.7 - Point Cloud Data file format
VERSION 0.7
FIELDS x y z intensity
SIZE 4 4 4 4
TYPE F F F F
COUNT 1 1 1 1
WIDTH 966
HEIGHT 1
VIEWPOINT 0 0 0 1 0 0 0
POINTS 966
DATA ascii
0.468018 59.693359 46.183594 7
0.482986 59.418945 45.541992 7
0.53894001 59.798828 41.604492 7
0.43959001 53.522461 41.510742 7
0.383118 55.368164 42.686523 7
0.42012 54.34082 41.723633 7
0.504852 53.985352 37.288086 7
0.34672499 60.912109 38.464844 7
0.38121 59.871094 37.640625 7
0.41403201 58.882812 36.855469 7
0.445526 58.032227 35.972656 7
0.47769201 57.055664 35.211914 7
0.83166498 38.28418 -45.477539 7
0.37114 50.115234 38.84082 7
0.384354 49.850586 38.461914 7
0.33474699 51.327148 39.369141 7
0.41892999 51.09082 35.254883 7
0.402863 51.648438 35.449219 7
0.37078899 52.674805 35.946289 7
0.39233401 52.141602 35.422852 7
0.41471899 51.582031 34.886719 7
0.429672 51.237305 34.492188 7
0.25894201 57.699219 35.831055 7
0.29335001 56.762695 35.09375 7
0.31701699 56.145508 34.549805 7
0.33377099 55.733398 34.130859 7
0.76020801 35.706055 -42.25 7
0.33728001 45.858398 35.800781 7
0.352249 45.578125 35.424805 7
0.38700899 46.793945 32.388672 7
0.40374801 46.441406 31.998047 7
0.40605199 46.464844 31.857422 7
0.36326599 48.084961 31.956055 7
0.37812799 47.775391 31.603516 7
0.38172901 47.761719 31.4375 7
0.39767501 47.419922 31.067383 7
0.30253601 42.047852 32.961914 7
0.315292 41.845703 32.657227 7
0.356415 42.879883 29.671875 7
0.35139501 43.074219 29.654297 7
0.37261999 42.649414 29.233398 7
0.33548 44.495117 28.532227 7
0.343979 44.363281 28.308594 7
0.36077899 44.030273 27.96582 7
0.37115499 43.850586 27.717773 7
0.23341399 48.59668 27.679688 7
0.248932 48.28125 27.362305 7
0.25520301 38.8125 30.523438 7
0.26826501 38.701172 30.155273 7
0.287247 40.116211 27.703125 7
0.306595 39.776367 27.347656 7
0.29422 40.107422 27.427734 7
0.32051101 39.616211 26.979492 7
0.265762 41.868164 26.249023 7
0.28276101 41.563477 25.9375 7
0.29789701 41.297852 25.651367 7
0.302643 41.258789 25.498047 7
0.31661999 41.015625 25.228516 7
0.31489599 41.117188 25.157227 7
0.196548 45.032227 24.65918 7
0.21575899 44.65918 24.333984 7
0.210098 36.294922 28.539062 7
0.220139 36.179688 28.320312 7
0.25058001 37.336914 25.787109 7
0.27731299 36.882812 25.369141 7
0.23168901 39.191406 23.951172 7
0.243927 39.005859 23.723633 7
0.25210601 38.900391 23.541992 7
0.259781 38.804688 23.367188 7
0.26921099 38.671875 23.173828 7
0.28320301 38.446289 22.928711 7
0.161072 42.208984 22.236328 7
0.17703199 41.931641 21.978516 7
0.185699 41.806641 21.794922 7
0.20819101 41.390625 21.472656 7
0.21809401 41.236328 21.279297 7
0.43435699 27.913086 -32.363281 7
-1.03685 -47.875 -47.374023 7
-1.093201 -48.823242 -48.104492 7
-1.129135 -49.47168 -48.524414 7
-1.10434 -49.213867 -48.03125 7
-1.16539 -50.240234 -48.823242 7
-1.219574 -51.168945 -49.507812 7
-1.0124511 -52.123047 -41.504883 7
0.209747 34.943359 23.84668 7
0.22120699 34.797852 23.638672 7
0.22930899 34.711914 23.46875 7
0.241028 34.560547 23.259766 7
0.25146499 34.435547 23.072266 7
0.26095599 34.322266 22.889648 7
0.26460299 34.3125 22.772461 7
0.207901 36.542969 21.613281 7
0.219025 36.388672 21.417969 7
0.21991 36.425781 21.327148 7
0.233505 36.225586 21.107422 7
0.25625601 35.853516 20.797852 7
0.238297 36.239258 20.895508 7
0.134949 39.361328 19.898438 7
0.15127601 39.097656 19.664062 7
0.165665 38.869141 19.446289 7
0.180069 38.640625 19.230469 7
0.191147 38.474609 19.044922 7
0.36637899 26.34668 -30.186523 7
-0.99308801 -43.078125 -43.807617 7
-1.020798 -43.556641 -44.09375 7
-1.0684659 -44.30957 -44.65918 7
-1.111969 -45.007812 -45.164062 7
-1.155777 -45.712891 -45.669922 7
-1.108994 -45.176758 -44.901367 7
-1.152512 -45.879883 -45.399414 7
-0.840424 -43.09082 -39.37207 7
-0.85502601 -43.389648 -39.461914 7
-0.912628 -44.306641 -40.125 7
-0.83644098 -43.398438 -38.895508 7
-1.037415 -48.707031 -38.551758 7
0.16690101 34.717773 20.220703 7
0.181564 34.514648 20.005859 7
0.19143701 34.392578 19.836914 7
0.20278899 34.244141 19.654297 7
0.097473003 37.359375 18.359375 7
0.108521 37.208008 18.185547 7
0.126678 36.925781 17.955078 7
0.137421 36.777344 17.786133 7
0.15171801 36.563477 17.587891 7
0.154404 36.558594 17.483398 7
0.155609 36.581055 17.390625 7
-0.79411298 -35.71582 -38.640625 7
-0.82589698 -36.189453 -38.978516 7
-0.85279799 -36.605469 -39.249023 7
-0.881989 -37.051758 -39.547852 7
-0.92768902 -37.792969 -39.970703 7
-0.959503 -38.274414 -40.298828 7
-1.020233 -39.109375 -41.005859 7
-1.101746 -40.301758 -41.884766 7
-0.69210798 -36.709961 -35.005859 7
-0.71417201 -37.074219 -35.193359 7
-0.73819 -37.464844 -35.40332 7
-0.77363598 -38.004883 -35.756836 7
-0.67274499 -37.508789 -33.586914 7
-0.71147197 -38.097656 -33.966797 7
-0.70552099 -38.097656 -33.800781 7
-0.880539 -42.516602 -33.300781 7
-0.87490797 -42.515625 -33.133789 7
-1.161575 -36.736328 44.996094 7
0.18270899 31.723633 18.206055 7
0.17901599 31.870117 18.09082 7
0.183533 31.841797 17.981445 7
0.20207199 31.589844 17.757812 7
0.200073 31.664062 17.702148 7
0.099792004 34.56543 16.113281 7
0.110153 34.433594 15.961914 7
0.124405 34.234375 15.783203 7
0.130539 34.170898 15.662109 7
0.140884 34.036133 15.512695 7
-0.74497998 -31.743164 -35.762695 7
-0.775024 -32.154297 -36.064453 7
-0.79631001 -32.47168 -36.253906 7
-0.82847601 -32.910156 -36.579102 7
-0.85713202 -33.30957 -36.857422 7
-0.88299602 -33.681641 -37.098633 7
-0.91481 -34.120117 -37.414062 7
-0.94525099 -34.544922 -37.709961 7
-0.96935999 -34.901367 -37.924805 7
-0.617477 -32.255859 -32.311523 7
-0.63758898 -32.641602 -32.393555 7
-0.647888 -32.916016 -32.356445 7
-0.67378199 -33.293945 -32.582031 7
-0.70951802 -33.789062 -32.922852 7
-0.62890601 -34.251953 -30.416016 7
-0.640396 -34.463867 -30.461914 7
-0.79853803 -38.371094 -29.786133 7
-0.78817701 -38.307617 -29.584961 7
-0.99168402 -32.577148 39.68457 7
0.16937301 29.87793 16.52832 7
0.190659 29.638672 16.235352 7
0.192322 29.652344 16.155273 7
0.195389 29.644531 16.064453 7
0.20761099 29.5 15.907227 7
0.212433 29.464844 15.804688 7
0.085114002 32.490234 14.527344 7
0.091324002 32.428711 14.414062 7
0.103165 32.279297 14.266602 7
0.112549 32.167969 14.134766 7
0.12262 32.043945 14 7
0.131989 31.931641 13.869141 7
0.12560999 32.06543 13.833984 7
0.211548 19.638672 -26.926758 7
0.22258 19.462891 -26.814453 7
-0.69236797 -27.801758 -32.911133 7
-0.708206 -28.03418 -33.030273 7
-0.72900403 -28.31543 -33.208008 7
-0.75514197 -28.650391 -33.447266 7
-0.78089899 -28.981445 -33.680664 7
-0.80552697 -29.302734 -33.899414 7
-0.83052099 -29.628906 -34.121094 7
-0.85820001 -29.983398 -34.37207 7
-0.88320899 -30.3125 -34.591797 7
-0.90173298 -30.579102 -34.734375 7
-0.55183399 -28.40332 -29.430664 7
-0.594055 -28.914062 -29.833008 7
-0.588898 -28.930664 -29.705078 7
-0.60897797 -29.211914 -29.858398 7
-0.63668799 -29.574219 -30.095703 7
-0.66516101 -29.945312 -30.339844 7
-0.55383301 -30.329102 -27.448242 7
-0.54292297 -30.273438 -27.259766 7
-0.58485401 -30.805664 -27.625 7
-0.55555701 -30.543945 -27.244141 7
-0.81011999 -25.985352 36.563477 7
-0.85897797 -26.325195 37.199219 7
-0.79661602 -25.702148 36.526367 7
0.15496799 27.882812 15.026367 7
0.15483101 27.918945 14.962891 7
0.173279 27.734375 14.713867 7
0.17657501 27.722656 14.62793 7
0.176422 27.758789 14.56543 7
0.188889 27.620117 14.420898 7
0.19332901 27.591797 14.329102 7
0.085220002 30.200195 12.703125 7
0.094589002 30.094727 12.582031 7
0.104355 29.983398 12.461914 7
0.112595 29.894531 12.349609 7
0.10675 30.006836 12.310547 7
-0.64675897 -24.939453 -30.780273 7
-0.659958 -25.130859 -30.869141 7
-0.688232 -25.455078 -31.125 7
-0.69657898 -25.604492 -31.157227 7
-0.76271099 -26.268555 -31.837891 7
-0.57731599 -26.894531 -27.678711 7
-0.53016698 -26.5 -27.120117 7
-0.53810102 -26.642578 -27.137695 7
-0.52766401 -26.605469 -26.964844 7
-0.49437001 -26.34375 -26.553711 7
-0.472092 -26.1875 -26.257812 7
-0.45472699 -26.079102 -26.014648 7
-0.452454 -26.118164 -25.927734 7
-0.49729899 -27.679688 -25.204102 7
-0.570023 -28.553711 -25.783203 7
-0.529724 -28.197266 -25.319336 7
-0.57733202 -28.753906 -25.716797 7
-0.70600897 -32.12793 -24.486328 7
-0.70907599 -32.220703 -24.436523 7
-0.73938 -23.595703 33.785156 7
0.13124099 26.630859 13.897461 7
0.153732 26.402344 13.641602 7
0.153137 26.441406 13.583984 7
0.15541101 26.443359 13.509766 7
0.055023 28.833008 11.751953 7
0.049148999 28.939453 11.712891 7
0.057937998 28.848633 11.604492 7
0.065079004 28.77832 11.504883 7
0.075057998 28.668945 11.390625 7
0.084229 28.570312 11.28125 7
0.080002002 28.654297 11.234375 7
0.071716003 28.793945 11.207031 7
-0.60640001 -22.117188 -28.556641 7
-0.60874897 -22.204102 -28.527344 7
-0.63128698 -22.453125 -28.713867 7
-0.649445 -22.667969 -28.851562 7
-0.66101098 -22.830078 -28.918945 7
-0.67128003 -22.982422 -28.970703 7
-0.461685 -24.714844 -23.610352 7
-0.44731101 -24.636719 -23.415039 7
-0.45144701 -24.733398 -23.394531 7
-0.44323701 -24.711914 -23.256836 7
-0.466019 -25.039062 -23.348633 7
-0.441071 -24.859375 -23.056641 7
-0.461945 -25.113281 -23.189453 7
-0.493835 -25.47168 -23.422852 7
-0.473297 -25.333008 -23.171875 7
-0.52870202 -25.975586 -23.555664 7
-0.66329998 -29.310547 -22.323242 7
-0.64578199 -21.094727 30.669922 7
0.149277 23.344727 14.858398 7
0.15212999 23.345703 14.786133 7
0.141205 24.808594 12.46875 7
0.14537001 24.787109 12.389648 7
0.14073201 24.871094 12.356445 7
0.148865 24.800781 12.256836 7
0.157425 24.723633 12.154297 7
0.158081 24.743164 12.094727 7
0.031539999 27.24707 10.524414 7
0.033523999 27.245117 10.453125 7
0.036804002 27.227539 10.375977 7
0.053436 27.0625 10.181641 7
0.061539002 26.983398 10.086914 7
0.060883 27.014648 10.027344 7
0.110443 18.668945 -20.1875 7
0.112625 18.597656 -20.209961 7
-0.58174098 -19.899414 -26.824219 7
-0.57157898 -19.890625 -26.672852 7
-0.57876599 -20.007812 -26.697266 7
-0.447418 -23.1875 -21.658203 7
-0.452438 -23.337891 -21.588867 7
-0.49794 -23.84668 -21.868164 7
-0.61834699 -19.53125 28.605469 7
0.099991001 22.324219 14.370117 7
0.086975001 22.496094 14.398438 7
0.102737 22.358398 14.25 7
0.110489 22.307617 14.151367 7
0.124939 23.560547 11.481445 7
0.125137 23.583984 11.425781 7
0.123917 23.623047 11.376953 7
0.128815 23.592773 11.299805 7
0.13606299 23.53418 11.210938 7
0.024857 25.825195 9.2109385 7
0.037230998 25.698242 9.1083984 7
0.037903 25.709961 9.0458984 7
0.042785998 25.671875 8.9697266 7
-0.36622599 -20.620117 -19.694336 7
-0.37899801 -20.771484 -19.748047 7
-0.39582801 -20.957031 -19.835938 7
-0.410629 -21.126953 -19.90625 7
-0.39863601 -21.078125 -19.757812 7
-0.41850299 -21.289062 -19.868164 7
-0.57803297 -24.645508 -18.768555 7
-0.57818598 -24.692383 -18.709961 7
-0.58340502 -24.785156 -18.6875 7
-0.59217799 -24.910156 -18.69043 7
0.096190996 20.87207 13.389648 7
0.098403998 20.879883 13.329102 7
0.085403003 21.040039 13.355469 7
0.086089998 21.0625 13.301758 7
0.099959999 20.952148 13.175781 7
0.104553 22.275391 10.555664 7
0.114319 22.193359 10.461914 7
0.117523 22.181641 10.397461 7
0.12175 22.15918 10.327148 7
0.119919 22.201172 10.28418 7
0.116074 22.265625 10.249023 7
0.0093689999 24.352539 8.2021484 7
0.0050349999 24.418945 8.1582031 7
0.011261 24.367188 8.0830078 7
0.023697 24.261719 7.9326172 7
0.026900999 24.242188 7.8662109 7
0.027588001 24.251953 7.8085942 7
-0.55583203 -16.054688 -23.694336 7
-0.56779498 -16.183594 -23.763672 7
-0.57707202 -16.295898 -23.808594 7
-0.58096302 -16.376953 -23.803711 7
-0.36026001 -16.891602 -20.438477 7
-0.35835299 -16.979492 -20.339844 7
-0.36979699 -17.106445 -20.395508 7
-0.393646 -17.317383 -20.556641 7
-0.39592001 -17.382812 -20.533203 7
-0.37071201 -17.262695 -20.27832 7
-0.35025001 -18.978516 -18.397461 7
-0.36387599 -19.126953 -18.457031 7
-0.38887 -19.360352 -18.604492 7
-0.39492801 -19.452148 -18.604492 7
-0.37884501 -19.376953 -18.433594 7
-0.402206 -19.598633 -18.56543 7
-0.41638201 -19.751953 -18.626953 7
-0.57264698 -23.088867 -17.325195 7
-0.58363301 -23.224609 -17.34375 7
-0.52505499 -19.098633 22.297852 7
-0.51451099 -18.974609 22.261719 7
-0.525711 -19.00293 22.392578 7
-0.51751697 -16.342773 24.404297 7
0.075470001 19.880859 12.462891 7
0.073654003 19.953125 12.379883 7
0.085205004 19.871094 12.274414 7
0.089722 19.855469 12.206055 7
0.095291004 19.829102 12.130859 7
0.100876 19.802734 12.056641 7
0.104309 19.795898 11.994141 7
0.099838004 21.064453 9.5546885 7
0.101639 21.066406 9.4990234 7
0.098586999 21.118164 9.4619141 7
0.098755002 21.136719 9.4121094 7
0.100006 21.144531 9.3583984 7
0.106644 21.09668 9.2841797 7
-0.011108 23.12207 7.3466802 7
-0.018967001 23.220703 7.313477 7
-0.014496 23.189453 7.2470698 7
-0.011627 23.174805 7.186523 7
-0.0076899999 23.148438 7.1220698 7
-0.002686 23.110352 7.0556641 7
0.033936001 15.668945 -16.587891 7
0.033996999 15.626953 -16.624023 7
-0.45468101 -13.523438 -21.856445 7
-0.45307899 -13.569336 -21.80957 7
-0.46524 -13.685547 -21.882812 7
-0.47282401 -13.779297 -21.915039 7
-0.48097199 -13.875977 -21.952148 7
-0.49313399 -13.993164 -22.023438 7
-0.50358599 -14.101562 -22.080078 7
-0.47672999 -14.014648 -21.813477 7
-0.33441201 -15.331055 -19.114258 7
-0.32704201 -15.333008 -19.017578 7
-0.338669 -15.452148 -19.074219 7
-0.35430899 -15.595703 -19.162109 7
-0.366501 -15.71875 -19.22168 7
-0.32751501 -17.320312 -17.277344 7
-0.32763699 -17.364258 -17.236328 7
-0.31678799 -17.332031 -17.115234 7
-0.32958999 -17.463867 -17.166992 7
-0.347 -17.626953 -17.251953 7
-0.34884599 -17.682617 -17.222656 7
-0.34320101 -17.686523 -17.138672 7
-0.35311899 -17.798828 -17.168945 7
-0.376297 -18.00293 -17.292969 7
-0.53564501 -21.301758 -15.962891 7
0.080017 18.761719 11.438477 7
0.084793001 18.744141 11.37207 7
0.087279998 18.74707 11.317383 7
0.094939999 18.703125 11.239258 7
0.085175 19.942383 8.9052734 7
0.07959 20.015625 8.8789062 7
0.080902003 20.021484 8.8271484 7
0.087952003 19.972656 8.7568359 7
0.094437003 19.928711 8.6875 7
0.092299998 19.967773 8.6484385 7
0.086731002 20.040039 8.6210938 7
0.089767002 20.029297 8.5644531 7
0.094527997 20.000977 8.5019531 7
0.094681002 20.017578 8.4550781 7
0.087371998 20.104492 8.4326172 7
-0.026108 21.962891 6.3925781 7
-0.032226998 22.037109 6.3544922 7
-0.02919 22.019531 6.295898 7
-0.023864999 21.979492 6.233398 7
-0.018555 21.938477 6.170898 7
-0.013245 21.897461 6.108398 7
0.003113 15.007812 -15.50293 7
-0.001862 15.001953 -15.578125 7
0.0059969998 14.907227 -15.551758 7
0.0060419999 14.867188 -15.585938 7
0.0033110001 14.844727 -15.643555 7
-0.32431 -13.957031 -18.144531 7
-0.312195 -13.93457 -18.016602 7
-0.31781 -14.011719 -18.026367 7
-0.324615 -14.09375 -18.044922 7
-0.339371 -14.22168 -18.123047 7
-0.354752 -14.354492 -18.207031 7
-0.35424799 -14.396484 -18.167969 7
-0.33847001 -14.352539 -18.012695 7
-0.31806901 -16.069336 -16.276367 7
-0.30900601 -16.051758 -16.174805 7
-0.31155401 -16.108398 -16.154297 7
-0.326965 -16.248047 -16.22168 7
-0.34666401 -16.416992 -16.319336 7
-0.33392301 -16.375 -16.191406 7
-0.33709699 -16.436523 -16.173828 7
-0.35066199 -16.564453 -16.227539 7
-0.51766998 -19.87207 -14.891602 7
-0.52207899 -19.942383 -14.870117 7
-0.52711499 -20.016602 -14.852539 7
-0.52847302 -20.063477 -14.8125 7
-0.52552801 -20.079102 -14.74707 7
-0.61065698 -21.556641 -14.080078 7
-0.59789997 -21.493164 -13.958984 7
-0.60418701 -21.576172 -13.941406 7
-0.59571803 -21.545898 -13.84375 7
-0.041779 16.960938 13.955078 7
-0.035918999 16.977539 13.844727 7
0.049575999 17.979492 10.875977 7
0.060759999 17.908203 10.785156 7
0.066436999 17.883789 10.71875 7
0.070877001 17.869141 10.658203 7
0.077789001 17.833008 10.586914 7
0.071396001 19.091797 7.9951172 7
0.070327997 19.117188 7.954102 7
0.063170999 19.198242 7.9316411 7
0.065154999 19.197266 7.8808589 7
0.071410999 19.157227 7.8173828 7
0.072173998 19.166016 7.7705078 7
-0.043655001 20.993164 5.4179692 7
-0.038010001 20.952148 5.360352 7
-0.03421 20.926758 5.304688 7
-0.036469001 20.958008 5.2597661 7
-0.044799998 21.046875 5.2246089 7
-0.046463002 21.072266 5.1777339 7
-0.026962001 14.334961 -14.645508 7
-0.447083 -10.65625 -19.826172 7
-0.41284201 -10.567383 -19.526367 7
-0.41422999 -10.62207 -19.511719 7
-0.41821301 -10.686523 -19.517578 7
-0.42608601 -10.767578 -19.553711 7
-0.43200701 -10.839844 -19.575195 7
-0.44312999 -10.935547 -19.636719 7
-0.456177 -11.039062 -19.713867 7
-0.46728501 -11.133789 -19.773438 7
-0.472565 -11.205078 -19.788086 7
-0.46099901 -11.205078 -19.668945 7
-0.282074 -12.561523 -16.907227 7
-0.288773 -12.679688 -16.894531 7
-0.30056801 -12.783203 -16.951172 7
-0.31494099 -12.899414 -17.025391 7
-0.26594499 -14.638672 -15.011719 7
-0.27581799 -14.736328 -15.041992 7
-0.292831 -14.875977 -15.119141 7
-0.306595 -14.99707 -15.173828 7
-0.30929601 -15.049805 -15.154297 7
-0.29833999 -15.022461 -15.046875 7
-0.31015 -15.131836 -15.087891 7
-0.33174101 -15.301758 -15.192383 7
-0.559021 -19.885742 -12.885742 7
-0.56306499 -19.948242 -12.858398 7
-0.56645203 -20.004883 -12.828125 7
-0.57505798 -20.100586 -12.824219 7
0.048492 16.995117 10.145508 7
0.050597999 16.999023 10.09668 7
0.071883999 16.893555 9.8935547 7
0.076599002 16.876953 9.8359385 7
0.083893001 16.838867 9.7685547 7
0.080794998 16.884766 9.7421885 7
0.076370001 16.94043 9.7197266 7
0.062378 18.121094 7.3212891 7
0.065765001 18.106445 7.2695308 7
0.060074002 18.169922 7.2431641 7
0.053741001 18.239258 7.2167969 7
0.061675999 18.186523 7.1542969 7
0.063766003 18.182617 7.1064448 7
0.065857001 18.178711 7.0576172 7
-0.065398999 19.996094 4.782227 7
-0.067184001 20.020508 4.7382808 7
-0.067016996 20.02832 4.6914058 7
-0.062346999 19.995117 4.6376948 7
-0.056396 19.950195 4.5830078 7
-0.053009 19.929688 4.532227 7
-0.29881299 -11.53418 -16.3125 7
-0.288605 -11.52832 -16.212891 7
-0.279861 -11.568359 -16.094727 7
-0.28887901 -11.651367 -16.129883 7
-0.29513499 -11.720703 -16.145508 7
-0.30827299 -11.824219 -16.208984 7
-0.30081201 -11.830078 -16.12793 7
-0.29130599 -11.825195 -16.033203 7
-0.27711499 -13.817383 -14.258789 7
-0.29373199 -13.948242 -14.331055 7
-0.26974499 -13.848633 -14.146484 7
-0.27877799 -13.936523 -14.169922 7
-0.29400599 -14.057617 -14.231445 7
-0.47320601 -17.294922 -12.933594 7
-0.487793 -17.422852 -12.969727 7
-0.478241 -17.392578 -12.876953 7
-0.47489899 -17.40332 -12.817383 7
-0.48327601 -17.491211 -12.819336 7
-0.554245 -18.883789 -11.910156 7
-0.56126398 -18.962891 -11.898438 7
-0.57727098 -19.103516 -11.929688 7
-0.583588 -19.177734 -11.914062 7
-0.58165002 -19.194336 -11.858398 7
-0.37106299 -14.560547 16.59082 7
0.053649999 16.080078 9.5566406 7
0.056549001 16.078125 9.5087891 7
0.023621 16.347656 9.5957031 7
0.038910002 16.250977 9.5009766 7
0.043182001 16.239258 9.4472656 7
0.050216999 16.205078 9.3828115 7
0.051727001 16.213867 9.3398438 7
0.043427002 17.396484 6.704102 7
0.040817 17.431641 6.6699219 7
0.039597001 17.455078 6.632812 7
0.039733998 17.46582 6.5917969 7
0.046050999 17.428711 6.5361328 7
0.046875 17.43457 6.4941411 7
0.040160999 17.501953 6.46875 7
0.035507001 17.552734 6.438477 7
-0.36148101 -8.0595703 -17.475586 7
-0.363022 -8.109375 -17.466797 7
-0.36889601 -8.171875 -17.490234 7
-0.373337 -8.2304688 -17.50293 7
-0.37921101 -8.2939453 -17.526367 7
-0.25767499 -10.244141 -15.348633 7
-0.25413501 -10.268555 -15.299805 7
-0.2397 -10.246094 -15.176758 7
-0.233246 -10.256836 -15.107422 7
-0.235504 -10.304688 -15.097656 7
-0.24285901 -10.374023 -15.12207 7
-0.25238001 -10.454102 -15.161133 7
-0.26118499 -10.530273 -15.195312 7
-0.22551 -12.499023 -13.317383 7
-0.237259 -12.594727 -13.358398 7
-0.25262499 -12.708984 -13.420898 7
-0.23669399 -12.65918 -13.293945 7
-0.237518 -12.697266 -13.268555 7
-0.251434 -12.804688 -13.321289 7
-0.26461801 -12.907227 -13.369141 7
-0.273453 -12.988281 -13.390625 7
-0.26626599 -12.984375 -13.316406 7
-0.26925701 -13.03418 -13.303711 7
-0.27154499 -13.081055 -13.285156 7
-0.44203201 -16.009766 -12.126953 7
-0.43554699 -16.000977 -12.055664 7
-0.442947 -16.076172 -12.054688 7
-0.44451901 -16.117188 -12.023438 7
-0.44679299 -16.162109 -11.996094 7
-0.45126301 -16.219727 -11.979492 7
-0.454285 -16.269531 -11.956055 7
-0.52546698 -17.610352 -11.076172 7
-0.53872699 -17.723633 -11.09375 7
-0.524216 -17.657227 -10.985352 7
-0.52433801 -17.686523 -10.943359 7
-0.53395098 -17.777344 -10.944336 7
-0.34106401 -13.694336 15.493164 7
-0.351547 -13.717773 15.583008 7
-0.37997401 -13.802734 15.807617 7
0.047989 15.311523 8.9384766 7
0.040833 15.381836 8.9287109 7
0.037308 15.424805 8.9052734 7
0.049102999 15.357422 8.828125 7
0.055069 15.333008 8.7714844 7
0.058120999 15.329102 8.7265615 7
0.061889999 15.319336 8.6777344 7
0.075989 15.25293 8.5595703 7
0.066055 15.359375 8.5214844 7
0.036483999 16.577148 6.0712891 7
0.041687001 16.548828 6.0214839 7
0.036743 16.598633 5.9931641 7
0.035553001 16.629883 5.9179692 7
0.038589001 16.617188 5.8730469 7
0.038727 16.62793 5.8339839 7
-0.38391101 -7.0507808 -16.879883 7
-0.38322401 -7.0908198 -16.857422 7
-0.37716699 -7.1162109 -16.797852 7
-0.37953201 -7.1650391 -16.796875 7
-0.37731901 -7.2011719 -16.762695 7
-0.387344 -7.2724609 -16.816406 7
-0.397385 -7.34375 -16.869141 7
-0.398224 -7.3886719 -16.857422 7
-0.40289301 -7.4443359 -16.871094 7
-0.403732 -7.4882808 -16.859375 7
-0.40380901 -7.53125 -16.84082 7
-0.388565 -7.5292969 -16.71582 7
-0.22439601 -9.2958984 -14.388672 7
-0.224472 -9.3330078 -14.366211 7
-0.229156 -9.3876953 -14.374023 7
-0.235367 -9.4482422 -14.391602 7
-0.243286 -9.5888672 -14.373047 7
-0.233383 -9.5859385 -14.285156 7
-0.222717 -9.5800781 -14.194336 7
-0.224976 -11.554688 -12.74707 7
-0.22427399 -11.583984 -12.714844 7
-0.218292 -11.620117 -12.624023 7
-0.22683699 -11.694336 -12.645508 7
-0.23538201 -11.768555 -12.666016 7
-0.247757 -11.860352 -12.708984 7
-0.24246199 -11.867188 -12.649414 7
-0.23484799 -11.862305 -12.577148 7
-0.243393 -11.936523 -12.597656 7
-0.25195301 -12.011719 -12.618164 7
-0.258194 -12.074219 -12.624023 7
-0.252121 -12.076172 -12.560547 7
-0.25297499 -12.113281 -12.537109 7
-0.43562299 -15.246094 -11.186523 7
-0.43801901 -15.289062 -11.161133 7
-0.44042999 -15.332031 -11.135742 7
-0.51553297 -16.670898 -10.243164 7
-0.31315601 -10.294922 16.645508 7
-0.30452001 -10.223633 16.617188 7
-0.30217001 -10.177734 16.626953 7
0.029983999 14.737305 8.3261719 7
0.043961 14.658203 8.2460938 7
0.046402 14.658203 8.2050781 7
0.051910002 14.636719 8.1533203 7
0.053574 14.641602 8.1142578 7
0.053711001 14.658203 8.0810547 7
0.057677999 14.647461 8.0341797 7
0.036331002 15.787109 5.422852 7
0.030334 15.842773 5.3974609 7
0.030456999 15.851562 5.360352 7
0.029816 15.866211 5.3242192 7
0.033783 15.84668 5.280273 7
0.033904999 15.855469 5.2431641 7
0.029433999 15.898438 5.2138672 7
0.024185 15.946289 5.1845698 7
-0.087585002 17.246094 2.5400391 7
-0.085158996 17.231445 2.499023 7
-0.081223004 17.205078 2.457031 7
-0.079575002 17.195312 2.4160161 7
-0.07869 17.191406 2.375 7
-0.080077998 17.205078 2.335938 7
-0.081482001 17.217773 2.2949221 7
-0.085175 17.249023 2.2558589 7
-0.21760599 -8.3476562 -13.741211 7
-0.207947 -8.3486328 -13.660156 7
-0.200729 -8.3583984 -13.594727 7
-0.204041 -8.4042969 -13.594727 7
-0.209778 -8.4589844 -13.609375 7
-0.21472199 -8.5117188 -13.620117 7
-0.218842 -8.5605469 -13.625 7
-0.23027 -8.6367188 -13.674805 7
-0.19842499 -10.589844 -12.015625 7
-0.20094299 -10.631836 -12.003906 7
-0.197769 -10.648438 -11.959961 7
-0.18972801 -10.643555 -11.890625 7
-0.19549599 -10.700195 -11.896484 7
-0.20369001 -10.768555 -11.916016 7
-0.21922299 -10.869141 -11.975586 7
-0.22660799 -10.933594 -11.990234 7
-0.210434 -10.890625 -11.875 7
-0.212936 -10.932617 -11.861328 7
-0.221954 -11.003906 -11.884766 7
-0.23583999 -11.098633 -11.93457 7
-0.23999 -11.148438 -11.929688 7
-0.236816 -11.165039 -11.885742 7
-0.235275 -11.188477 -11.850586 7
-0.39903301 -14.081055 -10.510742 7
-0.393509 -14.105469 -10.417969 7
-0.396851 -14.150391 -10.399414 7
-0.39938399 -14.191406 -10.376953 7
-0.40679899 -14.259766 -10.375977 7
-0.40689099 -14.287109 -10.342773 7
-0.41595501 -14.364258 -10.348633 7
-0.416031 -14.391602 -10.31543 7
-0.25976601 -9.5673828 15.501953 7
-0.26309201 -9.546875 15.543945 7
-0.25230399 -9.4707031 15.503906 7
-0.27558899 -9.5273438 15.661133 7
-0.267288 -9.4628906 15.635742 7
-0.26647899 -9.4257812 15.65332 7
0.044098001 13.96875 7.6474609 7
0.045837 13.97168 7.609375 7
0.051651001 13.948242 7.5605469 7
0.054214001 13.947266 7.5214839 7
0.050384998 14.00293 7.467773 7
0.045745999 14.0625 7.414062 7
-0.094619997 16.383789 1.905273 7
-0.090363003 16.355469 1.828125 7
-0.088623002 16.345703 1.7900389 7
-0.086104997 16.328125 1.750977 7
-0.083572 16.311523 1.712891 7
-0.087479003 16.34082 1.674805 7
-0.30670199 -4.8173828 -15.012695 7
-0.30166599 -4.8466802 -14.96875 7
-0.299164 -4.8789058 -14.939453 7
-0.30349699 -4.9257808 -14.956055 7
-0.30864 -4.9736328 -14.977539 7
-0.31218001 -5.0585942 -14.975586 7
-0.31564301 -5.1025391 -14.985352 7
-0.32929999 -5.1689448 -15.061523 7
-0.348129 -5.2851558 -15.158203 7
-0.34741199 -5.3613281 -15.126953 7
-0.20219401 -7.5400391 -13.087891 7
-0.19886801 -7.5625 -13.049805 7
-0.194656 -7.5830078 -13.005859 7
-0.189606 -7.5996089 -12.957031 7
-0.196503 -7.65625 -12.979492 7
-0.200821 -7.703125 -12.986328 7
-0.2043 -7.7480469 -12.989258 7
-0.212891 -7.8095698 -13.021484 7
-0.214661 -7.8486328 -13.012695 7
-0.203659 -7.8457031 -12.927734 7
-0.19946299 -7.8642578 -12.883789 7
-0.19612101 -7.8867192 -12.844727 7
-0.191925 -7.905273 -12.800781 7
-0.182953 -9.9628906 -11.295898 7
-0.18815599 -10.014648 -11.299805 7
-0.195053 -10.073242 -11.3125 7
-0.182312 -10.048828 -11.220703 7
-0.18837 -10.103516 -11.228516 7
-0.19441199 -10.157227 -11.235352 7
-0.202179 -10.220703 -11.251953 7
-0.37586999 -13.205078 -9.8896484 7
-0.37768599 -13.241211 -9.8652344 7
-0.37776199 -13.267578 -9.8339844 7
-0.376129 -13.28418 -9.7958984 7
-0.379639 -13.328125 -9.7783203 7
-0.378876 -13.350586 -9.7431641 7
-0.38238499 -13.394531 -9.7265615 7
-0.46992499 -14.796875 -8.7949219 7
-0.46058699 -14.767578 -8.7236328 7
-0.46153301 -14.795898 -8.6914062 7
-0.46591201 -14.84375 -8.6728516 7
-0.46772799 -14.876953 -8.6445312 7
-0.48411599 -14.992188 -8.6699219 7
-0.48678601 -15.030273 -8.6435547 7
-0.243729 -8.9511719 14.790039 7
-0.248108 -8.9355469 14.835938 7
-0.25860599 -8.9423828 14.915039 7
-0.24902301 -8.875 14.882812 7
-0.249908 -8.8466797 14.90918 7
-0.24903899 -8.8105469 14.925781 7
-0.25691199 -8.8076172 14.989258 7
-0.26127601 -8.7919922 15.03418 7
0.033707 13.349609 7.3486328 7
0.028687 13.395508 7.3310552 7
0.034882002 13.384766 7.2519531 7
0.039276 13.37207 7.2089839 7
0.038527999 13.390625 7.179688 7
0.042052999 13.381836 7.139648 7
0.048264001 13.371094 7.0605469 7
0.023422001 14.412109 4.4472661 7
0.027786 14.390625 4.407227 7
0.029602 14.385742 4.3720698 7
0.027161 14.410156 4.3417969 7
0.021331999 14.455078 4.3144531 7
0.018036 14.484375 4.2851558 7
0.018997001 14.485352 4.25 7
0.024216 14.457031 4.2099609 7
0.023483001 14.470703 4.1777339 7
-0.184158 -6.828125 -12.424805 7
-0.18512 -6.8623052 -12.413086 7
-0.18427999 -6.891602 -12.391602 7
-0.186142 -6.929688 -12.385742 7
-0.19426 -6.985352 -12.415039 7
-0.201492 -7.039062 -12.44043 7
-0.179703 -9.3193359 -10.769531 7
-0.186951 -9.3759766 -10.783203 7
-0.18162499 -9.3828115 -10.733398 7
-0.17451499 -9.3818359 -10.674805 7
-0.179977 -9.4326172 -10.679688 7
-0.187225 -9.4892578 -10.693359 7
-0.196274 -9.5537109 -10.716797 7
-0.19371 -9.5986328 -10.657227 7
-0.36961401 -12.547852 -9.2783203 7
-0.364288 -12.546875 -9.2265615 7
-0.369766 -12.598633 -9.2197266 7
-0.370758 -12.626953 -9.1933594 7
-0.37443501 -12.669922 -9.1777344 7
-0.38261399 -12.735352 -9.1806641 7
-0.384491 -12.768555 -9.1572266 7
-0.37826499 -12.761719 -9.1015615 7
-0.228043 -8.3642578 14.117188 7
-0.23996 -8.3759766 14.200195 7
-0.236313 -8.3330078 14.200195 7
0.016280999 12.875 6.914062 7
0.011002 12.918945 6.8974609 7
0.024582 12.851562 6.8330078 7
0.027373999 12.847656 6.795898 7
0.034667999 12.817383 6.749023 7
0.048675999 12.797852 6.5664058 7
-0.13514701 -8.4150391 -10.21582 7
-0.149445 -8.5478516 -10.223633 7
-0.152328 -8.5849609 -10.216797 7
-0.158981 -8.6367188 -10.229492 7
-0.167511 -8.6953115 -10.25 7
-0.178864 -8.7636719 -10.285156 7
-0.176102 -8.78125 -10.25 7
-0.154541 -8.7275391 -10.124023 7
-0.164001 -8.7900391 -10.148438 7
-0.17347699 -8.8525391 -10.173828 7
-0.18013 -8.9042969 -10.18457 7
-0.17128 -5.4443359 -11.411133 7
-0.166412 -5.4619141 -11.371094 7
-0.16745 -5.4941411 -11.363281 7
-0.168488 -5.5263672 -11.355469 7
-0.16163599 -5.5400391 -11.305664 7
-0.159729 -5.5654302 -11.28125 7
-0.161743 -5.5986328 -11.27832 7
-0.164749 -5.6347661 -11.280273 7
-0.16185001 -5.6582031 -11.250977 7
-0.160919 -5.6845698 -11.232422 7
-0.16098 -5.7148442 -11.21875 7
-0.159073 -5.7392578 -11.195312 7
-0.15302999 -8.0390615 -9.7539062 7
-0.16297901 -8.0996094 -9.78125 7
-0.152237 -8.1142578 -9.6923828 7
-0.15335099 -8.1699219 -9.6582031 7
-0.156372 -8.2060547 -9.6523438 7
-0.16532899 -8.2626953 -9.6738281 7
-0.17031901 -8.3056641 -9.6767578 7
-0.33763099 -11.207031 -8.1982422 7
-0.34066799 -11.242188 -8.1826172 7
-0.34272799 -11.273438 -8.1630859 7
-0.34574899 -11.308594 -8.1474609 7
-0.34582499 -11.331055 -8.1201172 7
-0.35183701 -11.379883 -8.1162109 7
-0.35488901 -11.416016 -8.1005859 7
-0.35395801 -11.432617 -8.0693359 7
-0.35403401 -11.456055 -8.0419922 7
-0.35905501 -11.5 -8.0332031 7
-0.19900499 -7.5048828 12.80957 7
-0.193985 -7.4619141 12.802734 7
-0.190979 -7.4267578 12.805664 7
-0.192001 -7.4023442 12.828125 7
-0.197052 -7.391602 12.870117 7
-0.198074 -7.3408198 12.910156 7
-0.199081 -7.2900391 12.949219 7
-0.19909699 -7.2626948 12.966797 7
-0.203125 -7.2460942 13.003906 7
-0.21220399 -7.2470698 13.06543 7
-0.216232 -7.2314448 13.102539 7
-0.126434 -7.3730469 -9.3095703 7
-0.133728 -7.420898 -9.3242188 7
-0.137894 -7.4589839 -9.3251953 7
-0.14415 -7.5048828 -9.3359385 7
-0.14627101 -7.5361328 -9.3271484 7
-0.154587 -7.5878911 -9.3466797 7
-0.146393 -7.585938 -9.2910156 7
-0.14128099 -7.59375 -9.2490234 7
-0.149597 -7.6455078 -9.2685547 7
-0.16731299 -7.7783198 -9.2929688 7
-0.23980699 -9.9111328 10.245117 7
-0.239838 -9.890625 10.268555 7
-0.243011 -9.8818359 10.304688 7
-0.243057 -9.8603516 10.328125 7
-0.23996 -9.8056641 10.363281 7
-0.24313401 -9.796875 10.397461 7
-0.23056 -9.7246094 10.374023 7
-0.221146 -9.6660156 10.362305 7
-0.224319 -9.6572266 10.396484 7
-0.22435001 -9.6367188 10.418945 7
-0.23489401 -9.6572266 10.481445 7
-0.23175 -9.6220703 10.493164 7
-0.187408 -7.016602 12.34375 7
-0.19162001 -7.0039058 12.379883 7
-0.194794 -6.9873052 12.411133 7
-0.19270299 -6.9550781 12.417969 7
-0.193756 -6.9316411 12.439453 7
-0.19165 -6.8994141 12.447266 7
-0.192719 -6.8769531 12.467773 7
-0.306335 -9.9707031 -7.3574219 7
-0.30857801 -10.000977 -7.3408198 7
-0.30653399 -10.032227 -7.2861328 7
-0.30767801 -10.056641 -7.265625 7
-0.30990601 -10.085938 -7.249023 7
-0.31214899 -10.115234 -7.2324219 7
-0.316544 -10.151367 -7.2226558 7
-0.32637 -10.209961 -7.2324219 7
-0.203049 -9.2373047 9.7636719 7
-0.203079 -9.2177734 9.7851562 7
-0.20089699 -9.1894531 9.7988281 7
-0.204239 -9.1826172 9.8330078 7
-0.21746799 -9.2128906 9.9023438 7
-0.21199 -9.1708984 9.9052734 7
-0.205414 -9.1259766 9.9023438 7
-0.203247 -9.0976562 9.9160156 7
-0.167603 -6.6992192 11.691406 7
-0.174225 -6.6943359 11.736328 7
-0.17202801 -6.6630859 11.742188 7
-0.161026 -6.608398 11.709961 7
-0.16653401 -6.5986328 11.75 7
-0.16874699 -6.5810552 11.775391 7
-0.172058 -6.5644531 11.805664 7
-0.17536899 -6.5498052 11.835938 7
-0.163452 -6.3847661 11.253906 7
-0.165756 -6.3662109 11.279297 7
-0.164612 -6.3417969 11.289062 7
-0.164627 -6.3173828 11.303711 7
-0.15199301 -6.2607422 11.266602 7
-0.15429699 -6.2441411 11.291016 7
-0.152008 -6.2148442 11.295898 7
-0.15316799 -6.1943359 11.31543 7
-0.168106 -6.2099609 11.393555 7
-0.171555 -6.195312 11.422852 7
-0.157776 -6.1357422 11.379883 7
-0.16122399 -6.1220698 11.408203 7
-0.162384 -6.1005859 11.427734 7
-0.134735 -6.0566411 10.706055 7
-0.13952599 -6.047852 10.739258 7
-0.139542 -6.0253911 10.753906 7
-0.139542 -6.0029302 10.768555 7
-0.139542 -5.9814448 10.783203 7
-0.144348 -5.9716802 10.816406 7
-0.147934 -5.9580078 10.844727 7
-0.147949 -5.9355469 10.859375 7
-0.147949 -5.914062 10.874023 7
-0.14317299 -5.8798828 10.868164 7
-0.0142 16.770229 9.8043528 7
-0.47321099 -13.722185 15.532122 7
-0.193029 -7.4672341 12.804487 7
-0.23218501 -6.1179042 11.224142 7
-0.18148001 -8.7768393 -13.982213 7
-0.051711001 -5.3912282 -11.024051 7
-0.12695201 -8.2900801 -9.8543291 7
-0.32601801 -9.642354 15.815947 7
-0.41272101 -10.204157 -7.317142 7
-0.157224 -6.039638 10.570251 7
-0.162174 -5.7725501 10.845703 7
-0.133184 16.859102 6.187202 7
-0.23153301 -6.9118228 -12.422631 7
-0.176576 -8.8002663 -10.417897 7
-0.321816 -11.707045 -8.4851046 7
