# .PCD v0.7 - Point Cloud Data file format
VERSION 0.7
FIELDS x y z intensity
SIZE 4 4 4 4
TYPE F F F F
COUNT 1 1 1 1
WIDTH 831
HEIGHT 1
VIEWPOINT 0 0 0 1 0 0 0
POINTS 831
DATA ascii
0.53482097 58.322266 41.585938 7
0.55335999 57.881836 40.883789 7
0.57899499 57.077148 40.140625 7
0.48492399 64.452148 37.179688 7
0.51328999 63.474609 36.443359 7
0.53964198 62.571289 35.754883 7
0.87283301 39.144531 -50.414062 7
0.88197303 38.753906 -50.150391 7
0.53878802 51.713867 36.821289 7
0.49467501 53.296875 37.535156 7
0.50721699 52.998047 37.151367 7
0.53608698 54.020508 34.081055 7
0.52990699 54.3125 34.083008 7
0.53152502 54.348633 33.930664 7
0.54008502 53.960938 33.52832 7
0.55454999 53.572266 33.12793 7
0.40400699 59.908203 34.070312 7
0.42608601 59.25293 33.53418 7
0.450928 58.50293 32.950195 7
0.47483799 57.782227 32.387695 7
0.49583399 57.15625 31.881836 7
0.77590901 36.323242 -46.961914 7
0.41494799 49.917969 35.474609 7
0.492798 47.806641 33.874023 7
0.480865 50.147461 31.473633 7
0.467224 50.630859 31.601562 7
0.44967699 51.473633 31.449219 7
0.46553001 51.083008 31.061523 7
0.476105 50.848633 30.766602 7
0.496048 50.333008 30.311523 7
0.70132399 33.998047 -43.791016 7
0.405334 45.373047 32.351562 7
0.41554299 45.193359 32.074219 7
0.43359399 46.446289 29.235352 7
0.46249399 45.751953 28.674805 7
0.45864901 45.926758 28.632812 7
0.420807 47.587891 28.269531 7
0.435684 47.257812 27.938477 7
0.44299299 47.130859 27.72168 7
0.45370501 46.910156 27.455078 7
0.33470199 51.505859 27.057617 7
0.35235599 51.083008 26.698242 7
0.36398301 50.827148 26.422852 7
0.34870899 42.046875 30.102539 7
0.36442599 41.760742 29.764648 7
0.39067101 42.899414 26.991211 7
0.413681 42.415039 26.568359 7
0.40954599 42.579102 26.530273 7
0.37542701 44.317383 25.623047 7
0.388504 44.05957 25.348633 7
0.39363101 43.99707 25.181641 7
0.397903 43.955078 25.025391 7
0.41392499 43.623047 24.71582 7
0.53036499 27.620117 -40.435547 7
0.32273901 38.583008 27.595703 7
0.32536301 38.595703 27.472656 7
0.33728001 39.861328 25.041992 7
0.36904901 39.234375 24.548828 7
0.318542 41.519531 23.330078 7
0.32975799 41.328125 23.105469 7
0.34422299 41.061523 22.84375 7
0.34890699 41.012695 22.695312 7
0.242111 44.704102 21.615234 7
0.25631699 44.431641 21.367188 7
0.27235401 44.114258 21.101562 7
0.28236401 43.935547 20.898438 7
0.457138 28.275391 -35.645508 7
-1.053543 -52.637695 -51.75 7
0.238098 36.710938 26.354492 7
0.277374 36.09375 25.69043 7
0.306198 37.067383 23.180664 7
0.31643701 36.920898 22.978516 7
0.30567899 37.189453 23.017578 7
0.34404001 36.484375 22.496094 7
0.34606901 36.498047 22.389648 7
0.325867 36.954102 22.535156 7
0.28395101 38.96582 21.083008 7
0.29847699 38.71875 20.844727 7
0.309448 38.543945 20.644531 7
0.3125 38.53125 20.525391 7
0.32167101 38.391602 20.34375 7
0.336945 38.125977 20.102539 7
0.212677 41.694336 19.464844 7
0.21269201 41.741211 19.369141 7
0.226685 41.493164 19.147461 7
0.233032 41.405273 18.995117 7
0.252579 41.036133 18.726562 7
0.26148999 40.893555 18.553711 7
-1.0999759 -50.165039 -45.989258 7
-1.166779 -51.291992 -46.822266 7
-1.229126 -52.355469 -47.587891 7
-1.2781219 -53.213867 -48.15625 7
-1.353073 -54.477539 -49.09082 7
-1.4497989 -44.061523 58.213867 7
0.27174401 34.874023 21 7
0.277298 34.822266 20.862305 7
0.28507999 34.729492 20.704102 7
0.301514 34.478516 20.459961 7
0.307877 34.458984 20.238281 7
0.31426999 34.389648 20.095703 7
0.318405 34.361328 19.976562 7
0.32200599 34.342773 19.862305 7
0.24696399 36.493164 19.279297 7
0.26002499 36.292969 19.075195 7
0.27253699 36.101562 18.87793 7
0.26664701 36.259766 18.848633 7
0.28335601 35.989258 18.615234 7
0.29084799 35.891602 18.46582 7
0.172729 39.204102 17.388672 7
0.32843 25.097656 -31.150391 7
-1.128448 -46.263672 -43.614258 7
-1.171265 -46.962891 -44.078125 7
-1.2071691 -47.567383 -44.445312 7
-1.165848 -47.087891 -43.770508 7
-1.213486 -47.858398 -44.291992 7
-1.263855 -48.669922 -44.847656 7
-0.89802599 -44.847656 -38.307617 7
-0.94361901 -45.600586 -38.78125 7
-0.99285901 -46.407227 -39.295898 7
-0.97439599 -46.314453 -38.831055 7
-0.95219398 -46.077148 -38.435547 7
-1.1838681 -51.475586 -38.625977 7
-1.0925291 -50.249023 -37.296875 7
-1.0878299 -50.261719 -37.118164 7
-1.317078 -39.628906 52.192383 7
0.230057 34.321289 17.658203 7
0.24052399 34.177734 17.492188 7
0.244675 34.147461 17.379883 7
0.140747 37.120117 15.871094 7
0.1548 36.901367 15.686523 7
0.165833 36.738281 15.525391 7
0.17837501 36.546875 15.353516 7
0.191513 36.344727 15.180664 7
0.200745 36.212891 15.03418 7
-0.90458697 -38.296875 -38.402344 7
-0.985641 -39.575195 -39.148438 7
-1.054459 -40.526367 -39.925781 7
-1.087952 -41.038086 -40.249023 7
-1.116852 -41.495117 -40.513672 7
-1.154938 -42.068359 -40.891602 7
-1.202866 -42.766602 -41.389648 7
-0.742401 -38.164062 -34.193359 7
-0.77594 -38.680664 -34.504883 7
-0.800919 -39.087891 -34.709961 7
-0.81901598 -39.405273 -34.830078 7
-0.85223401 -39.922852 -35.130859 7
-0.75981098 -39.405273 -33.155273 7
-0.79635602 -39.97168 -33.483398 7
-0.79243499 -39.996094 -33.338867 7
-0.96908599 -44.397461 -32.618164 7
-0.95890802 -44.328125 -32.399414 7
0.22134399 31.791992 15.99707 7
0.228439 31.713867 15.871094 7
0.243301 31.546875 15.617188 7
0.243835 31.574219 15.540039 7
0.253555 31.452148 15.397461 7
0.264267 31.313477 15.249023 7
0.1371 34.382812 13.964844 7
0.146805 34.251953 13.827148 7
0.155853 34.131836 13.693359 7
0.165222 34.006836 13.558594 7
0.174927 33.875 13.421875 7
0.180618 33.842773 13.231445 7
-0.83712798 -33.859375 -35.512695 7
-0.858307 -34.180664 -35.686523 7
-0.89396697 -34.666016 -36.03418 7
-0.92468297 -35.09668 -36.318359 7
-0.95045501 -35.473633 -36.541992 7
-0.97695899 -35.859375 -36.773438 7
-1.013702 -36.363281 -37.125977 7
-1.0419919 -36.771484 -37.373047 7
-0.70814502 -34.261719 -31.959961 7
-0.70175201 -34.260742 -31.801758 7
-0.73004198 -34.746094 -31.954102 7
-0.77923602 -35.408203 -32.427734 7
-0.70960999 -35.870117 -30.073242 7
-0.71986401 -36.066406 -30.095703 7
-0.87783802 -40.00293 -29.120117 7
-0.85504198 -39.771484 -28.795898 7
-0.96977198 -30.891602 40.251953 7
0.205093 29.885742 14.626953 7
0.20813 29.873047 14.538086 7
0.217163 29.769531 14.410156 7
0.227997 29.638672 14.270508 7
0.23172 29.615234 14.177734 7
0.23439001 29.606445 14.091797 7
0.24061599 29.545898 13.984375 7
0.237976 29.618164 13.933594 7
0.122589 32.319336 12.455078 7
0.127029 32.27832 12.356445 7
0.139465 32.140625 12.142578 7
0.155182 31.920898 11.987305 7
0.156433 31.929688 11.907227 7
0.14357001 32.15918 11.898438 7
-0.761383 -29.451172 -32.589844 7
-0.77473402 -29.662109 -32.668945 7
-0.79612702 -29.954102 -32.84082 7
-0.81828302 -30.253906 -33.018555 7
-0.84890699 -30.641602 -33.292969 7
-0.87223798 -30.956055 -33.482422 7
-0.89709502 -31.287109 -33.686523 7
-0.92005903 -31.599609 -33.869141 7
-0.95414698 -32.02832 -34.176758 7
-0.96827698 -32.25293 -34.256836 7
-0.62115502 -29.891602 -29.113281 7
-0.64373797 -30.201172 -29.282227 7
-0.659805 -30.442383 -29.380859 7
-0.66316199 -30.546875 -29.341797 7
-0.69729602 -30.983398 -29.633789 7
-0.71876502 -31.285156 -29.787109 7
-0.59063703 -31.394531 -26.680664 7
-0.62718201 -31.87207 -26.970703 7
-0.66757202 -32.394531 -27.296875 7
-0.63044697 -32.036133 -26.84668 7
-0.68243402 -32.691406 -27.286133 7
-0.79196203 -35.78125 -25.902344 7
-0.78103602 -35.709961 -25.71582 7
-0.776245 -27.082031 34.820312 7
-0.76946998 -24.258789 36.799805 7
0.18760701 27.956055 13.226562 7
0.188171 27.978516 13.157227 7
0.202209 27.811523 13.011719 7
0.201996 27.84375 12.948242 7
0.20602401 27.817383 12.861328 7
0.210815 27.77832 12.769531 7
0.22215299 27.647461 12.640625 7
0.22808801 27.592773 12.542969 7
0.216736 27.78125 12.542969 7
0.106445 30.245117 10.878906 7
0.116989 30.116211 10.760742 7
0.12178 30.070312 10.669922 7
0.131927 29.946289 10.554688 7
0.13938899 29.861328 10.453125 7
0.130371 30.016602 10.421875 7
-0.71128798 -26.454102 -30.50293 7
-0.72670001 -26.667969 -30.605469 7
-0.73965502 -26.859375 -30.681641 7
-0.89534003 -28.671875 -32.029297 7
-0.58143598 -27.59082 -26.791016 7
-0.62890601 -28.128906 -27.203125 7
-0.571594 -27.681641 -26.486328 7
-0.56494099 -29.011719 -24.820312 7
-0.61457801 -29.595703 -25.21875 7
-0.62185699 -29.731445 -25.214844 7
-0.612656 -29.694336 -25.055664 7
-0.66066003 -30.263672 -25.433594 7
0.159943 26.728516 12.212891 7
0.180618 26.482422 12.041992 7
0.186951 26.425781 11.948242 7
0.185883 26.46582 11.891602 7
0.19180299 26.414062 11.799805 7
0.200592 26.323242 11.693359 7
0.19747899 26.391602 11.649414 7
0.072875999 28.924805 9.9658203 7
0.075516 28.911133 9.8876953 7
0.082230002 28.84082 9.7939453 7
0.092224002 28.724609 9.6875 7
0.100998 28.625977 9.5869141 7
0.108124 28.548828 9.4931641 7
0.109116 28.556641 9.4228516 7
-0.64306599 -23.228516 -28.128906 7
-0.65960699 -23.432617 -28.243164 7
-0.68011498 -23.668945 -28.397461 7
-0.69667101 -23.874023 -28.509766 7
-0.511612 -25.686523 -23.28125 7
-0.49989301 -25.629883 -23.111328 7
-0.50323498 -25.717773 -23.079102 7
-0.47712699 -25.576172 -22.716797 7
-0.48715201 -25.834961 -22.618164 7
-0.51574701 -26.166016 -22.810547 7
-0.54968297 -26.550781 -23.048828 7
-0.528198 -26.396484 -22.792969 7
-0.54705799 -26.634766 -22.895508 7
-0.58763099 -27.085938 -23.1875 7
-0.64541602 -22.938477 29.040039 7
0.15582301 23.769531 13.642578 7
0.164841 23.694336 13.53418 7
0.17031901 23.65918 13.447266 7
0.181137 23.5625 13.328125 7
0.183945 23.55957 13.256836 7
0.156296 25.001953 11.09668 7
0.15690599 25.018555 11.035156 7
0.15969799 25.008789 10.963867 7
0.172684 24.87207 10.845703 7
0.173721 24.882812 10.783203 7
0.170349 24.948242 10.740234 7
0.17581201 24.904297 10.657227 7
0.182602 24.84375 10.569336 7
0.058166999 27.222656 8.7587891 7
0.058334 27.240234 8.6953115 7
0.065109 27.172852 8.609375 7
0.074081004 27.076172 8.5166016 7
0.083939001 26.967773 8.4208984 7
0.086746 26.950195 8.3486328 7
0.086304002 17.583984 -21.018555 7
0.086823002 17.526367 -21.055664 7
-0.630844 -21.048828 -26.595703 7
-0.497208 -24.101562 -21.354492 7
-0.49601701 -24.141602 -21.285156 7
-0.50996399 -24.319336 -21.34375 7
-0.497879 -24.260742 -21.182617 7
-0.52981597 -24.600586 -21.390625 7
-0.68357801 -27.993164 -20.108398 7
-0.69142199 -28.118164 -20.098633 7
-0.65782201 -21.680664 27.37207 7
-0.67648298 -21.760742 27.594727 7
0.138458 22.555664 12.714844 7
0.145721 22.50293 12.623047 7
0.152008 22.460938 12.537109 7
0.13948099 23.746094 10.129883 7
0.14105199 23.749023 10.068359 7
0.155807 23.663086 9.7851562 7
0.164932 23.577148 9.6933594 7
0.169342 23.546875 9.6210938 7
0.032822002 25.9375 7.7275391 7
0.045685001 25.798828 7.6308589 7
0.047713999 25.790039 7.5644531 7
0.055861998 25.707031 7.4814448 7
0.058853 25.6875 7.4130859 7
-0.414536 -21.457031 -19.443359 7
-0.45733601 -21.953125 -19.623047 7
-0.44076499 -21.863281 -19.438477 7
-0.457748 -22.051758 -19.518555 7
-0.62796003 -25.551758 -18.233398 7
0.132706 21.161133 11.762695 7
0.138947 21.12207 11.682617 7
0.14418 21.092773 11.607422 7
0.147873 21.080078 11.541016 7
0.146118 22.264648 8.875 7
0.14119001 22.336914 8.8408203 7
0.147888 22.28125 8.765625 7
0.15072601 22.288086 8.6513672 7
0.023331 24.401367 6.6835942 7
0.026001001 24.383789 6.6201172 7
0.029694 24.356445 6.554688 7
0.035399999 24.305664 6.485352 7
0.039581001 24.270508 6.4179692 7
-0.60722399 -17.083984 -23.586914 7
-0.61929297 -17.21582 -23.652344 7
-0.63029498 -17.341797 -23.708008 7
-0.407166 -17.712891 -20.316406 7
-0.39816299 -17.700195 -20.198242 7
-0.40591401 -17.802734 -20.21875 7
-0.417465 -17.932617 -20.271484 7
-0.42901599 -18.061523 -20.322266 7
-0.395493 -19.746094 -18.15918 7
-0.413055 -19.924805 -18.242188 7
-0.433853 -20.129883 -18.349609 7
-0.42700201 -20.121094 -18.249023 7
-0.42501801 -20.151367 -18.185547 7
-0.44041401 -20.314453 -18.250977 7
-0.49906901 -18.196289 22.587891 7
-0.50691199 -18.198242 22.693359 7
0.112152 20.016602 11.155273 7
0.099914998 20.182617 11.118164 7
0.112 20.089844 11.015625 7
0.11647 20.070312 10.949219 7
0.121506 20.043945 10.879883 7
0.12759399 20.007812 10.805664 7
0.127731 20.029297 10.758789 7
0.11972 20.130859 10.748047 7
0.123779 20.137695 10.636719 7
0.113037 21.24707 8.2685547 7
0.120758 21.18457 8.1943359 7
0.126297 21.144531 8.1259766 7
0.121017 21.21582 8.0947266 7
0.12114 21.231445 8.0449219 7
-0.000137 23.209961 5.7568359 7
0.0037839999 23.179688 5.695312 7
0.0087890001 23.137695 5.6308589 7
0.012146 23.112305 5.570312 7
0.016602 23.075195 5.507812 7
0.013519 23.120117 5.4599609 7
-0.52485698 -14.466797 -22.061523 7
-0.49282801 -14.349609 -21.750977 7
-0.49529999 -14.415039 -21.735352 7
-0.50582898 -14.525391 -21.790039 7
-0.51519799 -14.628906 -21.833984 7
-0.52343798 -14.727539 -21.868164 7
-0.53741503 -14.857422 -21.950195 7
-0.54334998 -14.944336 -21.964844 7
-0.52626002 -14.90332 -21.783203 7
-0.36625701 -16.008789 -18.905273 7
-0.37680101 -16.120117 -18.949219 7
-0.39080799 -16.255859 -19.020508 7
-0.40559399 -16.443359 -19.055664 7
-0.40173301 -16.464844 -18.985352 7
-0.353302 -17.950195 -16.895508 7
-0.359833 -18.037109 -16.898438 7
-0.37390101 -18.178711 -16.954102 7
-0.39375299 -18.362305 -17.050781 7
-0.37481701 -18.269531 -16.87207 7
-0.38368201 -18.374023 -16.890625 7
-0.40759301 -18.587891 -17.013672 7
-0.417023 -18.697266 -17.035156 7
-0.57034302 -21.830078 -15.636719 7
-0.57170099 -21.878906 -15.591797 7
-0.58990502 -22.0625 -15.650391 7
-0.58601397 -22.070312 -15.573242 7
-0.651474 -23.457031 -14.692383 7
-0.65748602 -23.542969 -14.669922 7
-0.64544702 -23.479492 -14.545898 7
0.11116 18.96582 10.150391 7
0.115341 18.949219 10.089844 7
0.120087 18.926758 10.025391 7
0.127747 18.87793 9.9511719 7
0.12439 18.929688 9.9208984 7
0.116974 20.023438 7.3574219 7
0.109589 20.109375 7.3320308 7
0.108566 20.135742 7.2880859 7
0.115036 20.087891 7.2236328 7
0.114578 20.106445 7.1777339 7
0.113556 20.130859 7.1337891 7
-0.01857 14.048828 -16.296875 7
-0.35115099 -14.619141 -17.897461 7
-0.35804701 -14.702148 -17.914062 7
-0.36984301 -14.81543 -17.966797 7
-0.378555 -14.911133 -17.996094 7
-0.393417 -15.041016 -18.071289 7
-0.38377401 -15.029297 -17.961914 7
-0.34750399 -16.694336 -15.956055 7
-0.37667799 -16.96582 -16.072266 7
-0.37439001 -16.991211 -16.015625 7
-0.37147501 -17.010742 -15.954102 7
-0.38639799 -17.150391 -16.012695 7
-0.648911 -22.09668 -13.697266 7
-0.644333 -22.126953 -13.56543 7
-0.64019799 -22.128906 -13.490234 7
-0.66322303 -22.342773 -13.557617 7
-0.66342199 -22.378906 -13.504883 7
0.0867 18.137695 9.5810547 7
0.092361003 18.108398 9.5166016 7
0.096146002 18.094727 9.4599609 7
0.097503997 18.103516 9.4130859 7
0.105011 18.057617 9.34375 7
0.105728 18.070312 9.2978516 7
0.096008003 18.173828 9.2919922 7
-0.041489001 21.046875 4.1513672 7
-0.037078999 21.012695 4.0976558 7
-0.029617 20.950195 4.0400391 7
-0.025223 20.914062 3.985352 7
-0.023879999 20.908203 3.9355471 7
-0.028046001 20.954102 3.890625 7
-0.030959999 20.989258 3.844727 7
-0.447281 -11.235352 -19.495117 7
-0.44807401 -11.287109 -19.473633 7
-0.452759 -11.355469 -19.482422 7
-0.460693 -11.4375 -19.516602 7
-0.46667501 -11.511719 -19.535156 7
-0.47979701 -11.618164 -19.609375 7
-0.49099699 -11.71582 -19.668945 7
-0.502823 -11.816406 -19.732422 7
-0.51075703 -11.899414 -19.763672 7
-0.50767499 -11.935547 -19.709961 7
-0.31509399 -13.130859 -16.807617 7
-0.32238799 -13.210938 -16.828125 7
-0.335556 -13.323242 -16.890625 7
-0.348068 -13.429688 -16.947266 7
-0.312805 -15.143555 -15.027344 7
-0.31230199 -15.178711 -14.987305 7
-0.304611 -15.168945 -14.900391 7
-0.30279499 -15.195312 -14.851562 7
-0.314697 -15.305664 -14.891602 7
-0.331177 -15.442383 -14.960938 7
-0.34764099 -15.582031 -15.029297 7
-0.33017001 -15.511719 -14.878906 7
-0.338806 -15.602539 -14.896484 7
0.082794003 17.179688 8.8994141 7
0.090744004 17.132812 8.8310547 7
0.093460001 17.12793 8.78125 7
0.098145001 17.107422 8.7255859 7
0.104797 17.071289 8.6630859 7
-0.050078999 19.923828 3.4755859 7
-0.051254001 19.94043 3.429688 7
-0.049849998 19.932617 3.3818359 7
-0.047134001 19.914062 3.3330081 7
-0.041824002 19.871094 3.282227 7
-0.035858002 19.823242 3.2314451 7
-0.31845099 -12.179688 -16.024414 7
-0.33372501 -12.292969 -16.100586 7
-0.33660901 -12.347656 -16.089844 7
-0.33056599 -12.359375 -16.018555 7
-0.281174 -14.022461 -14.048828 7
-0.292496 -14.158203 -14.049805 7
-0.30989099 -14.292969 -14.123047 7
-0.32106 -14.391602 -14.157227 7
-0.30532801 -14.336914 -14.025391 7
-0.30754101 -14.385742 -14.003906 7
-0.348389 -14.65625 -14.219727 7
-0.34854099 -14.692383 -14.18457 7
-0.50373799 -17.626953 -12.794922 7
-0.51150501 -17.710938 -12.792969 7
-0.50351 -17.722656 -12.666016 7
-0.51405299 -17.823242 -12.676758 7
-0.514893 -17.860352 -12.638672 7
-0.585464 -19.259766 -11.643555 7
-0.58354199 -19.275391 -11.587891 7
-0.589935 -19.348633 -11.571289 7
-0.59704602 -19.428711 -11.557617 7
-0.386002 -8.5322266 -17.474609 7
-0.390625 -8.6357422 -17.46582 7
-0.40232801 -8.7177734 -17.529297 7
-0.41189599 -8.7939453 -17.577148 7
-0.42158499 -8.9160156 -17.602539 7
-0.428238 -8.9824219 -17.628906 7
-0.433456 -9.0449219 -17.644531 7
-0.28976399 -10.679688 -15.34668 7
-0.284073 -10.693359 -15.283203 7
-0.27400199 -10.688477 -15.188477 7
-0.26321399 -10.678711 -15.089844 7
-0.26261899 -10.713867 -15.060547 7
-0.26347399 -10.756836 -15.040039 7
-0.27087399 -10.827148 -15.0625 7
-0.27900699 -10.901367 -15.089844 7
-0.288605 -10.981445 -15.126953 7
-0.295288 -11.049805 -15.144531 7
-0.291031 -11.068359 -15.088867 7
-0.25421101 -12.824219 -13.27832 7
-0.246445 -12.850586 -13.169922 7
-0.26116899 -12.961914 -13.225586 7
-0.27153 -13.050781 -13.255859 7
-0.274582 -13.100586 -13.242188 7
-0.26083401 -13.060547 -13.128906 7
-0.27046201 -13.145508 -13.15332 7
-0.283005 -13.246094 -13.195312 7
-0.29921001 -13.366211 -13.257812 7
-0.29570001 -13.381836 -13.205078 7
-0.29363999 -13.40332 -13.160156 7
-0.55181903 -17.935547 -10.811523 7
-0.56446803 -18.045898 -10.824219 7
-0.56387299 -18.070312 -10.77832 7
-0.554474 -18.035156 -10.693359 7
-0.55903602 -18.092773 -10.669922 7
-0.55697602 -18.106445 -10.617188 7
-0.33642599 -13.291016 15.744141 7
-0.34916699 -13.324219 15.847656 7
-0.361893 -13.356445 15.952148 7
-0.35668901 -13.260742 15.984375 7
0.077545002 15.568359 7.6582031 7
0.081284001 15.555664 7.610352 7
0.090880997 15.499023 7.546875 7
0.092437997 15.50293 7.5058589 7
0.091812 15.522461 7.4716802 7
0.081696004 15.612305 7.4638672 7
0.084702 15.604492 7.4189448 7
0.087723002 15.595703 7.374023 7
0.044434 16.676758 5.09375 7
0.037994001 16.736328 5.0654302 7
0.043198001 16.705078 5.0175781 7
0.049849998 16.661133 4.967773 7
0.053679999 16.648438 4.8837891 7
0.046494 16.713867 4.8554692 7
0.045867998 16.726562 4.8173828 7
-0.249786 -9.6787109 -14.357422 7
-0.248367 -9.7089844 -14.326172 7
-0.25309801 -9.7646484 -14.331055 7
-0.258591 -9.8232422 -14.342773 7
-0.265625 -9.8886719 -14.363281 7
-0.272964 -12.219727 -12.595703 7
-0.25997901 -12.1875 -12.493164 7
-0.269485 -12.298828 -12.486328 7
-0.28733799 -12.419922 -12.556641 7
-0.455338 -15.399414 -11.132812 7
-0.45315599 -15.414062 -11.084961 7
-0.44787601 -15.412109 -11.023438 7
-0.454193 -15.477539 -11.015625 7
-0.45664999 -15.519531 -10.990234 7
-0.459885 -15.567383 -10.967773 7
-0.467758 -15.641602 -10.966797 7
-0.46789601 -15.670898 -10.929688 7
-0.53208899 -16.946289 -9.9140615 7
-0.33688399 -12.78125 14.804688 7
-0.33926401 -12.761719 14.847656 7
-0.34008801 -12.734375 14.881836 7
-0.33772299 -12.689453 14.900391 7
-0.32827801 -12.610352 14.878906 7
-0.33302301 -12.601562 14.93457 7
-0.346466 -12.636719 15.037109 7
-0.33387801 -12.510742 15.02832 7
0.053817999 14.90332 7.358398 7
0.049286 14.949219 7.335938 7
0.051697001 14.946289 7.2939448 7
0.061829001 14.889648 7.2324219 7
0.065780997 14.875977 7.1875 7
0.068176001 14.87207 7.1455078 7
0.070602 14.870117 7.1054692 7
0.073013 14.866211 7.063477 7
0.038437001 15.910156 4.4667969 7
0.045471001 15.866211 4.420898 7
0.047867 15.855469 4.3798828 7
0.050278001 15.844727 4.3398442 7
0.045745999 15.885742 4.3085942 7
0.042769998 15.915039 4.2753911 7
0.045166001 15.90332 4.234375 7
0.046036001 15.904297 4.1962891 7
-0.34152201 -6.0800781 -15.803711 7
-0.33839399 -6.1123052 -15.766602 7
-0.33850101 -6.1523442 -15.75293 7
-0.34750399 -6.2138672 -15.796875 7
-0.36944601 -6.3076172 -15.928711 7
-0.369553 -6.3486328 -15.914062 7
-0.37210101 -6.3955078 -15.915039 7
-0.232346 -8.6728516 -13.661133 7
-0.225967 -8.6845703 -13.600586 7
-0.222031 -8.7050781 -13.554688 7
-0.227814 -8.7607422 -13.569336 7
-0.234421 -8.8183594 -13.587891 7
-0.24101301 -8.8779297 -13.605469 7
-0.246002 -8.9306641 -13.614258 7
-0.209427 -10.926758 -11.797852 7
-0.21524 -10.983398 -11.802734 7
-0.22187801 -11.044922 -11.8125 7
-0.244095 -11.208008 -11.87793 7
-0.22885101 -11.198242 -11.741211 7
-0.26422101 -11.454102 -11.848633 7
-0.412018 -14.351562 -10.231445 7
-0.50265503 -15.807617 -9.2675781 7
-0.50114399 -15.823242 -9.2236328 7
-0.51028401 -15.901367 -9.2216797 7
-0.50138903 -15.87207 -9.1484385 7
-0.50233501 -15.900391 -9.1142578 7
-0.50492901 -15.939453 -9.0859385 7
-0.508331 -15.984375 -9.0605469 7
-0.25160199 -9.1103516 15.688477 7
-0.252426 -9.0800781 15.714844 7
-0.265762 -9.0947266 15.816406 7
-0.25659201 -9.0273438 15.783203 7
-0.25827 -9 15.814453 7
-0.258255 -8.9658203 15.835938 7
-0.27491799 -8.9931641 15.955078 7
-0.27742001 -8.9677734 15.991211 7
0.041916002 15.105469 3.8378911 7
0.046890002 15.076172 3.797852 7
0.044525001 15.098633 3.764648 7
0.040557999 15.131836 3.7324221 7
0.039841 15.143555 3.6982419 7
0.039917 15.148438 3.6630859 7
0.044891 15.119141 3.6230471 7
0.045791999 15.119141 3.5869141 7
0.041016001 15.157227 3.554688 7
-0.349792 -5.4824219 -15.116211 7
-0.35668901 -5.5361328 -15.147461 7
-0.36444101 -5.5917969 -15.183594 7
-0.371353 -5.6464839 -15.213867 7
-0.36975101 -5.6806641 -15.189453 7
-0.36984301 -5.719727 -15.175781 7
-0.360596 -5.7373052 -15.101562 7
-0.35388201 -5.7597661 -15.043945 7
-0.22619601 -7.8486328 -13.099609 7
-0.2229 -7.8710942 -13.060547 7
-0.215317 -7.8798828 -12.996094 7
-0.216278 -7.9160161 -12.982422 7
-0.21467599 -7.9443359 -12.953125 7
-0.22074901 -7.9980469 -12.969727 7
-0.18981899 -10.123047 -11.197266 7
-0.212387 -10.306641 -11.240234 7
-0.211639 -10.332031 -11.211914 7
-0.20062301 -10.3125 -11.128906 7
-0.206726 -10.368164 -11.135742 7
-0.21539301 -10.435547 -11.155273 7
-0.223206 -10.498047 -11.169922 7
-0.23530599 -10.580078 -11.206055 7
-0.40075701 -13.605469 -9.5830078 7
-0.40689099 -13.661133 -9.5761719 7
-0.419052 -13.750977 -9.5927734 7
-0.41572601 -13.757812 -9.5458984 7
-0.48655701 -15.046875 -8.5078115 7
-0.490982 -15.09375 -8.4882812 7
-0.494553 -15.136719 -8.4658203 7
-0.51017803 -15.24707 -8.484375 7
-0.51202399 -15.280273 -8.4550781 7
-0.51042199 -15.292969 -8.4121094 7
-0.51225299 -15.325195 -8.3818359 7
-0.23530599 -8.6142578 14.90332 7
-0.236176 -8.5859385 14.928711 7
-0.233551 -8.5449219 14.93457 7
-0.244049 -8.5498047 15.013672 7
-0.24403401 -8.5166016 15.03418 7
-0.24054 -8.4716797 15.03418 7
0.048737001 13.597656 6.3417969 7
0.054047 13.587891 6.265625 7
0.055847 13.587891 6.2304692 7
0.059356999 13.577148 6.1914058 7
0.065521002 13.55957 6.1142578 7
0.029709 14.469727 3.5068359 7
0.025543001 14.50293 3.4775391 7
0.029022001 14.484375 3.4404299 7
0.035950001 14.443359 3.4003911 7
0.037735 14.435547 3.3652339 7
0.038681 14.433594 3.3300779 7
0.037064001 14.451172 3.2988279 7
0.032883 14.483398 3.2675779 7
0.032120001 14.493164 3.234375 7
-0.21084601 -7.1269531 -12.459961 7
-0.20378099 -7.1386719 -12.401367 7
-0.207458 -7.1816411 -12.405273 7
-0.21562199 -7.2382808 -12.433594 7
-0.221985 -7.2900391 -12.452148 7
-0.20823701 -9.6152344 -10.741211 7
-0.211044 -9.6552734 -10.731445 7
-0.19494601 -9.6171885 -10.626953 7
-0.195953 -9.6484385 -10.609375 7
-0.207748 -9.7246094 -10.644531 7
-0.21684299 -9.7890615 -10.665039 7
-0.22413599 -9.8466797 -10.677734 7
-0.226044 -9.8818359 -10.663086 7
-0.21354701 -9.8583984 -10.577148 7
-0.21633901 -9.8974609 -10.567383 7
-0.39096099 -12.814453 -9.0986328 7
-0.390167 -12.834961 -9.0644531 7
-0.396606 -12.890625 -9.0595703 7
-0.40213001 -12.942383 -9.0507812 7
-0.401337 -12.961914 -9.0166016 7
-0.409576 -13.026367 -9.0166016 7
-0.405182 -13.02832 -8.9677734 7
-0.467224 -14.182617 -7.9902339 7
-0.47367901 -14.237305 -7.9785161 7
-0.463837 -14.206055 -7.9101558 7
-0.47119099 -14.267578 -7.9013672 7
-0.474915 -14.307617 -7.8798828 7
-0.48408499 -14.378906 -7.8769531 7
-0.23071299 -7.9912109 14.338867 7
-0.22886699 -7.9550781 14.348633 7
-0.22795101 -7.921875 14.362305 7
0.037002999 13.022461 6.0566411 7
0.035278 13.044922 6.0292969 7
0.033553999 13.06543 6.0029302 7
0.031845 13.086914 5.9755859 7
0.040924001 13.042969 5.9267578 7
0.043701001 13.036133 5.890625 7
0.048294 13.019531 5.8505859 7
0.051070999 13.012695 5.8144531 7
0.052948002 13.011719 5.780273 7
-0.20517001 -6.4013672 -11.979492 7
-0.19773901 -6.4111328 -11.921875 7
-0.19688401 -6.4404302 -11.901367 7
-0.195099 -6.4658198 -11.875 7
-0.21021999 -6.5380859 -11.942383 7
-0.22062699 -6.5976558 -11.983398 7
-0.204758 -6.5849609 -11.880859 7
-0.221756 -6.6630859 -11.957031 7
-0.214325 -6.672852 -11.900391 7
-0.17063899 -8.7236328 -10.236328 7
-0.166962 -8.7363281 -10.197266 7
-0.170837 -8.7783203 -10.194336 7
-0.17185999 -8.8085938 -10.178711 7
-0.17572001 -8.8496094 -10.175781 7
-0.190887 -8.9335938 -10.227539 7
-0.17977899 -8.9443359 -10.129883 7
0.056823999 12.453125 5.3554692 7
0.055969 12.466797 5.328125 7
0.061691001 12.443359 5.289062 7
-0.17716999 -5.7832031 -11.296875 7
-0.17626999 -5.8095698 -11.277344 7
-0.178314 -5.84375 -11.273438 7
-0.178406 -5.8730469 -11.259766 7
-0.178497 -5.9033198 -11.246094 7
-0.178574 -5.9326172 -11.231445 7
-0.183594 -5.9746089 -11.244141 7
-0.193527 -6.0292969 -11.28125 7
-0.16055299 -8.0048828 -9.8222656 7
-0.16163599 -8.0341797 -9.8076172 7
-0.16172799 -8.0615234 -9.7890615 7
-0.156876 -8.0703115 -9.7460938 7
-0.15794399 -8.0996094 -9.7314453 7
-0.158035 -8.125 -9.7119141 7
-0.16207901 -8.1650391 -9.7119141 7
-0.172058 -8.2255859 -9.7382812 7
-0.18104599 -8.2822266 -9.7607422 7
-0.172241 -8.2763672 -9.6992188 7
-0.167374 -8.2851562 -9.65625 7
-0.169449 -8.3173828 -9.6455078 7
-0.172501 -8.3544922 -9.6396484 7
-0.18446399 -8.421875 -9.6748047 7
-0.192459 -8.4765615 -9.6914062 7
-0.188705 -8.5146484 -9.6328115 7
-0.190781 -8.546875 -9.6210938 7
-0.195862 -7.0185552 13.066406 7
-0.196869 -6.9941411 13.087891 7
-0.162552 -7.7050781 -9.3037109 7
-0.34715301 -10.831055 -7.6679692 7
-0.34931901 -10.861328 -7.6494141 7
-0.163376 -6.3808589 11.841797 7
-0.161148 -6.3505859 11.847656 7
-0.161148 -6.3261719 11.862305 7
-0.171082 -6.328125 11.921875 7
-0.173279 -6.3085942 11.946289 7
-0.164459 -6.2607422 11.921875 7
-0.16667201 -6.242188 11.946289 7
-0.165558 -6.2138672 11.956055 7
-0.16996799 -6.2011719 11.991211 7
-0.175476 -6.1904302 12.030273 7
-0.179886 -6.1777339 12.064453 7
-0.17987099 -6.1513672 12.080078 7
-0.18206801 -6.1318359 12.104492 7
-0.185379 -6.1152339 12.134766 7
-0.186478 -6.092773 12.154297 7
-0.149399 -6.054688 11.356445 7
-0.151703 -6.014648 11.395508 7
-0.16780099 -6.0087891 11.492188 7
-0.155136 -5.9277339 11.467773 7
-0.15628099 -5.8837891 11.5 7
-0.146255 -5.7412109 10.948242 7
-0.148651 -5.7246089 10.97168 7
-0.14384501 -5.6914058 10.964844 7
-0.161819 -5.7119141 11.052734 7
-0.16302501 -5.6923828 11.071289 7
-0.151016 -5.639648 11.036133 7
-0.153412 -5.6230469 11.05957 7
-0.153412 -5.5996089 11.072266 7
-0.15460201 -5.5800781 11.09082 7
-0.153412 -5.554688 11.099609 7
-0.168991 -5.5683589 11.176758 7
-0.168991 -5.545898 11.19043 7
-0.167786 -5.5205078 11.198242 7
-0.206681 -8.1952372 14.741737 7
-0.176962 -6.8420658 12.97846 7
-0.14857399 -5.4902358 10.628077 7
-0.26905099 -10.144665 -14.479676 7
-0.34171599 -5.9175658 -15.518661 7
-0.100075 -8.1135197 -9.5359821 7
-0.36485699 -12.783726 -8.9233475 7
-0.38233599 -10.091773 -6.9696269 7
-0.269254 -7.1648779 13.300638 7
-0.17293499 -6.174336 11.681549 7
-0.119019 -5.5219622 10.615499 7
0.132018 18.333307 9.5868893 7
-0.00229 14.917931 7.0545559 7
-0.084905997 11.991349 9.0697145 7
-0.28355801 -7.9971781 -13.04374 7
-0.24219599 -10.237641 -11.064183 7
