# .PCD v0.7 - Point Cloud Data file format
VERSION 0.7
FIELDS x y z intensity
SIZE 4 4 4 4
TYPE F F F F
COUNT 1 1 1 1
WIDTH 883
HEIGHT 1
VIEWPOINT 0 0 0 1 0 0 0
POINTS 883
DATA ascii
0.76460302 61.869141 36.621094 7
0.748016 62.697266 36.89502 7
0.77919 61.436523 35.994141 7
0.71621698 67.9375 32.198242 7
0.74534601 66.678711 31.440918 7
0.766312 65.797852 30.859863 7
0.79440302 64.583008 30.135254 7
0.81994599 63.482422 29.46875 7
1.030182 32.197266 -55.437012 7
1.046524 31.606445 -54.701172 7
0.70565802 57.134766 33.786133 7
0.67063898 58.583984 34.422852 7
0.720474 56.744141 33.213867 7
0.75393701 57.34082 29.754395 7
0.75265503 57.557617 29.523926 7
0.76196301 57.265625 29.215332 7
0.65635699 62.885742 29.05957 7
0.679169 62.027344 28.509766 7
0.691315 61.605469 28.154297 7
0.718674 60.555664 27.53125 7
0.611893 53.424805 31.651367 7
0.71336401 50.054688 29.595703 7
0.67831397 53.114258 27.481934 7
0.66572601 53.632812 27.579102 7
0.71229601 52.061523 26.663574 7
0.65034503 54.424805 27.488281 7
0.66442901 53.999023 27.129395 7
0.675964 53.662109 26.814453 7
0.68869001 53.28125 26.481445 7
0.56117201 58.972656 26.647949 7
0.58357197 58.376953 25.907715 7
0.617935 57.262695 25.125977 7
0.84030199 27.985352 -48.824707 7
0.85264599 27.608398 -48.424805 7
0.58514398 48.94043 28.861816 7
0.597 50.376953 25.891113 7
0.62708998 49.557617 25.207031 7
0.58447301 51.322266 25.165527 7
0.59988397 50.892578 24.822754 7
0.60786402 50.702148 24.591797 7
0.62411499 50.245117 24.240723 7
0.512573 45.957031 27.169434 7
0.53465301 45.418945 26.729004 7
0.56208801 46.291992 23.755859 7
0.58772302 45.621094 23.30127 7
0.58270299 45.825195 23.26709 7
0.54313701 47.626953 22.627441 7
0.55305499 47.397461 22.393066 7
0.56683302 47.055664 22.110352 7
0.57286102 46.936523 21.927246 7
0.58258098 46.710938 21.697754 7
0.42112699 43.567383 25.842773 7
0.479294 42.192383 24.944824 7
0.48994401 41.991211 24.704102 7
0.49212599 43.426758 22.262207 7
0.52183503 42.719727 21.80127 7
0.51164198 43.038086 21.827637 7
0.53477502 42.49707 21.450684 7
0.490982 44.496094 20.37793 7
0.51852399 43.924805 19.770996 7
0.53213501 43.616211 19.522461 7
0.54124498 43.425781 19.32373 7
0.38763401 39.960938 23.690918 7
0.42242399 39.245117 23.173828 7
0.432587 39.075195 22.959473 7
0.481125 39.422852 19.993652 7
0.46449301 39.859375 20.083496 7
0.487854 39.366211 19.741699 7
0.44404599 41.448242 18.156738 7
0.446823 41.427734 18.035156 7
0.459396 41.172852 17.820801 7
0.46263099 41.140625 17.695801 7
0.47453299 40.899414 17.490723 7
0.484146 40.713867 17.307617 7
0.38095099 44.110352 16.161621 7
0.387817 43.984375 16.004395 7
0.39967301 43.734375 15.807617 7
0.34472701 37.390625 22.054199 7
0.34675601 37.402344 21.946289 7
0.41317701 37.473633 18.77832 7
0.42373699 37.295898 18.590332 7
0.426498 37.283203 18.478516 7
0.433029 37.189453 18.330078 7
0.38497901 39.265625 16.660156 7
0.403732 38.896484 16.413086 7
0.41699201 38.647461 16.213867 7
0.41923499 38.638672 16.106445 7
0.42698699 38.506836 15.953125 7
0.44148299 38.228516 15.746582 7
0.345718 41.257812 14.271484 7
0.35668901 41.046875 14.100586 7
0.364914 40.897461 13.949219 7
0.37611401 40.680664 13.778809 7
0.38207999 40.579102 13.644043 7
0.31973299 34.532227 20.458984 7
0.32469201 34.489258 20.330078 7
0.36981201 36.275391 14.896973 7
0.36595199 36.388672 14.841309 7
0.37577799 36.228516 14.686035 7
0.38945001 35.989258 14.503906 7
0.38532999 36.109375 14.450684 7
0.39624 35.924805 14.289062 7
0.40388501 35.805664 14.151855 7
0.302917 38.68457 12.657227 7
0.310242 38.564453 12.524414 7
0.32305899 38.331055 12.360352 7
0.33285499 38.15918 12.214355 7
0.344574 37.948242 12.059082 7
0.34671 37.933594 11.958984 7
-1.252243 -52.06543 -42.116699 7
-1.330139 -53.341797 -42.967773 7
-1.3686219 -54.023438 -43.317871 7
-1.443604 -55.262695 -44.121582 7
-1.51474 -56.447266 -44.87207 7
-1.2379 -55.371094 -36.44873 7
-1.29187 -56.326172 -36.905273 7
-1.244324 -55.635742 -36.245117 7
0.34190401 34.268555 13.63916 7
0.35507199 34.086914 13.39502 7
0.359146 34.043945 13.290039 7
0.36794999 33.911133 13.155273 7
0.3741 33.828125 13.037109 7
0.37992901 33.75 12.922363 7
0.26104701 36.766602 11.481934 7
0.265396 36.709961 11.374023 7
0.274185 36.569336 11.244141 7
0.28651401 36.360352 11.097168 7
0.29469299 36.229492 10.97168 7
0.308487 35.992188 10.819336 7
-1.103653 -44.402344 -38.266113 7
-1.140305 -44.985352 -38.594727 7
-1.177948 -45.583008 -38.933594 7
-1.213043 -46.148438 -39.238281 7
-1.251663 -46.762695 -39.583008 7
-1.2886961 -47.358398 -39.905762 7
-1.326385 -47.963867 -40.233887 7
-0.95590198 -44.170898 -34.125977 7
-0.97871399 -44.568359 -34.272461 7
-1.004135 -45.004883 -34.447266 7
-1.042206 -45.621094 -34.76123 7
-0.969482 -44.973633 -33.395996 7
-0.954346 -44.832031 -33.118652 7
-1.005432 -45.637695 -33.565918 7
-1.121796 -49.178711 -31.867676 7
0.32864401 31.787109 12.160156 7
0.33369401 31.729492 12.057617 7
0.348984 31.523438 11.824707 7
0.35371399 31.46875 11.725098 7
0.366074 31.310547 11.511719 7
0.254868 33.980469 9.8583984 7
0.26120001 33.892578 9.7524414 7
0.26614401 33.851562 9.5732422 7
0.27310199 33.75 9.465332 7
0.28811601 33.506836 9.3251953 7
0.29612699 16.076172 -29.75293 7
-0.959396 -38.316406 -34.851562 7
-0.98701501 -38.733398 -35.073242 7
-1.016724 -39.178711 -35.316406 7
-1.047501 -39.636719 -35.569824 7
-1.07164 -40.014648 -35.745605 7
-1.107666 -40.541016 -36.054688 7
-1.139496 -41.015625 -36.314453 7
-0.82777399 -38.418945 -31.197266 7
-0.84355199 -38.691406 -31.271484 7
-0.85374498 -38.894531 -31.285156 7
-0.87199402 -39.200195 -31.384277 7
-0.90388501 -39.682617 -31.627441 7
-0.822128 -39.527344 -29.501953 7
-0.89193702 -40.514648 -30.117188 7
-0.852005 -40.056641 -29.611328 7
0.242615 28.40625 16.680664 7
0.240692 28.473633 16.630371 7
0.317871 29.802734 10.804199 7
0.324707 29.71875 10.700684 7
0.32838401 29.68457 10.61377 7
0.33206201 29.650391 10.526855 7
0.33679199 29.598633 10.435547 7
0.345016 29.489258 10.327637 7
0.246185 31.826172 8.3100586 7
0.25785801 31.65332 8.1953115 7
0.26361099 31.577148 8.1020508 7
-0.844818 -32.905273 -31.862305 7
-0.86943102 -33.249023 -32.049316 7
-0.90010101 -33.732422 -32.216309 7
-0.92131001 -34.040039 -32.362305 7
-0.95011902 -34.432617 -32.589844 7
-0.97778302 -34.8125 -32.801758 7
-1.021423 -35.370117 -33.185059 7
-1.0517581 -35.783203 -33.422363 7
-1.077545 -36.144531 -33.608887 7
-0.72422802 -33.380859 -28.450195 7
-0.736359 -33.586914 -28.491699 7
-0.75799602 -33.902344 -28.62793 7
-0.77088898 -34.117188 -28.675293 7
-0.80128503 -34.536133 -28.898438 7
-0.82028198 -34.823242 -29.004395 7
-0.71304297 -34.895508 -26.152832 7
-0.773651 -35.6875 -26.63916 7
-0.73280299 -35.254883 -26.166992 7
-0.79876697 -36.115234 -26.699219 7
-0.92159998 -39.310547 -25.213379 7
-0.935745 -39.546875 -25.237305 7
0.29887399 27.863281 9.546875 7
0.302856 27.826172 9.4648438 7
0.30683899 27.789062 9.3842773 7
0.31271401 27.722656 9.2949219 7
0.31742901 27.672852 9.2109385 7
0.31230199 27.770508 9.1679688 7
0.208588 29.9375 7.3110352 7
0.20458999 30.013672 7.2524409 7
0.210464 29.941406 7.1660161 7
0.218567 29.834961 7.0732422 7
0.22517399 29.75 6.985352 7
0.23367301 29.635742 6.8920898 7
0.239136 29.567383 6.8076172 7
0.23249801 29.683594 6.7563481 7
-0.91799903 -31.158203 -30.871582 7
-0.93008399 -31.351562 -30.918457 7
-0.94580102 -31.583008 -31.00293 7
-0.971237 -31.912109 -31.186035 7
-1.004791 -32.326172 -31.451172 7
-1.016479 -32.518555 -31.491211 7
-0.75965899 -31.352539 -27.196777 7
-0.70072901 -30.787109 -26.550781 7
-0.687271 -32.075195 -24.569824 7
-0.6595 -31.821289 -24.241699 7
-0.688721 -32.206055 -24.425293 7
-0.73056 -32.732422 -24.719238 7
-0.71134901 -32.574219 -24.468262 7
-0.75647002 -33.139648 -24.788574 7
-0.887833 -36.416016 -23.154785 7
-0.919083 -21.68457 37.817871 7
0.26199299 26.660156 8.9438477 7
0.264999 26.638672 8.8706055 7
0.27124 26.570312 8.784668 7
0.27684 26.53125 8.6396484 7
0.28227201 26.474609 8.5581055 7
0.28704801 26.445312 8.4165039 7
0.28437799 26.500977 8.3647461 7
0.17257699 28.660156 6.3818359 7
0.175583 28.630859 6.3076172 7
0.18098401 28.566406 6.2280269 7
0.192856 28.411133 6.1337891 7
0.19949301 28.329102 6.0522461 7
0.200867 28.324219 5.983398 7
0.19900499 28.362305 5.9213872 7
-0.70184302 -25.720703 -27.60498 7
-0.707367 -25.835938 -27.596191 7
-0.73730499 -26.169922 -27.830566 7
-0.58433503 -27.833984 -22.92627 7
-0.57499701 -27.793945 -22.776367 7
-0.56649798 -27.761719 -22.634277 7
-0.55584699 -27.707031 -22.473633 7
-0.54692101 -27.668945 -22.328125 7
-0.54457098 -27.698242 -22.239746 7
-0.61921698 -28.881836 -22.321289 7
-0.63529998 -29.101562 -22.385742 7
-0.62242103 -29.020508 -22.206543 7
-0.66090399 -29.47168 -22.456543 7
-0.67919898 -29.714844 -22.536133 7
-0.827133 -33.039062 -21.098145 7
-0.84814501 -33.319336 -21.17334 7
-0.82688898 -33.134766 -20.935547 7
0.22113 24.360352 10.894531 7
0.23138399 24.256836 10.789062 7
0.24295001 24.136719 10.677734 7
0.24794 24.098633 10.598633 7
0.26756299 23.899414 10.395508 7
0.26377901 23.969727 10.357422 7
0.25961301 24.932617 7.7548828 7
0.26355001 24.930664 7.5678711 7
0.26937899 24.871094 7.4912109 7
0.264725 24.948242 7.4482422 7
0.151489 26.954102 5.425293 7
0.153381 26.939453 5.358398 7
0.155716 26.919922 5.2910161 7
0.16153 26.854492 5.217773 7
0.16865499 26.770508 5.1420898 7
0.174026 26.709961 5.070312 7
0.17636099 26.689453 5.0039058 7
0.177368 26.685547 4.9389648 7
0.164902 26.860352 4.8969731 7
-0.54745501 -26.006836 -20.613281 7
-0.57162499 -26.287109 -20.743164 7
-0.57424903 -26.361328 -20.699707 7
-0.58387798 -26.501953 -20.711426 7
-0.61744702 -26.873047 -20.912598 7
-0.78066999 -30.34082 -19.396973 7
0.203674 23.085938 10.116211 7
0.206635 23.073242 10.049316 7
0.226624 22.882812 9.8564453 7
0.23521399 22.803711 9.7670898 7
0.241455 22.751953 9.6884766 7
0.237854 22.814453 9.6499023 7
0.23660301 22.850586 9.6025391 7
0.236145 23.707031 6.9985352 7
0.23863199 23.691406 6.9360352 7
0.2397 23.692383 6.8779302 7
0.241714 23.682617 6.8173828 7
0.246048 23.643555 6.75 7
0.134827 25.516602 4.4467769 7
0.13682599 25.5 4.3837891 7
0.14488199 25.408203 4.3129878 7
0.150131 25.351562 4.246582 7
0.15725701 25.270508 4.1782231 7
-0.48724401 -23.385742 -18.972168 7
-0.508636 -23.620117 -19.077148 7
-0.50787401 -23.65918 -19.013672 7
-0.509628 -23.719727 -18.96875 7
-0.52801502 -23.927734 -19.048828 7
-0.74354601 -27.852539 -17.786621 7
0.19503801 21.68457 9.2353516 7
0.206772 21.577148 9.1396484 7
0.21345501 21.522461 9.0634766 7
0.219147 21.480469 8.9921885 7
0.211349 22.415039 6.3007808 7
0.212982 22.408203 6.2446289 7
0.221909 22.344727 6.066895 7
0.221558 22.361328 6.015625 7
0.22619601 22.319336 5.9526372 7
0.228333 22.307617 5.8959961 7
0.22395299 22.369141 5.8530269 7
0.108688 24.106445 3.586426 7
0.111313 24.082031 3.5263669 7
0.111938 24.081055 3.469238 7
0.119064 24.003906 3.406738 7
0.122696 23.967773 3.347168 7
0.124847 23.949219 3.289062 7
0.12796 23.917969 3.230469 7
-0.62222302 -18.566406 -23.066406 7
-0.62567103 -18.645508 -23.050293 7
-0.63818401 -18.78418 -23.112793 7
-0.651779 -18.931641 -23.183594 7
-0.65524298 -19.010742 -23.166504 7
-0.66723597 -19.147461 -23.222168 7
-0.44209301 -19.232422 -19.83252 7
-0.438034 -19.250977 -19.75293 7
-0.44895899 -19.378906 -19.792969 7
-0.45989999 -19.507812 -19.83252 7
-0.46978801 -19.629883 -19.862793 7
-0.47483799 -19.714844 -19.85498 7
-0.46975699 -21.503906 -17.796387 7
-0.485046 -21.670898 -17.853516 7
-0.47718799 -21.650391 -17.743652 7
-0.482788 -21.738281 -17.730469 7
-0.50884998 -21.995117 -17.863281 7
-0.68957502 -25.430664 -16.400391 7
-0.70172101 -25.576172 -16.412598 7
-0.79612702 -27.386719 -15.36377 7
0.17688 20.53125 8.6123047 7
0.17283601 20.609375 8.5307617 7
0.18589801 20.492188 8.4370117 7
0.19249 20.442383 8.3666992 7
0.089996003 22.790039 2.832031 7
0.089584 22.799805 2.7788091 7
0.091309004 22.78418 2.7241211 7
0.093047999 22.770508 2.6704099 7
0.093689002 22.766602 2.6162109 7
0.098876998 22.712891 2.5048831 7
-0.51586902 -15.800781 -21.370605 7
-0.52121001 -15.883789 -21.375977 7
-0.53393602 -16.010742 -21.442871 7
-0.539276 -16.094727 -21.447754 7
-0.550888 -16.21582 -21.504883 7
-0.56591803 -16.358398 -21.589355 7
-0.574112 -16.459961 -21.616699 7
-0.57545501 -16.519531 -21.586914 7
-0.42131001 -17.321289 -18.847656 7
-0.4095 -17.288086 -18.713867 7
-0.40397599 -17.295898 -18.628418 7
-0.40419 -17.342773 -18.587402 7
-0.40324399 -17.381836 -18.537598 7
-0.41374201 -17.498047 -18.574707 7
-0.42423999 -17.615234 -18.612305 7
-0.437592 -17.750977 -18.670898 7
-0.44009399 -17.813477 -18.645996 7
-0.40414399 -19.279297 -16.566895 7
-0.401474 -19.299805 -16.501465 7
-0.41143799 -19.415039 -16.522949 7
-0.42657501 -19.569336 -16.579102 7
-0.43423501 -19.666992 -16.583496 7
-0.42581201 -19.644531 -16.478027 7
-0.44096401 -19.798828 -16.532715 7
-0.64256299 -23.40918 -15.071289 7
-0.652008 -23.524414 -15.069336 7
-0.65858501 -23.616211 -15.049805 7
-0.74000502 -25.037109 -14.257324 7
-0.73793 -25.054688 -14.186035 7
-0.73353601 -25.050781 -14.102051 7
-0.74128699 -25.152344 -14.08252 7
0.084487997 18.862305 11.180176 7
0.090424001 18.855469 11.064453 7
0.17453 19.316406 7.9819341 7
0.17292801 19.347656 7.941895 7
0.160431 19.484375 7.936523 7
0.159973 19.504883 7.8925781 7
0.17158499 19.40918 7.8105469 7
0.180328 19.34082 7.7382808 7
0.183899 19.322266 7.6821289 7
0.172821 20.181641 4.936523 7
0.173508 20.183594 4.8881841 7
0.18689001 20.066406 4.7714839 7
0.18187 20.126953 4.733398 7
0.181412 20.140625 4.6870122 7
0.185516 20.106445 4.632812 7
0.186783 20.102539 4.5839839 7
0.184036 20.138672 4.5410161 7
0.18301401 20.157227 4.4951172 7
-0.38656601 -15.849609 -17.596191 7
-0.41001901 -16.083008 -17.689941 7
-0.41871601 -16.179688 -17.713867 7
-0.39537001 -17.954102 -15.586914 7
-0.40348801 -18.049805 -15.596191 7
-0.42440799 -18.234375 -15.688477 7
-0.40509 -18.137695 -15.518555 7
-0.41747999 -18.262695 -15.554688 7
-0.43351701 -18.415039 -15.613281 7
-0.45323199 -18.59082 -15.694824 7
-0.60324103 -21.600586 -14.046387 7
-0.62060499 -21.769531 -14.088379 7
-0.62939501 -21.873047 -14.084473 7
-0.70970201 -23.37793 -13.08252 7
-0.71604902 -23.461914 -13.057617 7
-0.72485399 -23.56543 -13.044434 7
-0.72752398 -23.618164 -13.000488 7
0.14460801 18.578125 7.3125 7
0.15325899 18.513672 7.2446289 7
0.16009501 18.46582 7.1826172 7
0.165085 18.43457 7.1254878 7
0.17009 18.40332 7.0683589 7
0.163849 19.19043 4.0429692 7
-0.47334301 -12.476562 -19.286621 7
-0.475449 -12.53418 -19.271484 7
-0.47885099 -12.597656 -19.266602 7
-0.49124101 -12.703125 -19.330566 7
-0.50234997 -12.804688 -19.384277 7
-0.51347399 -12.905273 -19.437988 7
-0.52587903 -13.012695 -19.500977 7
-0.54086298 -13.133789 -19.583008 7
-0.54296899 -13.191406 -19.566406 7
-0.33863801 -14.088867 -16.577637 7
-0.337524 -14.123047 -16.534668 7
-0.33577001 -14.154297 -16.487305 7
-0.35014299 -14.277344 -16.553711 7
-0.36128199 -14.380859 -16.597168 7
-0.35812399 -16.376953 -14.616211 7
-0.37319899 -16.510742 -14.67041 7
-0.37533599 -16.560547 -14.643555 7
-0.367722 -16.547852 -14.555664 7
-0.378281 -16.652344 -14.580566 7
-0.39919999 -16.825195 -14.669434 7
-0.4104 -16.93457 -14.697266 7
-0.39892599 -16.896484 -14.585938 7
-0.55937201 -19.928711 -12.994141 7
-0.57780498 -20.095703 -13.041504 7
-0.58059698 -20.148438 -13.007324 7
-0.65080303 -21.479492 -12.047852 7
-0.65100098 -21.511719 -11.99707 7
-0.65966803 -21.607422 -11.985352 7
-0.66183501 -21.65332 -11.943359 7
-0.66137701 -21.679688 -11.888672 7
0.136658 17.603516 6.723145 7
0.147156 17.527344 6.6557622 7
0.154404 17.477539 6.5966802 7
0.157104 17.466797 6.5488281 7
0.16175801 17.44043 6.496582 7
0.165756 17.417969 6.4462891 7
0.13179 18.323242 3.827637 7
0.131256 18.333984 3.785156 7
0.140396 18.258789 3.7314451 7
0.14501999 18.223633 3.684082 7
0.14834601 18.199219 3.6376951 7
0.145218 18.233398 3.598145 7
0.140793 18.27832 3.5600591 7
0.147369 18.225586 3.5107419 7
0.14681999 18.236328 3.46875 7
0.026581001 19.456055 0.61669898 7
0.037735 19.351562 0.53027302 7
0.036545001 19.361328 0.484375 7
0.034697998 19.375 0.4375 7
0.025893999 19.453125 0.34179699 7
-0.296646 -14.78418 -13.70752 7
-0.30844101 -14.889648 -13.742676 7
-0.32862899 -15.080078 -13.791016 7
-0.34112501 -15.189453 -13.828613 7
-0.34402499 -15.242188 -13.809082 7
-0.33665499 -15.232422 -13.728027 7
-0.34983799 -15.345703 -13.769043 7
-0.36439499 -15.46875 -13.818359 7
-0.38238499 -15.614258 -13.887207 7
-0.38461301 -15.662109 -13.862305 7
0.159714 16.597656 5.8964839 7
0.16392501 16.573242 5.8486328 7
0.161972 16.600586 5.8139648 7
0.01976 18.402344 -0.010742 7
0.015091 18.439453 -0.057128999 7
0.011093 18.469727 -0.104004 7
0.0084690005 18.489258 -0.149414 7
0.022156 18.369141 -0.182129 7
0.0025180001 18.532227 -0.241699 7
0.0039670002 18.516602 -0.28369099 7
-0.41066 -9.3105469 -17.512207 7
-0.384186 -9.2587891 -17.297363 7
-0.387207 -9.3115234 -17.29541 7
-0.39309701 -9.3759766 -17.314941 7
-0.398285 -9.4394531 -17.329102 7
-0.40779099 -9.5166016 -17.374023 7
-0.41441301 -9.5849609 -17.397949 7
-0.42608601 -9.671875 -17.45752 7
-0.43342599 -9.7421885 -17.48584 7
-0.443665 -9.8251953 -17.535156 7
-0.452438 -9.9003906 -17.572754 7
-0.454025 -9.9501953 -17.55957 7
-0.44482401 -9.9599609 -17.469727 7
-0.281479 -11.342773 -14.999512 7
-0.275848 -11.355469 -14.93457 7
-0.27021801 -11.367188 -14.869629 7
-0.268188 -11.395508 -14.828125 7
-0.27485701 -11.463867 -14.844238 7
-0.28511 -11.548828 -14.882812 7
-0.29031399 -11.610352 -14.888672 7
-0.298401 -11.685547 -14.913086 7
-0.302322 -11.779297 -14.880859 7
-0.287292 -11.745117 -14.753906 7
-0.27249101 -13.458984 -13.087891 7
-0.27770999 -13.519531 -13.084961 7
-0.277863 -13.553711 -13.053223 7
-0.26931801 -13.540039 -12.970215 7
-0.27020299 -13.577148 -12.942383 7
-0.26960799 -13.606445 -12.905273 7
-0.28282201 -13.711914 -12.94873 7
-0.29312101 -13.801758 -12.974609 7
-0.301254 -13.880859 -12.987793 7
-0.284729 -13.820312 -12.859375 7
-0.296478 -13.918945 -12.892578 7
-0.30677801 -14.008789 -12.91748 7
-0.51512098 -17.310547 -11.499512 7
-0.507263 -17.289062 -11.42041 7
-0.51690698 -17.379883 -11.424316 7
-0.52145398 -17.438477 -11.40332 7
-0.52671802 -17.500977 -11.385742 7
0.119995 15.966797 5.7211909 7
0.130264 15.898438 5.6630859 7
0.136169 15.863281 5.6142578 7
0.138428 15.854492 5.5717769 7
0.141434 15.841797 5.5288091 7
0.14515699 15.823242 5.484375 7
0.114029 16.585938 2.554688 7
0.110504 16.617188 2.5170901 7
0.114929 16.585938 2.476562 7
0.119354 16.552734 2.4355471 7
0.120163 16.548828 2.3964839 7
0.118088 16.569336 2.358398 7
0.114563 16.599609 2.320801 7
0.111755 16.625 2.2832029 7
-0.27087399 -10.243164 -14.351074 7
-0.266449 -10.261719 -14.297363 7
-0.25970501 -10.269531 -14.229492 7
-0.25831601 -10.298828 -14.195312 7
-0.25309801 -10.311523 -14.136719 7
-0.256302 -10.361328 -14.131348 7
-0.26254299 -10.423828 -14.14502 7
-0.273361 -10.504883 -14.187988 7
-0.26507601 -12.524414 -12.415527 7
-0.267517 -12.568359 -12.398438 7
-0.26458699 -12.584961 -12.351562 7
-0.26628101 -12.625977 -12.330566 7
-0.27177399 -12.68457 -12.330078 7
-0.282639 -12.772461 -12.359863 7
-0.295044 -12.868164 -12.396484 7
-0.28906199 -12.868164 -12.33252 7
-0.28384399 -12.873047 -12.272461 7
-0.290878 -12.939453 -12.279297 7
-0.30326799 -13.036133 -12.315918 7
-0.30648801 -13.083984 -12.300781 7
-0.58348101 -17.751953 -9.5668945 7
-0.58284003 -17.770508 -9.5214844 7
-0.58842498 -17.831055 -9.5 7
-0.432129 -12.455078 16.041992 7
-0.42819199 -12.401367 16.049316 7
-0.413223 -12.295898 15.994141 7
-0.41246 -12.257812 16.018555 7
-0.42036399 -12.260742 16.092285 7
-0.43344101 -12.287109 16.199707 7
-0.44291699 -12.295898 16.282715 7
-0.42478901 -12.175781 16.208496 7
-0.37132299 -9.4550781 17.633789 7
-0.36737099 -9.4023438 17.631348 7
-0.36814901 -9.3671885 17.658691 7
-0.376816 -9.3603516 17.736328 7
-0.37997401 -9.3330078 17.77832 7
0.115845 15.145508 5.4326172 7
0.113617 15.170898 5.4003911 7
0.117554 15.152344 5.3579102 7
0.116119 15.172852 5.3251948 7
0.113144 15.203125 5.2954102 7
0.106323 15.262695 5.2719731 7
0.114868 15.209961 5.2211909 7
0.123383 15.15625 5.1704102 7
0.125763 15.147461 5.1303711 7
0.102127 15.787109 2.210938 7
0.106812 15.753906 2.172852 7
0.108429 15.743164 2.1347661 7
0.110794 15.726562 2.0966799 7
0.110123 15.734375 2.0605471 7
0.107147 15.758789 2.0244141 7
0.107239 15.760742 1.987305 7
0.107315 15.760742 1.950195 7
-0.32135001 -6.5195308 -15.63623 7
-0.31904599 -6.5517578 -15.604004 7
-0.31996199 -6.59375 -15.59375 7
-0.324112 -6.6445308 -15.60498 7
-0.329041 -6.6962891 -15.621582 7
-0.332367 -6.7451172 -15.626953 7
-0.33892801 -6.8027339 -15.654297 7
-0.34545901 -6.859375 -15.680664 7
-0.352005 -6.9169922 -15.70752 7
-0.35936001 -6.9775391 -15.73877 7
-0.36592099 -7.0351558 -15.765137 7
-0.37325999 -7.0957031 -15.795898 7
-0.37660199 -7.1445308 -15.800781 7
-0.37753299 -7.186523 -15.788574 7
-0.22178601 -9.1503906 -13.428711 7
-0.230911 -9.2529297 -13.438965 7
-0.237488 -9.3125 -13.455566 7
-0.242447 -9.3662109 -13.462891 7
-0.24984699 -9.4296885 -13.484863 7
-0.25157201 -9.4697266 -13.47168 7
-0.22894301 -11.547852 -11.588867 7
-0.237976 -11.621094 -11.608398 7
-0.246216 -11.69043 -11.624023 7
-0.239059 -11.685547 -11.557617 7
-0.240005 -11.719727 -11.53418 7
-0.244995 -11.773438 -11.531738 7
-0.257263 -11.862305 -11.567871 7
-0.26872301 -11.947266 -11.599121 7
-0.28019699 -12.033203 -11.630371 7
-0.272232 -12.023438 -11.559082 7
-0.27075201 -12.045898 -11.521973 7
-0.455643 -15.083008 -9.9663086 7
-0.45741299 -15.118164 -9.9375 7
-0.46975699 -15.21582 -9.9536133 7
-0.471542 -15.251953 -9.9243164 7
-0.55024701 -16.539062 -8.9316406 7
-0.54795802 -16.547852 -8.8833008 7
-0.54403698 -16.546875 -8.8291016 7
-0.55070502 -16.610352 -8.8139648 7
-0.55656397 -16.668945 -8.7954102 7
-0.57301301 -16.791992 -8.815918 7
-0.57072401 -16.800781 -8.7670898 7
-0.57658398 -16.860352 -8.7480469 7
-0.575104 -16.873047 -8.7021484 7
-0.57444799 -16.891602 -8.6586914 7
-0.58111602 -16.955078 -8.6420898 7
-0.34001201 -8.6933594 16.662598 7
-0.34333801 -8.6699219 16.703613 7
0.106537 14.496094 4.7900391 7
0.114716 14.446289 4.7431641 7
0.118057 14.432617 4.7045898 7
0.121384 14.416992 4.6655269 7
0.122284 14.418945 4.6303711 7
0.124786 14.40918 4.592773 7
0.125687 14.410156 4.558105 7
0.129013 14.395508 4.5195308 7
0.130722 14.390625 4.483398 7
0.102783 14.938477 1.5712889 7
0.099624999 14.960938 1.5361331 7
0.097274996 14.978516 1.500977 7
0.098159999 14.972656 1.46582 7
0.100677 14.955078 1.4306639 7
0.103973 14.932617 1.396484 7
0.10405 14.931641 1.361328 7
0.099289 14.96582 1.325195 7
0.090484999 15.02832 1.289551 7
-0.218842 -8.3476562 -12.883301 7
-0.22318999 -8.3964844 -12.887695 7
-0.230087 -8.4521484 -12.907227 7
-0.232758 -8.4951172 -12.902344 7
-0.237946 -8.546875 -12.911621 7
-0.233841 -8.5644531 -12.866211 7
-0.208984 -10.563477 -11.132812 7
-0.203171 -10.566406 -11.07666 7
-0.203293 -10.595703 -11.051758 7
-0.20936599 -10.651367 -11.057129 7
-0.218842 -10.720703 -11.079102 7
-0.223221 -10.768555 -11.075195 7
-0.231003 -10.833008 -11.088867 7
-0.214966 -10.789062 -10.980957 7
-0.22444201 -10.860352 -11.002441 7
-0.227127 -10.901367 -10.989746 7
-0.23407 -10.960938 -10.998535 7
-0.247803 -11.050781 -11.041504 7
-0.24281301 -11.057617 -10.989258 7
-0.24295001 -11.085938 -10.963379 7
-0.243073 -11.115234 -10.936523 7
-0.243195 -11.144531 -10.910645 7
-0.248428 -11.194336 -10.90918 7
-0.43246499 -14.128906 -9.4165039 7
-0.433456 -14.15918 -9.3862305 7
-0.437866 -14.207031 -9.3701172 7
-0.45082101 -14.301758 -9.3886719 7
-0.445831 -14.298828 -9.3339844 7
-0.44938701 -14.342773 -9.3134766 7
-0.52836603 -15.609375 -8.3110352 7
-0.52264398 -15.620117 -8.2158203 7
-0.52706897 -15.666992 -8.1938477 7
-0.31921399 -8.3105469 15.744141 7
-0.30958599 -8.2451172 15.708496 7
-0.31134 -8.2177734 15.738281 7
-0.31132501 -8.1835938 15.757812 7
-0.31742901 -8.1689453 15.8125 7
-0.32179299 -8.1494141 15.857422 7
-0.31828299 -8.1035156 15.855957 7
-0.31828299 -8.0693359 15.875488 7
-0.32525599 -8.0585938 15.935059 7
-0.32786599 -8.03125 15.969238 7
0.094727002 13.895508 4.4594731 7
0.103394 13.851562 4.3823242 7
0.106979 13.842773 4.3125 7
0.109604 13.832031 4.2763672 7
0.113083 13.81543 4.2397461 7
0.120926 13.77832 4.1655269 7
0.089354999 14.282227 1.277832 7
0.092834003 14.258789 1.244141 7
0.096283004 14.234375 1.210938 7
0.097213998 14.228516 1.178223 7
0.093033001 14.255859 1.143555 7
0.091415003 14.266602 1.109863 7
0.090636998 14.271484 1.076172 7
0.091553003 14.264648 1.042969 7
0.094177 14.246094 1.010254 7
0.095092997 14.239258 0.97705102 7
-0.21402 -7.414062 -12.454102 7
-0.207901 -7.4277339 -12.401855 7
-0.20445301 -7.4482422 -12.363281 7
-0.21167 -7.5029302 -12.38623 7
-0.210007 -7.5283198 -12.35791 7
-0.217224 -7.5830078 -12.379395 7
-0.224472 -7.6376948 -12.401855 7
-0.186005 -9.78125 -10.546875 7
-0.19328301 -9.8388672 -10.559082 7
-0.20959499 -9.9609385 -10.591797 7
-0.216888 -10.019531 -10.603516 7
-0.21878099 -10.055664 -10.588379 7
-0.206375 -10.030273 -10.503418 7
-0.20918299 -10.069336 -10.492188 7
-0.21913099 -10.137695 -10.515625 7
-0.22908001 -10.208008 -10.540039 7
-0.239044 -10.277344 -10.564453 7
-0.41099501 -13.251953 -8.8979492 7
-0.42012 -13.321289 -8.9013672 7
-0.42472801 -13.368164 -8.887207 7
-0.42396501 -13.387695 -8.8520508 7
-0.51272601 -14.81543 -7.675293 7
-0.51467901 -14.84668 -7.6464839 7
-0.53462201 -14.977539 -7.67627 7
-0.53566003 -15.00293 -7.6435552 7
-0.53668201 -15.02832 -7.6108398 7
-0.28442401 -7.6621089 14.928223 7
-0.297272 -7.670898 15.01709 7
-0.29266399 -7.5917969 15.02832 7
0.086654998 13.291016 4.157227 7
0.084945999 13.307617 4.128418 7
0.081511997 13.342773 4.0698242 7
0.092331 13.280273 4.0258789 7
0.097763002 13.251953 3.988281 7
0.101501 13.240234 3.921875 7
0.104279 13.228516 3.8881841 7
0.10524 13.229492 3.855957 7
-0.180603 -6.592773 -11.821777 7
-0.188278 -6.6757808 -11.831543 7
-0.18557701 -6.6982422 -11.800293 7
-0.193161 -6.75 -11.825195 7
-0.18859901 -6.7675781 -11.783203 7
-0.190552 -6.8037109 -11.777344 7
-0.192535 -6.8398442 -11.771484 7
-0.194489 -6.875977 -11.765137 7
-0.196472 -6.9121089 -11.758789 7
-0.200302 -6.953125 -11.762695 7
-0.198532 -6.9785161 -11.73584 7
-0.203308 -7.023438 -11.744629 7
-0.191284 -7.0175781 -11.661621 7
-0.184845 -7.0292969 -11.609863 7
-0.175476 -8.9824219 -10.183105 7
-0.16622899 -8.9736328 -10.116699 7
-0.17851301 -9.046875 -10.153809 7
-0.170197 -9.0419922 -10.091797 7
-0.17311101 -9.0791016 -10.083984 7
-0.18351699 -9.1455078 -10.111328 7
-0.194885 -9.2167969 -10.144043 7
-0.18866 -9.2714844 -10.046875 7
-0.267288 -7.358398 14.168945 7
-0.26344299 -7.2871089 14.183594 7
-0.259583 -7.2451172 14.181152 7
-0.266296 -7.234375 14.233398 7
-0.27014199 -7.2167969 14.270508 7
-0.27877799 -7.210938 14.333008 7
-0.26530501 -7.140625 14.279785 7
-0.26914999 -7.1220698 14.316895 7
-0.27490199 -7.1074219 14.364258 7
-0.274887 -7.077148 14.381348 7
-0.272964 -7.0419922 14.387695 7
-0.044418 12.371094 7.32373 7
-0.044312 12.384766 7.2949219 7
-0.045180999 12.40332 7.2680659 7
-0.024292 12.314453 7.1567378 7
-0.019409001 12.314453 7.0864258 7
-0.028748 12.380859 7.081543 7
-0.15718099 -8.3242188 -9.6586914 7
-0.158264 -8.3535156 -9.6430664 7
-0.16131601 -8.3896484 -9.637207 7
-0.16535901 -8.4296885 -9.6352539 7
-0.169403 -8.4697266 -9.6333008 7
-0.170471 -8.4980469 -9.6176758 7
-0.17157 -8.5283203 -9.6020508 7
-0.17167699 -8.5537109 -9.581543 7
-0.17472801 -8.5888672 -9.5742188 7
-0.178772 -8.6298828 -9.5722656 7
-0.37893701 -11.751953 -7.973145 7
-0.38313299 -11.814453 -7.9311519 7
-0.24276701 -6.9003911 13.446289 7
-0.24276701 -6.8720698 13.462891 7
-0.23971599 -6.8349609 13.464355 7
-0.237701 -6.7724609 13.486328 7
-0.24777199 -6.7431641 13.568848 7
-0.252792 -6.7275391 13.61084 7
-0.247742 -6.6855469 13.601074 7
-0.25176999 -6.6679692 13.637207 7
-0.25781199 -6.655273 13.683594 7
-0.25880399 -6.6005859 13.720215 7
-0.239914 -6.3769531 13.034668 7
-0.24096701 -6.351562 13.054688 7
-0.240952 -6.3242192 13.070312 7
-0.240936 -6.295898 13.084961 7
-0.208252 -6.0693359 12.29541 7
-0.21264599 -6.054688 12.330078 7
-0.21817 -6.0429692 12.369141 7
-0.22035199 -6.0224609 12.393555 7
-0.219254 -5.9941411 12.402832 7
-0.214828 -5.9570308 12.396973 7
-0.21814001 -5.9394531 12.42627 7
-0.215927 -5.9082031 12.430176 7
-0.26600599 -8.6230469 10.060547 7
-0.25222799 -8.5537109 10.031738 7
-0.25108299 -8.5292969 10.04834 7
-0.252258 -8.5136719 10.072266 7
-0.25688201 -8.5087891 10.108887 7
-0.26492301 -8.515625 10.158203 7
-0.26036099 -8.4794922 10.161621 7
-0.25575301 -8.4423828 10.166016 7
-0.253479 -8.4140615 10.177246 7
-0.25119001 -8.3847656 10.189453 7
-0.25351 -8.3720703 10.217773 7
-0.248932 -8.3359385 10.220703 7
-0.25132799 -8.2998047 9.5429688 7
-0.23696899 -8.2314453 9.5146484 7
-0.236984 -8.2128906 9.5336914 7
-0.24299601 -8.2138672 9.5737305 7
-0.241806 -8.1894531 9.5893555 7
-0.19516 -5.3925781 11.416016 7
-0.196365 -5.3720698 11.433594 7
-0.19754 -5.351562 11.451172 7
-0.198746 -5.3300781 11.469238 7
-0.22822601 -7.9628911 9.0620117 7
-0.22822601 -7.9443359 9.081543 7
-0.228256 -7.9267578 9.1000977 7
-0.229523 -7.9130859 9.1225586 7
-0.246994 -7.952148 9.1977539 7
-0.24327099 -7.920898 9.2045898 7
-0.22332799 -7.8378911 9.1591797 7
-0.222092 -7.8144531 9.1743164 7
-0.220856 -7.7929692 9.1884766 7
-0.22462501 -7.7861328 9.2192383 7
-0.223389 -7.7636719 9.2333984 7
-0.223419 -7.726562 9.2705078 7
-0.20206299 -6.6284642 13.492878 7
-0.31447399 -8.4918451 10.161898 7
-0.164405 -10.911566 -11.179012 7
-0.2683 -12.304263 -11.816765 7
-0.098885 -8.216301 -9.4070415 7
-0.35976699 -7.1919031 14.368388 7
-0.034488 15.473218 5.3070211 7
0.030009 14.559069 4.600215 7
