# .PCD v0.7 - Point Cloud Data file format
VERSION 0.7
FIELDS x y z intensity
SIZE 4 4 4 4
TYPE F F F F
COUNT 1 1 1 1
WIDTH 1403
HEIGHT 1
VIEWPOINT 0 0 0 1 0 0 0
POINTS 1403
DATA ascii
-0.001656 -2.753418 -39.293945 7
0.040656999 -2.8887939 -38.488281 7
0.048324998 -2.9724121 -38.334961 7
-0.52768701 -3.010498 47.554688 7
-0.55464202 -2.930176 48.021484 7
-0.56546003 -2.8309331 48.214844 7
0.078735001 4.8062739 -37.634766 7
0.055481002 4.7652588 -38.075195 7
0.031311002 4.7242432 -38.53418 7
0.0052570002 4.6853032 -39.026367 7
0.132652 0.960693 -36.816406 7
0.135345 0.868774 -36.764648 7
0.163422 0.767456 -36.241211 7
0.135399 0.68737799 -36.762695 7
0.158463 0.59008801 -36.332031 7
0.179314 0.49523899 -35.942383 7
-0.019424001 -2.919189 -36.423828 7
-0.004311 -2.9880371 -36.155273 7
0.0087740002 -3.0584719 -35.920898 7
0.023575 -3.1252439 -35.65625 7
-0.489014 -2.856689 43.65625 7
-0.50067902 -2.768677 43.850586 7
-0.53855097 -2.705811 44.457031 7
-0.44836399 0.054565001 43.246094 7
-0.441948 0.15332 43.146484 7
-0.44216901 0.25231901 43.151367 7
0.041496001 4.8618159 -35.206055 7
0.02581 4.8093262 -35.484375 7
0.0050579999 4.7668462 -35.849609 7
-0.015335 4.7220459 -36.208984 7
-0.041870002 4.6882319 -36.672852 7
0.115654 1.2323 -34.148438 7
0.113716 1.0643311 -34.183594 7
0.128281 0.55285603 -33.931641 7
0.15023001 0.463745 -33.553711 7
0.12826499 0.377808 -34.086914 7
0.14880399 0.290649 -33.731445 7
-0.044211999 -3.037354 -33.628906 7
-0.032508999 -3.1036379 -33.436523 7
-0.0068509998 -3.2305911 -33.013672 7
-0.42518601 -2.7529299 39.450195 7
-0.44746399 -2.6855471 39.78418 7
-0.44892099 -2.5960691 39.8125 7
-0.47560099 -2.5305181 40.209961 7
-0.417519 0.137329 39.499023 7
-0.38545999 0.22485401 39.03125 7
-0.41684699 0.31774899 39.492188 7
0.005386 5.018311 -32.654297 7
0.031654 4.8771968 -32.250977 7
0.013466 4.8375239 -32.544922 7
-0.006569 4.8007808 -32.868164 7
-0.054664999 4.8226318 -33.631836 7
0.12706 1.508667 -30.993164 7
0.135086 1.426025 -30.867188 7
0.133881 1.3499759 -30.887695 7
0.084449999 1.22522 -31.670898 7
0.089157 0.359741 -31.597656 7
0.1194 0.27734399 -31.118164 7
0.139275 0.197998 -30.803711 7
0.127327 0.122314 -30.991211 7
0.139053 0.044922002 -30.804688 7
0.114616 -0.108765 -29.175781 7
-0.074913003 -3.2685549 -31.730469 7
-0.058394998 -3.3222661 -31.479492 7
-0.041489001 -3.3742681 -31.220703 7
-0.041634001 -3.451416 -31.211914 7
0.045967001 4.9710689 -29.756836 7
0.040741 4.9090581 -29.84082 7
0.016159 4.8898931 -30.210938 7
0.001862 4.846313 -30.430664 7
-0.023521001 4.8259282 -30.811523 7
-0.061149999 4.8302002 -31.37207 7
0.123398 1.556396 -28.90332 7
0.111031 1.4931639 -29.087891 7
0.096290998 1.4306639 -29.308594 7
0.118752 1.34314 -28.977539 7
0.093712002 1.2861331 -29.348633 7
0.080696002 0.184204 -29.685547 7
0.125946 0.035889 -29.013672 7
0.095542997 -0.094971001 -27.015625 7
0.090309002 -0.16284201 -27.085938 7
0.096954003 -0.29736301 -26.991211 7
0.11013 -0.36254901 -26.80957 7
-0.080742002 -3.249512 -29.307617 7
-0.095473997 -3.3436279 -29.498047 7
-0.081450999 -3.395386 -29.297852 7
-0.071746998 -3.453125 -29.15625 7
-0.060715001 -3.5081789 -28.998047 7
0.041473001 5.0211182 -27.416016 7
0.025085 4.920898 -27.658203 7
0.013077 4.8787842 -27.831055 7
-0.0036470001 4.8461909 -28.066406 7
-0.028914999 4.8310552 -28.418945 7
0.100395 1.523438 -26.941406 7
0.121681 1.441162 -26.65332 7
0.104919 1.385498 -26.884766 7
0.083443001 1.3319089 -27.178711 7
0.073578 -0.159058 -25.526367 7
0.072563 -0.223022 -25.538086 7
0.091689996 -0.28417999 -25.292969 7
0.093422003 -0.34704599 -25.268555 7
0.093658 -0.47326699 -25.260742 7
-0.106781 -3.4790039 -27.540039 7
-0.105553 -3.5452881 -27.514648 7
-0.093741998 -3.595093 -27.355469 7
-0.081017002 -3.6424561 -27.185547 7
-0.078383997 -3.705811 -27.142578 7
-0.106987 -3.8209231 -27.491211 7
-0.0041120001 5.1123052 -26.004883 7
0.011818 5.0102539 -25.816406 7
-0.001961 4.9768071 -26 7
-0.011627 4.9333501 -26.130859 7
-0.031364001 4.911377 -26.390625 7
-0.047432002 4.880127 -26.603516 7
0.104889 1.544922 -24.987305 7
0.088767998 1.49353 -25.194336 7
0.099335 1.3562011 -25.196289 7
0.091536999 -0.32238799 -23.383789 7
0.073211998 -0.38427699 -23.599609 7
0.085441999 -0.440918 -23.452148 7
0.098655999 -0.49670401 -23.293945 7
0.070929997 -0.56237799 -23.619141 7
0.075272001 -0.62060499 -23.564453 7
-0.090843 -3.5855711 -25.231445 7
-0.10186 -3.6660161 -25.349609 7
-0.091591001 -3.7124021 -25.220703 7
-0.080840997 -3.7575679 -25.083984 7
-0.075516 -3.8110349 -25.011719 7
0.003242 5.0922852 -23.885742 7
0.0081099998 5.020752 -23.84082 7
-0.0042500002 4.98877 -23.996094 7
-0.011208 4.9439702 -24.087891 7
-0.025047 4.914062 -24.259766 7
-0.046760999 4.9005132 -24.523438 7
-0.048797999 4.8432622 -24.557617 7
0.08371 1.861084 -23.323242 7
0.088569999 1.797974 -23.268555 7
0.086516999 1.740967 -23.295898 7
0.079535998 1.687744 -23.381836 7
0.100166 1.612915 -23.140625 7
0.071425997 1.516724 -23.486328 7
0.053413 -0.52929699 -22.15332 7
-0.012527 5.071167 -22.316406 7
-0.017325999 5.0257568 -22.379883 7
-0.027915999 4.993042 -22.505859 7
-0.032722 4.9465332 -22.569336 7
-0.048576001 4.924561 -22.751953 7
-0.067078002 4.907227 -22.962891 7
-0.059234999 4.8322749 -22.887695 7
0.080298997 1.8505861 -21.707031 7
0.084824003 1.6817631 -21.667969 7
0.078423001 1.631958 -21.740234 7
0.061974 1.589355 -21.924805 7
0.043404002 -0.65429699 -20.725586 7
0.059119999 -0.70153803 -20.561523 7
0.068047002 -0.75036597 -20.46582 7
0.053856 -0.80737299 -20.610352 7
0.047561999 -0.861938 -20.671875 7
0.056503002 -0.91039997 -20.576172 7
-0.115463 -3.8852539 -21.991211 7
-0.101448 -3.91626 -21.838867 7
-0.098159999 -3.965698 -21.794922 7
-0.093741998 -4.0124512 -21.740234 7
-0.108559 -4.09375 -21.879883 7
-0.016914001 5.1218262 -20.740234 7
-0.019218 5.0743408 -20.774414 7
-0.026047001 5.0368652 -20.852539 7
-0.032280002 4.9979248 -20.928711 7
-0.041901 4.966187 -21.037109 7
-0.059402 4.951416 -21.224609 7
-0.075218 4.9317632 -21.396484 7
-0.047683999 4.8182368 -21.128906 7
0.067947 1.896118 -20.321289 7
0.054343998 1.856445 -20.46582 7
0.079666004 1.782837 -20.208984 7
0.070006996 1.7392581 -20.311523 7
0.059792001 1.6956789 -20.419922 7
0.056343 1.6463619 -20.458008 7
0.043258999 -0.66394001 -19.393555 7
0.032379001 -0.71667498 -19.49707 7
0.023293 -0.769409 -19.582031 7
0.040015999 -0.81274402 -19.417969 7
0.045325998 -0.860107 -19.363281 7
0.016441001 -0.92138702 -19.640625 7
0.033066001 -1.013062 -19.473633 7
0.032981999 -1.062744 -19.470703 7
-0.136703 -3.894897 -20.750977 7
-0.138016 -3.9494629 -20.753906 7
-0.125496 -3.9802251 -20.624023 7
-0.123795 -4.0292969 -20.59668 7
-0.1203 -4.0748291 -20.552734 7
-0.125221 -4.135498 -20.588867 7
-0.037964001 5.1090088 -19.542969 7
-0.034423999 5.0510249 -19.520508 7
-0.044647001 5.024292 -19.62793 7
-0.050078999 4.9862061 -19.69043 7
-0.056701999 4.950562 -19.765625 7
-0.075905003 4.9421391 -19.959961 7
-0.086731002 4.9145508 -20.072266 7
-0.070014998 4.8276372 -19.925781 7
0.049004 1.8963619 -19.185547 7
0.028542001 1.864868 -19.386719 7
0.056655999 1.79187 -19.117188 7
0.051208001 1.747314 -19.173828 7
0.042746998 1.705078 -19.259766 7
0.048691001 1.651245 -19.205078 7
0.015953001 -0.85961902 -18.242188 7
0.026931999 -1.13916 -18.234375 7
-0.130989 -3.8912351 -19.292969 7
-0.14326499 -3.96106 -19.391602 7
-0.148491 -4.0189209 -19.428711 7
-0.142197 -4.0571289 -19.361328 7
-0.13268299 -4.089355 -19.266602 7
-0.13150799 -4.1359859 -19.245117 7
-0.038605001 5.1226811 -18.173828 7
-0.043747 5.087769 -18.230469 7
-0.052710999 5.0614009 -18.321289 7
-0.058487002 5.0272222 -18.383789 7
-0.069983996 5.0056152 -18.49707 7
-0.085968003 4.9932861 -18.651367 7
-0.091751002 4.9581299 -18.713867 7
-0.069481 4.8621831 -18.527344 7
0.047897 1.872681 -17.916992 7
-0.00174 -0.91198701 -17.397461 7
0.015686 -0.99304199 -17.242188 7
0.025742 -1.032349 -17.152344 7
-0.010185 -1.093994 -17.457031 7
0.001915 -1.1324461 -17.350586 7
0.003181 -1.176025 -17.335938 7
-0.00028199999 -1.22229 -17.362305 7
0.002357 -1.265137 -17.335938 7
-0.153374 -4.174561 -18.227539 7
-0.143387 -4.249146 -18.123047 7
-0.15773 -4.3214111 -18.232422 7
0.0097500002 -0.97997999 -16.22168 7
0.010399 -1.021484 -16.213867 7
0.01535 -1.0606689 -16.169922 7
-0.003365 -1.111816 -16.318359 7
-0.001366 -1.19458 -16.295898 7
0.0050130002 -1.232666 -16.240234 7
-0.165565 -4.175415 -17.15332 7
-0.161346 -4.2116699 -17.109375 7
-0.15785199 -4.2489009 -17.070312 7
-0.152908 -4.2833252 -17.020508 7
-0.16235401 -4.3442378 -17.083984 7
-0.172516 -4.4069819 -17.152344 7
0.027161 1.8898931 -15.932617 7
0.02282 1.852295 -15.972656 7
0.032058999 1.803223 -15.901367 7
0.037742998 1.757202 -15.859375 7
0.029106 1.7229 -15.932617 7
0.025467001 1.684448 -15.96582 7
0.035445999 1.635376 -15.888672 7
-0.0069050002 -0.97241199 -15.374023 7
0.002136 -1.008057 -15.302734 7
0.001305 -1.047974 -15.305664 7
-0.0063479999 -1.091309 -15.361328 7
-0.020827999 -1.138428 -15.46875 7
-0.010284 -1.172729 -15.384766 7
-0.010361 -1.212402 -15.381836 7
-0.0073850001 -1.250488 -15.356445 7
-0.18522599 -4.186646 -16.225586 7
-0.176193 -4.2120361 -16.148438 7
-0.17401101 -4.2493901 -16.121094 7
-0.17257699 -4.2879639 -16.099609 7
-0.174179 -4.332397 -16.101562 7
-0.184166 -4.3920898 -16.164062 7
-0.190338 -4.44519 -16.198242 7
-0.061110999 5.0593262 -15.014648 7
-0.066413999 5.032104 -15.06543 7
-0.072509997 5.0062261 -15.121094 7
-0.074036002 4.9703369 -15.144531 7
-0.079369001 4.9423828 -15.195312 7
-0.096786 4.9404302 -15.334961 7
-0.102112 4.9121089 -15.385742 7
-0.079460002 4.823853 -15.229492 7
0.03833 1.582031 -14.904297 7
0.034515001 1.546021 -14.9375 7
0.017029 1.5194089 -15.073242 7
0.019249 1.47876 -15.058594 7
0.029823 1.432373 -14.982422 7
0.042640999 1.38501 -14.886719 7
0.041816998 1.34668 -14.896484 7
0.033447001 1.312988 -14.962891 7
-0.0079420004 -0.99401897 -14.450195 7
0.00081599999 -1.027222 -14.383789 7
0.0047530001 -1.062744 -14.352539 7
-0.013763 -1.109375 -14.482422 7
-0.0074689998 -1.181152 -14.430664 7
-0.0075449999 -1.218506 -14.427734 7
-0.19130699 -4.1619868 -15.246094 7
-0.18656901 -4.1928711 -15.203125 7
-0.181923 -4.2628169 -15.149414 7
-0.17960399 -4.297729 -15.12207 7
-0.176468 -4.330811 -15.09082 7
-0.190247 -4.3952641 -15.173828 7
-0.196777 -4.4464111 -15.208008 7
-0.093543999 5.1098628 -14.245117 7
-0.089584 5.0637212 -14.229492 7
-0.091209002 5.0300288 -14.251953 7
-0.100029 5.0119629 -14.326172 7
-0.100044 4.9744868 -14.337891 7
-0.098480001 4.9337158 -14.337891 7
-0.100113 4.8995361 -14.360352 7
-0.096931003 4.855103 -14.350586 7
0.049132999 1.267822 -13.936523 7
0.033859 1.240234 -14.048828 7
0.029816 1.205566 -14.081055 7
0.041786 1.162231 -13.99707 7
0.051346 1.120605 -13.930664 7
0.053695999 1.082764 -13.916016 7
0.056061 1.045166 -13.901367 7
0.044792 1.014038 -13.985352 7
0.03994 0.97949201 -14.021484 7
0.0053710002 -0.97351098 -13.557617 7
-0.003143 -1.012817 -13.613281 7
-0.001518 -1.047485 -13.597656 7
0.0026400001 -1.080811 -13.566406 7
0.0051040002 -1.11499 -13.546875 7
-0.0067670001 -1.156616 -13.625977 7
-0.016113 -1.197266 -13.686523 7
-0.010269 -1.229736 -13.643555 7
-0.01033 -1.265137 -13.639648 7
-0.19503 -4.2198491 -14.362305 7
-0.190125 -4.2852778 -14.308594 7
-0.185982 -4.3146968 -14.269531 7
-0.190292 -4.3594971 -14.288086 7
-0.207397 -4.4654541 -14.37793 7
0.035393 0.93225098 -13.270508 7
0.039574001 0.89575201 -13.244141 7
0.046257 0.85803199 -13.200195 7
0.051277 0.82141101 -13.166992 7
0.053748999 0.78576702 -13.151367 7
0.059608001 0.74890101 -13.113281 7
0.055344 0.71582001 -13.143555 7
0.048553001 0.68335003 -13.191406 7
0.045143001 0.649414 -13.21582 7
0.001663 -0.99328601 -12.827148 7
-0.016144 -1.035278 -12.94043 7
-0.000237 -1.061523 -12.833984 7
-0.0029450001 -1.096436 -12.848633 7
0.0040890002 -1.126465 -12.799805 7
-0.011078 -1.1680911 -12.893555 7
-0.022667 -1.208374 -12.966797 7
-0.012093 -1.2362061 -12.894531 7
-0.013924 -1.271118 -12.902344 7
-0.202545 -4.1975098 -13.571289 7
-0.204414 -4.2362061 -13.572266 7
-0.206276 -4.2749019 -13.573242 7
-0.199257 -4.2972412 -13.516602 7
-0.196648 -4.3278809 -13.491211 7
-0.195862 -4.3614502 -13.474609 7
-0.19148999 -4.3884282 -13.436523 7
-0.201363 -4.4416499 -13.487305 7
0.048064999 0.71521002 -12.456055 7
0.048873998 0.64892602 -12.453125 7
0.050606001 0.61547899 -12.443359 7
0.047882002 0.58313 -12.461914 7
0.042534001 0.55139202 -12.498047 7
0.046021 0.517456 -12.476562 7
0.052200001 0.48303199 -12.4375 7
0.061012 0.44824201 -12.380859 7
0.063643999 0.41479501 -12.364258 7
0.061806001 0.38232401 -12.376953 7
0.058212001 0.35009801 -12.400391 7
0.0053940001 -0.97644001 -12.125977 7
0.010918 -1.005859 -12.088867 7
-0.011482 -1.048462 -12.223633 7
-0.00036599999 -1.075195 -12.15332 7
-0.0041499999 -1.109009 -12.172852 7
0.002319 -1.137817 -12.130859 7
-0.030319 -1.187378 -12.329102 7
-0.0089800004 -1.2080081 -12.193359 7
-0.010895 -1.241333 -12.203125 7
-0.011887 -1.274048 -12.205078 7
-0.206192 -4.2728271 -12.799805 7
-0.196953 -4.2896729 -12.734375 7
-0.19796801 -4.324585 -12.729492 7
-0.196182 -4.3547359 -12.708984 7
-0.189743 -4.375977 -12.657227 7
-0.19915 -4.4267578 -12.703125 7
-0.202042 -4.4654541 -12.708984 7
-0.092216 5.115479 -11.762695 7
-0.084824003 5.067627 -11.729492 7
-0.097824 5.065186 -11.817383 7
-0.069084004 4.9703369 -11.662109 7
-0.072815001 4.9472661 -11.695312 7
-0.074676998 4.9200439 -11.71875 7
-0.079337999 4.8989258 -11.756836 7
-0.082138002 4.8734131 -11.78418 7
-0.084014997 4.8459468 -11.806641 7
-0.094237998 4.83606 -11.87793 7
-0.101692 4.820312 -11.933594 7
0.058777001 0.362427 -11.839844 7
0.060524002 0.299438 -11.830078 7
0.060325999 0.17419399 -11.831055 7
0.060272001 0.142822 -11.832031 7
0.061149999 0.111572 -11.826172 7
0.062973 0.080077998 -11.81543 7
0.046264999 -0.010376 -11.155273 7
0.051109001 -0.040038999 -11.126953 7
0.052055001 -0.070068002 -11.121094 7
-0.0028840001 -0.99218798 -11.499023 7
-0.002937 -1.022705 -11.49707 7
-0.00013 -1.082275 -11.474609 7
0.00079299998 -1.112183 -11.46582 7
0.001717 -1.142334 -11.458008 7
-0.010246 -1.270752 -11.514648 7
-0.19998901 -4.177856 -12.024414 7
-0.203987 -4.2166748 -12.036133 7
-0.208984 -4.2572021 -12.052734 7
-0.210999 -4.29248 -12.053711 7
-0.205208 -4.3138428 -12.010742 7
-0.20233899 -4.3400879 -11.983398 7
-0.199471 -4.366333 -11.956055 7
-0.20053101 -4.3996582 -11.950195 7
-0.197662 -4.4260249 -11.923828 7
-0.206581 -4.473999 -11.963867 7
-0.102837 5.092896 -11.081055 7
-0.095054999 5.0457759 -11.049805 7
-0.082390003 4.9882808 -10.992188 7
-0.068770997 4.928833 -10.928711 7
-0.069762997 4.9016109 -10.946289 7
-0.073669001 4.8804932 -10.979492 7
-0.072723001 4.848999 -10.984375 7
-0.073707998 4.8215332 -11.001953 7
-0.084457003 4.8148189 -11.072266 7
-0.10006 4.8179932 -11.169922 7
0.035599001 0.049927 -11.219727 7
0.038849 -0.32800299 -10.725586 7
0.042885002 -0.35620099 -10.702148 7
0.032630999 -0.386475 -10.758789 7
0.025420999 -0.41674799 -10.798828 7
0.023337999 -0.44604501 -10.80957 7
0.027373999 -0.47387701 -10.785156 7
0.028343 -0.50244099 -10.77832 7
0.030334 -0.53100598 -10.765625 7
0.029274 -0.559937 -10.770508 7
0.027176 -0.58923298 -10.780273 7
0.018944001 -0.62060499 -10.825195 7
-0.20931999 -4.1878662 -11.413086 7
-0.209381 -4.2182622 -11.40332 7
-0.206383 -4.2429199 -11.375977 7
-0.213631 -4.2861328 -11.404297 7
-0.219864 -4.3275151 -11.426758 7
-0.216866 -4.3520508 -11.400391 7
-0.21489 -4.3787842 -11.379883 7
-0.210869 -4.4014888 -11.347656 7
-0.209923 -4.429688 -11.330078 7
-0.21305799 -4.4655762 -11.336914 7
0.017258 -0.508057 -10.24707 7
0.022376999 -0.64428699 -10.211914 7
0.019012 -0.72766101 -10.222656 7
0.020020001 -0.75476098 -10.214844 7
0.015678 -0.783813 -10.236328 7
-0.201492 -4.172729 -10.683594 7
-0.206947 -4.2106929 -10.702148 7
-0.21032 -4.2736821 -10.697266 7
-0.213615 -4.308105 -10.704102 7
-0.21476001 -4.3387451 -10.698242 7
-0.212677 -4.3635249 -10.677734 7
-0.20629101 -4.380249 -10.634766 7
-0.20742799 -4.410522 -10.629883 7
-0.21106 -4.4447021 -10.635742 7
-0.208984 -4.4692378 -10.614258 7
-0.099395998 0.66918898 13.355469 7
-0.080665998 0.69177198 13.256836 7
-0.078423001 0.71911597 13.244141 7
-0.079467997 0.74731398 13.248047 7
-0.079437003 0.77551299 13.245117 7
-0.080481999 0.80383301 13.249023 7
-0.081534997 0.83239698 13.253906 7
-0.082588002 0.86096197 13.256836 7
-0.080344997 0.88818401 13.243164 7
-0.081390001 0.91662598 13.24707 7
-0.083549 0.94543499 13.256836 7
0.0059659998 -0.64721698 -9.7890615 7
0.001434 -0.67517102 -9.8105469 7
0.0047530001 -0.70043898 -9.7910156 7
0.011414 -0.72473103 -9.7548828 7
0.015845999 -0.74963403 -9.7304688 7
0.016907001 -0.775635 -9.7207031 7
0.014618 -0.80261201 -9.7314453 7
0.0033720001 -0.83325201 -9.7871094 7
-0.0056150001 -0.86340302 -9.8310547 7
-0.0034409999 -0.88891602 -9.8173828 7
0.003235 -0.91259801 -9.78125 7
0.003181 -0.93920898 -9.7783203 7
-0.023193 -1.297729 -9.875 7
-0.025490001 -1.325806 -9.8837891 7
-0.026657 -1.353027 -9.8857422 7
-0.025589 -1.379028 -9.8769531 7
-0.2043 -4.1860352 -10.102539 7
-0.204376 -4.2132568 -10.092773 7
-0.208931 -4.2485352 -10.104492 7
-0.211235 -4.279541 -10.104492 7
-0.21244 -4.3088379 -10.099609 7
-0.219246 -4.3483891 -10.12207 7
-0.213699 -4.3652339 -10.084961 7
-0.209282 -4.3841548 -10.052734 7
-0.211594 -4.4155269 -10.052734 7
-0.208305 -4.4364009 -10.026367 7
-0.21286 -4.4718022 -10.037109 7
-0.31567401 -6.0828862 -9.8427734 7
-0.31014299 -6.0958252 -9.8027344 7
-0.310211 -6.122437 -9.7890615 7
-0.31254601 -6.1542969 -9.7841797 7
-0.314888 -6.1864009 -9.7792969 7
-0.316071 -6.2154541 -9.7695312 7
-0.321762 -6.256104 -9.7802734 7
-0.33197799 -6.3079829 -9.8115234 7
-0.33656299 -6.3458252 -9.8164062 7
-0.336647 -6.372314 -9.8007812 7
0.006149 -0.92224097 -9.2783203 7
0.0072710002 -0.94702101 -9.2705078 7
-0.0091249999 -0.97937 -9.3486328 7
-0.018509001 -1.009155 -9.3916016 7
-0.013893 -1.032593 -9.3662109 7
-0.015114 -1.058594 -9.3701172 7
-0.01049 -1.081787 -9.34375 7
-0.011711 -1.107666 -9.3466797 7
-0.016426001 -1.13562 -9.3671885 7
-0.01413 -1.15979 -9.3525391 7
-0.016525 -1.186523 -9.3613281 7
-0.017746 -1.212646 -9.3642578 7
-0.022461001 -1.2406009 -9.3837891 7
-0.036522001 -1.274292 -9.4501953 7
-0.32283801 -6.0882568 -9.2441406 7
-0.32057199 -6.1077881 -9.2197266 7
-0.317123 -6.124146 -9.1904297 7
-0.31603199 -6.1463618 -9.1708984 7
-0.31845099 -6.1773682 -9.1669922 7
-0.319695 -6.2050781 -9.15625 7
-0.32329601 -6.2388921 -9.15625 7
-0.324577 -6.2668462 -9.1455078 7
-0.332863 -6.3122559 -9.1669922 7
-0.336472 -6.3461909 -9.1660156 7
-0.34476501 -6.3918462 -9.1855469 7
-0.094818003 0.66442901 12.338867 7
-0.097159997 0.69103998 12.349609 7
-0.085175 0.713135 12.290039 7
-0.085129 0.73889202 12.288086 7
-0.086304002 0.76525903 12.293945 7
-0.087456003 0.79126 12.297852 7
-0.087402001 0.81701702 12.294922 7
-0.086181998 0.84240699 12.288086 7
-0.087325998 0.86865199 12.291992 7
-0.086089998 0.89379901 12.283203 7
-0.082413003 0.94397002 12.262695 7
-0.0073549999 -0.96179199 -8.8867188 7
-0.0049820002 -0.985107 -8.8730469 7
-0.000145 -1.007324 -8.8486328 7
-0.0099409996 -1.036011 -8.890625 7
-0.018501 -1.064575 -8.9287109 7
-0.020981001 -1.09021 -8.9365234 7
-0.017371999 -1.112793 -8.9169922 7
-0.02108 -1.139038 -8.9306641 7
-0.013817 -1.159668 -8.8945312 7
-0.019958001 -1.187256 -8.9199219 7
-0.020004001 -1.21167 -8.9160156 7
-0.02005 -1.235962 -8.9140615 7
-0.080238 4.7779541 -8.0839844 7
-0.079025 4.752686 -8.0908203 7
-0.079033002 4.730103 -8.1025391 7
-0.081467003 4.7124019 -8.1230469 7
-0.091187 4.7097168 -8.1767578 7
-0.100906 4.7069092 -8.2294922 7
-0.102135 4.6864009 -8.2451172 7
-0.099724002 4.6583252 -8.2451172 7
-0.099708997 4.635376 -8.2568359 7
-0.081505001 4.575439 -8.1894531 7
-0.086372003 4.5623779 -8.2216797 7
-0.083945997 4.5345459 -8.2216797 7
-0.006668 -0.96460003 -8.4179688 7
-0.0079800002 -0.98852497 -8.421875 7
-0.011833 -1.013428 -8.4365234 7
-0.011894 -1.036621 -8.4335938 7
-0.003052 -1.0556639 -8.3896484 7
-0.001808 -1.078247 -8.3808594 7
-0.001854 -1.1011961 -8.3789062 7
-0.0019 -1.12439 -8.3759766 7
-0.008293 -1.151001 -8.4033203 7
-0.004524 -1.172119 -8.3828115 7
-0.0058439998 -1.195923 -8.3847656 7
-0.0084380005 -1.220459 -8.3945312 7
-0.0084760003 -1.243652 -8.3916016 7
-0.01107 -1.268311 -8.4003906 7
-0.211823 -4.4265141 -8.3896484 7
-0.211899 -4.449707 -8.3789062 7
-0.21197499 -4.4726558 -8.3662109 7
-0.320869 -6.0856929 -8.0117188 7
-0.32223499 -6.1112061 -8.0019531 7
-0.31974801 -6.1269531 -7.9775391 7
-0.31343099 -6.1334229 -7.938477 7
-0.310936 -6.149292 -7.9150391 7
-0.317406 -6.1873779 -7.9248052 7
-0.31363699 -6.1998291 -7.8955078 7
-0.32009101 -6.2375488 -7.9042969 7
-0.325279 -6.2724609 -7.9082031 7
-0.330475 -6.307373 -7.9121089 7
-0.334389 -6.3388672 -7.9111328 7
-0.33829501 -6.370728 -7.9101558 7
-0.33963001 -6.3959961 -7.9003911 7
-0.29632601 -5.0916748 11.032227 7
-0.29631001 -5.046021 11.055664 7
-0.29369399 -4.9949951 11.069336 7
-0.293686 -4.9720459 11.081055 7
-0.30018601 -4.939209 11.129883 7
-0.29757699 -4.9108891 11.131836 7
-0.29235101 -4.8546138 11.134766 7
-0.291031 -4.8060298 11.151367 7
-0.078299999 -1.812378 11.1875 7
-0.075653002 -1.764038 11.18457 7
-0.075615004 -1.7175291 11.193359 7
-0.071602002 -1.62207 11.191406 7
-0.067901999 4.794189 -7.4726558 7
-0.071709 4.7811279 -7.5 7
-0.070441999 4.7572021 -7.5068359 7
-0.071723998 4.738647 -7.5224609 7
-0.069176003 4.7119141 -7.523438 7
-0.07299 4.6983638 -7.5498052 7
-0.079346001 4.690063 -7.585938 7
-0.089492999 4.6895752 -7.6376948 7
-0.095848002 4.6810298 -7.6748052 7
-0.092032999 4.6516109 -7.6699219 7
-0.085693002 4.617065 -7.65625 7
-0.085701004 4.5953369 -7.6669922 7
-0.084441997 4.5710449 -7.671875 7
-0.081917003 4.544312 -7.672852 7
-0.078110002 4.5151372 -7.6679692 7
-0.078110002 4.4934082 -7.6787109 7
-0.21125001 -4.2897949 -7.96875 7
-0.220612 -4.3287349 -7.9941411 7
-0.23128501 -4.3699951 -8.0253906 7
-0.22737899 -4.3851318 -7.999023 7
-0.232742 -4.4171138 -8.0097656 7
-0.230141 -4.4345698 -7.9892578 7
-0.219604 -4.4372559 -7.9375 7
-0.222305 -4.4639888 -7.936523 7
-0.31667301 -5.1047359 10.628906 7
-0.31531501 -5.0800781 10.636719 7
-0.315323 -5.058105 10.649414 7
-0.31531501 -5.0362549 10.661133 7
-0.315323 -5.0144038 10.672852 7
-0.31531501 -4.9924321 10.68457 7
-0.315292 -4.970459 10.696289 7
-0.32205999 -4.961792 10.732422 7
-0.31935099 -4.9344478 10.733398 7
-0.31934401 -4.9124761 10.745117 7
-0.31662801 -4.8848882 10.74707 7
-0.30985999 -4.8494868 10.734375 7
-0.305794 -4.8195801 10.731445 7
-0.101234 -1.959106 10.852539 7
-0.099876001 -1.9356689 10.851562 7
-0.099845998 -1.913208 10.856445 7
-0.097115003 -1.8887939 10.848633 7
-0.102509 -1.87085 10.875977 7
-0.106529 -1.851685 10.896484 7
-0.106522 -1.829102 10.901367 7
-0.086197004 -1.790771 10.821289 7
-0.084824003 -1.767334 10.820312 7
-0.084816001 -1.744995 10.825195 7
-0.084793001 -1.722778 10.830078 7
-0.084770001 -1.700439 10.833984 7
-0.0942 -1.685181 10.876953 7
-0.086075 -1.656616 10.84668 7
-0.087394997 -1.635254 10.856445 7
-0.083313003 -1.6101069 10.84375 7
-0.17059299 4.165771 10.496094 7
-0.167854 4.1824951 10.476562 7
-0.155678 4.182251 10.419922 7
-0.15023801 4.1938481 10.388672 7
-0.143463 4.2030029 10.353516 7
-0.140717 4.2192378 10.333008 7
-0.14199799 4.2429199 10.327148 7
-0.14195301 4.263916 10.317383 7
-0.14190701 4.2849121 10.307617 7
-0.140495 4.3034668 10.291992 7
-0.13776401 4.3195801 10.272461 7
-0.135002 4.3354492 10.251953 7
-0.137642 4.3614502 10.250977 7
-0.15640999 4.4178472 10.3125 7
-0.16442899 4.454102 10.333008 7
-0.330452 -6.1175542 -6.9355469 7
-0.333298 -6.1439209 -6.9306641 7
-0.32927701 -6.1729741 -6.8867192 7
-0.32657599 -6.185791 -6.8632808 7
-0.32249501 -6.1950679 -6.8349609 7
-0.31846601 -6.2236328 -6.7910161 7
-0.33102399 -6.2740479 -6.8164058 7
-0.33663201 -6.307251 -6.8193359 7
-0.34369701 -6.3635249 -6.811523 7
-0.34792301 -6.3934331 -6.8105469 7
-0.308945 -5.1115718 10.098633 7
-0.30189499 -5.076416 10.086914 7
-0.299095 -5.050293 10.089844 7
-0.29486099 -5.0211182 10.085938 7
-0.296249 -5.003418 10.102539 7
-0.296242 -4.9827881 10.114258 7
-0.29904899 -4.967773 10.135742 7
-0.30046099 -4.9499512 10.15332 7
-0.30185699 -4.9320068 10.169922 7
-0.30046099 -4.9084468 10.175781 7
-0.30326799 -4.8930659 10.198242 7
-0.29622701 -4.858521 10.18457 7
-0.29340401 -4.832397 10.186523 7
-0.294815 -4.811523 10.198242 7
-0.084960997 -1.907959 10.392578 7
-0.083549 -1.885376 10.392578 7
-0.087752998 -1.867798 10.413086 7
-0.090538003 -1.8486331 10.428711 7
-0.091926999 -1.828613 10.438477 7
-0.076447003 -1.7948 10.381836 7
-0.076407999 -1.77356 10.385742 7
-0.074988998 -1.751099 10.384766 7
-0.072159 -1.727661 10.37793 7
-0.067901999 -1.703369 10.364258 7
-0.084755003 -1.694824 10.435547 7
-0.079124004 -1.669312 10.417969 7
-0.077689998 -1.646973 10.415039 7
-0.076256 -1.624756 10.413086 7
-0.059029002 0.96081501 10.462891 7
-0.058983002 0.98205602 10.459961 7
-0.060364 1.00415 10.463867 7
-0.064529002 1.02771 10.477539 7
-0.065909997 1.049805 10.481445 7
-0.064461 1.070557 10.473633 7
-0.068634003 1.093994 10.488281 7
-0.07 1.1162111 10.491211 7
-0.069977 1.137817 10.489258 7
-0.069922999 1.159302 10.486328 7
-0.076912001 1.1843261 10.510742 7
-0.075461999 1.2052 10.50293 7
-0.069816999 1.2236331 10.477539 7
-0.072586 1.2468261 10.486328 7
-0.075347997 1.269653 10.494141 7
-0.16040801 4.1621089 10.000977 7
-0.15055799 4.164917 9.9550781 7
-0.108452 4.780396 -6.735352 7
-0.104332 4.7523189 -6.7304692 7
-0.098830998 4.721436 -6.7226558 7
-0.097457998 4.6993408 -6.7285161 7
-0.086464003 4.6185298 -6.7226558 7
-0.086479001 4.5991211 -6.733398 7
-0.086487003 4.5797119 -6.7441411 7
-0.085106 4.5574951 -6.75 7
-0.079604998 4.526855 -6.7412109 7
-0.079604998 4.5075679 -6.7519531 7
-0.082374997 4.4934082 -6.7714839 7
-0.308281 -5.0926509 9.6582031 7
-0.30098 -5.0583501 9.6474609 7
-0.29806501 -5.0328369 9.6494141 7
-0.30244401 -5.0222168 9.6757812 7
-0.30242899 -5.0024409 9.6875 7
-0.29806501 -4.9741211 9.6855469 7
-0.30242899 -4.9633789 9.7109385 7
-0.29951501 -4.9379878 9.7138672 7
-0.30243701 -4.9239502 9.7353516 7
-0.306824 -4.9127202 9.7617188 7
-0.30243701 -4.8843989 9.7587891 7
-0.30828899 -4.875977 9.7900391 7
-0.29660001 -4.8334961 9.7626953 7
-0.30098 -4.822021 9.7900391 7
-0.30243701 -4.8051758 9.8046885 7
-0.082161002 -1.915771 10.027344 7
-0.083610997 -1.896484 10.038086 7
-0.080665998 -1.873657 10.03125 7
-0.079193003 -1.852173 10.029297 7
-0.095200002 -1.844727 10.094727 7
-0.089354999 -1.819458 10.077148 7
-0.083511002 -1.794189 10.060547 7
-0.073279999 -1.765869 10.025391 7
-0.068878002 -1.742065 10.012695 7
-0.068870999 -1.721558 10.017578 7
-0.065926 -1.698975 10.010742 7
-0.068824999 -1.680786 10.025391 7
-0.071709 -1.66272 10.040039 7
-0.070243999 -1.641113 10.039062 7
-0.071686 -1.621582 10.048828 7
-0.33609 -6.0909419 -5.9804692 7
-0.339127 -6.1157231 -5.9755859 7
-0.337708 -6.129395 -5.9560552 7
-0.34075901 -6.1541748 -5.9501948 7
-0.34678599 -6.1861572 -5.953125 7
-0.34687001 -6.2034912 -5.9375 7
-0.34243801 -6.2098389 -5.9111328 7
-0.34399399 -6.230835 -5.9003911 7
-0.342567 -6.2445068 -5.8808589 7
-0.33517501 -6.2431641 -5.844727 7
-0.336723 -6.2640381 -5.8339839 7
-0.338287 -6.28479 -5.8232422 7
-0.34880099 -6.3280029 -5.8388672 7
-0.34439099 -6.3338618 -5.811523 7
-0.339966 -6.3396001 -5.7832031 7
-0.35497299 -6.394165 -5.8105469 7
-0.312958 -5.112793 9.2265615 7
-0.297813 -5.063477 9.1914062 7
-0.30236799 -5.0541992 9.21875 7
-0.30236799 -5.035645 9.2304688 7
-0.29478499 -5.0018311 9.21875 7
-0.294792 -4.983398 9.2304688 7
-0.29478499 -4.9648442 9.2421885 7
-0.30084199 -4.958252 9.2724609 7
-0.296303 -4.930542 9.2705078 7
-0.085822999 -1.9030761 9.6933594 7
-0.084289998 -1.882202 9.6923828 7
-0.088799 -1.866455 9.7128906 7
-0.087265 -1.845459 9.7119141 7
-0.088760003 -1.827148 9.7216797 7
-0.094802998 -1.812134 9.7480469 7
-0.090240002 -1.788818 9.7363281 7
-0.067528002 -1.751587 9.6572266 7
-0.072044 -1.735474 9.6777344 7
-0.072029002 -1.71582 9.6816406 7
-0.078071997 -1.700806 9.7080078 7
-0.075026996 -1.678955 9.7011719 7
-0.081038997 -1.6636961 9.7275391 7
-0.084060997 -1.64624 9.7431641 7
-0.084045 -1.626465 9.7470703 7
-0.061386 0.96923798 9.7851562 7
-0.055312999 0.98645002 9.7617188 7
-0.059813999 1.008423 9.7753906 7
-0.050712999 1.023926 9.7392578 7
-0.052200001 1.044434 9.7431641 7
-0.062729001 1.069092 9.7792969 7
-0.061172001 1.088135 9.7705078 7
-0.064162999 1.109497 9.7792969 7
-0.058090001 1.126099 9.7539062 7
-0.058060002 1.145996 9.7519531 7
-0.068595998 1.171265 9.7890615 7
-0.074600004 1.1943361 9.8095703 7
-0.070029996 1.21167 9.7890615 7
-0.077545002 1.2355959 9.8144531 7
-0.069954 1.251343 9.7832031 7
-0.063888997 1.267822 9.7578115 7
-0.23376501 -4.4934082 -6.249023 7
-0.238434 -4.52002 -6.2539058 7
-0.233879 -4.5296631 -6.2275391 7
-0.237022 -4.5532231 -6.226562 7
-0.232437 -4.5626221 -6.2011719 7
-0.23249801 -4.580688 -6.1904302 7
-0.23408499 -4.601562 -6.1845698 7
-0.240311 -4.6312261 -6.1933589 7
-0.24501 -4.657959 -6.195312 7
-0.25894201 -4.7026372 -6.2275391 7
-0.25898001 -4.7208252 -6.2167969 7
-0.252884 -4.726685 -6.186523 7
-0.252922 -4.7446289 -6.1757808 7
-0.25299799 -4.7624512 -6.1630859 7
-0.25151101 -4.7773442 -6.1464839 7
-0.25310501 -4.7983398 -6.140625 7
-0.34078199 -6.2124019 -5.438477 7
-0.34393299 -6.2362061 -5.4326172 7
-0.34399399 -6.2523189 -5.4179692 7
-0.34251401 -6.264648 -5.3994141 7
-0.344116 -6.2844238 -5.3886719 7
-0.34728199 -6.308228 -5.3808589 7
-0.34425399 -6.3166499 -5.358398 7
-0.347404 -6.34021 -5.351562 7
-0.347458 -6.3563228 -5.3369141 7
-0.35061601 -6.3798828 -5.329102 7
-0.35069299 -6.395752 -5.313477 7
-0.30219999 -5.1057129 8.7900391 7
-0.30846399 -5.1009521 8.8212891 7
-0.29751599 -5.0611572 8.8007812 7
-0.29438001 -5.037231 8.8027344 7
-0.300652 -5.032227 8.8339844 7
-0.29126 -4.9958501 8.8173828 7
-0.28656 -4.96875 8.8164062 7
-0.29438001 -4.967041 8.8505859 7
-0.29718801 -4.952271 8.8671885 7
-0.29563099 -4.931519 8.8740234 7
-0.29405999 -4.9108891 8.8808594 7
-0.29563901 -4.8961182 8.8974609 7
-0.29719499 -4.8814702 8.9140615 7
-0.300331 -4.869873 8.9345703 7
-0.30190301 -4.85498 8.9511719 7
-0.292503 -4.8188481 8.9335938 7
-0.079979002 -1.888062 9.3691406 7
-0.084663004 -1.873047 9.390625 7
-0.083068997 -1.853027 9.3886719 7
-0.083076 -1.833984 9.3945312 7
-0.083045997 -1.815063 9.3984385 7
-0.087715 -1.799805 9.4189453 7
-0.081450999 -1.776001 9.4013672 7
-0.070464998 -1.748535 9.3662109 7
-0.061066002 -1.7225339 9.3378906 7
-0.072006002 -1.712036 9.3808594 7
-0.070418999 -1.692017 9.3798828 7
-0.067284003 -1.670776 9.3720703 7
-0.071960002 -1.655396 9.3935547 7
-0.071938001 -1.636475 9.3974609 7
-0.065659001 -1.613037 9.3789062 7
-0.05336 0.98913598 9.4570312 7
-0.050179001 1.025879 9.4414062 7
-0.047028001 1.043335 9.4277344 7
-0.053229999 1.065308 9.4472656 7
-0.054763999 1.085083 9.4511719 7
-0.051598001 1.1025389 9.4365234 7
-0.064025998 1.1468509 9.4765615 7
-0.062408 1.1843261 9.4658203 7
-0.054565001 1.199097 9.4345703 7
-0.060752999 1.221558 9.4541016 7
-0.057601999 1.23877 9.4394531 7
-0.057533 1.276855 9.4335938 7
-0.23354299 -4.5041499 -5.8310552 7
-0.230408 -4.5152588 -5.8105469 7
-0.23525199 -4.5413818 -5.8144531 7
-0.232117 -4.5523682 -5.7929692 7
-0.23377199 -4.5723882 -5.7871089 7
-0.23542801 -4.5925288 -5.78125 7
-0.233879 -4.6064448 -5.766602 7
-0.232338 -4.6202388 -5.75 7
-0.24038699 -4.6525879 -5.7626948 7
-0.251656 -4.69104 -5.7841802 7
-0.25331101 -4.71106 -5.7773442 7
-0.251762 -4.724854 -5.7617192 7
-0.250229 -4.73877 -5.7451172 7
-0.25987199 -4.7744141 -5.7617192 7
-0.258324 -4.7883301 -5.7460942 7
-0.334564 -6.0898442 -5.0244141 7
-0.33782199 -6.112793 -5.0185552 7
-0.334694 -6.1202388 -4.9960942 7
-0.33795899 -6.1430659 -4.9882808 7
-0.34121701 -6.165894 -4.9824219 7
-0.34289601 -6.184937 -4.9716802 7
-0.34616899 -6.2080078 -4.9648442 7
-0.34460399 -6.2191162 -4.9462891 7
-0.346275 -6.2381592 -4.9355469 7
-0.336723 -6.229248 -4.8964839 7
-0.33679199 -6.2441411 -4.8808589 7
-0.33042899 -6.243042 -4.8505859 7
-0.3321 -6.2617192 -4.8398442 7
-0.333763 -6.2805181 -4.828125 7
-0.33862299 -6.307251 -4.8261719 7
-0.33869901 -6.322021 -4.8105469 7
-0.30107099 -5.1046138 8.3564453 7
-0.30107099 -5.0880132 8.3681641 7
-0.29459399 -5.058228 8.3632812 7
-0.284843 -5.0220952 8.3476562 7
-0.28160101 -4.9989009 8.3515615 7
-0.284859 -4.9890141 8.3710938 7
-0.28972599 -4.9822998 8.3964844 7
-0.28485101 -4.9559331 8.3945312 7
-0.286484 -4.942627 8.4111328 7
-0.28649101 -4.926147 8.4228516 7
-0.283234 -4.9030762 8.4248047 7
-0.28972599 -4.8991699 8.4550781 7
-0.29622701 -4.8953862 8.4853516 7
-0.29298401 -4.8720698 8.4882812 7
-0.29460099 -4.8586431 8.5039062 7
-0.28163099 -4.8164058 8.4804688 7
-0.28811601 -4.8121338 8.5097656 7
-0.072304003 -1.916382 9.0078115 7
-0.067413002 -1.8944089 8.9951172 7
-0.069022998 -1.877686 9.0058594 7
-0.067382999 -1.858276 9.0048828 7
-0.067351997 -1.840332 9.0087891 7
-0.067336999 -1.822266 9.0126953 7
-0.077072002 -1.812256 9.0498047 7
-0.072189003 -1.790283 9.0380859 7
-0.072173998 -1.772217 9.0419922 7
-0.062408 -1.746338 9.0136719 7
-0.057526 -1.724731 9.0009766 7
-0.059135001 -1.70813 9.0107422 7
-0.059105001 -1.690063 9.0146484 7
-0.052611999 -1.667114 8.9970703 7
-0.059074 -1.654053 9.0224609 7
-0.062302001 -1.638184 9.0371094 7
-0.062286001 -1.620239 9.0419922 7
-0.056281999 0.97045898 9.1533203 7
-0.043281998 0.98303199 9.1054688 7
-0.041625999 1.000366 9.0976562 7
-0.041588001 1.018433 9.0947266 7
-0.041556999 1.036743 9.0927734 7
-0.039909001 1.054077 9.0839844 7
-0.044723999 1.074707 9.0986328 7
-0.041466001 1.091187 9.0849609 7
-0.044670001 1.111084 9.09375 7
-0.051125001 1.1324461 9.1132812 7
-0.054320998 1.1524661 9.1210938 7
-0.052673001 1.169922 9.1132812 7
-0.054260001 1.188843 9.1171885 7
-0.060692001 1.2105711 9.1357422 7
-0.063896 1.230713 9.1435547 7
-0.060631 1.247192 9.1308594 7
-0.057365 1.263672 9.1162109 7
-0.24015801 -4.4892578 -5.4775391 7
-0.238564 -4.5024409 -5.4628911 7
-0.243622 -4.527832 -5.4638672 7
-0.238686 -4.534668 -5.4394531 7
-0.23542 -4.5445561 -5.4189448 7
-0.238792 -4.5670171 -5.4179692 7
-0.238838 -4.5831299 -5.407227 7
-0.240555 -4.602417 -5.4003911 7
-0.235641 -4.6090088 -5.375977 7
-0.234024 -4.6218262 -5.360352 7
-0.240723 -4.6505132 -5.3681641 7
-0.25737 -4.6983638 -5.4023442 7
-0.255768 -4.7113042 -5.3876948 7
-0.25748399 -4.7305908 -5.3808589 7
-0.254219 -4.7402339 -5.359375 7
-0.26090199 -4.769043 -5.367188 7
-0.26261899 -4.788208 -5.360352 7
-0.345505 -6.2202148 -4.4570308 7
-0.34555799 -6.2341309 -4.4423828 7
-0.34062999 -6.2354741 -4.4160161 7
-0.337372 -6.2409668 -4.3935552 7
-0.33242801 -6.2425542 -4.3681641 7
-0.332497 -6.256104 -4.3525391 7
-0.339203 -6.286377 -4.3525391 7
-0.33927199 -6.2999272 -4.3378911 7
-0.33599901 -6.3051758 -4.3154302 7
-0.339394 -6.3269038 -4.3076172 7
-0.33944699 -6.340332 -4.2929692 7
-0.342812 -6.3623052 -4.2851558 7
-0.34287301 -6.3757319 -4.2705078 7
-0.29363999 -5.1143799 7.905273 7
-0.297005 -5.105835 7.9267578 7
-0.291969 -5.0799561 7.9267578 7
-0.305435 -5.0921631 7.9736328 7
-0.30039999 -5.0661621 7.9726558 7
-0.28524801 -5.0197749 7.9433589 7
-0.27854201 -4.9907231 7.938477 7
-0.28189799 -4.9820561 7.9589839 7
-0.27685499 -4.956543 7.9580078 7
-0.278534 -4.9443359 7.9736328 7
-0.27854201 -4.928833 7.985352 7
-0.28022799 -4.9165039 8.0009766 7
-0.28527799 -4.9108891 8.0263672 7
-0.276871 -4.878418 8.0166016 7
-0.281921 -4.8728032 8.0410156 7
-0.288643 -4.8703609 8.0703115 7
-0.29370099 -4.8643799 8.0957031 7
-0.28024301 -4.8223882 8.0712891 7
-0.28698 -4.8035889 8.1123047 7
-0.070106998 -1.893433 8.6972656 7
-0.073455997 -1.879028 8.7128906 7
-0.071762003 -1.860229 8.7119141 7
-0.070068002 -1.841553 8.7109385 7
-0.071723998 -1.825806 8.7207031 7
-0.075080998 -1.811157 8.7363281 7
-0.083472997 -1.800415 8.7675781 7
-0.076729 -1.77771 8.75 7
-0.073340997 -1.75769 8.7431641 7
-0.064911 -1.733887 8.7197266 7
-0.059852999 -1.712646 8.7080078 7
-0.058150999 -1.694092 8.7060547 7
-0.054779001 -1.674316 8.6992188 7
-0.061478 -1.6619869 8.7246094 7
-0.056435 -1.640991 8.7128906 7
-0.061455 -1.627441 8.7333984 7
-0.069854997 -1.615967 8.7646484 7
-0.052048001 0.96716303 8.8388672 7
-0.053695999 0.98522902 8.8427734 7
-0.046951 0.99987799 8.8183594 7
-0.048599001 1.018066 8.8212891 7
-0.045212001 1.03418 8.8076172 7
-0.041816998 1.050171 8.7939453 7
-0.043471999 1.068359 8.796875 7
-0.043434002 1.085815 8.7939453 7
-0.046760999 1.10498 8.8027344 7
-0.046730001 1.122437 8.8007812 7
-0.048377998 1.140869 8.8037109 7
-0.051704001 1.159912 8.8125 7
-0.044952001 1.173828 8.7871094 7
-0.056632999 1.21521 8.8203115 7
-0.061629999 1.2355959 8.8339844 7
-0.056541 1.267578 8.8115234 7
-0.074447997 4.7427979 -4.5810552 7
-0.071144 4.7215581 -4.5839839 7
-0.071129002 4.6928711 -4.6064448 7
-0.079383999 4.6956792 -4.639648 7
-0.077721 4.6776118 -4.6464839 7
-0.076072998 4.65979 -4.6523442 7
-0.087615997 4.6544189 -4.7060552 7
-0.095871001 4.6566162 -4.7392578 7
-0.094192997 4.6237788 -4.757812 7
-0.0942 4.6091309 -4.7685552 7
-0.094185002 4.5943599 -4.7792969 7
-0.084282003 4.5596919 -4.7626948 7
-0.085922003 4.5480962 -4.7783198 7
-0.084282003 4.5300288 -4.7841802 7
-0.247749 -4.489624 -5.1347661 7
-0.24435399 -4.4986572 -5.1142578 7
-0.23925801 -4.5046391 -5.0898442 7
-0.241028 -4.5230708 -5.0839839 7
-0.23593099 -4.5288091 -5.0595698 7
-0.23940299 -4.5506592 -5.0585942 7
-0.23602299 -4.5593262 -5.0380859 7
-0.242943 -4.5874019 -5.045898 7
-0.24128 -4.5994868 -5.030273 7
-0.244766 -4.6212158 -5.0283198 7
-0.23966999 -4.6265869 -5.0039058 7
-0.244881 -4.6514888 -5.0048828 7
-0.25525701 -4.6862788 -5.0214839 7
-0.257027 -4.704834 -5.014648 7
-0.253647 -4.713501 -4.9941411 7
-0.257126 -4.735229 -4.992188 7
-0.25029799 -4.737061 -4.9628911 7
-0.27098101 -4.7922359 -5.0048828 7
-0.26416799 -4.7939448 -4.9755859 7
-0.291473 -5.1115718 7.5058589 7
-0.28800201 -5.0900879 7.5097661 7
-0.29324299 -5.0863042 7.5341802 7
-0.29671499 -5.078979 7.554688 7
-0.29149601 -5.0535889 7.554688 7
-0.28279099 -5.0213618 7.5439448 7
-0.28280601 -5.0067139 7.5566411 7
-0.27934301 -4.9849849 7.5605469 7
-0.277603 -4.967041 7.5673828 7
-0.27587101 -4.9489751 7.5751948 7
-0.27585599 -4.9344478 7.5869141 7
-0.27587101 -4.9196782 7.5986328 7
-0.279358 -4.9119868 7.6191411 7
-0.28110501 -4.9007568 7.6347661 7
-0.274147 -4.872314 7.6298828 7
-0.28286701 -4.8746338 7.6630859 7
-0.27762601 -4.8494868 7.6601558 7
-0.28460699 -4.8485112 7.6894531 7
-0.28634599 -4.8369141 7.7060552 7
-0.277657 -4.80481 7.695312 7
-0.081153996 -1.9156491 8.4414062 7
-0.065467998 -1.885864 8.3964844 7
-0.068947002 -1.872192 8.4130859 7
-0.068924002 -1.8555911 8.4169922 7
-0.067169003 -1.837646 8.4160156 7
-0.063675001 -1.818359 8.4091797 7
-0.077583 -1.812866 8.4570312 7
-0.072350003 -1.7919919 8.4453115 7
-0.068847999 -1.772583 8.4384766 7
-0.068824999 -1.755981 8.4423828 7
-0.054892998 -1.728516 8.4023438 7
-0.058364999 -1.714722 8.4189453 7
-0.056609999 -1.696777 8.4169922 7
-0.053093001 -1.677368 8.4101562 7
-0.056572001 -1.663452 8.4248047 7
-0.051323 -1.643066 8.4121094 7
-0.06002 -1.632935 8.4433594 7
-0.054786999 -1.612305 8.4316406 7
-0.045279998 0.96227998 8.5390615 7
-0.048721001 0.980591 8.5478516 7
-0.048691001 0.99755901 8.546875 7
-0.041701999 1.01123 8.5214844 7
-0.039932001 1.027344 8.5136719 7
-0.041648999 1.044922 8.5166016 7
-0.039864 1.060913 8.5078115 7
-0.039856002 1.077637 8.5058594 7
-0.041556999 1.095337 8.5097656 7
-0.043265998 1.112915 8.5126953 7
-0.041496001 1.128906 8.5039062 7
-0.043205 1.146606 8.5068359 7
-0.046638001 1.165161 8.5146484 7
-0.058777001 1.188477 8.5517578 7
-0.051780999 1.20166 8.5263672 7
-0.046562001 1.215698 8.5068359 7
-0.051727001 1.235229 8.5205078 7
-0.048232999 1.250122 8.5078115 7
-0.056885 1.2718509 8.5322266 7
-0.133461 4.1635742 7.655273 7
-0.131676 4.1751709 7.641602 7
-0.13681 4.1994629 7.6455078 7
-0.138512 4.2171631 7.640625 7
-0.141922 4.2381592 7.639648 7
-0.141891 4.2528081 7.6298828 7
-0.138374 4.2611079 7.609375 7
-0.12793 4.2567139 7.5722661 7
-0.120949 4.2585449 7.5429692 7
-0.12265 4.2762451 7.5380859 7
-0.119133 4.2843022 7.5185552 7
-0.119095 4.298584 7.5087891 7
-0.119049 4.3129878 7.499023 7
-0.122482 4.3338618 7.499023 7
-0.122429 4.3483891 7.4882808 7
-0.118927 4.3562012 7.46875 7
-0.124077 4.3803711 7.4716802 7
-0.122314 4.3912349 7.4580078 7
-0.125717 4.4119868 7.4550781 7
-0.12912799 4.433105 7.454102 7
-0.137741 4.4638672 7.4667969 7
-0.13596299 4.474854 7.4511719 7
-0.086800002 4.7677002 -4.242188 7
-0.079963997 4.7398682 -4.2363281 7
-0.074844003 4.7156978 -4.235352 7
-0.076537997 4.705688 -4.25 7
-0.076522999 4.6920171 -4.2607422 7
-0.078208998 4.668457 -4.2880859 7
-0.073082 4.6306152 -4.296875 7
-0.076508 4.6239009 -4.3164058 7
-0.076491997 4.610229 -4.327148 7
-0.085045002 4.6138921 -4.360352 7
-0.097000003 4.6242681 -4.4013672 7
-0.095268004 4.5930181 -4.4199219 7
-0.095268004 4.565063 -4.4404302 7
-0.093543999 4.5474849 -4.4472661 7
-0.091835 4.530273 -4.453125 7
-0.079865001 4.4924321 -4.4335942 7
-0.0867 4.4919429 -4.4619141 7
-0.244507 -4.481689 -4.7724609 7
-0.24813101 -4.5029302 -4.7705078 7
-0.251724 -4.524292 -4.7695308 7
-0.24822199 -4.532227 -4.749023 7
-0.246498 -4.543335 -4.734375 7
-0.242989 -4.55127 -4.7138672 7
-0.24303401 -4.5656738 -4.703125 7
-0.24664301 -4.586792 -4.7011719 7
-0.25024399 -4.6079102 -4.6992192 7
-0.24673501 -4.6156011 -4.679688 7
-0.25033599 -4.6368408 -4.6777339 7
-0.24506401 -4.6409912 -4.6533198 7
-0.24334 -4.6517329 -4.6376948 7
-0.25227401 -4.683105 -4.648438 7
-0.248772 -4.6905522 -4.6289058 7
-0.261269 -4.7290039 -4.648438 7
-0.26666999 -4.75354 -4.6494141 7
-0.25426501 -4.7436519 -4.6074219 7
-0.25965101 -4.768311 -4.609375 7
-0.26326799 -4.7893071 -4.6064448 7
-0.259758 -4.7966309 -4.5869141 7
-0.34503201 -6.217773 -3.5019529 7
-0.35399601 -6.2513428 -3.503906 7
-0.35552999 -6.2668462 -3.4931641 7
-0.35380599 -6.2739258 -3.4746089 7
-0.352081 -6.2808838 -3.457031 7
-0.348564 -6.2835689 -3.4345701 7
-0.35218799 -6.303833 -3.4267581 7
-0.34867901 -6.306519 -3.405273 7
-0.343391 -6.304565 -3.3798831 7
-0.34345201 -6.3157959 -3.3652339 7
-0.33994299 -6.3181152 -3.3417971 7
-0.34712201 -6.34729 -3.3408201 7
-0.354294 -6.3762212 -3.339844 7
-0.35080701 -6.37854 -3.316406 7
-0.34549701 -6.3762212 -3.292969 7
-0.347343 -6.3917241 -3.280273 7
-0.28335601 -4.8000488 7.3613281 7
-0.083922997 -1.91333 8.1796885 7
-0.078506 -1.8927 8.1679688 7
-0.078498997 -1.876709 8.1728516 7
-0.083884999 -1.8651119 8.1933594 7
-0.085662998 -1.8505861 8.203125 7
-0.082047001 -1.831665 8.1962891 7
-0.080238 -1.814087 8.1953115 7
-0.089217998 -1.805176 8.2265615 7
-0.083809003 -1.784668 8.2148438 7
-0.089188002 -1.772705 8.2353516 7
-0.083786003 -1.752441 8.2236328 7
-0.071181998 -1.726685 8.1904297 7
-0.071167 -1.7105711 8.1943359 7
-0.067551002 -1.691772 8.1875 7
-0.072936997 -1.67981 8.2080078 7
-0.067528002 -1.65979 8.1962891 7
-0.067512996 -1.643677 8.2001953 7
-0.072890997 -1.63147 8.2197266 7
-0.069283001 -1.612915 8.2128906 7
-0.047042999 0.961182 8.2861328 7
-0.039825 0.97424299 8.2607422 7
-0.048781998 0.99450701 8.2861328 7
-0.055939 1.014038 8.3066406 7
-0.050514001 1.027832 8.2880859 7
-0.048698001 1.043335 8.2802734 7
-0.046859998 1.058594 8.2714844 7
-0.050415002 1.076538 8.2802734 7
-0.048576001 1.0919189 8.2714844 7
-0.043175001 1.1055911 8.2529297 7
-0.044952001 1.122681 8.2558594 7
-0.046707001 1.139771 8.2587891 7
-0.046684001 1.155762 8.2558594 7
-0.055610999 1.17688 8.2802734 7
-0.059195999 1.195068 8.2890615 7
-0.044792 1.203613 8.2421885 7
-0.057335 1.226562 8.2783203 7
-0.062683001 1.24585 8.2919922 7
-0.053672999 1.256958 8.2607422 7
-0.064429998 1.279297 8.2910156 7
-0.138283 4.1781011 7.3388672 7
-0.136452 4.1888428 7.3251948 7
-0.138199 4.2060552 7.320312 7
-0.143539 4.2298579 7.3242192 7
-0.14347801 4.2437739 7.313477 7
-0.159554 4.2871089 7.344727 7
-0.14518701 4.2749019 7.297852 7
-0.137978 4.2757568 7.2695308 7
-0.134369 4.2827148 7.250977 7
-0.127151 4.2833252 7.2226558 7
-0.125313 4.2935791 7.2070308 7
-0.12705199 4.310791 7.2011719 7
-0.123436 4.317627 7.1826172 7
-0.126984 4.3381348 7.1816411 7
-0.130501 4.358398 7.179688 7
-0.12687699 4.365356 7.1611328 7
-0.13042399 4.385498 7.1591802 7
-0.12677801 4.392334 7.139648 7
-0.128548 4.4094238 7.1347661 7
-0.13208801 4.429565 7.132812 7
-0.124878 4.429565 7.1054692 7
-0.135582 4.463501 7.1210942 7
-0.089096002 4.765625 -3.8964839 7
-0.078491002 4.7307129 -3.8818359 7
-0.078483999 4.7180181 -3.8925779 7
-0.080223002 4.696167 -3.9189451 7
-0.081992999 4.6868901 -3.9345701 7
-0.085525997 4.681396 -3.954102 7
-0.081969999 4.64856 -3.967773 7
-0.081963003 4.6356201 -3.9785161 7
-0.083724998 4.6263428 -3.9941411 7
-0.087242 4.6075439 -4.0244141 7
-0.099616997 4.619751 -4.0654302 7
-0.104935 4.617188 -4.0878911 7
-0.099593997 4.5802002 -4.0986328 7
-0.081909001 4.5317378 -4.0654302 7
-0.081894003 4.5185552 -4.0761719 7
-0.087188996 4.502686 -4.1113281 7
-0.087188996 4.4893799 -4.1210942 7
-0.090721004 4.4832759 -4.140625 7
-0.13987 4.1930079 10.444065 7
-0.30705801 -5.0111818 10.734554 7
-0.095655002 -1.711668 10.32007 7
-0.081015997 1.029138 10.344381 7
-0.276182 -4.9612169 9.6287909 7
-0.045338001 1.1330791 9.5321198 7
-0.110838 -1.711169 9.4246979 7
-0.32096201 -5.0802689 8.4916039 7
-0.32137099 -4.8817739 8.6924772 7
-0.091899 -1.757977 8.8667917 7
-0.077862002 1.018293 8.9773645 7
-0.080867 1.229009 8.9533787 7
-0.139174 4.2691712 7.630507 7
-0.119911 4.3228369 7.3781819 7
-0.26915199 -4.986876 7.4112248 7
-0.27681699 -4.869987 7.637507 7
-0.074661002 -1.790561 8.3857136 7
-0.054147001 1.108669 8.4745913 7
-0.117671 4.2857389 6.8125901 7
-0.231493 -4.8638568 6.5067129 7
-0.064489998 -1.825508 7.9956188 7
-0.052202001 -1.630613 7.9997592 7
-0.042328 1.023785 8.1367798 7
-0.037803002 1.187079 8.0686998 7
-0.092336997 -1.835925 7.6195679 7
-0.080767997 -1.65885 7.6364112 7
-0.058577999 1.086282 7.7281308 7
-0.063720003 1.248376 7.707211 7
-0.077703997 -1.845369 7.297863 7
-0.069063 -1.687378 7.3319769 7
-0.068570003 -1.859145 7.0263338 7
-0.066907004 -1.727872 7.0919638 7
-0.066546999 -1.883139 6.8025422 7
-0.058254 -1.745564 6.8453641 7
-0.083976999 -1.863495 6.5442648 7
-0.073441997 -1.732235 6.5828938 7
-0.062853999 -1.601102 6.6150131 7
-0.106807 -4.2924638 -12.651407 7
-0.233027 -4.3188658 -9.9789209 7
0.020424999 -1.374586 -6.8708348 7
-0.20477501 -4.346293 -8.0599041 7
0.015673 -1.338873 -5.8999839 7
-0.078506 -1.980153 12.100542 7
0.068884 -1.292558 -4.6047521 7
-0.18184499 -4.7474809 -5.297965 7
-0.29038599 -6.1180329 -5.3166208 7
-0.043253001 -1.870651 11.102044 7
-0.26275599 -4.7207241 -4.3600869 7
-0.34022701 -4.9084721 10.625836 7
-0.081086002 -1.774527 10.238909 7
-0.220457 -4.6126041 -3.4164951 7
-0.31175101 -4.8462372 9.824584 7
-0.052026998 -1.704097 9.5954475 7
-0.20711599 -4.5815082 -2.7464869 7
-0.28900599 -5.021163 8.9626799 7
-0.047483001 -1.900804 9.1096172 7
-0.033369001 -1.648793 9.0909958 7
-0.33474299 -4.9287591 8.3620119 7
-0.078514002 -1.824546 8.6156855 7
-0.339827 -5.1182089 7.767231 7
-0.311883 -4.8518629 7.8479319 7
-0.070423 -1.775263 8.2925606 7
-0.050662 -1.7228841 7.9475951 7
-0.302477 -5.0815601 6.7260809 7
-0.272888 -4.8486681 6.816268 7
-0.047003001 -1.86893 7.6553822 7
-0.035418998 -1.678344 7.6544719 7
0.018851001 -1.338828 -1.017236 7
0.0046740002 -1.521904 -1.044089 7
-0.071051002 -1.810531 7.360353 7
-0.061857998 -1.634039 7.3686662 7
-0.062973 -1.7703691 7.1548219 7
-0.009536 -1.303602 -0.57789701 7
-0.01589 -1.464345 -0.57244301 7
-0.05988 -1.890155 6.9375811 7
-0.052143998 -1.731455 6.955359 7
0.0052140001 -1.2871161 -0.36423999 7
-0.00716 -1.441509 -0.38212901 7
-0.022655001 -1.599627 -0.40440401 7
-0.040121 -1.839319 6.7241712 7
-0.027604001 -1.686465 6.723464 7
0.0038670001 -1.4194829 -0.19808 7
-0.013502 -1.57076 -0.22687399 7
0.013754 -1.399524 -0.031321999 7
-0.0039730002 -1.543802 -0.060950998 7
-0.052666001 -1.786869 6.5068269 7
-0.045781001 -1.612924 6.5328498 7
-0.113133 4.83464 -15.313756 7
