# .PCD v0.7 - Point Cloud Data file format
VERSION 0.7
FIELDS x y z intensity
SIZE 4 4 4 4
TYPE F F F F
COUNT 1 1 1 1
WIDTH 970
HEIGHT 1
VIEWPOINT 0 0 0 1 0 0 0
POINTS 970
DATA ascii
0.78105199 63.161133 34.037109 7
0.75591999 64.393555 34.480469 7
0.789612 62.974609 33.566895 7
0.736633 68.969727 29.351562 7
0.76245099 67.829102 28.705078 7
0.78370702 66.902344 28.151367 7
1.0921021 30.162109 -56.978027 7
0.68536401 59.824219 31.994141 7
0.72686797 58.255859 31.022461 7
0.76771498 58.460938 27.412598 7
0.76507598 58.650391 27.331543 7
0.79386902 57.616211 26.552734 7
0.64549297 64.948242 27.227051 7
0.69317597 63.095703 26.149902 7
0.70655799 62.607422 25.790039 7
0.60749799 55.009766 29.665527 7
0.63645899 54.081055 29.029297 7
0.58215302 56.063477 29.871582 7
0.67230201 54.833008 25.614258 7
0.64721698 55.963867 25.640625 7
0.66004902 55.568359 25.31543 7
0.67540002 55.080078 24.953125 7
0.68277001 54.882812 24.716797 7
0.69751 54.413086 24.367188 7
0.71769702 53.743164 23.937012 7
0.57263201 60.086914 24.287109 7
0.58116102 59.839844 24.032227 7
0.88494903 26.458984 -50.402832 7
0.56315601 50.994141 27.50293 7
0.58032203 50.527344 27.115234 7
0.62945598 49.051758 26.222168 7
0.58732599 52.060547 24.145508 7
0.62544298 50.883789 23.491699 7
0.61549401 51.275391 23.51709 7
0.647156 50.303711 22.959961 7
0.59233099 52.424805 23.138184 7
0.60376 52.112305 22.866211 7
0.61665303 51.750977 22.575684 7
0.815521 27.422852 -45.436523 7
0.819489 27.233398 -45.364258 7
0.52682501 46.938477 25.132324 7
0.547333 46.422852 24.736816 7
0.57652301 47.134766 21.717773 7
0.597076 46.59082 21.35498 7
0.59396398 46.740234 21.288574 7
0.55691499 48.461914 20.552246 7
0.56388903 48.311523 20.361816 7
0.577057 47.972656 20.099609 7
0.58254999 47.864258 19.928223 7
0.60102803 47.366211 19.608398 7
0.43135101 44.583008 23.955566 7
0.48390201 43.305664 23.185547 7
0.49945101 42.96875 22.890625 7
0.49114999 44.605469 20.518066 7
0.52909899 43.660156 19.993652 7
0.52290303 43.875977 19.963379 7
0.53979498 43.481445 19.677246 7
0.50526398 45.21582 18.430664 7
0.51843297 44.90918 18.195312 7
0.52589399 44.756836 18.019043 7
0.53092998 44.668945 17.867188 7
0.54510498 44.333008 17.625977 7
0.42770401 40.244141 21.52002 7
0.437408 40.075195 21.318359 7
0.450302 41.111328 18.786621 7
0.48040801 40.444336 18.394531 7
0.46119699 40.949219 18.492188 7
0.48948699 40.324219 18.121582 7
0.48184201 40.552734 18.104492 7
0.483078 40.570312 18 7
0.449081 42.243164 16.515625 7
0.45710799 42.09082 16.350098 7
0.46876499 41.849609 16.153809 7
0.47090101 41.839844 16.040039 7
0.47958401 41.668945 15.871094 7
0.48849499 41.492188 15.700684 7
0.38555899 44.918945 14.314941 7
0.396027 44.695312 14.137695 7
0.40739399 44.447266 13.95459 7
0.42629999 44.049805 13.620117 7
0.33026099 38.735352 20.676758 7
0.36268601 38.109375 20.255371 7
0.42022699 38.250977 17.182129 7
0.42202801 38.254883 17.078613 7
0.43305999 38.058594 16.894531 7
0.44233701 37.898438 16.726074 7
0.45163 37.739258 16.558594 7
0.45840499 37.632812 16.413574 7
0.41685501 39.50293 14.625977 7
0.42636099 39.328125 14.465332 7
0.430374 39.275391 14.345703 7
0.43640101 39.177734 14.211426 7
0.45034799 38.900391 14.020508 7
0.342621 42.109375 12.681641 7
0.35827601 41.785156 12.490723 7
0.36402899 41.685547 12.359863 7
0.369766 41.585938 12.229492 7
0.383423 41.304688 12.053223 7
0.391891 41.141602 11.90918 7
0.39787301 41.036133 11.779297 7
0.47508201 18.770508 -37.038574 7
0.36927801 37.077148 13.313965 7
0.37556499 36.983398 13.188477 7
0.38867199 36.749023 13.019531 7
0.38838199 36.786133 12.936523 7
0.393585 36.712891 12.818848 7
0.405853 36.493164 12.656738 7
0.414581 36.345703 12.518555 7
0.31144699 39.207031 11.003906 7
0.312271 39.217773 10.90918 7
0.32045001 39.075195 10.777832 7
0.33430499 38.8125 10.619141 7
0.34353599 38.643555 10.483398 7
0.34896901 38.557617 10.367676 7
0.348984 38.583008 10.27832 7
-1.226562 -52.236328 -40.4375 7
-1.265182 -52.920898 -40.779297 7
-1.231339 -52.493164 -40.237305 7
-1.368729 -54.699219 -41.772949 7
-1.352173 -54.538086 -41.437988 7
-1.388458 -55.193359 -41.740234 7
-1.461151 -56.412109 -42.477539 7
-1.5246119 -57.491211 -43.097656 7
-1.290421 -57.081055 -35.119141 7
-1.307526 -57.518555 -35.01709 7
0.36045799 34.726562 11.789551 7
0.36836201 34.604492 11.665039 7
0.37628201 34.482422 11.541504 7
0.38537601 34.338867 11.411621 7
0.37768599 34.512695 11.374023 7
0.27362099 37.160156 9.8916016 7
0.26568601 37.338867 9.8398438 7
0.27476501 37.1875 9.7143555 7
0.28060901 37.098633 9.6035156 7
0.29495201 36.842773 9.4570312 7
0.30284101 36.712891 9.3388672 7
0.307495 36.644531 9.2338867 7
-1.113525 -45.249023 -36.987305 7
-1.143188 -45.742188 -37.219238 7
-1.178726 -46.317383 -37.516113 7
-1.213287 -46.879883 -37.799805 7
-1.245895 -47.416992 -38.058105 7
-1.27916 -47.964844 -38.321777 7
-1.328812 -48.830078 -38.648926 7
-1.36113 -49.369141 -38.895508 7
-0.873932 -43.482422 -32.105469 7
-0.92321801 -44.333008 -32.42627 7
-0.95556599 -44.869141 -32.666992 7
-0.98269701 -45.333008 -32.849121 7
-1.0062259 -45.745117 -32.990723 7
-1.047058 -46.407227 -33.315918 7
-0.92494202 -45.015625 -31.458984 7
-0.97171003 -45.837891 -31.727539 7
-1.111145 -49.663086 -30.206543 7
-1.126923 -49.969727 -30.235352 7
0.33201599 32.381836 10.667969 7
0.341919 32.233398 10.544434 7
0.354065 32.047852 10.411133 7
0.35719299 32.017578 10.321289 7
0.35968 31.998047 10.234863 7
0.36602801 31.911133 10.130859 7
0.37397799 31.795898 10.019531 7
0.263962 34.375 8.3193359 7
0.261978 34.430664 8.2460938 7
0.27055401 34.297852 8.1367188 7
0.284821 34.082031 7.9291992 7
0.299072 33.864258 7.723145 7
-0.93832397 -38.651367 -33.505859 7
-0.97515899 -39.18457 -33.819336 7
-1.001129 -39.586914 -34.010742 7
-1.029205 -40.015625 -34.223633 7
-1.058334 -40.458984 -34.445801 7
-1.0843199 -40.863281 -34.631836 7
-1.112045 -41.291016 -34.835449 7
-1.149994 -41.84668 -35.147949 7
-0.81042498 -38.72168 -29.937988 7
-0.82025099 -38.918945 -29.945801 7
-0.84416199 -39.298828 -30.098145 7
-0.86383098 -39.624023 -30.20459 7
-0.88705403 -39.996094 -30.346191 7
-0.80471802 -39.921875 -28.050781 7
-0.82725501 -40.288086 -28.173828 7
-1.043793 -45.037109 -27.279297 7
-1.0593719 -45.316406 -27.307129 7
-1.328598 -30.023438 47.998535 7
0.31395 30.418945 9.503418 7
0.33650199 30.118164 9.1972656 7
0.33812001 30.113281 9.1206055 7
0.34320101 30.050781 9.0297852 7
0.34966999 29.966797 8.934082 7
0.237579 32.391602 7.1435552 7
0.24461401 32.307617 6.9726558 7
0.253479 32.175781 6.8730469 7
0.25785801 32.120117 6.7861328 7
0.26466399 32.021484 6.6928711 7
0.27008101 31.947266 6.6030269 7
0.26222199 32.109375 6.4736328 7
-0.83125299 -33.322266 -30.757812 7
-0.85670501 -33.675781 -30.944824 7
-0.86615002 -33.853516 -30.961914 7
-0.891617 -34.208984 -31.147461 7
-0.91288799 -34.519531 -31.286621 7
-0.944839 -34.949219 -31.536621 7
-0.96614099 -35.261719 -31.673828 7
-0.99276698 -35.634766 -31.864258 7
-1.019012 -36.004883 -32.050293 7
-1.051361 -36.444336 -32.297363 7
-1.0681 -36.708984 -32.380859 7
-1.085968 -36.987305 -32.474609 7
-0.71199 -33.675781 -27.474121 7
-0.71992499 -33.833008 -27.470215 7
-0.72251898 -33.927734 -27.413086 7
-0.75108302 -34.324219 -27.61084 7
-0.77545202 -34.674805 -27.765137 7
-0.789505 -34.904297 -27.817871 7
-0.82879603 -35.432617 -28.116211 7
-0.72747803 -35.588867 -25.250488 7
-0.78294402 -36.325195 -25.666504 7
-0.75067103 -35.989258 -25.286133 7
-0.817276 -36.867188 -25.799316 7
-0.77159101 -36.364258 -25.29834 7
-0.90573102 -39.597656 -23.954102 7
-0.93373102 -40.012695 -24.086426 7
-0.94444299 -40.206055 -24.075684 7
-1.127472 -26.404297 41.769531 7
-1.170807 -26.65332 42.359863 7
0.299835 28.34375 8.2407227 7
0.30610701 28.269531 8.1533203 7
0.31008899 28.227539 8.0737305 7
0.32107499 28.099609 7.9042969 7
0.32392901 28.074219 7.829102 7
0.21926901 30.216797 5.7373052 7
0.22438 30.151367 5.65625 7
0.230225 30.074219 5.5732422 7
0.237213 29.980469 5.4892578 7
0.24079899 29.935547 5.4116211 7
0.239502 29.967773 5.3442378 7
-0.77911401 -29.960938 -28.937988 7
-0.95765698 -32.270508 -30.207031 7
-0.97464001 -32.517578 -30.297852 7
-0.99528497 -32.801758 -30.424316 7
-0.65003997 -32.206055 -23.219238 7
-0.68754601 -32.688477 -23.464355 7
-0.722565 -33.142578 -23.685059 7
-0.69871497 -32.926758 -23.400391 7
-0.85150099 -36.421875 -21.943359 7
0.267349 27.05957 7.6152339 7
0.27078199 27.02832 7.5415039 7
0.27964801 26.9375 7.3876948 7
0.286697 26.852539 7.3037109 7
0.292557 26.787109 7.2236328 7
0.29798901 26.725586 7.1445308 7
0.17770401 28.952148 5.0205078 7
0.181107 28.913086 4.9467769 7
0.18855301 28.817383 4.8666992 7
0.195572 28.726562 4.7875981 7
0.2034 28.623047 4.7080078 7
0.207626 28.573242 4.6342769 7
0.204605 28.625977 4.5717769 7
0.194763 28.77832 4.5195308 7
-0.68685901 -26.086914 -26.694824 7
-0.71208203 -26.379883 -26.875488 7
-0.72679102 -26.579102 -26.953613 7
-0.75027502 -26.858398 -27.115723 7
-0.75579798 -26.973633 -27.102539 7
-0.78410298 -27.298828 -27.308594 7
-0.59117103 -28.951172 -21.38623 7
-0.624008 -29.34668 -21.583008 7
-0.61148101 -29.266602 -21.410156 7
-0.62670898 -29.477539 -21.461914 7
-0.659576 -29.874023 -21.655273 7
-0.79452503 -33.016602 -20.088867 7
-0.80758703 -33.208984 -20.102539 7
-0.828201 -33.484375 -20.167969 7
0.234879 24.746094 9.5834961 7
0.248184 24.59668 9.4707031 7
0.25492901 24.532227 9.3862305 7
0.26298499 24.450195 9.296875 7
0.27691701 24.31543 9.128418 7
0.26547199 25.270508 6.4501948 7
0.26888999 25.25293 6.32373 7
0.27340701 25.207031 6.253418 7
0.27533001 25.194336 6.1899409 7
0.135681 11.456055 -24.31543 7
0.146194 11.336914 -24.208984 7
0.144897 11.283203 -24.250977 7
-0.66059899 -23.56543 -25.23291 7
-0.66644299 -23.674805 -25.229004 7
-0.67883301 -23.838867 -25.285645 7
-0.753479 -24.523438 -25.917969 7
-0.70245397 -24.21875 -25.327148 7
-0.55204803 -26.395508 -20.013672 7
-0.55555701 -26.478516 -19.977051 7
-0.57132 -26.678711 -20.034668 7
-0.57154799 -26.729492 -19.97168 7
-0.57225001 -26.783203 -19.911621 7
-0.75303602 -30.397461 -18.513672 7
-0.78115797 -30.733398 -18.628906 7
-0.80265802 -31 -18.697754 7
0.21017499 23.503906 8.956543 7
0.21314999 23.488281 8.890625 7
0.218933 23.438477 8.8144531 7
0.227051 23.360352 8.7294922 7
0.24583399 23.969727 5.6933589 7
0.244141 24.00293 5.640625 7
0.247574 23.97168 5.577148 7
0.249603 23.958984 5.5170898 7
0.246048 24.013672 5.467773 7
0.138275 25.729492 3.171387 7
0.143997 25.663086 3.1064451 7
0.15064999 25.585938 3.0415039 7
0.15593 25.525391 2.9780271 7
0.15239 25.575195 2.9204099 7
-0.58123797 -20.344727 -23.549805 7
-0.575409 -20.358398 -23.447266 7
-0.58868402 -20.513672 -23.516113 7
-0.61051899 -20.732422 -23.660645 7
-0.64863598 -21.130859 -23.896484 7
-0.46958899 -23.375977 -18.501465 7
-0.47486901 -23.467773 -18.483887 7
-0.463135 -23.453125 -18.282715 7
-0.50498998 -23.913086 -18.475586 7
-0.50843799 -24.033203 -18.384277 7
-0.53088403 -24.279297 -18.489746 7
-0.524216 -24.308594 -18.323242 7
-0.68592799 -27.55957 -16.844238 7
-0.70542902 -27.788086 -16.899902 7
-0.73203999 -28.084961 -16.999512 7
-0.78121901 -18.771484 28.526855 7
0.116348 21.789062 11.342773 7
0.119537 21.780273 11.277344 7
0.196945 22.105469 8.1601562 7
0.219543 21.905273 7.9321289 7
0.22521999 21.858398 7.862793 7
0.227386 21.850586 7.8051758 7
0.233078 21.803711 7.7358398 7
0.22471599 21.914062 7.7114258 7
0.221146 22.644531 5.0131841 7
0.224792 22.612305 4.954102 7
0.225967 22.608398 4.8994141 7
0.118942 24.196289 2.206543 7
0.123077 24.150391 2.147949 7
0.126724 24.111328 2.0908201 7
0.130859 24.06543 2.0327151 7
0.134491 24.026367 1.9755861 7
0.123718 24.155273 1.920898 7
-0.430466 -19.404297 -19.342773 7
-0.419357 -19.368164 -19.20752 7
-0.425446 -19.460938 -19.208496 7
-0.43695101 -19.59375 -19.250977 7
-0.445755 -19.706055 -19.271973 7
-0.44361901 -21.516602 -17.196289 7
-0.458038 -21.719727 -17.192383 7
-0.477676 -21.923828 -17.275879 7
-0.46922299 -21.896484 -17.164551 7
-0.47534201 -21.988281 -17.15332 7
-0.50686598 -22.291992 -17.318359 7
-0.51136798 -22.371094 -17.294922 7
-0.68177801 -25.700195 -15.711914 7
-0.69282502 -25.836914 -15.714844 7
0.18446399 20.84082 7.6245122 7
0.186768 20.832031 7.5688481 7
0.18103001 20.90918 7.5380859 7
0.17851301 20.951172 7.4970698 7
0.187241 20.875 7.4223628 7
0.19278 20.832031 7.3579102 7
0.19828799 20.789062 7.29248 7
0.202209 20.763672 7.2329102 7
0.20665 20.732422 7.171875 7
0.208405 20.728516 7.1186519 7
0.19688401 21.484375 4.4775391 7
0.193817 21.526367 4.4316411 7
0.19824199 21.486328 4.375 7
0.20694 21.400391 4.3125 7
0.206558 21.413086 4.2626948 7
0.204559 21.441406 4.215332 7
0.205246 21.442383 4.164062 7
0.093520999 22.90918 1.58252 7
0.092606001 22.920898 1.52832 7
0.096481003 22.878906 1.474609 7
0.098220997 22.861328 1.420898 7
0.101547 22.826172 1.366699 7
0.1017 22.826172 1.313477 7
-0.52290303 -16.173828 -21.027832 7
-0.52821398 -16.256836 -21.03125 7
-0.539276 -16.375977 -21.08252 7
-0.55319202 -16.510742 -21.155762 7
-0.564255 -16.629883 -21.205566 7
-0.57415801 -16.740234 -21.245605 7
-0.57891798 -16.821289 -21.243164 7
-0.58082598 -16.885742 -21.217773 7
-0.57525599 -16.90332 -21.130859 7
-0.38407901 -17.401367 -18.118652 7
-0.386536 -17.462891 -18.094238 7
-0.39303601 -17.551758 -18.100586 7
-0.38586399 -19.439453 -15.975586 7
-0.39352399 -19.536133 -15.979492 7
-0.40983599 -19.700195 -16.041504 7
-0.427277 -19.87207 -16.109375 7
-0.416504 -19.829102 -15.989746 7
-0.42073101 -19.901367 -15.969727 7
-0.438187 -20.074219 -16.036621 7
-0.62521398 -23.388672 -14.661621 7
-0.62945598 -23.459961 -14.629395 7
-0.62039202 -23.419922 -14.521484 7
-0.62750202 -23.515625 -14.504883 7
-0.63694799 -23.629883 -14.500977 7
-0.73146099 -25.298828 -13.532227 7
-0.73223901 -25.338867 -13.475586 7
0.18808 19.645508 6.6704102 7
0.19281 19.613281 6.6123052 7
0.19824199 19.585938 6.5068359 7
0.202393 19.558594 6.4511719 7
0.196823 19.626953 6.4194341 7
0.179703 20.353516 3.829102 7
0.178131 20.376953 3.7832029 7
0.186813 20.294922 3.7255859 7
0.18923999 20.277344 3.675781 7
0.189392 20.282227 3.628418 7
0.184387 20.339844 3.585938 7
0.188522 20.303711 3.5341799 7
0.072067 21.663086 0.91015601 7
0.068236999 21.702148 0.85790998 7
0.071213 21.670898 0.80761701 7
0.077010997 21.610352 0.758789 7
0.081130996 21.568359 0.70947301 7
0.086379997 21.513672 0.66113299 7
-0.483017 -14.206055 -19.972168 7
-0.48257399 -14.251953 -19.933594 7
-0.37049901 -15.862305 -17.268555 7
-0.362122 -15.853516 -17.169434 7
-0.357391 -15.866211 -17.09668 7
-0.36547899 -15.959961 -17.116211 7
-0.38269001 -16.108398 -17.200195 7
-0.39747599 -16.243164 -17.26709 7
-0.38026401 -16.262695 -17.024902 7
-0.37362701 -17.936523 -15.188965 7
-0.36645499 -17.924805 -15.099121 7
-0.38496399 -18.092773 -15.174805 7
-0.39857501 -18.225586 -15.217773 7
-0.41403201 -18.373047 -15.271973 7
-0.39827001 -18.297852 -15.126953 7
-0.408218 -18.40625 -15.145508 7
-0.59521502 -21.771484 -13.566406 7
-0.610107 -21.921875 -13.593262 7
-0.61764503 -22.015625 -13.580566 7
-0.70440698 -23.617188 -12.479492 7
-0.607544 -15.157227 22.225586 7
0.058867998 18.573242 9.5869141 7
0.062683001 18.560547 9.5292969 7
0.062835999 18.579102 9.4858398 7
0.15635701 18.799805 6.3652339 7
0.144333 18.923828 6.3496089 7
0.145081 18.929688 6.3037109 7
0.15312199 18.867188 6.2412109 7
0.16177399 18.799805 6.1772461 7
0.166153 18.769531 6.1230469 7
0.16301 19.370117 3.1772461 7
0.1595 19.408203 3.1342771 7
0.15419 19.464844 3.092773 7
0.16037001 19.40918 3.04248 7
0.164139 19.37793 2.9941411 7
0.16789199 19.34668 2.9462891 7
0.16441301 19.385742 2.9033201 7
0.037551999 20.689453 0.31542999 7
0.040695 20.657227 0.26855499 7
0.041428 20.648438 0.22021499 7
0.042769998 20.633789 0.172363 7
0.048324998 20.578125 0.12793 7
0.053268 20.52832 0.082520001 7
0.058228001 20.478516 0.038086001 7
-0.523224 -13.220703 -19.211914 7
-0.52661097 -13.28418 -19.20459 7
-0.31871 -14.120117 -16.212402 7
-0.32012901 -14.167969 -16.187988 7
-0.32157901 -14.217773 -16.163574 7
-0.33013901 -14.305664 -16.187988 7
-0.339371 -14.398438 -16.216797 7
-0.32652301 -16.336914 -14.147461 7
-0.33967599 -16.458984 -14.188477 7
-0.35347 -16.584961 -14.232422 7
-0.35556 -16.633789 -14.205078 7
-0.34857199 -16.623047 -14.122559 7
-0.35781899 -16.71875 -14.137695 7
-0.37812799 -16.887695 -14.220215 7
-0.56390399 -20.171875 -12.609375 7
-0.57253999 -20.266602 -12.604492 7
-0.58444202 -20.385742 -12.615723 7
-0.59243798 -20.476562 -12.606445 7
-0.58348101 -20.442383 -12.512695 7
-0.661789 -21.845703 -11.510254 7
-0.66653401 -21.911133 -11.479004 7
-0.67912298 -22.035156 -11.481934 7
0.142075 17.874023 5.7558589 7
0.141571 17.889648 5.715332 7
0.147507 17.848633 5.6611328 7
0.156693 17.77832 5.6010742 7
0.162003 17.742188 5.5488281 7
0.16406199 17.734375 5.5029302 7
0.167419 17.714844 5.4550781 7
0.027191 19.47168 -0.36377001 7
0.027313 19.466797 -0.409668 7
0.029358 19.444336 -0.45361301 7
0.031387001 19.421875 -0.49755901 7
0.03537 19.383789 -0.53906202 7
0.040619001 19.332031 -0.57910198 7
0.040084999 19.333008 -0.62548798 7
-0.428711 -10.845703 -18.169434 7
-0.4104 -10.814453 -18.006836 7
-0.40644801 -10.84375 -17.950684 7
-0.41340601 -10.916992 -17.975586 7
-0.414215 -10.964844 -17.954102 7
-0.43756101 -11.110352 -18.100098 7
-0.31678799 -12.819336 -15.654785 7
-0.30129999 -12.817383 -15.487305 7
-0.28704801 -12.783203 -15.359863 7
-0.28993201 -12.835938 -15.348145 7
-0.30169699 -12.935547 -15.395508 7
-0.31211901 -13.029297 -15.433594 7
-0.317734 -13.097656 -15.439453 7
-0.33088699 -13.205078 -15.495117 7
-0.33512899 -13.266602 -15.491211 7
-0.28910801 -14.900391 -13.414062 7
-0.30793801 -15.082031 -13.452637 7
-0.32043499 -15.191406 -13.489746 7
-0.32400501 -15.248047 -13.474121 7
-0.32771301 -15.337891 -13.421875 7
-0.34091201 -15.452148 -13.460938 7
-0.35961899 -15.601562 -13.532715 7
-0.35495001 -15.607422 -13.467773 7
-0.54957598 -18.931641 -11.830566 7
-0.55799901 -19.019531 -11.825195 7
-0.56987 -19.131836 -11.835938 7
-0.56657398 -19.138672 -11.774414 7
-0.57017499 -19.192383 -11.745117 7
-0.64239502 -20.53125 -10.683594 7
-0.66951001 -20.754883 -10.749023 7
-0.66137701 -20.723633 -10.665039 7
0.141708 17 5.10498 7
0.14591999 16.974609 5.0576172 7
0.156296 16.896484 5.0004878 7
0.160522 16.870117 4.9536128 7
0.160065 16.891602 4.8745122 7
0.160202 16.899414 4.8349609 7
0.15690599 16.935547 4.80127 7
0.13073701 17.540039 1.909668 7
0.14038099 17.459961 1.8662111 7
0.146622 17.408203 1.824707 7
-0.424667 -9.7470703 -17.310059 7
-0.42767301 -9.8007812 -17.307617 7
-0.429977 -9.8535156 -17.299316 7
-0.43081701 -9.8994141 -17.28125 7
-0.26892099 -11.461914 -14.70459 7
-0.25744599 -11.445312 -14.602539 7
-0.258286 -11.486328 -14.580078 7
-0.26857001 -11.571289 -14.618164 7
-0.27594 -11.642578 -14.637207 7
-0.27969399 -11.697266 -14.633301 7
-0.288528 -11.777344 -14.661621 7
-0.28863499 -11.814453 -14.633301 7
-0.28440899 -11.831055 -14.577637 7
-0.26857001 -11.791016 -14.447266 7
-0.27474999 -13.788086 -12.706543 7
-0.28576699 -13.882812 -12.735352 7
-0.291733 -13.949219 -12.735352 7
-0.28022799 -13.916992 -12.636719 7
-0.282516 -13.959961 -12.615234 7
-0.293549 -14.054688 -12.643555 7
-0.60733002 -19.115234 -9.9155273 7
-0.60748303 -19.142578 -9.8706055 7
0.123062 16.21582 4.7709961 7
0.12825 16.183594 4.7250981 7
0.13560501 16.134766 4.67627 7
0.13934299 16.113281 4.6333008 7
0.14236499 16.097656 4.590332 7
0.14465301 16.087891 4.5498052 7
0.15126 16.042969 4.5019531 7
0.15789799 15.998047 4.4550781 7
0.120178 16.634766 1.567871 7
0.116684 16.664062 1.52832 7
0.11824 16.65332 1.489746 7
0.11908 16.646484 1.450684 7
0.12207 16.623047 1.4111331 7
0.122894 16.616211 1.372559 7
0.121552 16.62793 1.3330081 7
0.115189 16.679688 1.293457 7
-0.003296 17.411133 -1.616699 7
0.001114 17.369141 -1.6513669 7
0.0040890002 17.338867 -1.6875 7
0.00563 17.319336 -1.726074 7
0.011475 17.266602 -1.757812 7
0.013 17.24707 -1.796387 7
0.015976001 17.216797 -1.832031 7
0.011765 17.243164 -1.879395 7
-0.33102399 -7.710938 -16.258789 7
-0.33036801 -7.749023 -16.234863 7
-0.33058199 -7.8320308 -16.197754 7
-0.33602899 -7.890625 -16.21582 7
-0.34529099 -7.9599609 -16.260742 7
-0.244415 -10.268555 -14.016113 7
-0.238388 -10.277344 -13.953125 7
-0.236221 -10.302734 -13.914062 7
-0.242447 -10.365234 -13.927734 7
-0.248688 -10.427734 -13.941406 7
-0.25721699 -10.5 -13.969238 7
-0.26269501 -10.55957 -13.977539 7
-0.24597199 -12.545898 -12.129883 7
-0.244553 -12.569336 -12.091309 7
-0.24852 -12.621094 -12.08252 7
-0.254013 -12.680664 -12.08252 7
-0.26335099 -12.760742 -12.102539 7
-0.276535 -12.860352 -12.143555 7
-0.27742001 -12.895508 -12.116699 7
-0.26907301 -12.881836 -12.040039 7
-0.27304101 -12.93457 -12.030762 7
-0.28622401 -13.03418 -12.070312 7
-0.48203999 -16.322266 -10.369141 7
-0.48602301 -16.373047 -10.34668 7
-0.49772599 -16.469727 -10.35791 7
-0.50482202 -16.541016 -10.349609 7
-0.494919 -16.505859 -10.266602 7
-0.50276202 -16.581055 -10.260742 7
-0.57107502 -17.795898 -9.2578115 7
-0.577393 -17.860352 -9.2392578 7
-0.44726601 -12.116211 16.494629 7
-0.43072501 -12.004883 16.427734 7
-0.43074 -11.96875 16.456543 7
-0.43864399 -11.969727 16.530762 7
-0.44889799 -11.979492 16.618164 7
-0.43634 -11.850586 16.601562 7
-0.38726801 -9.2109385 17.925781 7
-0.39199799 -9.1503906 17.999512 7
-0.38490301 -9.0859385 17.975586 7
-0.38726801 -9.0546885 18.012207 7
-0.39199799 -9.0332031 18.064453 7
-0.39672899 -9.0097656 18.116211 7
-0.39120501 -8.9511719 18.102051 7
-0.39592001 -8.9287109 18.153809 7
0.117935 15.398438 4.4604492 7
0.119568 15.393555 4.421875 7
0.121979 15.383789 4.382812 7
0.112137 15.464844 4.360352 7
0.113785 15.459961 4.3217769 7
0.119247 15.426758 4.2783198 7
0.127777 15.370117 4.2314448 7
0.131714 15.347656 4.1904302 7
0.13410901 15.335938 4.1508789 7
0.134216 15.341797 4.1147461 7
0.134323 15.347656 4.079102 7
0.13902301 15.319336 4.0371089 7
0.14218099 15.302734 3.9975591 7
0.137711 15.342773 3.9667971 7
0.102066 15.863281 1.271973 7
0.103683 15.850586 1.234863 7
0.106079 15.833008 1.197754 7
0.110748 15.795898 1.161621 7
0.113129 15.777344 1.124512 7
0.115524 15.759766 1.087891 7
0.113327 15.775391 1.050293 7
0.110397 15.797852 1.012695 7
0.112015 15.78418 0.975586 7
-0.0067599998 16.329102 -2.2587891 7
-0.004379 16.302734 -2.293457 7
-0.001175 16.261719 -2.3652339 7
-0.002594 16.263672 -2.405762 7
-0.0031590001 16.250977 -2.483398 7
-0.0068509998 16.269531 -2.5288091 7
-0.224747 -9.0878906 -13.429688 7
-0.22079501 -9.1064453 -13.383301 7
-0.216858 -9.1259766 -13.337402 7
-0.209793 -9.1669922 -13.249512 7
-0.212311 -9.2099609 -13.242188 7
-0.214844 -9.2539062 -13.234863 7
-0.22466999 -9.3261719 -13.271484 7
-0.234467 -9.3984385 -13.307617 7
-0.236191 -9.4384766 -13.294434 7
-0.23558 -9.5029297 -13.244141 7
-0.22759999 -9.5058594 -13.173828 7
-0.214462 -11.529297 -11.404785 7
-0.225113 -11.609375 -11.433105 7
-0.230087 -11.663086 -11.431152 7
-0.2229 -11.658203 -11.365234 7
-0.21894801 -11.667969 -11.316406 7
-0.228806 -11.745117 -11.339355 7
-0.239471 -11.827148 -11.366211 7
-0.44551101 -15.123047 -9.7294922 7
-0.44972199 -15.171875 -9.7104492 7
-0.457993 -15.245117 -9.7084961 7
-0.469513 -15.337891 -9.7197266 7
-0.459869 -15.306641 -9.6430664 7
-0.53865099 -16.630859 -8.5668945 7
-0.54449499 -16.689453 -8.5483398 7
-0.54215997 -16.697266 -8.5 7
-0.55209398 -16.780273 -8.4951172 7
-0.56691003 -16.894531 -8.5073242 7
-0.56950402 -16.932617 -8.4760742 7
-0.565552 -16.929688 -8.4213867 7
-0.397003 -11.28125 15.38916 7
-0.411163 -11.308594 15.493164 7
-0.408676 -11.264648 15.506836 7
-0.35441601 -8.3867188 16.965332 7
-0.35357699 -8.3466797 16.97998 7
0.120422 14.628906 3.8125 7
0.121338 14.629883 3.777832 7
0.12628201 14.598633 3.7373049 7
0.128006 14.592773 3.7016599 7
0.12973 14.586914 3.6655271 7
0.133057 14.568359 3.6279299 7
0.135574 14.555664 3.5913091 7
0.12840299 14.612305 3.5639651 7
0.12609901 14.635742 3.5327151 7
0.106155 14.944336 0.61279303 7
0.103027 14.964844 0.57617199 7
0.103119 14.961914 0.54052699 7
0.103226 14.959961 0.50585902 7
0.103317 14.957031 0.47021499 7
0.104202 14.949219 0.43554699 7
0.105103 14.94043 0.400879 7
0.102768 14.955078 0.36425799 7
0.100464 14.969727 0.32861301 7
-0.20521501 -8.2988281 -12.74707 7
-0.206177 -8.3349609 -12.732422 7
-0.21051 -8.3818359 -12.737305 7
-0.21571399 -8.4335938 -12.74707 7
-0.22174101 -8.4863281 -12.760742 7
-0.22949199 -8.546875 -12.785156 7
-0.229599 -8.5800781 -12.765137 7
-0.21778899 -8.5703115 -12.675781 7
-0.210251 -8.5761719 -12.61084 7
-0.206085 -8.5927734 -12.565918 7
-0.203629 -8.6162109 -12.530762 7
-0.194061 -10.581055 -10.929688 7
-0.195007 -10.612305 -10.908203 7
-0.20193499 -10.671875 -10.917969 7
-0.20715301 -10.723633 -10.918457 7
-0.214935 -10.787109 -10.932129 7
-0.221848 -10.84668 -10.941406 7
-0.210876 -10.825195 -10.858887 7
-0.21269201 -10.861328 -10.841797 7
-0.23944101 -11.068359 -10.896973 7
-0.42364499 -14.128906 -9.2670898 7
-0.42387399 -14.176758 -9.199707 7
-0.42753601 -14.245117 -9.1459961 7
-0.43107599 -14.289062 -9.1259766 7
-0.43804899 -14.351562 -9.1196289 7
-0.51300001 -15.65332 -7.9912109 7
-0.51655602 -15.695312 -7.9663091 7
-0.52095002 -15.742188 -7.9433589 7
-0.530518 -15.819336 -7.9379878 7
-0.53921503 -15.891602 -7.929688 7
-0.54620397 -15.953125 -7.9155269 7
-0.54804999 -15.984375 -7.882812 7
-0.32167101 -7.9492192 15.97998 7
-0.326904 -7.9306641 16.029785 7
-0.32864401 -7.9013672 16.059082 7
-0.33474699 -7.8857422 16.113281 7
-0.33126801 -7.8408198 16.111328 7
-0.33300799 -7.811523 16.140625 7
-0.33300799 -7.7773442 16.15918 7
-0.340866 -7.766602 16.223633 7
-0.34260601 -7.7373052 16.251953 7
-0.34349099 -7.7050781 16.275391 7
0.11171 13.999023 3.4545901 7
0.114456 13.991211 3.386719 7
0.117111 13.977539 3.351562 7
0.12146 13.953125 3.3149409 7
0.127579 13.920898 3.2441411 7
0.094345003 14.251953 0.29443401 7
0.097824 14.226562 0.26318401 7
0.099593997 14.211914 0.230469 7
0.099685997 14.208984 0.197266 7
0.096390001 14.228516 0.161621 7
0.095627002 14.231445 0.12793 7
0.094879001 14.233398 0.09375 7
0.096663997 14.21875 0.061523002 7
0.097594999 14.208984 0.028809 7
-0.182648 -7.3779302 -12.186035 7
-0.189896 -7.4326172 -12.208984 7
-0.19355799 -7.4755859 -12.211426 7
-0.199982 -7.5595698 -12.210938 7
-0.20723 -7.6132808 -12.233398 7
-0.19778401 -9.9345703 -10.465332 7
-0.205063 -9.9931641 -10.477539 7
-0.205154 -10.020508 -10.453613 7
-0.194489 -10.00293 -10.376953 7
-0.196381 -10.038086 -10.361816 7
-0.203659 -10.095703 -10.373047 7
-0.211807 -10.15625 -10.387695 7
-0.224457 -10.237305 -10.424316 7
-0.40434301 -13.146484 -8.9257812 7
-0.40446499 -13.170898 -8.8950195 7
-0.400085 -13.170898 -8.8457031 7
-0.41097999 -13.25 -8.855957 7
-0.41558799 -13.296875 -8.8422852 7
-0.40759301 -13.279297 -8.7792969 7
-0.40321401 -13.280273 -8.7304688 7
-0.417831 -13.401367 -8.7226562 7
-0.41973901 -13.433594 -8.6972656 7
-0.50003099 -14.75 -7.5961909 7
-0.50013697 -14.771484 -7.5610352 7
-0.49755901 -14.777344 -7.5170898 7
-0.49404901 -14.777344 -7.4702148 7
-0.50318903 -14.848633 -7.464355 7
-0.50689697 -14.888672 -7.440918 7
-0.51965302 -14.980469 -7.4467769 7
-0.29699701 -7.6425781 15.043457 7
-0.299759 -7.6191411 15.076172 7
-0.30250499 -7.594727 15.109863 7
-0.30525199 -7.5712891 15.143066 7
-0.30433699 -7.5361328 15.15625 7
-0.30067399 -7.492188 15.15332 7
-0.30159 -7.4628911 15.176758 7
-0.30342099 -7.4355469 15.20459 7
-0.30616799 -7.4111328 15.237305 7
-0.31626901 -7.4091802 15.311035 7
-0.30616799 -7.3466802 15.271973 7
-0.30708301 -7.3164058 15.294922 7
-0.30983001 -7.2919922 15.328125 7
0.086898997 13.487305 3.179688 7
0.095031999 13.439453 3.141602 7
0.099578999 13.415039 3.1069341 7
0.105042 13.384766 3.0717771 7
0.106918 13.375977 3.039062 7
0.113358 13.341797 2.9711909 7
0.11174 13.360352 2.909668 7
-0.185059 -9.3095703 -9.9423828 7
-0.198395 -9.4140615 -9.9599609 7
-0.19566301 -9.4296885 -9.9243164 7
-0.212662 -9.5234385 -9.980957 7
-0.38360599 -12.512695 -8.25 7
-0.39784199 -12.604492 -8.2724609 7
-0.397003 -12.62207 -8.2392578 7
-0.39617899 -12.640625 -8.2060547 7
-0.41136199 -12.736328 -8.2304688 7
-0.41239899 -12.763672 -8.2036133 7
-0.410629 -12.776367 -8.1665039 7
-0.404129 -12.766602 -8.1123047 7
-0.26945499 -7.0039058 14.392578 7
-0.375626 -11.842773 -7.7832031 7
-0.379684 -11.882812 -7.769043 7
-0.38967901 -11.949219 -7.7758789 7
-0.384857 -11.948242 -7.72998 7
-0.389893 -11.993164 -7.7192378 7
-0.39296001 -12.02832 -7.7011719 7
-0.259094 -6.6630859 13.696777 7
-0.25204501 -6.6152339 13.676758 7
-0.256073 -6.5966802 13.713379 7
-0.259094 -6.5751948 13.744141 7
0.081603996 12.269531 2.8608401 7
0.081696004 12.272461 2.832031 7
0.084716998 12.258789 2.8017581 7
0.084807999 12.261719 2.772949 7
0.082932003 12.275391 2.7451169 7
0.084976003 12.267578 2.715332 7
0.088988997 12.246094 2.684082 7
0.091049001 12.238281 2.6547849 7
0.092116997 12.235352 2.625488 7
0.091216996 12.243164 2.597168 7
0.093262002 12.234375 2.5673831 7
0.096283004 12.219727 2.5375979 7
0.098328002 12.208984 2.507812 7
0.099395998 12.206055 2.4785161 7
0.098494999 12.213867 2.4501951 7
0.098572001 12.21582 2.421387 7
0.097686999 12.223633 2.3935549 7
0.098755002 12.219727 2.36377 7
0.101776 12.205078 2.3339839 7
0.101852 12.206055 2.3056641 7
0.101944 12.208984 2.277344 7
0.10202 12.209961 2.2480471 7
-0.365051 -11.231445 -7.4013672 7
-0.379623 -11.31543 -7.4238281 7
-0.24144 -6.2451172 13.123047 7
-0.244598 -6.226562 13.152832 7
-0.25512701 -6.2255859 13.21875 7
-0.25721699 -6.203125 13.244141 7
-0.24984699 -6.15625 13.222656 7
-0.249832 -6.1279302 13.237305 7
-0.25509599 -6.1132808 13.27832 7
-0.26139799 -6.101562 13.323242 7
-0.264557 -6.0810552 13.353516 7
-0.22418199 -5.905273 12.488281 7
-0.225281 -5.8818359 12.507812 7
-0.22859199 -5.8642578 12.536621 7
-0.2341 -5.851562 12.576172 7
-0.235199 -5.828125 12.594727 7
-0.227478 -5.7832031 12.572754 7
-0.21525601 -5.7382808 11.927246 7
-0.217545 -5.71875 11.950684 7
-0.21638501 -5.6904302 11.959961 7
-0.21524 -5.6630859 11.968262 7
-0.209488 -5.625 11.956055 7
-0.21179201 -5.6054692 11.979492 7
-0.210632 -5.577148 11.988281 7
-0.214081 -5.5605469 12.016602 7
-0.224426 -5.5605469 12.075195 7
-0.22785901 -5.5429692 12.104004 7
-0.21524 -5.4892578 12.061035 7
-0.21637 -5.4658198 12.07959 7
-0.218674 -5.4462891 12.102539 7
-0.218658 -5.420898 12.115723 7
-0.26536599 -8.3183594 9.6381836 7
-0.26538101 -8.2978516 9.6577148 7
-0.26422101 -8.2753906 9.6733398 7
-0.264236 -8.2548828 9.6928711 7
-0.26664701 -8.2441406 9.7207031 7
-0.26547199 -8.2197266 9.7363281 7
-0.260712 -8.1845703 9.7392578 7
-0.241577 -8.1005859 9.6933594 7
-0.241592 -8.0810547 9.7124023 7
-0.248795 -8.0859385 9.7563477 7
-0.248825 -8.0654297 9.7758789 7
-0.25961301 -8.0810547 9.8320312 7
-0.260818 -8.0644531 9.855957 7
-0.25245699 -8.0175781 9.8457031 7
-0.20913699 -5.4287109 11.479004 7
-0.20195 -5.3886719 11.461426 7
-0.198349 -5.3564448 11.458984 7
-0.20314001 -5.344727 11.492188 7
-0.20433 -5.3222661 11.510254 7
-0.21273801 -5.3183589 11.558105 7
-0.209122 -5.2851558 11.556152 7
-0.21391299 -5.2714839 11.588867 7
-0.205521 -5.2294922 11.565918 7
-0.20791601 -5.210938 11.588379 7
-0.20791601 -5.186523 11.601074 7
-0.20671099 -5.1601558 11.60791 7
-0.21989401 -5.1650391 11.676758 7
-0.219879 -5.140625 11.688965 7
-0.22466999 -5.1269531 11.72168 7
-0.18968201 -5.1005859 11.02832 7
-0.194672 -5.0888672 11.060547 7
-0.189697 -5.0556641 11.052246 7
-0.19468699 -5.0439448 11.084473 7
-0.192184 -5.015625 11.086426 7
-0.187195 -4.9824219 11.078125 7
-0.18968201 -4.9648442 11.100098 7
-0.190933 -4.945312 11.117188 7
-0.19715901 -4.9345698 11.154297 7
-0.19841 -4.9150391 11.171387 7
-0.194656 -4.8837891 11.167969 7
-0.17513999 -4.7792969 10.580566 7
-0.181641 -4.7705078 10.617188 7
-0.172516 -4.7089839 10.604492 7
-0.17121901 -4.6630859 10.621582 7
-0.17121901 -4.640625 10.632812 7
-0.175125 -4.6054692 10.669922 7
-0.185516 -4.6035161 10.722168 7
-0.186813 -4.5839839 10.738281 7
-0.18810999 -4.563477 10.754883 7
-0.18940701 -4.5439448 10.770996 7
-0.190704 -4.5244141 10.786621 7
-0.190704 -4.5029302 10.797363 7
-0.175934 -4.5488281 10.241211 7
-0.18540999 -4.546875 10.287109 7
-0.18135101 -4.5185552 10.282715 7
-0.179993 -4.4951172 10.288574 7
-0.26240599 -8.1188898 9.7664528 7
-0.25293899 -5.5057139 11.894772 7
-0.186165 -4.6192298 10.634039 7
-0.25849599 -12.215611 -11.698386 7
-0.20327701 -5.2312651 11.651952 7
-0.24646901 -4.749959 10.696784 7
-0.020818001 15.276346 4.0702138 7
-0.0061090002 14.753866 0.54853803 7
0.065941997 12.267932 2.4789259 7
-0.42215699 -7.4593811 -15.971746 7
-0.217282 -7.2881818 -11.989735 7
-0.29579201 -8.7057915 -12.993957 7
-0.263937 -11.104436 -11.036506 7
