# .PCD v0.7 - Point Cloud Data file format
VERSION 0.7
FIELDS x y z intensity
SIZE 4 4 4 4
TYPE F F F F
COUNT 1 1 1 1
WIDTH 1135
HEIGHT 1
VIEWPOINT 0 0 0 1 0 0 0
POINTS 1135
DATA ascii
0.76612902 65.470703 29.143555 7
0.77735901 65.038086 28.78125 7
0.763138 65.785156 28.911621 7
0.79734802 64.286133 28.109863 7
0.72851598 70.557617 23.731934 7
0.75264001 69.464844 23.208008 7
0.77420002 68.491211 22.727051 7
0.94496202 29.800781 -66.79834 7
0.95915198 29.301758 -66.088867 7
0.70813 60.411133 26.700684 7
0.66279602 62.34668 27.335449 7
0.71853602 60.139648 26.255859 7
0.74244702 59.233398 25.719727 7
0.750458 60.486328 22.644043 7
0.757828 60.242188 22.399902 7
0.76194799 60.136719 22.20459 7
0.77182001 59.787109 21.926758 7
0.63091999 66.749023 21.870117 7
0.65431201 65.810547 21.415039 7
0.67744398 64.881836 20.967285 7
0.69107097 64.361328 20.645996 7
0.70597798 63.782227 20.310547 7
0.616638 56.560547 24.904785 7
0.64854401 55.479492 24.304688 7
0.585114 57.84082 25.115234 7
0.63812298 55.993164 24.20752 7
0.66694599 56.365234 21.022949 7
0.642883 57.444336 20.942871 7
0.65370202 57.101562 20.677246 7
0.66914397 56.585938 20.355469 7
0.67922997 56.267578 20.103027 7
0.69358802 55.788086 19.798828 7
0.70944202 55.25293 19.479492 7
0.55407703 61.874023 19.555664 7
0.569031 61.366211 19.250977 7
0.57598901 61.21875 18.895996 7
0.58883703 60.785156 18.618164 7
0.60523999 60.216797 18.305664 7
0.55345201 52.832031 23.256348 7
0.57339501 52.249023 22.872559 7
0.61276197 51.095703 22.120117 7
0.60488898 52.750977 19.393066 7
0.60511798 52.797852 19.270508 7
0.627563 52.101562 18.899414 7
0.67009002 50.730469 18.310059 7
0.57431 54.158203 18.879395 7
0.59477198 53.524414 18.537598 7
0.60162401 53.34668 18.342285 7
0.61111498 53.079102 18.120605 7
0.627213 52.585938 17.830566 7
0.52604699 56.996094 16.4375 7
0.48989901 49.463867 21.575684 7
0.538544 48.100586 20.890625 7
0.554672 47.683594 20.592285 7
0.56837499 48.582031 17.70459 7
0.58773798 48.047852 17.400391 7
0.58587599 48.151367 17.30957 7
0.55256701 49.677734 16.395508 7
0.56251502 49.420898 16.191895 7
0.56709301 49.326172 16.037109 7
0.58070397 48.955078 15.803223 7
0.46643099 45.161133 19.59082 7
0.49649 44.419922 19.172852 7
0.51646399 43.945312 18.864258 7
0.50535601 45.414062 16.418945 7
0.53096002 44.764648 16.089355 7
0.52143902 45.066406 16.070312 7
0.54659998 44.425781 15.748047 7
0.49539199 46.444336 14.604492 7
0.50474501 46.227539 14.425781 7
0.51040602 46.111328 14.276367 7
0.51358002 46.061523 14.145996 7
0.52763402 45.712891 13.93457 7
0.54043603 45.396484 13.733887 7
0.40979001 49.738281 12.539551 7
0.38960299 42.472656 18.384277 7
0.43125901 41.53125 17.897461 7
0.442352 41.313477 17.699707 7
0.48352101 40.381836 17.224609 7
0.44496199 42.400391 15.085449 7
0.45758101 42.130859 14.890625 7
0.47912601 41.643555 14.627441 7
0.47851601 41.696289 14.536621 7
0.47311401 41.866211 14.480957 7
0.429993 43.62207 12.912598 7
0.45733601 43.042969 12.437012 7
0.46264601 42.945312 12.304688 7
0.46818501 42.839844 12.170898 7
0.47349501 42.739258 12.039062 7
0.32751501 40.104492 17.244141 7
0.36283901 39.382812 16.854492 7
0.36917099 39.288086 16.710938 7
0.38990799 39.890625 14.094238 7
0.40976 39.485352 13.86377 7
0.417328 39.352539 13.721191 7
0.42338601 39.25293 13.588379 7
0.429703 39.146484 13.455078 7
0.43949899 38.961914 13.29834 7
0.44780001 38.810547 13.15332 7
0.38742101 40.907227 11.402344 7
0.408737 40.481445 11.098145 7
0.41302499 40.412109 10.981445 7
0.420044 40.28125 10.850586 7
0.431564 40.045898 10.696777 7
0.33256501 42.932617 8.9370117 7
0.34281901 42.719727 8.796875 7
0.35232499 42.524414 8.6611328 7
0.366043 42.229492 8.5092773 7
0.361862 42.348633 8.4262695 7
0.39118999 36.873047 11.42334 7
0.39421099 36.839844 11.321777 7
0.35051 38.181641 10.152344 7
0.35378999 38.138672 10.04834 7
0.35871899 38.0625 9.9375 7
0.37130699 37.825195 9.7915039 7
0.37020901 37.87207 9.7084961 7
0.381973 37.651367 9.5678711 7
0.38908401 37.527344 9.4487305 7
0.39619401 37.40332 9.3305664 7
0.31042501 39.77832 7.313477 7
0.31996199 39.594727 7.1914058 7
0.315887 39.701172 7.1113281 7
-1.307983 -54.925781 -37.725098 7
-1.340759 -55.52832 -37.956055 7
-1.398682 -56.529297 -38.463379 7
-1.453583 -57.486328 -38.933105 7
-1.418152 -57.014648 -38.40332 7
-1.469147 -57.910156 -38.824219 7
-1.528015 -58.933594 -39.327637 7
-1.588074 -59.979492 -39.839355 7
-1.3017581 -58.318359 -31.618164 7
-1.3121639 -58.635742 -31.433594 7
0.33772299 35.731445 8.9199219 7
0.33976701 35.714844 8.8291016 7
0.345047 35.633789 8.7250977 7
0.34294099 35.697266 8.6508789 7
0.350586 35.570312 8.5385742 7
0.35942101 35.419922 8.421875 7
0.24086 38.22168 6.655273 7
0.246429 38.128906 6.5517578 7
0.253479 38.007812 6.4443359 7
0.26492301 37.798828 6.327148 7
0.273148 37.652344 6.2182622 7
0.274887 37.634766 6.125977 7
-1.179749 -47.473633 -34.658203 7
-1.208099 -47.955078 -34.845215 7
-1.239777 -48.484375 -35.064453 7
-1.2724299 -49.029297 -35.291992 7
-1.313049 -49.688477 -35.601074 7
-1.33548 -50.09082 -35.716309 7
-1.3853149 -50.884766 -36.116699 7
-1.4130549 -51.365234 -36.283203 7
-0.96727002 -45.931641 -30.195312 7
-0.99731398 -46.44043 -30.382812 7
-1.024063 -46.902344 -30.535156 7
-1.053452 -47.404297 -30.712402 7
-1.075897 -47.803711 -30.818359 7
-0.89193702 -45.439453 -28.458984 7
-0.998474 -47.082031 -29.375488 7
-0.97689801 -46.831055 -29.054199 7
-1.0563051 -48.076172 -29.700195 7
-1.140671 -51.005859 -27.477539 7
-1.1711431 -51.536133 -27.616211 7
-1.0758671 -27.107422 49.78125 7
0.31132501 33.303711 7.8330078 7
0.310913 33.329102 7.7568359 7
0.31921399 33.200195 7.6513672 7
0.33042899 33.018555 7.5380859 7
0.336472 32.928711 7.440918 7
0.337677 32.925781 7.3608398 7
0.352676 32.694336 7.1611328 7
0.34182701 32.921875 7.0405269 7
0.22579999 35.391602 5.3310552 7
0.227005 35.383789 5.2460942 7
0.245499 35.075195 5.0463872 7
0.25308201 34.962891 4.8681641 7
0.26007101 34.848633 4.7744141 7
-0.99673498 -40.568359 -31.604492 7
-1.026535 -41.024414 -31.812988 7
-1.056686 -41.484375 -32.022949 7
-1.080795 -41.870117 -32.169434 7
-1.111313 -42.336914 -32.378906 7
-1.1357729 -42.727539 -32.525391 7
-1.164551 -43.174805 -32.713379 7
-1.185089 -43.516602 -32.816895 7
-1.226685 -44.131836 -33.130371 7
-0.823349 -39.845703 -27.725098 7
-0.85855103 -40.37793 -27.966797 7
-0.885544 -40.803711 -28.127441 7
-0.89363098 -40.977539 -28.105957 7
-0.92347699 -41.441406 -28.290527 7
-0.95223999 -41.891602 -28.463379 7
-0.83938599 -41.261719 -26.010742 7
-0.91746497 -42.390625 -26.612793 7
-0.88201898 -41.967773 -26.192871 7
-1.042618 -45.816406 -24.699707 7
-1.072235 -46.294922 -24.827148 7
0.293488 31.258789 6.690918 7
0.305222 31.081055 6.5864258 7
0.31101999 31 6.4985352 7
0.31333899 30.977539 6.4199219 7
0.318436 30.907227 6.3339839 7
0.32528701 30.80957 6.2451172 7
0.32794201 30.779297 6.1660161 7
0.31770301 30.963867 6.1191411 7
0.211182 33.097656 4.1455078 7
0.216644 33.016602 4.0610352 7
0.223465 32.912109 3.9750979 7
0.229599 32.819336 3.890625 7
0.232254 32.78418 3.8105471 7
0.23525999 32.742188 3.730469 7
0.22464 32.939453 3.5874021 7
-0.91181898 -35.378906 -29.382324 7
-0.92555201 -35.605469 -29.432129 7
-0.96052599 -36.076172 -29.69043 7
-0.98201001 -36.393555 -29.813965 7
-1.007751 -36.760742 -29.977051 7
-1.034897 -37.216797 -30.0625 7
-1.06102 -37.59082 -30.225098 7
-1.082901 -37.916016 -30.345703 7
-1.110214 -38.305664 -30.51709 7
-1.15448 -38.892578 -30.851074 7
-0.75353998 -35.098633 -25.816895 7
-0.77270502 -35.388672 -25.908203 7
-0.775635 -35.485352 -25.849121 7
-0.80760199 -35.930664 -26.055176 7
-0.824844 -36.200195 -26.125488 7
-0.84210199 -36.470703 -26.193848 7
-0.872513 -36.900391 -26.381348 7
-0.730286 -36.387695 -23.277832 7
-0.75724798 -36.780273 -23.416016 7
-0.80322301 -37.411133 -23.712402 7
-0.790268 -37.304688 -23.51416 7
-0.839737 -37.982422 -23.834473 7
-0.90815699 -40.368164 -21.72998 7
-0.94261199 -40.870117 -21.888184 7
0.273453 29.147461 5.7011719 7
0.274048 29.15332 5.6323242 7
0.28070101 29.063477 5.5498052 7
0.28507999 29.009766 5.473145 7
0.28527799 29.019531 5.4047852 7
0.29533401 28.87793 5.3164058 7
0.29705799 28.863281 5.2451172 7
0.29081699 28.969727 5.1894531 7
0.1763 31.027344 3.1660161 7
0.180649 30.96582 3.089844 7
0.184265 30.916992 3.0141599 7
0.188995 30.850586 2.937988 7
0.202637 30.652344 2.784668 7
0.20813 30.573242 2.7094729 7
0.205322 30.623047 2.6391599 7
-0.83818102 -31.635742 -27.62793 7
-0.85403401 -31.867188 -27.702148 7
-1.033478 -34.235352 -28.835938 7
-1.0576169 -34.561523 -28.978027 7
-1.07309 -34.795898 -29.038086 7
-0.72387701 -32.491211 -23.941406 7
-0.67495698 -32 -23.439453 7
-0.64996302 -31.775391 -23.146484 7
-0.68821698 -33.289062 -21.893555 7
-0.68675202 -33.324219 -21.80127 7
-0.71632397 -33.720703 -21.958496 7
-0.75085402 -34.175781 -22.152344 7
-0.74153101 -34.120117 -21.995605 7
-0.770706 -34.513672 -22.14502 7
-0.79902601 -34.897461 -22.285156 7
-0.88716102 -37.523438 -20.239258 7
-0.91929603 -37.964844 -20.373047 7
-0.74212599 -20.410156 35.87793 7
-0.77113301 -20.530273 36.268066 7
-0.80056798 -20.651367 36.664551 7
-0.73203999 -17.266602 37.405762 7
0.242752 27.797852 4.987793 7
0.255081 27.631836 4.901855 7
0.25425699 27.665039 4.7729492 7
0.26052901 27.584961 4.6982422 7
0.267593 27.494141 4.6225591 7
0.261307 27.59375 4.5678711 7
0.144547 29.53418 2.4038091 7
0.145981 29.518555 2.3339839 7
0.14938401 29.472656 2.2631841 7
0.15644801 29.375 2.191406 7
0.163498 29.27832 2.120605 7
0.170975 29.174805 2.0498049 7
0.172379 29.158203 1.980957 7
-0.016663 17.986328 -25.937012 7
-0.021271 17.958984 -26.038086 7
-0.76051301 -27.745117 -25.795898 7
-0.78153998 -28.005859 -25.920898 7
-0.802109 -28.262695 -26.041016 7
-0.81959498 -28.491211 -26.132324 7
-0.82467699 -28.602539 -26.109375 7
-0.625992 -29.59082 -20.687012 7
-0.60702503 -29.441406 -20.467773 7
-0.61122102 -29.535156 -20.429199 7
-0.60070801 -29.472656 -20.276367 7
-0.58306903 -29.334961 -20.069824 7
-0.60720801 -29.737305 -20.041016 7
-0.61940002 -29.914062 -20.062012 7
-0.65031397 -30.293945 -20.224609 7
-0.65316802 -30.373047 -20.172852 7
-0.659576 -30.490234 -20.147949 7
-0.68202198 -30.780273 -20.243164 7
-0.80984497 -33.820312 -18.42334 7
-0.83056599 -34.100586 -18.478027 7
-0.85978699 -34.475586 -18.586426 7
-0.63490301 -15.744141 33.675293 7
0.237473 25.354492 7.0019531 7
0.24421699 25.28125 6.9238281 7
0.251831 25.197266 6.84375 7
0.254639 25.175781 6.7773442 7
0.25264001 25.216797 6.7241211 7
0.228653 26.043945 4.1323242 7
0.237579 25.933594 4.0600591 7
0.235992 25.961914 4.000977 7
0.235733 25.973633 3.9404299 7
0.245956 25.845703 3.867676 7
0.24830601 25.821289 3.804199 7
0.248062 25.833008 3.7436521 7
0.124146 27.678711 1.550293 7
0.123886 27.68457 1.485352 7
0.123215 27.695312 1.419922 7
0.129913 27.607422 1.355469 7
0.13574199 27.53125 1.291016 7
0.14418 27.419922 1.228027 7
0.14308199 27.436523 1.1630861 7
0.138916 27.494141 1.097656 7
-0.721802 -24.912109 -24.472656 7
-0.71913099 -24.948242 -24.388672 7
-0.73161298 -25.114258 -24.437988 7
-0.74742103 -25.310547 -24.515625 7
-0.757523 -25.457031 -24.542969 7
-0.80407703 -25.920898 -24.888672 7
-0.55624402 -27.047852 -18.716797 7
-0.58302301 -27.358398 -18.846191 7
-0.60458398 -27.616211 -18.937012 7
-0.60285902 -27.645508 -18.85791 7
-0.62011701 -27.863281 -18.915527 7
-0.63502502 -28.057617 -18.955078 7
-0.76611298 -31.108398 -17.057129 7
-0.79487598 -31.454102 -17.160645 7
-0.820328 -31.765625 -17.242188 7
-0.79905701 -31.581055 -17.035156 7
-0.80307001 -31.666016 -16.983887 7
0.21058699 24.106445 6.3974609 7
0.21871901 24.019531 6.3208008 7
0.22637901 23.939453 6.2460942 7
0.233566 23.864258 6.1733398 7
0.230453 23.915039 6.1245122 7
0.21940599 24.063477 6.094727 7
0.20773301 24.660156 3.4873049 7
0.21211199 24.612305 3.425781 7
0.21228001 24.617188 3.367676 7
0.216644 24.569336 3.3061521 7
0.22007801 24.532227 3.245605 7
0.222137 24.513672 3.186523 7
0.218567 24.563477 3.1318359 7
0.215942 24.602539 3.0761721 7
0.094939999 26.243164 0.76660198 7
0.104858 26.114258 0.59423798 7
0.113388 26.006836 0.53662097 7
0.114029 25.999023 0.47607401 7
0.110031 26.047852 0.41259801 7
0.100922 26.163086 0.34570301 7
-0.025420999 9.4560547 -25.297852 7
-0.635391 -21.608398 -22.806152 7
-0.64112902 -21.708984 -22.802734 7
-0.65501398 -21.870117 -22.867676 7
-0.663818 -21.994141 -22.88916 7
-0.67211902 -22.114258 -22.905762 7
-0.70176703 -22.467773 -23.063965 7
-0.67092901 -22.283203 -22.749512 7
-0.507263 -24.302734 -17.585449 7
-0.49160799 -24.204102 -17.41748 7
-0.49430799 -24.271484 -17.37793 7
-0.51740998 -24.523438 -17.47998 7
-0.528763 -24.668945 -17.499512 7
-0.52789301 -24.704102 -17.433594 7
-0.53419501 -24.804688 -17.416992 7
-0.71856701 -28.264648 -15.918457 7
-0.71054101 -28.225586 -15.802734 7
-0.69998199 -28.161133 -15.673828 7
-0.72416699 -28.436523 -15.747559 7
-0.74427801 -28.670898 -15.796875 7
-0.74699402 -28.736328 -15.743652 7
0.179443 22.822266 5.9033198 7
0.18562301 22.763672 5.8364258 7
0.196854 22.648438 5.7597661 7
0.200546 22.618164 5.69873 7
0.206238 22.564453 5.6342769 7
0.214417 22.481445 5.5639648 7
0.215607 22.480469 5.5097661 7
0.080413997 24.548828 -0.0053710002 7
0.078093998 24.573242 -0.064940996 7
0.077744 24.575195 -0.123047 7
0.082396999 24.519531 -0.177246 7
0.087554999 24.456055 -0.230469 7
0.091720998 24.405273 -0.284668 7
-0.487396 -20.405273 -18.841309 7
-0.47448701 -20.351562 -18.695312 7
-0.46971101 -20.361328 -18.610352 7
-0.474213 -20.442383 -18.594727 7
-0.48304701 -20.555664 -18.61084 7
-0.49731401 -20.711914 -18.666992 7
-0.51538098 -20.897461 -18.750977 7
-0.519333 -20.975586 -18.72998 7
-0.51239002 -20.966797 -18.62793 7
-0.475739 -22.148438 -16.599121 7
-0.47697401 -22.199219 -16.553711 7
-0.46023601 -22.100586 -16.388672 7
-0.464706 -22.177734 -16.364746 7
-0.483917 -22.378906 -16.438965 7
-0.49766499 -22.536133 -16.476074 7
-0.50054902 -22.600586 -16.440918 7
-0.500687 -22.642578 -16.387207 7
-0.512802 -22.785156 -16.411621 7
-0.53039598 -22.974609 -16.472168 7
-0.53924602 -23.089844 -16.474609 7
-0.52740502 -23.03125 -16.341797 7
-0.67895502 -26.053711 -14.661621 7
-0.69601399 -26.246094 -14.693359 7
-0.70764202 -26.387695 -14.694824 7
-0.721466 -26.549805 -14.70752 7
-0.71232599 -26.50293 -14.59375 7
-0.78280598 -27.888672 -13.595215 7
-0.78022802 -27.897461 -13.515137 7
0.16856401 21.505859 5.3930659 7
0.169769 21.50293 5.340332 7
0.164719 21.578125 5.2485352 7
0.16540501 21.581055 5.1967769 7
0.17631499 21.474609 5.1269531 7
0.18559299 21.385742 5.0605469 7
0.190033 21.347656 5.0029302 7
0.191788 21.337891 4.949707 7
0.18550099 21.415039 4.910645 7
0.164627 21.985352 2.2314451 7
0.16690101 21.962891 2.1787109 7
0.172943 21.899414 2.125 7
0.17523199 21.87793 2.0732419 7
0.175385 21.878906 2.0214839 7
0.177139 21.862305 1.969727 7
0.053420998 23.188477 -0.67724597 7
0.051437002 23.206055 -0.73388702 7
0.052124001 23.194336 -0.788086 7
0.054947 23.160156 -0.83984399 7
0.061508 23.085938 -0.88671899 7
0.063248001 23.0625 -0.93896502 7
-0.61624098 -17.615234 -20.752441 7
-0.62277198 -17.708008 -20.760254 7
-0.62927198 -17.800781 -20.768066 7
-0.64213598 -17.933594 -20.825195 7
-0.64228803 -17.984375 -20.782715 7
-0.65167201 -18.094727 -20.811523 7
-0.42623901 -18.25 -17.585938 7
-0.43042001 -18.323242 -17.572266 7
-0.43519601 -18.400391 -17.562012 7
-0.45860299 -18.652344 -17.640137 7
-0.43455499 -20.280273 -15.408691 7
-0.449783 -20.436523 -15.456055 7
-0.45571899 -20.521484 -15.444336 7
-0.45004299 -20.515625 -15.359375 7
-0.46061701 -20.636719 -15.376465 7
-0.47874501 -20.816406 -15.440918 7
-0.48583999 -20.911133 -15.435059 7
-0.48597699 -20.951172 -15.385742 7
-0.63095099 -23.908203 -13.579102 7
-0.63693202 -23.992188 -13.553711 7
-0.65280199 -24.162109 -13.57959 7
-0.66865498 -24.331055 -13.603516 7
-0.67112702 -24.386719 -13.558105 7
-0.66543603 -24.371094 -13.470215 7
-0.72741699 -25.621094 -12.460449 7
-0.739227 -25.755859 -12.454102 7
-0.73936498 -25.789062 -12.393066 7
-0.47320601 -14.243164 23.181152 7
-0.47856101 -14.220703 23.258789 7
-0.469284 -11.175781 24.867676 7
-0.47582999 -11.148438 24.952148 7
0.15628099 20.337891 4.7817378 7
0.15184 20.390625 4.7407231 7
0.150253 20.416016 4.6958008 7
0.158997 20.335938 4.6342769 7
0.165436 20.280273 4.577148 7
0.168442 20.258789 4.5249019 7
0.183212 20.135742 4.3623052 7
0.15595999 20.694336 1.5986331 7
0.16068999 20.647461 1.549805 7
0.161392 20.641602 1.501465 7
0.158096 20.676758 1.452637 7
0.157684 20.682617 1.404297 7
0.162949 20.629883 1.355957 7
0.161957 20.640625 1.3076169 7
0.031357002 21.862305 -1.286621 7
0.025818 21.914062 -1.345703 7
0.028229 21.883789 -1.394043 7
0.032349002 21.835938 -1.44043 7
0.037613001 21.777344 -1.484375 7
0.040587999 21.741211 -1.531738 7
0.040176 21.739258 -1.583984 7
-0.533005 -15.081055 -19.644043 7
-0.535568 -15.143555 -19.626953 7
-0.54307598 -15.234375 -19.647461 7
-0.55178797 -15.332031 -19.676758 7
-0.556198 -15.405273 -19.672852 7
-0.55877697 -15.46875 -19.654785 7
-0.57489002 -15.609375 -19.740234 7
-0.57255602 -15.643555 -19.684082 7
-0.56839001 -15.668945 -19.614746 7
-0.414368 -16.599609 -16.893066 7
-0.400345 -16.550781 -16.754883 7
-0.40414399 -16.617188 -16.741211 7
-0.40855399 -16.6875 -16.731445 7
-0.42221099 -16.817383 -16.785645 7
-0.43044999 -16.955078 -16.76123 7
-0.40519699 -18.623047 -14.576172 7
-0.41886899 -18.757812 -14.615234 7
-0.43502799 -18.911133 -14.667969 7
-0.43882799 -18.975586 -14.645508 7
-0.42971799 -18.946289 -14.544434 7
-0.445847 -19.099609 -14.596191 7
-0.60086101 -22.172852 -12.727051 7
-0.61828601 -22.344727 -12.76123 7
-0.62707502 -22.447266 -12.751465 7
-0.64018202 -22.583008 -12.762695 7
-0.63414001 -22.567383 -12.678711 7
-0.63116503 -22.574219 -12.609863 7
-0.63438398 -22.631836 -12.571289 7
-0.63330102 -22.655273 -12.512207 7
-0.71258497 -24.03125 -11.540527 7
-0.73562598 -24.251953 -11.584473 7
-0.73512298 -24.276367 -11.523926 7
0.143906 19.333008 4.1201172 7
0.14830001 19.297852 4.0698242 7
0.15332 19.258789 4.0185552 7
0.15712 19.229492 3.96875 7
0.159073 19.217773 3.921875 7
0.16104101 19.206055 3.874512 7
-0.0020290001 20.780273 -1.935059 7
-7.5999997e-05 20.753906 -1.980957 7
0.0036770001 20.710938 -2.023926 7
0.011047 20.633789 -2.0600591 7
0.013596 20.602539 -2.10498 7
0.005295 20.673828 -2.167969 7
0.009048 20.630859 -2.210449 7
-0.36247301 -14.774414 -15.920898 7
-0.36584499 -14.833984 -15.908203 7
-0.35617101 -14.817383 -15.807129 7
-0.36608899 -14.915039 -15.837402 7
-0.37992901 -15.036133 -15.893555 7
-0.38722199 -15.118164 -15.905762 7
-0.397156 -15.216797 -15.935059 7
-0.399216 -15.269531 -15.912109 7
-0.393448 -15.274414 -15.836914 7
-0.34356701 -16.679688 -13.754883 7
-0.340408 -16.693359 -13.695801 7
-0.35034201 -16.793945 -13.714844 7
-0.36289999 -16.912109 -13.748047 7
-0.37478599 -17.026367 -13.777344 7
-0.37948599 -17.092773 -13.763672 7
-0.375671 -17.100586 -13.699707 7
-0.38429299 -17.194336 -13.709473 7
-0.408081 -17.421875 -13.763672 7
-0.42063901 -17.541016 -13.794434 7
-0.57675201 -20.515625 -12.016602 7
-0.57884198 -20.561523 -11.977539 7
-0.56713903 -20.504883 -11.87207 7
-0.58499098 -20.667969 -11.907715 7
-0.59890699 -20.801758 -11.924316 7
-0.61149597 -20.926758 -11.934082 7
-0.60702503 -20.923828 -11.862793 7
-0.66355902 -22.130859 -10.723145 7
-0.66761798 -22.189453 -10.6875 7
-0.68550098 -22.356445 -10.708984 7
0.13412499 18.269531 3.8334961 7
0.12583899 18.350586 3.7993159 7
0.122726 18.383789 3.7602539 7
0.118973 18.424805 3.7211909 7
0.127533 18.354492 3.6689451 7
0.134766 18.295898 3.6186521 7
0.140717 18.249023 3.569824 7
0.142792 18.236328 3.5249021 7
0.149399 18.183594 3.476074 7
0.15275601 18.158203 3.430176 7
0.152863 18.163086 3.387207 7
0.14781199 18.213867 3.3491211 7
0.109314 18.700195 0.62158197 7
0.115234 18.645508 0.58007801 7
0.118576 18.614258 0.53759801 7
0.114197 18.652344 0.49169901 7
0.113678 18.655273 0.447754 7
0.119598 18.600586 0.40673801 7
0.115234 18.639648 0.36083999 7
-0.013824 19.475586 -2.5849609 7
-0.010483 19.4375 -2.624023 7
-0.0065159998 19.392578 -2.6625979 7
-0.0075380001 19.384766 -2.7563479 7
-0.013062 19.415039 -2.858887 7
-0.45548999 -11.452148 -17.857422 7
-0.460419 -11.518555 -17.865234 7
-0.46604899 -11.587891 -17.876953 7
-0.47372401 -11.666016 -17.904297 7
-0.476028 -11.765625 -17.863281 7
-0.49484301 -11.9375 -17.94043 7
-0.50116003 -12.010742 -17.956543 7
-0.50537097 -12.075195 -17.95752 7
-0.337082 -13.487305 -15.131348 7
-0.348221 -13.584961 -15.170898 7
-0.35385099 -13.654297 -15.174316 7
-0.357407 -13.711914 -15.164062 7
-0.320465 -15.358398 -13.109863 7
-0.3116 -15.336914 -13.021973 7
-0.32066301 -15.425781 -13.037109 7
-0.33531201 -15.549805 -13.083008 7
-0.34370399 -15.634766 -13.09375 7
-0.35557601 -15.741211 -13.123047 7
-0.33975199 -15.676758 -12.995605 7
-0.353012 -15.791992 -13.032227 7
-0.362106 -15.881836 -13.04541 7
-0.39137301 -16.132812 -13.132812 7
-0.56053197 -19.254883 -11.272949 7
-0.562729 -19.297852 -11.236328 7
-0.57809401 -19.43457 -11.259766 7
-0.65127599 -20.835938 -10.028809 7
-0.67501801 -21.036133 -10.07373 7
-0.67652899 -21.073242 -10.029297 7
0.123825 17.423828 3.1625979 7
0.12600701 17.410156 3.1201169 7
0.133636 17.350586 3.07373 7
0.135818 17.335938 3.03125 7
0.144852 17.264648 2.984375 7
0.134689 17.354492 2.9506841 7
0.14645401 17.259766 2.902344 7
-0.31753501 -11.863281 -14.705566 7
-0.311066 -11.870117 -14.635742 7
-0.30604601 -11.882812 -14.574707 7
-0.300293 -11.891602 -14.509277 7
-0.29820299 -11.918945 -14.467285 7
-0.299759 -11.962891 -14.448242 7
-0.307266 -12.072266 -14.437012 7
-0.31465101 -12.145508 -14.45459 7
-0.32353199 -12.225586 -14.480957 7
-0.29379299 -14.091797 -12.431152 7
-0.295349 -14.132812 -12.405762 7
-0.303482 -14.210938 -12.416504 7
-0.31602499 -14.314453 -12.451172 7
-0.32197601 -14.380859 -12.449219 7
-0.32353199 -14.420898 -12.422852 7
-0.31485 -14.40332 -12.341309 7
-0.32372999 -14.485352 -12.354492 7
-0.33480799 -14.581055 -12.378906 7
-0.34661901 -14.681641 -12.407715 7
-0.34158301 -14.683594 -12.345215 7
-0.50666797 -17.685547 -10.547852 7
-0.52818298 -17.882812 -10.557129 7
-0.63503999 -19.55957 -9.3330078 7
-0.335098 -8.6308594 18.980469 7
-0.33282501 -8.5400391 19.005859 7
-0.33506799 -8.5058594 19.041504 7
-0.342529 -8.4892578 19.114746 7
-0.34402499 -8.453125 19.14502 7
-0.34327701 -8.4082031 19.160156 7
0.098311998 16.663086 2.8852539 7
0.107117 16.59668 2.840332 7
0.111588 16.56543 2.7988279 7
0.11676 16.527344 2.7568359 7
0.119797 16.507812 2.7163091 7
0.12352 16.480469 2.675293 7
0.124344 16.478516 2.636719 7
0.13389599 16.405273 2.593262 7
0.083313003 16.801758 -0.34814501 7
0.083434999 16.797852 -0.38769501 7
0.080642998 16.81543 -0.43017599 7
0.080765001 16.810547 -0.46923801 7
0.085205004 16.771484 -0.50439501 7
0.088211 16.744141 -0.54101598 7
0.083282001 16.780273 -0.584961 7
0.081940003 16.786133 -0.62646502 7
-0.045441002 17.232422 -3.702637 7
-0.041733 17.192383 -3.734375 7
-0.038741998 17.157227 -3.7675779 7
-0.033615001 17.105469 -3.795898 7
-0.034224998 17.098633 -3.8378911 7
-0.38195801 -8.1767578 -16.302246 7
-0.377426 -8.203125 -16.250977 7
-0.379044 -8.25 -16.242188 7
-0.38221699 -8.3007812 -16.243164 7
-0.386917 -8.3564453 -16.254395 7
-0.390854 -8.4111328 -16.260742 7
-0.39555401 -8.4677734 -16.271973 7
-0.400253 -8.5244141 -16.283203 7
-0.40805101 -8.5908203 -16.31543 7
-0.41735801 -8.6640615 -16.357422 7
-0.42513999 -8.7314453 -16.388672 7
-0.43446401 -8.8037109 -16.429688 7
-0.43455499 -8.8447266 -16.408691 7
-0.43234301 -8.8789062 -16.37207 7
-0.296783 -10.666016 -14.060059 7
-0.292236 -10.681641 -14.005371 7
-0.28384399 -10.680664 -13.927734 7
-0.27623001 -10.682617 -13.855469 7
-0.275543 -10.714844 -13.825195 7
-0.27717599 -10.756836 -13.809082 7
-0.28421 -10.823242 -13.825195 7
-0.28816199 -10.875977 -13.823242 7
-0.25665301 -12.827148 -11.80957 7
-0.26136801 -12.881836 -11.803711 7
-0.269196 -12.954102 -11.814453 7
-0.27780199 -13.030273 -11.829102 7
-0.29264799 -13.169922 -11.844727 7
-0.29273999 -13.201172 -11.813477 7
-0.293594 -13.236328 -11.786133 7
-0.298309 -13.291016 -11.778809 7
-0.310013 -13.384766 -11.808105 7
-0.50540203 -16.696289 -9.9458008 7
-0.57543898 -17.953125 -8.8515615 7
-0.57630903 -17.981445 -8.8120117 7
-0.57653803 -18.030273 -8.7265615 7
-0.58361799 -18.098633 -8.7089844 7
-0.58837903 -18.15332 -8.6831055 7
-0.37428299 -11.148438 16.569824 7
-0.35539201 -11.029297 16.484375 7
-0.35540801 -10.994141 16.510254 7
-0.361725 -10.950195 16.599609 7
-0.325928 -7.9863281 18.0625 7
-0.325928 -7.9472661 18.081543 7
-0.32435599 -7.9033198 18.089844 7
-0.32672101 -7.8710942 18.124512 7
-0.32988 -7.8417969 18.163574 7
-0.33616599 -7.8212891 18.224609 7
0.100677 15.758789 2.5537109 7
0.09082 15.835938 2.5219729 7
0.090926997 15.837891 2.484375 7
0.094100997 15.817383 2.445801 7
0.101105 15.767578 2.405762 7
0.106583 15.729492 2.366699 7
0.110504 15.701172 2.328125 7
0.112152 15.691406 2.2905271 7
0.116089 15.664062 2.2524409 7
0.118484 15.648438 2.214844 7
0.120132 15.638672 2.1777339 7
0.122513 15.62207 2.140137 7
0.117279 15.664062 2.10498 7
0.068207003 15.949219 -0.66796899 7
0.071364999 15.921875 -0.70165998 7
0.076797001 15.876953 -0.73290998 7
0.077666998 15.865234 -0.77002001 7
0.080048002 15.841797 -0.80468798 7
0.076355003 15.865234 -0.84570301 7
0.076447003 15.859375 -0.88330102 7
0.076568998 15.854492 -0.92040998 7
0.077437997 15.842773 -0.95703101 7
-0.057342999 16.143555 -4.1665039 7
-0.057144001 16.116211 -4.2426758 7
-0.053252999 16.075195 -4.2705078 7
-0.053130999 16.061523 -4.308105 7
-0.047729 16.008789 -4.3320308 7
-0.052841 16.018555 -4.4213872 7
-0.054260001 16.016602 -4.4628911 7
-0.27124 -9.4736328 -13.431641 7
-0.26643401 -9.4892578 -13.380371 7
-0.25430301 -9.4765615 -13.285156 7
-0.25276199 -9.5039062 -13.252441 7
-0.25608799 -9.5507812 -13.249023 7
-0.257797 -9.5917969 -13.23584 7
-0.26194799 -9.6416016 -13.237305 7
-0.26528901 -9.6884766 -13.233887 7
-0.27514601 -9.7617188 -13.267578 7
-0.27523801 -9.7958984 -13.244141 7
-0.272888 -9.8203115 -13.206543 7
-0.26481599 -9.8222656 -13.135742 7
-0.250137 -11.862305 -11.291016 7
-0.25268599 -11.904297 -11.275879 7
-0.25111401 -11.925781 -11.23877 7
-0.243698 -11.921875 -11.178223 7
-0.25285301 -12.025391 -11.166992 7
-0.258652 -12.083008 -11.16748 7
-0.26771501 -12.15625 -11.184082 7
-0.45796201 -15.391602 -9.3354492 7
-0.46707201 -15.469727 -9.3349609 7
-0.48269701 -15.585938 -9.3598633 7
-0.475418 -15.568359 -9.2939453 7
-0.315826 -10.441406 15.333496 7
-0.315826 -10.408203 15.358398 7
-0.32251 -10.40332 15.419922 7
-0.334167 -10.418945 15.509766 7
-0.34748799 -10.44043 15.608887 7
-0.33918801 -10.373047 15.586914 7
-0.33004799 -10.301758 15.560547 7
-0.33004799 -10.266602 15.585449 7
-0.29304501 -7.4580078 16.967285 7
-0.28971899 -7.4111328 16.964355 7
0.083434999 15.041992 2.1826169 7
0.082718 15.048828 2.1474609 7
0.081313998 15.063477 2.077148 7
0.102051 14.924805 1.896973 7
0.106201 14.896484 1.861328 7
0.108826 14.879883 1.791016 7
0.095291004 14.979492 1.722168 7
0.102661 14.927734 1.686523 7
0.099518001 14.951172 1.6513669 7
0.099624999 14.951172 1.6162111 7
-0.245056 -8.578125 -12.768066 7
-0.245148 -8.6113281 -12.747559 7
-0.22737101 -10.920898 -10.804199 7
-0.23344401 -10.975586 -10.808594 7
-0.24038699 -11.035156 -10.816406 7
-0.239594 -11.05957 -10.785645 7
-0.23452801 -11.064453 -10.733887 7
-0.23547401 -11.09668 -10.711426 7
-0.24498001 -11.167969 -10.731934 7
-0.44033799 -14.4375 -8.8837891 7
-0.44300801 -14.475586 -8.859375 7
-0.458588 -14.584961 -8.8847656 7
-0.45265201 -14.576172 -8.8271484 7
-0.45101899 -14.59082 -8.7861328 7
-0.45626801 -14.642578 -8.7709961 7
-0.45291099 -14.646484 -8.7231445 7
-0.51800501 -15.78418 -7.679688 7
-0.52067602 -15.821289 -7.6508789 7
-0.52334601 -15.856445 -7.621582 7
-0.527771 -15.90332 -7.5986328 7
-0.539047 -15.990234 -7.597168 7
-0.328659 -10.237305 14.529785 7
-0.32693499 -10.199219 14.544922 7
-0.32345599 -10.154297 14.550781 7
-0.326096 -10.133789 14.588867 7
-0.31912199 -10.074219 14.576172 7
-0.320007 -10.046875 14.604492 7
-0.32264701 -10.025391 14.64209 7
-0.327896 -10.015625 14.693848 7
-0.32702601 -9.9804688 14.712891 7
-0.22171 -7.704102 -12.17627 7
-0.22538801 -7.7480469 -12.177734 7
-0.230042 -7.8251948 -12.166016 7
-0.23819 -7.8818359 -12.191895 7
-0.24276701 -7.9277339 -12.197754 7
-0.245529 -7.969727 -12.193848 7
-0.203171 -9.9267578 -10.404785 7
-0.20413201 -9.9580078 -10.385254 7
-0.21781901 -10.069336 -10.40332 7
-0.226089 -10.158203 -10.394531 7
-0.232483 -10.211914 -10.400879 7
-0.228043 -10.220703 -10.35498 7
-0.217316 -10.202148 -10.278809 7
-0.22457901 -10.259766 -10.289062 7
-0.230087 -10.310547 -10.290527 7
-0.243683 -10.395508 -10.330078 7
-0.25187701 -10.458008 -10.344238 7
-0.24745201 -10.46582 -10.297852 7
-0.243912 -10.477539 -10.255859 7
-0.42016599 -13.441406 -8.5668945 7
-0.42115799 -13.469727 -8.5385742 7
-0.414902 -13.459961 -8.4829102 7
-0.424927 -13.53418 -8.4882812 7
-0.43042001 -13.584961 -8.4760742 7
-0.432327 -13.618164 -8.4506836 7
-0.44596899 -13.711914 -8.46875 7
-0.44332901 -13.720703 -8.4262695 7
-0.42895499 -13.666992 -8.340332 7
-0.441681 -13.756836 -8.3540039 7
-0.51944 -15.075195 -7.1337891 7
-0.52682501 -15.154297 -7.0844731 7
-0.52511603 -15.165039 -7.0429692 7
-0.247971 -6.6904302 15.200195 7
-0.247971 -6.6582031 15.216309 7
-0.24980199 -6.6308589 15.242188 7
-0.25897199 -6.6230469 15.310059 7
-0.257126 -6.5849609 15.31543 7
-0.257126 -6.5527339 15.331055 7
-0.41813701 -12.866211 -8.0102539 7
-0.37956199 -11.87207 -7.6835942 7
-0.20877101 -6.0664058 13.68457 7
-0.213806 -6.0498052 13.725586 7
-0.20675699 -6.0029302 13.703125 7
-0.20575 -5.9716802 13.711914 7
-0.20675699 -5.945312 13.731445 7
-0.212799 -5.9316411 13.777344 7
-0.21580499 -5.9091802 13.807129 7
-0.21580499 -5.8798828 13.821289 7
-0.21278401 -5.842773 13.819824 7
-0.21278401 -5.813477 13.833496 7
-0.21781901 -5.795898 13.873535 7
-0.220825 -5.7744141 13.90332 7
-0.22787499 -5.7617192 13.953613 7
0.069458 12.395508 0.93554699 7
0.070525996 12.388672 0.90673798 7
0.070602 12.386719 0.87695301 7
0.071671002 12.378906 0.84863299 7
0.074721999 12.361328 0.821289 7
0.071837999 12.375977 0.79052699 7
0.071929999 12.374023 0.76171899 7
0.073990002 12.361328 0.73339802 7
0.075043 12.353516 0.70507801 7
0.074142002 12.357422 0.67529303 7
0.077179 12.337891 0.647461 7
-0.34396401 -11.073242 -7.3310552 7
-0.35441601 -11.138672 -7.3398442 7
-0.35968 -11.181641 -7.3310552 7
-0.208023 -5.7460942 13.174805 7
-0.201721 -5.702148 13.157715 7
-0.203812 -5.6806641 13.181641 7
-0.20486499 -5.655273 13.200195 7
-0.208038 -5.6347661 13.229004 7
-0.210144 -5.6123052 13.25293 7
-0.210114 -5.5839839 13.266113 7
-0.211182 -5.5585942 13.284668 7
-0.20697001 -5.5205078 13.276855 7
-0.211182 -5.5029302 13.311035 7
-0.22168 -5.4980469 13.376953 7
-0.219574 -5.4658198 13.379395 7
-0.182541 -5.414062 12.497559 7
-0.18252601 -5.3867192 12.510742 7
-0.18252601 -5.360352 12.523438 7
-0.185822 -5.3154302 12.564453 7
-0.194626 -5.3085942 12.618652 7
-0.188034 -5.2675781 12.600098 7
-0.190231 -5.2460942 12.623047 7
-0.190216 -5.219727 12.635742 7
-0.18692 -5.186523 12.632812 7
-0.202347 -5.1933589 12.717773 7
-0.202332 -5.140625 12.742676 7
-0.179047 -5.1044922 12.049316 7
-0.185913 -5.094727 12.093262 7
-0.187057 -5.070312 12.11084 7
-0.185913 -5.0429692 12.118164 7
-0.180161 -5.0058589 12.104004 7
-0.184753 -4.9902339 12.136719 7
-0.18360899 -4.9619141 12.143555 7
-0.17239401 -4.9648442 11.520508 7
-0.171188 -4.9150391 11.539062 7
-0.16639701 -4.8808589 11.530273 7
-0.169983 -4.8642578 11.557617 7
-0.16999801 -4.8408198 11.568848 7
-0.17836 -4.8339839 11.616699 7
-0.177155 -4.8076172 11.623047 7
-0.17306501 -4.5380859 11.222656 7
-0.16558801 -4.5 11.202637 7
-0.204758 -7.3505859 8.8496094 7
-0.203476 -7.328125 8.862793 7
-0.19049101 -7.2714839 8.8398438 7
-0.18270899 -7.2304692 8.831543 7
-0.17883299 -7.2011719 8.8369141 7
-0.181458 -7.1904302 8.8623047 7
-0.181473 -7.1738281 8.8793945 7
-0.18797299 -7.1757808 8.9169922 7
-0.193207 -7.172852 8.9511719 7
-0.13555899 -4.460938 10.544922 7
-0.134262 -4.4375 10.550293 7
-0.134247 -4.4150391 10.561523 7
-0.13555899 -4.3964839 10.577148 7
-0.14465301 -4.391602 10.623535 7
-0.151169 -4.382812 10.660156 7
-0.147247 -4.3535161 10.654785 7
-0.140747 -4.3193359 10.63916 7
-0.143341 -4.3017578 10.660156 7
-0.14204399 -4.2773442 10.665039 7
-0.140747 -4.2539058 10.67041 7
-0.15113799 -4.250977 10.722656 7
-0.15893599 -4.2431641 10.763672 7
-0.16023301 -4.2226558 10.779297 7
-0.16284201 -4.2060552 10.799316 7
-0.157639 -4.1738281 10.789062 7
-0.14711 -4.2431641 10.255859 7
-0.155228 -4.2373052 10.297363 7
-0.159271 -4.2226558 10.322754 7
-0.151154 -4.1875 10.30127 7
-0.153854 -4.171875 10.322266 7
-0.135315 -4.1464839 9.7998047 7
-0.138153 -4.1318359 9.8193359 7
-0.126892 -4.0917969 9.7890615 7
-0.13110401 -4.0800781 9.8139648 7
-0.133911 -4.0644531 9.8339844 7
-0.128281 -4.0341802 9.8237305 7
-0.13110401 -4.0195308 9.8432617 7
-0.138138 -4.0107422 9.878418 7
-0.139542 -3.9931641 9.8930664 7
-0.132507 -3.9423831 9.8867188 7
-0.13249201 -3.921875 9.8959961 7
-0.132507 -3.882812 9.9150391 7
-0.182772 -5.7619901 13.689417 7
-0.20721 -4.9927058 11.662098 7
-0.24116001 -4.8360448 12.141621 7
-0.161193 -4.2776809 10.573979 7
-0.34166801 -12.857703 -8.2536097 7
-0.478499 -15.230108 -7.2177129 7
-0.26928899 -5.9539351 14.213384 7
-0.224088 -5.3337011 12.838002 7
-0.174326 -4.8030238 11.660739 7
-0.28624201 -7.2654152 8.7054415 7
-0.208683 -4.3458161 10.64979 7
-0.154586 -3.9771459 9.8310814 7
0.0042710002 14.778356 1.8717099 7
0.045795999 12.277132 0.66430998 7
-0.45097801 -8.3971176 -16.226597 7
-0.32933101 -9.6932554 -13.241042 7
0.014661 -0.31470501 -1.905982 7
0.030168001 -0.092974 -1.913844 7
0.017743999 -0.226145 -1.909565 7
0.019897999 -0.248873 -1.898737 7
0.016446 -0.27458999 -1.896548 7
0.024444999 -0.29280001 -1.874755 7
0.015013 -0.118258 -1.918334 7
0.025467001 -0.13914999 -1.89671 7
0.024357 -0.163084 -1.894007 7
0.034159999 -0.20511501 -1.866477 7
0.032871999 -0.02698 -1.878232 7
0.031047 -0.050152 -1.8801399 7
0.029412 -0.073440999 -1.881016 7
0.033796001 -0.087911002 -1.8720779 7
0.0095520001 -0.188288 -1.8954411 7
0.016763 -0.23135 -1.871042 7
0.0221 -0.25848001 -1.85263 7
0.033291999 -0.27352399 -1.826972 7
0.015765 -0.112633 -1.881582 7
0.029549999 -0.131515 -1.855592 7
0.025358999 -0.15522601 -1.857983 7
0.027362 -0.17671999 -1.849746 7
0.035445001 -0.195087 -1.83129 7
0.013197 -0.301467 -1.832957 7
0.030827999 -0.31038299 -1.797302 7
0.035115 -0.025626 -1.841355 7
0.024076 -0.048648 -1.8579 7
0.031486001 -0.069771998 -1.84429 7
0.032924 -0.084086999 -1.840451 7
0.015022 -0.221672 -1.840675 7
0.032653 -0.233882 -1.80695 7
0.034968998 -0.25322199 -1.796054 7
0.02427 -0.105526 -1.835307 7
0.026014 -0.126619 -1.8290941 7
0.024751 -0.148444 -1.826856 7
0.029877 -0.16779 -1.814236 7
0.027169 -0.272239 -1.784708 7
0.036033001 -0.286327 -1.763495 7
0.038848002 -0.024278 -1.804688 7
0.024325 -0.046459999 -1.825808 7
0.031991001 -0.066590004 -1.812417 7
0.021749999 -0.18793599 -1.805904 7
0.027171999 -0.20604999 -1.79196 7
0.029498 -0.225077 -1.782017 7
0.016086999 -0.31926599 -1.764868 7
0.023374001 -0.080302998 -1.8089581 7
0.034619998 -0.098497003 -1.789585 7
0.029955 -0.119942 -1.793146 7
0.0153 -0.247373 -1.780658 7
0.027476 -0.26001 -1.756038 7
0.033298001 -0.275401 -1.739898 7
0.027933 -0.023819 -1.79184 7
0.035643999 -0.04329 -1.779577 7
0.015385 -0.141725 -1.79584 7
0.023936 -0.15899301 -1.779086 7
0.02279 -0.172677 -1.777339 7
0.031537 -0.18863399 -1.759546 7
0.026082 -0.29233301 -1.7277189 7
0.032161999 -0.30625501 -1.710674 7
0.02722 -0.062982999 -1.776157 7
0.018869 -0.077610001 -1.786599 7
0.037000999 -0.093705997 -1.7583179 7
0.024014 -0.206835 -1.750401 7
0.023092 -0.226236 -1.745028 7
0.035532001 -0.238086 -1.721385 7
0.022411 -0.114207 -1.7620389 7
0.024317 -0.126535 -1.756979 7
0.033011999 -0.14278799 -1.741008 7
0.040807001 -0.17664 -1.7207381 7
0.021806 -0.25856599 -1.719015 7
0.031245001 -0.27061501 -1.698963 7
0.040734999 -0.28162301 -1.67867 7
0.028023999 -0.028632 -1.750403 7
0.032658 -0.040828001 -1.743378 7
0.023956001 -0.060749002 -1.753698 7
0.028855 -0.072633997 -1.74569 7
0.015393 -0.164397 -1.7469161 7
0.023456 -0.19824199 -1.725286 7
0.02066 -0.31134799 -1.679221 7
0.033821002 -0.31832799 -1.654143 7
0.024367999 -0.090389997 -1.736376 7
0.022744 -0.109284 -1.735476 7
0.034956001 -0.118238 -1.717128 7
0.036984999 -0.135471 -1.7106071 7
0.019551 -0.213627 -1.711583 7
0.032494999 -0.224601 -1.6887619 7
0.024831001 -0.24588101 -1.690977 7
0.037905 -0.25512001 -1.6674581 7
0.032836001 -0.027129 -1.718665 7
0.034086999 -0.038984999 -1.716364 7
0.0228 -0.15486699 -1.712226 7
0.0285 -0.16454799 -1.701793 7
0.027882 -0.27191499 -1.660079 7
0.037774 -0.28148401 -1.640227 7
0.015678 -0.058042001 -1.7263809 7
0.031268999 -0.067735001 -1.705255 7
0.025938001 -0.086300001 -1.709674 7
0.031241 -0.096891001 -1.701108 7
0.017924 -0.18242601 -1.697741 7
0.030884 -0.19389801 -1.676291 7
0.026431 -0.212657 -1.675393 7
0.034940001 -0.292604 -1.624181 7
0.042544998 -0.025420999 -1.682686 7
0.030999999 -0.111935 -1.686604 7
0.025970999 -0.13035201 -1.689055 7
0.041071001 -0.15314101 -1.663529 7
0.026854999 -0.224191 -1.657153 7
0.033183999 -0.23671199 -1.642862 7
0.018003 -0.31298599 -1.622859 7
0.024017001 -0.037448 -1.6935641 7
0.032685999 -0.053532999 -1.681582 7
0.041414 -0.063412003 -1.6697479 7
0.022399999 -0.139871 -1.679239 7
0.027099 -0.171267 -1.664174 7
0.040291999 -0.176596 -1.645299 7
0.023232 -0.25268501 -1.635985 7
0.036981001 -0.25966501 -1.613232 7
0.039558001 -0.089203998 -1.657232 7
0.034235999 -0.106521 -1.660521 7
0.019230001 -0.202877 -1.650916 7
0.036415 -0.20518699 -1.62766 7
0.027252 -0.27468699 -1.605502 7
0.037691999 -0.024153 -1.6556571 7
0.039026 -0.034692001 -1.653496 7
0.044188 -0.049972001 -1.646161 7
0.0066570002 -0.082829997 -1.686578 7
0.030908 -0.115729 -1.651458 7
0.040445 -0.123505 -1.638109 7
0.030142 -0.218849 -1.617981 7
0.032988001 -0.23208199 -1.608036 7
0.033195 -0.060722001 -1.647326 7
0.042288002 -0.069689997 -1.63562 7
0.04414 -0.084637001 -1.631155 7
0.018893 -0.142952 -1.647895 7
0.032476 -0.153818 -1.628369 7
0.031161999 -0.16941901 -1.624843 7
0.029797001 -0.095988996 -1.635267 7
0.02098 -0.18484899 -1.620373 7
0.036494002 -0.117128 -1.612635 7
0.038736999 -0.126203 -1.607751 7
