# .PCD v0.7 - Point Cloud Data file format
VERSION 0.7
FIELDS x y z intensity
SIZE 4 4 4 4
TYPE F F F F
COUNT 1 1 1 1
WIDTH 971
HEIGHT 1
VIEWPOINT 0 0 0 1 0 0 0
POINTS 971
DATA ascii
0.961914 67.826172 27.160645 7
0.93878198 69.197266 27.492676 7
0.972076 67.431641 26.648438 7
1.013733 65.197266 25.640625 7
0.996521 67.662109 23.161133 7
1.004822 67.266602 22.860352 7
0.95535302 71.375977 21.053223 7
0.972534 70.450195 20.621094 7
0.99569702 69.171875 20.100098 7
0.86386102 62.006836 24.277344 7
0.896667 60.536133 23.576172 7
0.92877197 59.09668 22.893555 7
0.92153901 60.827148 20.171875 7
0.91870099 61.027344 20.075684 7
0.92639202 60.717773 19.825195 7
0.94094801 60.076172 19.477539 7
0.81866503 66.898438 19.134277 7
0.836182 66.100586 18.758301 7
0.854065 65.286133 18.381348 7
0.86532599 64.791992 18.09082 7
0.88269001 63.996094 17.727051 7
0.815247 56.829102 22.401855 7
0.83865398 55.921875 21.918457 7
0.82873499 57.794922 18.967285 7
0.84960902 56.960938 18.568848 7
0.85339397 56.855469 18.391602 7
0.813995 58.595703 18.757812 7
0.83352703 57.81543 18.380859 7
0.84136999 57.535156 18.151855 7
0.84582502 57.400391 17.96582 7
0.85775799 56.943359 17.69043 7
0.71319598 63.84668 17.712891 7
0.73294097 63.043945 17.351562 7
0.74511701 62.570312 17.076172 7
0.75961298 61.992188 16.777344 7
0.75610399 62.199219 16.672852 7
0.76315302 61.945312 16.456543 7
0.77032501 61.682617 16.239746 7
0.73403901 53.112305 20.861328 7
0.75116003 52.541016 20.513672 7
0.80450398 50.639648 19.691895 7
0.74566698 54.053711 17.668945 7
0.77182001 53.120117 17.253906 7
0.79608202 52.306641 16.745117 7
0.735901 54.773438 16.904785 7
0.74237102 54.579102 16.711426 7
0.74896199 54.376953 16.517578 7
0.76330602 53.881836 16.243652 7
0.77719098 53.402344 15.978027 7
0.67150903 24.444336 -61.052246 7
0.69610602 23.902344 -60.094727 7
0.63116503 51.100586 19.892578 7
0.66680902 49.980469 19.356934 7
0.69424403 49.129883 18.922852 7
0.676117 50.911133 16.373047 7
0.701599 50.09668 16.007812 7
0.69442701 50.382812 15.961914 7
0.719208 49.59082 15.608398 7
0.74331701 48.818359 15.265137 7
0.67251599 51.572266 14.996094 7
0.68875098 51.058594 14.733398 7
0.69107097 51.021484 14.596191 7
0.70269799 50.666016 14.37793 7
0.59512299 55.103516 13.040039 7
0.57656902 47.62793 18.496582 7
0.61908001 46.416016 17.940918 7
0.634094 46.017578 17.678711 7
0.67288202 44.911133 17.171387 7
0.628021 47.306641 15.060547 7
0.64996302 46.679688 14.762207 7
0.65121502 46.682617 14.644043 7
0.66387898 46.334961 14.429199 7
0.682495 45.806641 14.165527 7
0.62680101 48.009766 13.203613 7
0.63723803 47.724609 13.015137 7
0.64251697 47.597656 12.865723 7
0.648193 47.458984 12.714844 7
0.65640301 47.240234 12.54541 7
0.68252599 46.46875 12.25 7
0.55477899 51.052734 11.047852 7
0.56393403 50.798828 10.876953 7
0.57360798 50.526367 10.703613 7
0.53024298 44.116211 17.018066 7
0.57046503 43.085938 16.541992 7
0.58090198 42.851562 16.34668 7
0.60620099 42.216797 16.016113 7
0.58517498 43.764648 13.719727 7
0.60583502 43.233398 13.461914 7
0.59954798 43.442383 13.409668 7
0.61752301 42.984375 13.175781 7
0.58963001 44.480469 11.138184 7
0.519409 47.139648 8.9521484 7
0.52804601 46.918945 8.8041992 7
0.489319 21.402344 -46.393555 7
0.484772 40.813477 15.736816 7
0.479065 40.989258 15.689941 7
0.50945997 40.297852 15.344727 7
0.52142298 40.047852 15.152832 7
0.532471 40.739258 12.554199 7
0.54623401 40.432617 12.369141 7
0.54061902 40.636719 12.218262 7
0.565552 40.048828 11.963379 7
0.49813801 42.402344 10.154297 7
0.51232898 42.073242 9.9838867 7
0.52121001 41.874023 9.8413086 7
0.52789301 41.734375 9.7114258 7
0.54070997 41.460938 9.4550781 7
0.44436601 44.424805 7.65625 7
0.45602399 44.149414 7.512207 7
0.46514899 43.936523 7.378418 7
0.470184 43.829102 7.2587891 7
0.47015399 38.660156 11.42334 7
0.474915 38.581055 11.306641 7
0.483215 38.422852 11.17041 7
0.48999 38.298828 11.043457 7
0.495758 38.195312 10.921875 7
0.50204498 38.081055 10.798828 7
0.507294 37.989258 10.681641 7
0.51028401 37.948242 10.577148 7
0.51528901 37.860352 10.462402 7
0.52105701 37.755859 10.34375 7
0.52230799 37.75293 10.249023 7
0.52658099 37.682617 10.139648 7
0.530334 37.623047 10.032715 7
0.460388 39.614258 8.9257812 7
0.48016399 39.228516 8.5673828 7
0.490417 39.014648 8.4345703 7
0.49215701 38.996094 8.3364258 7
0.40423599 41.508789 6.3774409 7
0.41095001 41.368164 6.262207 7
0.417694 41.228516 6.1479492 7
-1.29834 -31.425781 62.855469 7
-1.3328249 -31.59082 63.539551 7
0.42892501 36.916016 7.683105 7
0.434387 36.820312 7.5786128 7
0.438171 36.759766 7.4790039 7
0.44226101 36.692383 7.379395 7
0.34417701 39.200195 5.3388672 7
0.34933501 39.104492 5.2363281 7
0.37085 38.672852 5.0117192 7
0.37735 38.546875 4.9086909 7
0.37814301 38.542969 4.816895 7
-1.56839 -60.179688 -37.953125 7
-1.6170959 -61.047852 -38.313477 7
-1.685303 -62.231445 -38.873047 7
-1.526855 -62.5625 -31.740234 7
0.38360599 33.518555 12.336426 7
0.37686199 35.206055 7.0830078 7
0.379181 35.178711 6.9936519 7
0.38562 35.069336 6.8920898 7
0.38821399 35.035156 6.8022461 7
0.397919 34.863281 6.6928711 7
0.405579 34.731445 6.5898442 7
0.41198701 34.620117 6.4897461 7
0.42199701 34.441406 6.3818359 7
0.42636099 34.37207 6.2895508 7
0.29626501 37.268555 4.46875 7
0.295044 37.304688 4.3833008 7
0.331451 36.617188 4.0708008 7
0.33550999 36.546875 3.9794919 7
0.338379 36.5 3.890137 7
-1.4387209 -52.341797 -34.980957 7
-1.502228 -53.341797 -35.487793 7
-1.536316 -53.998047 -35.563965 7
-1.576599 -54.664062 -35.830078 7
-1.617584 -55.34375 -36.100586 7
-1.264313 -51.362305 -30.655273 7
-1.287689 -51.780273 -30.746094 7
-1.144653 -49.78125 -29.186523 7
-1.222015 -51.006836 -29.770508 7
-1.207001 -50.849609 -29.510742 7
-1.335358 -54.431641 -27.433105 7
0.380463 32.337891 5.684082 7
0.38812301 32.214844 5.5913091 7
0.39056399 32.183594 5.5102539 7
0.39303601 32.152344 5.429688 7
0.399719 32.044922 5.340332 7
0.40637201 31.936523 5.250977 7
0.405579 31.961914 5.1772461 7
0.30835 34.027344 2.83252 7
0.312408 33.960938 2.75 7
0.30844101 34.039062 2.672363 7
0.30316201 34.140625 2.5952151 7
0.176056 15.569336 -33.106934 7
-1.2058409 -44.24707 -31.924805 7
-1.221222 -44.522461 -31.966797 7
-1.259155 -45.09375 -32.228027 7
-1.283112 -45.482422 -32.350098 7
-1.352203 -46.541016 -32.793945 7
-1.375122 -46.918945 -32.900391 7
-1.418823 -47.571289 -33.204102 7
-1.442444 -47.960938 -33.313965 7
-1.478271 -48.512695 -33.537598 7
-1.016907 -43.260742 -27.799805 7
-1.068115 -44.018555 -28.15918 7
-1.078491 -44.224609 -28.145996 7
-1.1031801 -44.625 -28.260254 7
-1.132568 -45.15625 -28.305176 7
-1.021729 -44.267578 -26.251465 7
-1.0914 -45.291992 -26.739746 7
-1.056824 -44.875 -26.335938 7
-1.242126 -49.082031 -24.765137 7
0.31185901 29.675781 10.702148 7
0.357849 30.387695 4.784668 7
0.36117601 30.342773 4.70752 7
0.362793 30.327148 4.6342769 7
0.366119 30.282227 4.5576172 7
0.37466401 30.148438 4.472168 7
0.374176 30.167969 4.402832 7
0.36563101 30.320312 4.3452148 7
0.26541099 32.225586 2.159668 7
0.26666301 32.208984 2.0834961 7
0.27276599 32.111328 2.0063479 7
0.27713001 32.041992 1.930176 7
0.283234 31.943359 1.8544919 7
0.124725 14.71875 -31.202148 7
0.068847999 11.973633 -33.383789 7
-1.078064 -38.245117 -29.439941 7
-1.104767 -38.626953 -29.597656 7
-1.129547 -38.987305 -29.734863 7
-1.151611 -39.317383 -29.845703 7
-1.1826169 -39.75293 -30.038086 7
-1.202728 -40.061523 -30.126953 7
-1.225189 -40.398438 -30.237305 7
-1.252319 -40.791016 -30.388672 7
-1.282959 -41.225586 -30.570801 7
-1.3167109 -41.699219 -30.779785 7
-1.340759 -42.058594 -30.896973 7
-0.89993298 -37.479492 -25.882812 7
-0.90295398 -37.576172 -25.817871 7
-0.91375703 -37.768555 -25.821289 7
-0.93466198 -38.083984 -25.911621 7
-0.95944202 -38.448242 -26.034668 7
-0.974518 -38.693359 -26.071289 7
-1.000519 -39.074219 -26.20166 7
-1.011688 -39.272461 -26.203125 7
-0.87814301 -38.664062 -23.399414 7
-0.90612799 -39.072266 -23.530762 7
-0.96215802 -39.837891 -23.884277 7
-0.94253498 -39.644531 -23.631348 7
-1.004425 -40.485352 -24.026367 7
-1.0421751 -42.414062 -21.608398 7
-1.094452 -43.15332 -21.875488 7
0.32827801 28.478516 3.827637 7
0.33300799 28.414062 3.7553711 7
0.33657801 28.366211 3.6845701 7
0.34509301 28.243164 3.608398 7
0.34909099 28.189453 3.5375979 7
0.224548 30.274414 1.2587889 7
0.231171 30.173828 1.188477 7
0.236633 30.091797 1.118652 7
0.243652 29.985352 1.049316 7
0.24948099 29.896484 0.98046899 7
0.076324001 13.711914 -29.171875 7
-1.098083 -35.397461 -28.572754 7
-1.073517 -35.199219 -28.263184 7
-1.094818 -35.563477 -28.283203 7
-1.136444 -36.082031 -28.570801 7
-1.1619869 -36.427734 -28.711426 7
-1.184235 -36.738281 -28.821777 7
-1.2160029 -37.152344 -29.015137 7
-1.235321 -37.432617 -29.09668 7
-0.860291 -34.341797 -24.375488 7
-0.891541 -34.80957 -24.469238 7
-0.93158001 -35.322266 -24.719727 7
-0.95993 -35.761719 -24.782227 7
-0.83563203 -35.588867 -21.805176 7
-0.87246698 -36.073242 -21.999512 7
-0.88809198 -36.30957 -22.030273 7
-0.883789 -36.311523 -21.910156 7
-0.91937298 -36.785156 -22.090332 7
-0.93499798 -37.022461 -22.118652 7
-1.0263669 -39.573242 -20.087402 7
-1.046631 -39.870117 -20.125977 7
-1.051056 -39.97168 -20.059082 7
-0.768372 -19.463867 36.712891 7
0.22998001 26.723633 9.5869141 7
0.238708 26.625 9.4887695 7
0.247894 26.520508 9.3896484 7
0.25952101 26.381836 9.28125 7
0.243744 26.619141 9.2827148 7
0.29037499 27.216797 3.4160161 7
0.30160499 27.082031 3.1508789 7
0.30584699 27.027344 3.0834961 7
0.30883801 26.991211 3.0180659 7
0.31671101 26.882812 2.9482419 7
0.308777 27.00293 2.891113 7
0.185394 28.890625 0.60302699 7
0.193665 28.770508 0.53955102 7
0.200287 28.674805 0.475586 7
0.203705 28.625 0.409668 7
0.208313 28.558594 0.34472701 7
-1.002228 -31.147461 -26.522461 7
-1.013855 -31.385742 -26.470703 7
-1.0502011 -31.806641 -26.708984 7
-1.061157 -31.978516 -26.725586 7
-1.093048 -32.356445 -26.922363 7
-0.75808698 -31.055664 -21.34082 7
-0.73214698 -30.881836 -20.992676 7
-0.71627802 -30.763672 -20.796875 7
-0.71023601 -30.749023 -20.676758 7
-0.69882202 -30.676758 -20.516602 7
-0.68920898 -30.623047 -20.369141 7
-0.72317499 -31.374023 -20.021973 7
-0.73819 -31.583984 -20.055664 7
-0.769714 -31.973633 -20.208008 7
-0.77307099 -32.058594 -20.155273 7
-0.78183001 -32.202148 -20.141113 7
-0.81472802 -32.606445 -20.299316 7
-0.92962599 -35.461914 -18.291016 7
-0.96533197 -35.912109 -18.429199 7
-1.00415 -36.399414 -18.583984 7
-0.97161901 -36.071289 -18.29541 7
0.26821899 25.155273 5.7202148 7
0.26397699 25.222656 5.670898 7
0.27423099 25.100586 5.590332 7
0.2836 24.988281 5.51123 7
0.28945899 24.921875 5.440918 7
0.274414 25.510742 2.5595701 7
0.279358 25.449219 2.4975591 7
0.280853 25.433594 2.437012 7
0.282745 25.412109 2.375977 7
0.28811601 25.34375 2.3139651 7
0.289581 25.328125 2.253418 7
0.179077 26.841797 -0.35986301 7
0.178802 26.842773 -0.42382801 7
0.17941301 26.832031 -0.48681599 7
-0.053955 16.192383 -24.603027 7
-0.062743999 16.195312 -24.745605 7
-0.069426998 16.181641 -24.863281 7
-0.074432001 16.15625 -24.960449 7
-0.070923001 16.069336 -24.958984 7
-0.019501001 9.2246094 -27.380859 7
-0.0046689999 9.0947266 -27.20752 7
-0.021088 9.09375 -27.446289 7
-0.70230103 -28.807617 -19.103516 7
-0.68792701 -28.755859 -18.863281 7
-0.70245397 -28.946289 -18.89502 7
-0.703583 -29.003906 -18.833496 7
-0.72387701 -29.25293 -18.903809 7
-0.72598302 -29.320312 -18.847656 7
-0.74529999 -29.560547 -18.910156 7
0.242035 23.913086 5.0712891 7
0.25018299 23.823242 5.000977 7
0.25967401 23.714844 4.9287109 7
0.262665 23.688477 4.8676758 7
0.26937899 23.615234 4.800293 7
0.25238001 24.145508 1.898438 7
0.25299099 24.140625 1.841797 7
0.25640899 24.100586 1.78418 7
0.26074201 24.047852 1.727051 7
0.25906399 24.073242 1.671387 7
0.26013201 24.061523 1.6142581 7
0.142822 25.476562 -0.97021502 7
0.149048 25.395508 -1.021973 7
0.14501999 25.441406 -1.087402 7
0.15307599 25.335938 -1.136719 7
0.136932 25.533203 -1.21875 7
-0.58340502 -25.418945 -17.337891 7
-0.587677 -25.499023 -17.304688 7
-0.624237 -25.878906 -17.487793 7
-0.63253802 -26.00293 -17.484863 7
-0.63497901 -26.109375 -17.375 7
-0.80758703 -29.450195 -15.623535 7
-0.79904199 -29.404297 -15.504883 7
-0.81567401 -29.605469 -15.527344 7
0.231903 22.430664 4.4111328 7
0.24160799 22.328125 4.344727 7
0.24777199 22.264648 4.2827148 7
0.25042701 22.242188 4.2270508 7
0.254089 22.208008 4.1699219 7
0.231659 22.711914 1.277832 7
0.234283 22.681641 1.225098 7
0.23443601 22.680664 1.171387 7
0.232086 22.709961 1.117676 7
0.23574799 22.667969 1.06543 7
0.238373 22.637695 1.012695 7
0.112305 23.978516 -1.633301 7
0.115936 23.931641 -1.684082 7
0.11908 23.889648 -1.735352 7
0.118225 23.892578 -1.793457 7
0.117859 23.889648 -1.8505861 7
-0.033844002 10.828125 -22.541504 7
-0.78597999 -21.574219 -22.123535 7
-0.794891 -21.692383 -22.140625 7
-0.80050701 -21.786133 -22.131836 7
-0.80069 -21.841797 -22.080078 7
-0.56137103 -21.470703 -18.742188 7
-0.55664098 -21.478516 -18.655273 7
-0.56661999 -21.603516 -18.675781 7
-0.57791102 -21.783203 -18.651855 7
-0.59988397 -22.001953 -18.757324 7
-0.61096197 -22.135742 -18.783203 7
-0.59533697 -22.057617 -18.617676 7
-0.563568 -23.380859 -16.365234 7
-0.58016998 -23.566406 -16.419434 7
-0.59017903 -23.692383 -16.42627 7
-0.58923298 -23.724609 -16.362793 7
-0.59762597 -23.836914 -16.358887 7
-0.60598803 -23.949219 -16.354004 7
-0.77615398 -27.208984 -14.512695 7
-0.79007 -27.373047 -14.520508 7
0.21926901 21.169922 3.797852 7
0.222626 21.140625 3.7446289 7
0.231354 21.052734 3.6850591 7
0.228241 21.092773 3.6391599 7
0.2323 21.061523 3.535645 7
0.084747002 22.597656 -2.2626951 7
0.088623002 22.547852 -2.3095701 7
0.088225998 22.543945 -2.363281 7
0.086212002 22.557617 -2.420898 7
0.083159998 22.583008 -2.4794919 7
0.076903999 22.641602 -2.5449221 7
-0.665802 -18.304688 -20.772461 7
-0.66363502 -18.341797 -20.711426 7
-0.67251599 -18.449219 -20.734863 7
-0.683685 -18.573242 -20.775391 7
-0.69488502 -18.696289 -20.81543 7
-0.70376599 -18.805664 -20.837891 7
-0.71786499 -18.947266 -20.899414 7
-0.72674602 -19.056641 -20.920898 7
-0.72457898 -19.092773 -20.85791 7
-0.52789301 -19.268555 -17.917969 7
-0.51315302 -19.251953 -17.720215 7
-0.50921601 -19.267578 -17.645996 7
-0.51693702 -19.366211 -17.65332 7
-0.526398 -19.477539 -17.672363 7
-0.53643799 -19.592773 -17.694824 7
-0.54260302 -19.724609 -17.64209 7
-0.49426299 -20.987305 -15.350586 7
-0.50140399 -21.082031 -15.344238 7
-0.514404 -21.22168 -15.373535 7
-0.52795398 -21.367188 -15.405762 7
-0.53164703 -21.433594 -15.375977 7
-0.52713001 -21.435547 -15.296875 7
-0.54184002 -21.59082 -15.334961 7
-0.55777001 -21.753906 -15.379395 7
-0.56900001 -21.881836 -15.39502 7
-0.73419201 -25.044922 -13.492676 7
-0.753052 -25.240234 -13.527832 7
-0.814026 -26.481445 -12.456543 7
-0.80950898 -26.472656 -12.37207 7
-0.81317103 -26.535156 -12.325195 7
-0.82797199 -26.696289 -12.328613 7
0.19281 20.117188 3.4868159 7
0.187195 20.179688 3.444824 7
0.193634 20.120117 3.391602 7
0.201782 20.042969 3.3369141 7
0.20648199 20.000977 3.285645 7
0.210632 19.963867 3.235352 7
0.18399 20.347656 0.29492199 7
0.18866 20.298828 0.25048801 7
0.18536399 20.330078 0.200195 7
0.18432599 20.338867 0.15136699 7
0.189606 20.282227 0.107422 7
0.19085699 20.267578 0.060547002 7
0.187012 20.304688 0.0097660003 7
0.055603001 21.364258 -2.582031 7
0.050629001 21.40625 -2.6420901 7
0.049042001 21.414062 -2.695801 7
0.054290999 21.352539 -2.7358401 7
0.057280999 21.314453 -2.7797849 7
0.058533002 21.292969 -2.827637 7
0.063231997 21.235352 -2.8681641 7
-0.617737 -16.121094 -19.824707 7
-0.60684198 -16.107422 -19.702637 7
-0.61804199 -16.220703 -19.747559 7
-0.65573102 -16.488281 -19.989746 7
-0.67617798 -16.65625 -20.101562 7
-0.67388898 -16.693359 -20.043457 7
-0.67218 -16.731445 -19.990234 7
-0.487122 -17.451172 -16.958984 7
-0.475586 -17.417969 -16.838379 7
-0.481262 -17.49707 -16.834473 7
-0.47647101 -17.506836 -16.759766 7
-0.482178 -17.586914 -16.754883 7
-0.50143403 -17.755859 -16.842285 7
-0.51577801 -17.891602 -16.895996 7
-0.49835199 -17.900391 -16.648438 7
-0.468658 -19.285156 -14.612305 7
-0.47003201 -19.332031 -14.574219 7
-0.481323 -19.450195 -14.594238 7
-0.498169 -19.609375 -14.647461 7
-0.51254302 -19.750977 -14.685059 7
-0.506531 -19.744141 -14.602051 7
-0.51098597 -19.8125 -14.580078 7
-0.68441802 -22.964844 -12.790039 7
-0.67837501 -22.948242 -12.705566 7
-0.68289202 -23.016602 -12.672363 7
-0.69976801 -23.18457 -12.69873 7
-0.70861799 -23.287109 -12.686035 7
-0.70828199 -23.34668 -12.572266 7
-0.77902198 -24.651367 -11.513184 7
-0.78478998 -24.728516 -11.479004 7
-0.79318202 -24.855469 -11.396484 7
-0.45034799 -13.001953 21.899902 7
-0.44467199 -12.925781 21.886719 7
-0.45980799 -12.951172 22.035645 7
-0.48001099 -13.000977 22.224609 7
0.098297 19.242188 6.3540039 7
0.100281 19.236328 6.3041992 7
0.099792004 19.253906 6.2607422 7
0.166748 19.204102 3.089844 7
0.165649 19.21875 3.0454099 7
0.16271999 19.251953 3.0024409 7
0.18441799 19.057617 2.852051 7
0.188171 19.026367 2.805176 7
0.19134501 19.000977 2.7592771 7
0.193909 18.980469 2.7128911 7
0.197083 18.954102 2.6665039 7
0.18866 19.038086 2.6264651 7
0.188171 19.046875 2.58252 7
0.151154 19.431641 -0.0058590001 7
0.150665 19.433594 -0.052246001 7
0.15274 19.408203 -0.14257801 7
0.16073599 19.329102 -0.180664 7
0.156738 19.362305 -0.275879 7
0.018921001 20.279297 -3.2099609 7
0.024506001 20.217773 -3.245605 7
0.020996001 20.239258 -3.30127 7
0.028380999 20.160156 -3.33252 7
0.030304 20.131836 -3.375488 7
0.032257002 20.103516 -3.418457 7
0.032990001 20.085938 -3.464355 7
-0.59289598 -14.139648 -19.053711 7
-0.61672997 -14.356445 -19.157227 7
-0.61227399 -14.380859 -19.089844 7
-0.42712399 -15.526367 -15.975098 7
-0.427277 -15.567383 -15.937988 7
-0.43395999 -15.647461 -15.944336 7
-0.45519999 -15.853516 -16.006836 7
-0.408966 -17.416992 -13.703125 7
-0.41897601 -17.518555 -13.71875 7
-0.43158001 -17.638672 -13.749023 7
-0.44683799 -17.776367 -13.792969 7
-0.45156899 -17.842773 -13.777344 7
-0.447083 -17.84668 -13.708496 7
-0.45315599 -17.922852 -13.700195 7
-0.471039 -18.079102 -13.758301 7
-0.48236099 -18.191406 -13.77832 7
-0.49105799 -18.28418 -13.782715 7
-0.63604701 -21.168945 -11.823242 7
-0.66531402 -21.450195 -11.857422 7
-0.67865002 -21.580078 -11.866211 7
-0.68472302 -21.65625 -11.842285 7
-0.73672497 -22.823242 -10.62793 7
-0.73819 -22.860352 -10.579102 7
0.15271001 18.214844 2.523438 7
0.165741 18.100586 2.4736331 7
0.169769 18.067383 2.429688 7
0.173767 18.03418 2.3857419 7
0.177765 18.001953 2.3417971 7
0.183685 17.952148 2.297363 7
0.18640099 17.929688 2.253906 7
0.14218099 18.276367 -0.665039 7
0.137115 18.316406 -0.71386701 7
0.138519 18.299805 -0.75537097 7
0.14056399 18.276367 -0.79589802 7
0.142609 18.253906 -0.836914 7
0.137573 18.294922 -0.88574201 7
0.13897701 18.277344 -0.92724597 7
0.0036929999 18.950195 -3.9125979 7
0.0095830001 18.887695 -3.941895 7
-0.53564501 -12.241211 -18.145508 7
-0.52404797 -12.233398 -18.033691 7
-0.51937902 -12.257812 -17.970215 7
-0.52090502 -12.30957 -17.950684 7
-0.53414899 -12.415039 -18.01416 7
-0.54394501 -12.504883 -18.052734 7
-0.54818702 -12.569336 -18.052246 7
-0.553864 -12.639648 -18.061035 7
-0.55880702 -12.708008 -18.064941 7
-0.55896002 -12.753906 -18.035156 7
-0.391449 -13.948242 -15.304688 7
-0.38952601 -13.975586 -15.258301 7
-0.39382899 -14.038086 -15.251953 7
-0.39807099 -14.098633 -15.244629 7
-0.40582299 -14.178711 -15.259277 7
-0.41491699 -14.267578 -15.282715 7
-0.426117 -14.367188 -15.319336 7
-0.36499 -15.864258 -13.043945 7
-0.381073 -15.99707 -13.095703 7
-0.38952601 -16.083984 -13.104004 7
-0.41128501 -16.287109 -13.146973 7
-0.40792799 -16.297852 -13.089355 7
-0.445923 -16.670898 -13.138672 7
-0.62503099 -19.887695 -11.168457 7
-0.63351399 -19.976562 -11.158691 7
-0.65035999 -20.124023 -11.18457 7
-0.63656598 -20.053711 -11.075684 7
-0.64645398 -20.15332 -11.070801 7
-0.63418603 -20.121094 -10.920898 7
-0.70034802 -21.294922 -9.9023438 7
-0.71096802 -21.398438 -9.8920898 7
-0.74804699 -21.697266 -9.9833984 7
0.146484 17.279297 2.1621089 7
0.147278 17.275391 2.121582 7
0.152954 17.231445 2.038574 7
0.151031 17.25 1.999023 7
0.157288 17.198242 1.957031 7
-0.019347999 17.904297 -4.284668 7
-0.011078 17.824219 -4.3051758 7
-0.015717 17.849609 -4.359375 7
-0.0067750001 17.763672 -4.3779302 7
-0.012787 17.798828 -4.436523 7
-0.012665 17.785156 -4.4785161 7
-0.35525501 -12.509766 -14.556641 7
-0.360535 -12.572266 -14.559082 7
-0.35989401 -12.605469 -14.524414 7
-0.37319899 -12.708008 -14.576172 7
-0.379913 -12.779297 -14.585938 7
-0.35257 -14.652344 -12.460938 7
-0.36517301 -14.756836 -12.493164 7
-0.37631199 -14.853516 -12.517578 7
-0.382294 -14.920898 -12.513672 7
-0.37213099 -14.892578 -12.422852 7
-0.37445101 -14.9375 -12.399414 7
-0.38266 -15.017578 -12.407227 7
-0.56707799 -18.204102 -10.536621 7
-0.58062702 -18.34668 -10.506836 7
-0.59249902 -18.452148 -10.513672 7
-0.66970801 -19.84668 -9.2587891 7
-0.67575097 -19.912109 -9.2338867 7
-0.68102998 -19.972656 -9.2050781 7
-0.687805 -20.043945 -9.1821289 7
-0.68866003 -20.073242 -9.137207 7
-0.696899 -20.154297 -9.1191406 7
0.140167 16.367188 1.889648 7
0.13443001 16.414062 1.851562 7
0.12741099 16.473633 1.775391 7
0.13763399 16.391602 1.73584 7
0.141357 16.363281 1.696777 7
0.147369 16.317383 1.619629 7
0.150391 16.294922 1.581055 7
0.155518 16.253906 1.542969 7
0.162994 16.196289 1.466309 7
0.161621 16.206055 1.428223 7
0.15591399 16.251953 1.390137 7
0.151062 16.292969 1.312988 7
-0.035186999 16.739258 -4.800293 7
-0.033661 16.712891 -4.8354492 7
-0.032134999 16.6875 -4.8701172 7
-0.029144 16.650391 -4.9013672 7
-0.434174 -8.7109385 -16.481445 7
-0.42965701 -8.7373047 -16.429688 7
-0.42977899 -8.7792969 -16.408691 7
-0.43450901 -8.8359385 -16.418457 7
-0.44003299 -8.8964844 -16.434082 7
-0.440918 -8.9404297 -16.417969 7
-0.44409201 -8.9931641 -16.41748 7
-0.449615 -9.0527344 -16.432129 7
-0.45666501 -9.1181641 -16.456543 7
-0.46524 -9.1894531 -16.491699 7
-0.47384599 -9.2607422 -16.526367 7
-0.48318499 -9.3349609 -16.565918 7
-0.484833 -9.3818359 -16.553711 7
-0.48959401 -9.4394531 -16.562012 7
-0.47430399 -9.4267578 -16.437012 7
-0.32687399 -11.104492 -14.006836 7
-0.32315099 -11.123047 -13.957031 7
-0.325562 -11.168945 -13.944336 7
-0.32876599 -11.21875 -13.936523 7
-0.333496 -11.275391 -13.937988 7
-0.34213299 -11.349609 -13.962402 7
-0.346863 -11.40625 -13.963379 7
-0.35159299 -11.462891 -13.963867 7
-0.345642 -11.506836 -13.87207 7
-0.338043 -11.506836 -13.798828 7
-0.34274301 -13.564453 -11.935547 7
-0.348297 -13.625 -11.931641 7
-0.347626 -13.652344 -11.89502 7
-0.34771699 -13.683594 -11.862793 7
-0.35403401 -13.748047 -11.861816 7
-0.36267099 -13.824219 -11.873047 7
-0.37207001 -13.90625 -11.888184 7
-0.54162598 -16.986328 -9.9213867 7
-0.54876697 -17.056641 -9.909668 7
-0.55587798 -17.126953 -9.8979492 7
-0.57309002 -17.259766 -9.9267578 7
-0.568542 -17.256836 -9.8671885 7
-0.564789 -17.258789 -9.8100586 7
-0.63958699 -18.558594 -8.6337891 7
-0.301056 -7.6630859 17.98877 7
-0.301819 -7.625 18.012207 7
-0.30261201 -7.5888672 18.035645 7
-0.30496201 -7.5566411 18.069824 7
-0.30731201 -7.5253911 18.103027 7
-0.30648801 -7.483398 18.116211 7
-0.31042501 -7.4550781 18.160156 7
-0.313568 -7.4257808 18.19873 7
-0.31671101 -7.3955078 18.237793 7
-0.29757699 -9.8740234 -13.379883 7
-0.29766801 -9.9082031 -13.356445 7
-0.29861501 -9.9462891 -13.337891 7
-0.305237 -10.007812 -13.352051 7
-0.30941799 -10.057617 -13.351562 7
-0.314392 -10.111328 -13.356445 7
-0.32427999 -10.185547 -13.38916 7
-0.32519501 -10.223633 -13.370117 7
-0.28573599 -12.166016 -11.32666 7
-0.29235801 -12.227539 -11.330566 7
-0.295746 -12.273438 -11.317871 7
-0.29910299 -12.320312 -11.305176 7
-0.292694 -12.317383 -11.243652 7
-0.29852301 -12.375977 -11.242676 7
-0.30352801 -12.428711 -11.237793 7
-0.50283802 -15.71875 -9.3544922 7
-0.50701898 -15.767578 -9.3330078 7
-0.52355999 -15.889648 -9.3603516 7
-0.53597999 -15.985352 -9.3701172 7
-0.60858202 -17.341797 -8.0361328 7
-0.62100202 -17.44043 -8.0356445 7
-0.33377099 -10.232422 15.606934 7
-0.320465 -10.144531 15.555664 7
-0.31463599 -10.088867 15.546875 7
-0.31878701 -10.071289 15.594238 7
-0.328796 -10.079102 15.674805 7
-0.34460399 -10.108398 15.789551 7
-0.342926 -10.067383 15.803711 7
-0.32797199 -9.9736328 15.741699 7
-0.273132 -7.0585942 16.979004 7
0.119934 14.77832 0.94921899 7
0.125793 14.734375 0.88085902 7
0.12912001 14.709961 0.84765601 7
0.129181 14.708008 0.81298798 7
0.13412499 14.671875 0.78076202 7
0.134216 14.669922 0.74658197 7
0.126221 14.725586 0.70849597 7
0.124695 14.735352 0.67334002 7
0.084105998 14.614258 -2.2524409 7
0.082580999 14.616211 -2.289551 7
0.083466001 14.601562 -2.3222661 7
0.085175 14.581055 -2.3535161 7
0.083618 14.583008 -2.391113 7
0.082915999 14.579102 -2.4267581 7
0.083801001 14.564453 -2.4594729 7
0.081482001 14.572266 -2.4985349 7
0.082367003 14.556641 -2.530762 7
-0.29333499 -8.9726562 -12.900879 7
-0.29171801 -9 -12.869629 7
-0.29953 -9.0615234 -12.89209 7
-0.30304 -9.1074219 -12.890137 7
-0.30658001 -9.1533203 -12.887695 7
-0.303253 -9.1728516 -12.846191 7
-0.25701901 -11.12207 -10.867188 7
-0.26916501 -11.206055 -10.900391 7
-0.274414 -11.257812 -10.898926 7
-0.279663 -11.310547 -10.897949 7
-0.284058 -11.359375 -10.89209 7
-0.28244001 -11.378906 -10.856445 7
-0.27825901 -11.388672 -10.808594 7
-0.28521699 -11.449219 -10.814941 7
-0.29046601 -11.500977 -10.8125 7
-0.47775301 -14.662109 -8.9501953 7
-0.47958401 -14.696289 -8.9223633 7
-0.49011201 -14.801758 -8.8916016 7
-0.50326502 -14.921875 -8.8701172 7
-0.50351 -14.969727 -8.7993164 7
-0.50189197 -14.983398 -8.7573242 7
-0.50280797 -15.011719 -8.7250977 7
-0.320831 -9.8476562 14.72998 7
-0.305969 -9.6630859 14.743164 7
-0.31121799 -9.6513672 14.794434 7
-0.326965 -9.6806641 14.901855 7
-0.25472999 -6.7050781 16.094238 7
-0.256439 -6.6748052 16.121094 7
-0.263428 -6.6591802 16.178711 7
-0.26254299 -6.6230469 16.189453 7
-0.260773 -6.5830078 16.194336 7
-0.26162699 -6.5498052 16.21582 7
-0.27124 -6.5400391 16.290039 7
-0.27209499 -6.5068359 16.311035 7
0.113617 14.070312 0.6875 7
0.112854 14.074219 0.65380901 7
0.114624 14.060547 0.62158197 7
0.113861 14.063477 0.58837903 7
0.117371 14.039062 0.55664098 7
0.119141 14.024414 0.524414 7
0.124329 13.987305 0.494629 7
0.12609901 13.972656 0.46240199 7
0.121948 13.999023 0.427246 7
0.123718 13.985352 0.39550799 7
0.118713 14.017578 0.35986301 7
0.118805 14.014648 0.32666001 7
-0.245087 -10.253906 -10.462891 7
-0.25421101 -10.318359 -10.482422 7
-0.26242101 -10.380859 -10.496582 7
-0.27157599 -10.447266 -10.515137 7
-0.271667 -10.475586 -10.490234 7
-0.25912499 -10.449219 -10.405273 7
-0.26101699 -10.482422 -10.388672 7
-0.26831099 -10.541992 -10.397949 7
-0.465179 -13.761719 -8.5639648 7
-0.46438599 -13.779297 -8.527832 7
-0.47265601 -13.845703 -8.5253906 7
-0.47271699 -13.867188 -8.4921885 7
-0.480957 -13.933594 -8.4892578 7
-0.49465901 -14.027344 -8.5058594 7
-0.48025501 -13.974609 -8.4194336 7
-0.481354 -14.024414 -8.3564453 7
-0.239288 -6.3662109 15.274902 7
-0.241119 -6.3378911 15.300781 7
-0.246582 -6.3193359 15.347656 7
0.104492 13.404297 0.30468801 7
0.104584 13.401367 0.27343801 7
0.104675 13.399414 0.242676 7
0.109222 13.367188 0.21386699 7
0.111053 13.351562 0.183594 7
0.108459 13.366211 0.150391 7
0.10675 13.375 0.117676 7
0.102386 13.399414 0.083007999 7
0.103363 13.390625 0.052246001 7
0.102539 13.392578 0.020508001 7
-0.212982 -6.0449219 14.481934 7
-0.219696 -6.0292969 14.533203 7
-0.21679699 -5.992188 14.531738 7
-0.221588 -5.9736328 14.572266 7
-0.220612 -5.9404302 14.581055 7
-0.21963499 -5.90625 14.590332 7
-0.220581 -5.8779302 14.609375 7
-0.227295 -5.8623052 14.660156 7
-0.21575899 -5.8037109 14.61084 7
-0.42373699 -12.161133 -7.6879878 7
-0.43078601 -12.214844 -7.6826172 7
-0.440826 -12.282227 -7.6875 7
-0.20062301 -5.7480469 13.771973 7
-0.19760101 -5.7119141 13.769531 7
-0.202637 -5.695312 13.80957 7
-0.200592 -5.6611328 13.8125 7
-0.20462 -5.641602 13.847168 7
-0.207642 -5.6191411 13.876465 7
-0.205597 -5.5849609 13.879395 7
-0.205597 -5.5556641 13.89209 7
-0.208588 -5.5332031 13.921387 7
-0.212616 -5.5126948 13.956055 7
-0.21963499 -5.4980469 14.006348 7
-0.222656 -5.4755859 14.035645 7
-0.22466999 -5.4511719 14.059082 7
-0.38278201 -11.223633 -7.4599609 7
-0.38290399 -11.245117 -7.4335942 7
-0.382965 -11.264648 -7.40625 7
-0.391357 -11.322266 -7.4077148 7
-0.399872 -11.400391 -7.3813481 7
-0.41418499 -11.504883 -7.375977 7
-0.195068 -5.4306641 13.233887 7
-0.197174 -5.4082031 13.257324 7
-0.199249 -5.3847661 13.280273 7
-0.20346101 -5.3662109 13.313965 7
-0.200287 -5.3310552 13.311523 7
-0.19918799 -5.3007808 13.318848 7
-0.202362 -5.2792969 13.347168 7
-0.2034 -5.2539058 13.364746 7
-0.20864899 -5.2373052 13.403809 7
-0.21179201 -5.2158198 13.432129 7
-0.174316 -5.1005859 12.586914 7
-0.17648301 -5.078125 12.609375 7
-0.183075 -5.0654302 12.65332 7
-0.18310501 -5.0400391 12.665039 7
-0.17865001 -5.0039058 12.65625 7
-0.17645299 -4.9726558 12.657715 7
-0.179749 -4.953125 12.685059 7
-0.18414301 -4.9355469 12.718262 7
-0.188538 -4.9179692 12.750977 7
-0.188538 -4.891602 12.763184 7
-0.179352 -4.8232422 12.172852 7
-0.17013501 -4.7792969 12.143066 7
-0.167999 -4.7841802 11.574219 7
-0.16918901 -4.7636719 11.59082 7
-0.164368 -4.7304692 11.581055 7
-0.164368 -4.7060552 11.592773 7
-0.16433699 -4.6806641 11.604492 7
-0.165558 -4.6601558 11.620605 7
-0.17153899 -4.6474609 11.657715 7
-0.178711 -4.6376948 11.700195 7
-0.17392001 -4.6035161 11.689941 7
-0.171509 -4.5751948 11.690918 7
-0.171478 -4.5507808 11.70166 7
-0.171478 -4.5273442 11.712402 7
-0.17144801 -4.500977 11.724121 7
-0.17981 -4.492188 11.770996 7
-0.187012 -4.4814448 11.813477 7
-0.151917 -4.4707031 11.138184 7
-0.16064499 -4.4648442 11.185059 7
-0.14691199 -4.3925781 11.149414 7
-0.15185501 -4.3554692 11.190918 7
-0.207275 -7.2275391 8.9677734 7
-0.18518101 -7.0878911 8.9658203 7
-0.182587 -7.0625 8.9741211 7
-0.194305 -7.061523 9.0458984 7
-0.202484 -6.9931641 8.5854492 7
-0.19302399 -6.9482422 8.5737305 7
-0.190308 -6.9238281 8.5820312 7
-0.191681 -6.9111328 8.6020508 7
-0.19171099 -6.8945308 8.6186523 7
-0.19577 -6.8886719 8.6474609 7
-0.205231 -6.8994141 8.6928711 7
-0.202545 -6.874023 8.7011719 7
-0.19577 -6.8369141 8.6967773 7
-0.195801 -6.820312 8.7128906 7
-0.19445799 -6.7988281 8.7250977 7
-0.19445799 -6.78125 8.7412109 7
-0.191742 -6.7558589 8.7495117 7
-0.191742 -6.7382808 8.7651367 7
-0.191772 -6.7216802 8.78125 7
-0.138855 -4.141602 10.257812 7
-0.14019801 -4.1230469 10.273438 7
-0.141541 -4.1044922 10.288086 7
-0.14425699 -4.0888672 10.308594 7
-0.14965799 -4.077148 10.338867 7
-0.149628 -4.0556641 10.348633 7
-0.153687 -4.0419922 10.374023 7
-0.14825401 -4.0107422 10.363281 7
-0.14285301 -3.980469 10.351562 7
-0.14825401 -3.96875 10.382324 7
-0.149597 -3.9501951 10.396484 7
-0.152283 -3.933594 10.416504 7
-0.159027 -3.922852 10.452148 7
-0.156342 -3.898438 10.451172 7
-0.159027 -3.8808589 10.470703 7
-0.161713 -3.8642581 10.490234 7
-0.167114 -3.8505859 10.520996 7
-0.171783 -6.7158198 8.1040039 7
-0.17038 -6.6962891 8.1157227 7
-0.16897599 -6.6757808 8.1279297 7
-0.16897599 -6.6601558 8.144043 7
-0.180237 -6.6748052 8.1923828 7
-0.183075 -6.6669922 8.2163086 7
-0.185883 -6.6591802 8.2407227 7
-0.18167099 -6.6318359 8.2436523 7
-0.17324799 -6.5908198 8.2353516 7
-0.17746 -6.5869141 8.2631836 7
-0.167603 -6.5429692 8.25 7
-0.17184401 -6.539062 8.277832 7
-0.170441 -6.5185552 8.2900391 7
-0.169037 -6.4980469 8.3007812 7
-0.125214 -3.8066411 9.9091797 7
-0.125214 -3.7871089 9.9179688 7
-0.122467 -3.8154299 9.5107422 7
-0.119537 -3.7724609 9.5185547 7
-0.116608 -3.749023 9.5170898 7
-0.122437 -3.738281 9.546875 7
-0.123901 -3.7216799 9.5610352 7
-0.126801 -3.7080081 9.5800781 7
-0.12826499 -3.691406 9.5942383 7
-0.12533601 -3.6669919 9.5927734 7
-0.123871 -3.644531 9.5966797 7
-0.12384 -3.625 9.6054688 7
-0.12384 -3.6064451 9.6137695 7
-0.12381 -3.585938 9.6230469 7
-0.125275 -3.5693359 9.6362305 7
-0.13839699 -3.570312 9.6914062 7
-0.136932 -3.547852 9.6953115 7
-0.138367 -3.53125 9.7089844 7
-0.18558601 -4.5471039 11.659363 7
-0.20984399 -6.9652529 8.8479767 7
-0.118944 -4.0651112 10.250778 7
-0.086571999 -3.788245 9.3343639 7
-0.084210999 -3.546211 9.4611368 7
-0.27538699 -9.7447453 14.886703 7
-0.67843699 -14.544497 -8.838336 7
-0.19439299 -4.6140079 11.963923 7
-0.26837701 -7.0179138 8.831809 7
-0.227713 -4.173049 10.901125 7
-0.23003399 -6.6429572 8.0585918 7
-0.23072299 -6.4537239 8.307024 7
-0.139798 -3.811415 9.2935848 7
-0.135221 -3.5564311 9.4083385 7
0.017619999 14.444829 0.75515598 7
0.270711 13.874048 0.52791899 7
-0.48475301 -9.2478867 -16.591488 7
-0.446998 -15.273428 -12.607233 7
