# .PCD v0.7 - Point Cloud Data file format
VERSION 0.7
FIELDS x y z intensity
SIZE 4 4 4 4
TYPE F F F F
COUNT 1 1 1 1
WIDTH 1183
HEIGHT 1
VIEWPOINT 0 0 0 1 0 0 0
POINTS 1183
DATA ascii
1.4074399 72.208008 20.787598 7
1.25528 66.697266 19.126953 7
1.243561 67.610352 19.197266 7
1.263031 66.286133 18.684082 7
1.279449 65.174805 18.232422 7
1.206238 72.958984 13.924316 7
1.220337 71.972656 13.582031 7
1.229187 71.375977 13.309082 7
1.246033 70.178711 12.941895 7
1.2618099 69.060547 12.592773 7
1.160767 60.594727 17.064453 7
1.180939 59.462891 16.624512 7
1.154724 61.076172 16.880859 7
1.168915 60.294922 16.533203 7
1.167419 61.580078 13.649414 7
1.166718 61.676758 13.51709 7
1.172699 61.365234 13.306641 7
1.1782531 61.082031 13.102539 7
1.185303 60.706055 12.883301 7
1.194214 60.214844 12.644531 7
1.092712 67.037109 11.950684 7
1.103333 66.4375 11.696777 7
1.1105649 66.043945 11.477051 7
1.122498 65.361328 11.216797 7
1.135651 64.601562 10.948242 7
1.01413 58.09375 16.263672 7
1.040253 56.851562 15.806152 7
1.0808721 54.885742 15.174805 7
1.095612 54.201172 14.868652 7
1.062531 56.957031 12.308594 7
1.072998 56.470703 12.079102 7
1.07663 56.327148 11.914551 7
1.1031801 55.021484 11.540039 7
1.040283 58.264648 11.988281 7
1.0491641 57.857422 11.773926 7
1.06073 57.311523 11.537598 7
1.066681 57.051758 11.354004 7
1.072906 56.774414 11.167969 7
0.960114 63.072266 10.408691 7
0.99658197 61.395508 9.4350586 7
1.001465 61.181641 9.2607422 7
1.01825 60.350586 9.0107422 7
0.93664598 54.748047 15.157715 7
0.95397902 54.035156 14.845215 7
0.98126203 52.883789 14.428711 7
0.99185199 52.464844 14.195312 7
1.022858 51.144531 13.749023 7
0.96463001 54.664062 11.625 7
0.98236102 53.90918 11.354004 7
0.997253 53.283203 11.109863 7
0.998505 53.265625 10.977051 7
1.016327 52.50293 10.714355 7
0.95544398 55.394531 10.682129 7
0.96682698 54.917969 10.470703 7
0.97729498 54.482422 10.267578 7
0.98407 54.213867 10.09375 7
0.98587 54.170898 9.9555664 7
0.87002599 50.983398 13.824219 7
0.89270002 49.932617 13.436035 7
0.91159099 49.243164 13.148926 7
0.944031 48.02832 12.742188 7
0.90719599 50.344727 10.313965 7
0.92071497 49.84668 10.105469 7
0.91635102 50.050781 10.019043 7
0.93612701 49.303711 9.7729492 7
0.95413202 48.623047 9.5410156 7
0.884399 51.639648 9.0400391 7
0.89233398 51.356445 8.8754883 7
0.90112299 51.038086 8.7070312 7
0.90789801 50.799805 8.5512695 7
0.91928101 50.375 8.371582 7
0.92807001 50.054688 8.2080078 7
0.81790203 54.908203 6.7553711 7
0.832977 54.356445 6.4443359 7
0.84796101 53.779297 6.2641602 7
0.79174799 48.254883 12.942383 7
0.81542999 47.472656 12.63916 7
0.83380097 46.871094 12.382324 7
0.85598803 46.138672 12.097656 7
0.88290399 45.238281 11.779297 7
0.82272297 48.105469 9.7158203 7
0.83593798 47.667969 9.5253906 7
0.84213299 47.479492 9.378418 7
0.850128 47.225586 9.2226562 7
0.86349499 46.78125 9.0366211 7
0.80676299 49.134766 7.9941411 7
0.81210297 48.970703 7.8544922 7
0.81958002 48.728516 7.706543 7
0.82513398 48.557617 7.5683589 7
0.83862299 48.100586 7.3969731 7
0.84835798 47.777344 7.2431641 7
0.733643 52.297852 5.6645508 7
0.73336798 45.181641 11.974609 7
0.76263398 44.305664 11.662109 7
0.77810699 43.855469 11.450684 7
0.79193097 43.456055 11.251953 7
0.79699701 43.330078 11.116699 7
0.76507598 45.040039 8.8510742 7
0.79571497 44.121094 8.487793 7
0.79507399 44.166016 8.3881836 7
0.817505 43.50293 8.0756836 7
0.75543201 45.859375 6.6694341 7
0.77172899 45.400391 6.2929692 7
0.77474999 45.323242 6.1767578 7
0.78103602 45.142578 6.050293 7
0.79220599 44.803711 5.9101558 7
0.67746001 42.193359 10.974609 7
0.70547497 41.438477 10.703125 7
0.71716303 41.139648 10.535156 7
0.729065 40.833984 10.367188 7
0.73178101 41.475586 7.6748052 7
0.73062098 41.530273 7.5830078 7
0.73800701 41.341797 7.4560552 7
0.75860602 40.794922 7.1811519 7
0.707977 42.686523 5.0986328 7
0.71124297 42.607422 4.9912109 7
0.71942103 42.387695 4.8730469 7
0.25399801 16.46582 -56.337891 7
0.646698 39.493164 6.8964839 7
0.65035999 39.418945 6.7915039 7
0.65759301 39.250977 6.6748052 7
0.66214001 39.15332 6.5688481 7
0.66668701 39.054688 6.4619141 7
0.67303503 38.910156 6.3505859 7
0.678711 38.78125 6.2416992 7
0.68255597 38.699219 6.1391602 7
0.68713403 38.600586 6.0351558 7
0.690979 38.517578 5.9335942 7
0.69641101 38.394531 5.8276372 7
0.696899 38.398438 5.7363281 7
0.63079798 40.349609 4.4150391 7
0.62814301 40.432617 4.3251948 7
0.64056402 40.124023 4.2084961 7
0.64642298 39.985352 4.10498 7
0.64938402 39.920898 4.0063481 7
0.65460199 39.798828 3.9042971 7
0.55105603 42.716797 1.9599611 7
0.55758703 42.552734 1.85791 7
0.56228602 42.436523 1.756348 7
0.56973302 42.249023 1.65625 7
0.58184803 41.939453 1.556152 7
0.58459502 41.875 1.45752 7
0.590424 41.728516 1.359375 7
0.18652301 14.894531 -51.801758 7
-0.96444702 -26.357422 64.556641 7
0.56161499 37.271484 9.3232422 7
0.58462501 37.867188 3.5341799 7
0.58859301 37.78418 3.4404299 7
0.59179699 37.727539 3.258301 7
0.59671003 37.621094 3.164551 7
0.60607898 37.408203 3.0673831 7
0.60855103 37.359375 2.977051 7
0.61718798 37.163086 2.8818359 7
0.52594 39.494141 0.63720697 7
0.53134203 39.369141 0.546875 7
0.525208 39.519531 0.45019501 7
-0.85678101 -23.84082 57.084473 7
-0.90225202 -24.06543 57.974609 7
0.54498303 34.389648 8.28125 7
0.54821801 34.341797 8.1879883 7
0.54019201 34.550781 8.0595703 7
0.53402698 35.591797 2.808105 7
0.534271 35.594727 2.7241211 7
0.53826898 35.514648 2.6376951 7
0.54418898 35.394531 2.550781 7
0.547943 35.321289 2.464844 7
0.55410802 35.195312 2.378906 7
0.56191999 35.033203 2.29248 7
0.56945801 34.876953 2.206543 7
0.441223 37.749023 0.21386699 7
0.44039899 37.768555 0.124023 7
0.449249 37.578125 0.041992001 7
0.45571899 37.44043 -0.040527001 7
0.46728501 37.191406 -0.118164 7
0.46939099 37.146484 -0.203613 7
0.46746799 37.189453 -0.293457 7
0.094085999 15.513672 -43.204102 7
-0.79922497 -21.995117 52.061523 7
0.48971599 33.823242 2.1264651 7
0.48614499 33.901367 2.047852 7
0.49603301 33.708984 1.965332 7
0.50268602 33.582031 1.884766 7
0.512299 33.395508 1.8037111 7
0.51776099 33.290039 1.724609 7
0.52352899 33.179688 1.645996 7
0.53106701 33.03418 1.5673831 7
0.53424102 32.976562 1.489746 7
0.40759301 35.553711 -0.69677699 7
0.41073599 35.490234 -0.77685499 7
0.42175299 35.269531 -0.84570301 7
0.429535 35.111328 -0.91845697 7
0.43850699 34.930664 -0.98828101 7
0.429382 35.111328 -1.0849611 7
-0.01712 11.744141 -42.876953 7
-1.840057 -64.667969 -27.897949 7
-1.955536 -66.586914 -28.574707 7
0.44879201 30.873047 7.295898 7
0.45596299 30.77832 7.128418 7
0.460693 30.710938 7.0415039 7
0.48642001 31.038086 0.89599597 7
0.487885 31.013672 0.82324201 7
0.49322501 30.917969 0.75244099 7
0.49914601 30.80957 0.68261701 7
0.38052401 32.949219 -1.63916 7
0.384552 32.871094 -1.7099611 7
0.390167 32.764648 -1.777344 7
0.39355499 32.698242 -1.8486331 7
0.399811 32.579102 -1.914062 7
0.02887 13.235352 -37.192871 7
0.039032001 13.082031 -37.041016 7
-1.816528 -56.325195 -32.466309 7
-1.852509 -56.907227 -32.631836 7
-1.901306 -57.670898 -32.902344 7
-1.92981 -58.148438 -33 7
-1.938385 -58.344727 -32.930664 7
-1.940186 -58.446289 -32.804199 7
-1.577271 -54.167969 -28.118164 7
-1.585114 -54.345703 -28.04834 7
-1.606842 -54.723633 -28.085449 7
-1.6500551 -55.412109 -28.286133 7
-1.544373 -53.947266 -27.341309 7
-1.5914609 -54.692383 -27.570801 7
-1.669373 -57.331055 -24.756836 7
-1.773468 -58.9375 -25.317871 7
-0.671417 -18.570312 42.581055 7
0.44259599 29.430664 0.58544898 7
0.444336 29.402344 0.447754 7
0.448181 29.337891 0.31103501 7
0.45080599 29.295898 0.244141 7
0.45443699 29.234375 0.178223 7
0.45291099 29.259766 0.107422 7
0.45550501 29.21582 0.040527001 7
0.34048501 31.06543 -2.269043 7
0.34341401 31.009766 -2.336426 7
0.34704599 30.942383 -2.401855 7
0.34930399 30.898438 -2.4707029 7
0.352936 30.831055 -2.535645 7
-1.515259 -46.734375 -29.492188 7
-1.540283 -47.121094 -29.586426 7
-1.5788569 -47.677734 -29.790039 7
-1.608917 -48.12793 -29.921875 7
-1.625458 -48.408203 -29.940918 7
-1.670258 -49.047852 -30.189453 7
-1.701874 -49.520508 -30.327637 7
-1.729645 -49.945312 -30.432129 7
-1.762054 -50.430664 -30.572754 7
-1.801056 -51 -30.76416 7
-1.837738 -51.541992 -30.93457 7
-1.287384 -45.035156 -25.555664 7
-1.3128361 -45.423828 -25.642578 7
-1.323975 -45.628906 -25.617676 7
-1.354462 -46.085938 -25.740234 7
-1.370239 -46.351562 -25.749023 7
-1.400726 -46.810547 -25.867676 7
-1.432007 -47.277344 -25.990234 7
-1.462494 -47.738281 -26.10498 7
-1.227051 -45.101562 -23.47168 7
-1.316833 -46.344727 -24.010742 7
-1.374481 -47.165039 -24.313477 7
-1.361603 -47.049805 -24.106934 7
-1.447174 -48.242188 -24.603516 7
-1.385559 -48.740234 -21.27002 7
-1.524109 -50.683594 -22.022461 7
-1.5819089 -51.524414 -22.262207 7
0.37405401 27.494141 6.059082 7
0.378052 27.447266 5.9848628 7
0.38201901 27.400391 5.910645 7
0.37972999 27.460938 5.7875981 7
0.41122401 27.49707 -0.333496 7
0.41552699 27.428711 -0.39355499 7
0.41870099 27.376953 -0.45458999 7
0.41775501 27.389648 -0.52050799 7
0.292999 29.155273 -2.952637 7
0.29132101 29.174805 -3.0258789 7
0.29821801 29.058594 -3.078125 7
0.30364999 28.967773 -3.132812 7
0.306061 28.921875 -3.195312 7
0.305511 28.922852 -3.265625 7
-1.497864 -42.984375 -28.366699 7
-1.520416 -43.314453 -28.442871 7
-1.547485 -43.699219 -28.555176 7
-1.616058 -44.637695 -28.887207 7
-1.640656 -44.995117 -28.973145 7
-1.6706541 -45.416992 -29.100586 7
-1.2189029 -40.798828 -24.369141 7
-1.24472 -41.166016 -24.464355 7
-1.253662 -41.330078 -24.431641 7
-1.270447 -41.588867 -24.456055 7
-1.297516 -41.973633 -24.556641 7
-1.325439 -42.368164 -24.661621 7
-1.151794 -41.123047 -21.807617 7
-1.200775 -41.777344 -22.04541 7
-1.254791 -42.49707 -22.31543 7
-1.225708 -42.189453 -22.014648 7
-1.30481 -43.272461 -22.345215 7
-1.3656009 -45.373047 -19.852539 7
-1.4180599 -46.09082 -20.054199 7
-0.46841401 -12.484375 35.558594 7
0.39578199 25.890625 2.2290039 7
0.40402201 25.776367 2.1650391 7
0.40741 25.729492 2.1035161 7
0.41281101 25.655273 2.0415039 7
0.40289301 25.802734 1.98291 7
0.37222299 26.261719 -0.67480499 7
0.37359601 26.238281 -0.73486298 7
0.37374899 26.232422 -0.796875 7
0.37634301 26.193359 -0.85546899 7
0.38211101 26.105469 -0.90966803 7
0.25524899 27.698242 -3.5224609 7
0.25982699 27.624023 -3.5761721 7
0.264404 27.547852 -3.6298831 7
0.26690701 27.500977 -3.6889651 7
0.26269501 27.552734 -3.765625 7
0.26126099 27.5625 -3.835449 7
-1.371338 -37.461914 -26.834473 7
-1.366974 -37.541992 -26.618164 7
-1.392517 -37.875977 -26.727539 7
-1.415405 -38.180664 -26.813477 7
-1.4382631 -38.487305 -26.898926 7
-1.461609 -38.799805 -26.986816 7
-1.102417 -36.033203 -22.573242 7
-1.119995 -36.280273 -22.612793 7
-1.177521 -36.96582 -22.939453 7
-1.039642 -36.548828 -20.036133 7
-1.053223 -36.750977 -20.037109 7
-1.091736 -37.236328 -20.200684 7
-1.1062011 -37.447266 -20.205566 7
-1.140503 -37.93457 -20.24707 7
-1.1589971 -38.194336 -20.274414 7
-1.2128299 -40.132812 -17.867676 7
-1.248749 -40.599609 -17.972656 7
-1.29361 -41.172852 -18.125488 7
-1.278229 -41.03418 -17.941406 7
0.34661901 24.660156 1.949707 7
0.35070801 24.609375 1.891113 7
0.35913101 24.499023 1.831543 7
0.36492899 24.422852 1.773438 7
0.369019 24.370117 1.715332 7
0.376984 24.265625 1.657227 7
0.38278201 24.189453 1.600098 7
0.34320101 24.662109 -1.315918 7
0.34857199 24.585938 -1.365723 7
0.349152 24.573242 -1.422852 7
0.34887701 24.572266 -1.481445 7
0.34597799 24.604492 -1.544922 7
0.229828 25.816406 -4.2055659 7
0.233154 25.749023 -4.3183589 7
-0.16394 14.226562 -27.568359 7
-0.159668 14.132812 -27.548828 7
-0.17315701 14.144531 -27.750488 7
-0.18279999 14.133789 -27.904297 7
-0.13913 7.0048828 -29.741699 7
-1.004425 -32.858398 -20.150879 7
-0.95929003 -32.486328 -19.691895 7
-0.93768299 -32.310547 -19.469238 7
-0.93075597 -32.285156 -19.345703 7
-0.923401 -32.255859 -19.219238 7
-0.972534 -33.225586 -18.748047 7
-0.99603301 -33.518555 -18.816406 7
-1.001953 -33.625977 -18.772949 7
-1.020691 -33.869141 -18.809082 7
-1.049896 -34.22168 -18.90918 7
-1.072449 -34.506836 -18.967285 7
-1.1559449 -36.817383 -16.620117 7
-1.193298 -37.269531 -16.730957 7
-1.2392581 -37.816406 -16.885254 7
0.28112799 23.541016 4.7954102 7
0.27615401 23.612305 4.7485352 7
0.284271 23.521484 4.679688 7
0.290039 23.459961 4.6152339 7
0.32363901 23.345703 1.559082 7
0.32104501 23.381836 1.503906 7
0.32028201 23.393555 1.449219 7
0.331085 23.258789 1.394531 7
0.335419 23.205078 1.339844 7
0.33929399 23.157227 1.2861331 7
0.34551999 23.081055 1.23291 7
0.35076901 23.015625 1.179199 7
0.34393299 23.102539 1.123535 7
0.34314001 23.113281 1.068848 7
0.34375 23.106445 1.014648 7
0.34759501 23.057617 0.96093798 7
0.308929 23.424805 -1.60498 7
0.31277499 23.371094 -1.653809 7
0.314758 23.34082 -1.705566 7
0.31814599 23.291992 -1.7548831 7
0.315063 23.325195 -1.81543 7
0.317047 23.293945 -1.866699 7
0.31951901 23.257812 -1.91748 7
0.17892499 24.621094 -4.5351558 7
0.18414301 24.544922 -4.578125 7
0.18707301 24.496094 -4.6274409 7
0.190918 24.435547 -4.6733398 7
0.192444 24.404297 -4.726562 7
0.194916 24.361328 -4.7763672 7
-1.026794 -27.533203 -23.322754 7
-1.0285029 -27.604492 -23.268555 7
-1.037872 -27.742188 -23.273438 7
-1.052765 -27.925781 -23.319336 7
-1.068207 -28.116211 -23.368164 7
-1.079071 -28.265625 -23.381836 7
-1.125488 -28.725586 -23.662109 7
-0.82144201 -28.867188 -17.449707 7
-0.82162499 -28.911133 -17.380859 7
-0.83706701 -29.102539 -17.406738 7
-0.86529499 -29.416992 -17.509766 7
-0.87875402 -29.589844 -17.521973 7
-0.87640399 -29.608398 -17.436035 7
-0.89239502 -29.804688 -17.461914 7
-0.90737897 -29.993164 -17.480957 7
-1.070068 -33.207031 -15.350586 7
-1.0973819 -33.524414 -15.409668 7
0.29766801 22.013672 0.92627001 7
0.30432099 21.936523 0.87646502 7
0.31344599 21.829102 0.828125 7
0.31610101 21.798828 0.77783197 7
0.32074001 21.744141 0.72851598 7
0.321381 21.736328 0.67773402 7
0.28561401 21.932617 -2.2597661 7
0.28677401 21.912109 -2.309082 7
0.28640699 21.90918 -2.3618159 7
0.28952 21.864258 -2.407227 7
0.28866601 21.866211 -2.460938 7
0.284302 21.908203 -2.5219729 7
-0.92889398 -24.077148 -22.04834 7
-0.934479 -24.174805 -22.03125 7
-0.94876099 -24.338867 -22.079102 7
-0.96304297 -24.503906 -22.125977 7
-0.97134399 -24.623047 -22.12793 7
-1.018677 -25.045898 -22.417969 7
-0.76974499 -26.267578 -16.391602 7
-0.78570598 -26.449219 -16.42334 7
-0.798401 -26.603516 -16.435059 7
-0.80963099 -26.783203 -16.37207 7
-0.82665998 -26.975586 -16.407715 7
-0.83883703 -27.125 -16.413574 7
-0.96621698 -29.84375 -14.292969 7
-0.97567701 -29.96875 -14.267578 7
-0.99386603 -30.175781 -14.285156 7
-1.019348 -30.488281 -14.263672 7
-1.021759 -30.545898 -14.202148 7
0.26892099 20.882812 0.616211 7
0.27652001 20.798828 0.57080102 7
0.28305101 20.725586 0.52490199 7
0.28640699 20.689453 0.47802699 7
0.28973401 20.651367 0.43115199 7
0.294128 20.601562 0.38574201 7
0.29745501 20.563477 0.33886701 7
0.252716 20.766602 -2.5605471 7
0.256531 20.716797 -2.601074 7
0.259857 20.672852 -2.6425779 7
0.25518799 20.713867 -2.702148 7
0.25692701 20.686523 -2.7470701 7
0.25903299 20.65332 -2.7919919 7
0.255463 20.682617 -2.8491211 7
-0.176727 8.3300781 -23.388184 7
-0.85626203 -21.072266 -21.057129 7
-0.84890699 -21.072266 -20.952148 7
-0.85543799 -21.169922 -20.94873 7
-0.92736799 -21.776367 -21.368652 7
-0.91772503 -21.760742 -21.245605 7
-0.70278901 -21.912109 -17.84668 7
-0.71283001 -22.033203 -17.859863 7
-0.71758997 -22.112305 -17.837891 7
-0.73336798 -22.276367 -17.887695 7
-0.74221802 -22.388672 -17.89209 7
-0.687195 -23.4375 -15.557617 7
-0.68212903 -23.433594 -15.471191 7
-0.68576002 -23.500977 -15.436035 7
-0.69695997 -23.630859 -15.444336 7
-0.71218902 -23.793945 -15.475098 7
-0.72354102 -23.963867 -15.425293 7
-0.72372401 -24.003906 -15.368652 7
-0.73837298 -24.162109 -15.394043 7
-0.75244099 -24.317383 -15.416016 7
-0.76425201 -24.454102 -15.423828 7
-0.76846302 -24.527344 -15.388672 7
-0.91177398 -27.321289 -13.390137 7
-0.90612799 -27.303711 -13.297363 7
-0.91793799 -27.442383 -13.287598 7
-0.93496698 -27.625977 -13.30127 7
-0.94656402 -27.825195 -13.155762 7
0.25299099 19.697266 0.29052699 7
0.25024399 19.722656 0.241699 7
0.25094599 19.713867 0.195801 7
0.25335699 19.6875 0.15136699 7
0.260315 19.614258 0.110352 7
0.26614401 19.552734 0.067870997 7
0.26739499 19.537109 0.022949001 7
0.270935 19.498047 -0.020020001 7
0.27679399 19.4375 -0.060547002 7
0.27862501 19.416016 -0.10498 7
0.27529901 19.446289 -0.153809 7
0.27258301 19.47168 -0.20214801 7
0.26757801 19.519531 -0.25292999 7
0.269409 19.49707 -0.29736301 7
0.224823 19.605469 -2.9155271 7
0.228912 19.554688 -2.952637 7
0.23129299 19.521484 -2.9936521 7
0.230316 19.523438 -3.0419919 7
0.228149 19.535156 -3.093262 7
0.231659 19.490234 -3.1308589 7
0.23232999 19.473633 -3.175781 7
0.231323 19.473633 -3.2241211 7
0.226349 19.512695 -3.2827151 7
-0.89349401 -19.775391 -20.29541 7
-0.91448998 -19.959961 -20.394043 7
-0.91894501 -20.038086 -20.375977 7
-0.92157 -20.105469 -20.345703 7
-0.67410302 -19.833984 -17.230957 7
-0.65460199 -19.740234 -17.056641 7
-0.65963697 -19.816406 -17.041504 7
-0.66470301 -19.893555 -17.025879 7
-0.67590302 -20.014648 -17.049316 7
-0.69015503 -20.15625 -17.091797 7
-0.69647199 -20.243164 -17.083496 7
-0.70275903 -20.330078 -17.074219 7
-0.70227098 -20.368164 -17.021973 7
-0.63742101 -21.425781 -14.663574 7
-0.649261 -21.552734 -14.678711 7
-0.66787702 -21.730469 -14.730957 7
-0.67971802 -21.857422 -14.744629 7
-0.68603498 -21.942383 -14.727539 7
-0.683716 -21.960938 -14.661621 7
-0.69186401 -22.060547 -14.65332 7
-0.70678699 -22.210938 -14.682617 7
-0.72543299 -22.391602 -14.731445 7
-0.889557 -25.476562 -12.55957 7
-0.91070598 -25.682617 -12.59375 7
-0.91394001 -25.740234 -12.546387 7
-0.97036701 -26.930664 -11.269531 7
-0.96743798 -26.93457 -11.193848 7
-1.0133671 -27.354492 -11.310059 7
-0.98629802 -27.151367 -11.138672 7
-0.35235599 -11.416992 21.860352 7
-0.33785999 -11.302734 21.770996 7
-0.34478801 -11.28418 21.854004 7
-0.362427 -11.314453 22.023438 7
-0.377563 -11.333008 22.17334 7
-0.35931399 -11.203125 22.05127 7
-0.30465701 -7.9970698 22.96875 7
0.23043799 18.719727 -0.037597999 7
0.22876 18.733398 -0.083495997 7
0.22656199 18.748047 -0.17382801 7
0.23696899 18.645508 -0.208496 7
0.239502 18.618164 -0.25 7
0.246277 18.549805 -0.28759801 7
0.24762 18.53418 -0.33007801 7
0.25134301 18.493164 -0.37011701 7
0.25329599 18.472656 -0.411621 7
0.259583 18.405273 -0.49218801 7
0.245758 18.533203 -0.55078101 7
0.187195 18.671875 -3.2529299 7
0.189087 18.642578 -3.292969 7
0.19103999 18.614258 -3.33252 7
0.19778401 18.539062 -3.359863 7
0.197906 18.52832 -3.4033201 7
0.195007 18.544922 -3.4545901 7
0.193909 18.542969 -3.5014651 7
-0.77130097 -16.592773 -19.319824 7
-0.77273601 -16.648438 -19.289062 7
-0.782013 -16.748047 -19.312988 7
-0.79254198 -16.856445 -19.345215 7
-0.80114698 -16.953125 -19.363281 7
-0.809753 -17.049805 -19.380859 7
-0.82226598 -17.168945 -19.425781 7
-0.83349597 -17.28125 -19.460449 7
-0.84078997 -17.37207 -19.46875 7
-0.84484899 -17.443359 -19.454102 7
-0.82611102 -17.382812 -19.28418 7
-0.587708 -17.439453 -16.27832 7
-0.58261102 -17.449219 -16.20459 7
-0.59384203 -17.560547 -16.232422 7
-0.59658802 -17.618164 -16.207031 7
-0.61303699 -17.763672 -16.267578 7
-0.62295502 -17.866211 -16.286133 7
-0.56781 -19.231445 -13.897461 7
-0.58230603 -19.367188 -13.930664 7
-0.59698498 -19.541016 -13.916992 7
-0.61215198 -19.682617 -13.952637 7
-0.61099201 -19.709961 -13.898926 7
-0.62304699 -19.863281 -13.868652 7
-0.63690197 -19.99707 -13.89502 7
-0.65011603 -20.125 -13.917969 7
-0.79162598 -22.952148 -11.756836 7
-0.79635602 -23.019531 -11.722656 7
-0.81686401 -23.207031 -11.755859 7
-0.82748401 -23.319336 -11.746094 7
-0.91058302 -24.787109 -10.411621 7
-0.259247 -7.6660161 21.221191 7
-0.25790399 -7.6152339 21.228516 7
-0.26657099 -7.5957031 21.317383 7
-0.267914 -7.5527339 21.34668 7
-0.26922601 -7.5087891 21.375488 7
-0.26922601 -7.4619141 21.393066 7
0.220154 17.643555 -0.334961 7
0.220276 17.638672 -0.37695301 7
0.2146 17.6875 -0.42431599 7
0.209534 17.728516 -0.47119099 7
0.20706201 17.746094 -0.515625 7
0.21170001 17.701172 -0.55224597 7
0.219513 17.626953 -0.58544898 7
0.22219799 17.598633 -0.62402302 7
0.227448 17.546875 -0.66015601 7
0.231415 17.507812 -0.69677699 7
0.2341 17.477539 -0.73486298 7
0.236145 17.456055 -0.77343798 7
0.23367301 17.472656 -0.81787097 7
0.237671 17.432617 -0.85400403 7
0.231323 17.484375 -0.90332001 7
0.230133 17.490234 -0.946289 7
-0.67571998 -14.050781 -18.45752 7
-0.68753099 -14.155273 -18.504883 7
-0.68423498 -14.18457 -18.447754 7
-0.687805 -14.248047 -18.4375 7
-0.70581102 -14.383789 -18.525391 7
-0.71856701 -14.585938 -18.506836 7
-0.54559302 -15.655273 -15.650879 7
-0.53195202 -15.615234 -15.52832 7
-0.54171801 -15.710938 -15.550781 7
-0.552185 -15.810547 -15.577637 7
-0.55850202 -15.885742 -15.577148 7
-0.56619298 -15.96875 -15.585938 7
-0.50048798 -17.306641 -13.272949 7
-0.501984 -17.350586 -13.239258 7
-0.51385498 -17.460938 -13.260742 7
-0.523651 -17.558594 -13.271484 7
-0.53414899 -17.65918 -13.284668 7
-0.552948 -17.81543 -13.342773 7
-0.56133997 -17.904297 -13.344727 7
-0.56079102 -17.933594 -13.29834 7
-0.565063 -17.996094 -13.277344 7
-0.57623303 -18.103516 -13.292969 7
-0.57913202 -18.155273 -13.264648 7
-0.586151 -18.233398 -13.257324 7
-0.75207502 -21.273438 -11.144531 7
-0.76812702 -21.418945 -11.161133 7
-0.25738499 -7.1679692 20.183105 7
-0.25174001 -7.0644531 20.172852 7
0.20931999 16.678711 -0.97705102 7
0.207367 16.689453 -1.019043 7
0.218384 16.59082 -1.043457 7
0.213715 16.625977 -1.089355 7
0.221985 16.549805 -1.116699 7
0.225494 16.514648 -1.150879 7
0.228973 16.479492 -1.186035 7
0.224121 16.512695 -1.231445 7
-0.49191299 -13.779297 -15.036621 7
-0.48690799 -13.791016 -14.973145 7
-0.484833 -13.818359 -14.926758 7
-0.482025 -13.84082 -14.875977 7
-0.49087501 -13.924805 -14.895996 7
-0.49829099 -14.000977 -14.906738 7
-0.50717199 -14.084961 -14.92627 7
-0.51382399 -14.157227 -14.931641 7
-0.51467901 -14.199219 -14.902344 7
-0.51116902 -14.21875 -14.847168 7
-0.508362 -14.240234 -14.79541 7
-0.47265601 -15.81543 -12.738281 7
-0.470581 -15.835938 -12.689453 7
-0.47726399 -15.908203 -12.685547 7
-0.48687699 -15.998047 -12.697754 7
-0.493561 -16.070312 -12.693848 7
-0.499542 -16.139648 -12.686523 7
-0.49380499 -16.136719 -12.617676 7
-0.49832201 -16.195312 -12.601562 7
-0.50647002 -16.276367 -12.604492 7
-0.70675701 -19.612305 -10.550781 7
-0.71716303 -19.710938 -10.546387 7
-0.73046899 -19.827148 -10.552734 7
-0.74600202 -19.960938 -10.567871 7
-0.78363001 -20.987305 -9.2387695 7
-0.79257202 -21.073242 -9.2197266 7
-0.80151403 -21.160156 -9.2001953 7
-0.808258 -21.232422 -9.1733398 7
-0.82394397 -21.391602 -9.1259766 7
-0.825562 -21.426758 -9.0800781 7
-0.22619601 -6.766602 18.888672 7
-0.229156 -6.733398 18.926758 7
0.182281 15.927734 -0.98730499 7
0.180206 15.938477 -1.027344 7
0.179626 15.939453 -1.06543 7
0.176117 15.961914 -1.107422 7
0.17477401 15.966797 -1.1474611 7
0.179169 15.925781 -1.1787111 7
0.181427 15.902344 -1.213379 7
0.186584 15.856445 -1.2431639 7
0.18954501 15.826172 -1.2763669 7
0.191101 15.807617 -1.312012 7
0.194061 15.77832 -1.345215 7
0.19632 15.753906 -1.378906 7
0.19931 15.723633 -1.411621 7
0.202301 15.693359 -1.4443361 7
0.20166001 15.691406 -1.482422 7
0.19454999 15.743164 -1.530273 7
0.196808 15.716797 -1.563965 7
-0.56243902 -10.071289 -16.937012 7
-0.56790203 -10.134766 -16.948242 7
-0.57186902 -10.191406 -16.949219 7
-0.578888 -10.260742 -16.970703 7
-0.58663899 -10.332031 -16.996582 7
-0.59365797 -10.399414 -17.01709 7
-0.60067701 -10.46875 -17.037109 7
-0.61230499 -10.556641 -17.087891 7
-0.61627197 -10.614258 -17.087891 7
-0.61712599 -10.660156 -17.067871 7
-0.62338299 -10.726562 -17.08252 7
-0.61505097 -10.737305 -17.001465 7
-0.44101 -12.172852 -14.374512 7
-0.44262701 -12.216797 -14.354492 7
-0.44351199 -12.257812 -14.330078 7
-0.447449 -12.311523 -14.32373 7
-0.45373499 -12.376953 -14.331055 7
-0.46075401 -12.446289 -14.342285 7
-0.43582201 -14.413086 -12.184082 7
-0.439789 -14.46582 -12.169434 7
-0.44912699 -14.547852 -12.182617 7
-0.45773301 -14.626953 -12.19043 7
-0.46404999 -14.693359 -12.1875 7
-0.46414199 -14.724609 -12.152344 7
-0.465027 -14.760742 -12.121094 7
-0.472839 -14.834961 -12.125 7
-0.48376501 -14.927734 -12.144043 7
-0.48849499 -14.985352 -12.131348 7
-0.68576002 -18.314453 -10.007812 7
-0.69751 -18.415039 -10.010254 7
-0.69299299 -18.412109 -9.9487305 7
-0.75988799 -19.672852 -8.6396484 7
-0.76309198 -19.716797 -8.6035156 7
-0.77798498 -19.837891 -8.6054688 7
-0.214325 -6.375977 17.878418 7
0.166565 15.104492 -1.29248 7
0.16131601 15.137695 -1.335938 7
0.162201 15.125977 -1.3701169 7
0.15924101 15.141602 -1.410156 7
0.15933201 15.134766 -1.445801 7
0.16629 15.077148 -1.470703 7
0.167114 15.064453 -1.5048831 7
0.170258 15.03418 -1.535645 7
0.17569 14.986328 -1.563477 7
0.175568 14.978516 -1.599121 7
-0.42092901 -10.9375 -13.791016 7
-0.426727 -10.996094 -13.797852 7
-0.43575999 -11.069336 -13.823242 7
-0.43746901 -11.111328 -13.806152 7
-0.38479599 -12.831055 -11.775879 7
-0.384094 -12.857422 -11.741211 7
-0.378479 -12.859375 -11.681641 7
-0.37777701 -12.885742 -11.646973 7
-0.38357499 -12.945312 -11.64502 7
-0.38287401 -12.97168 -11.610352 7
-0.39276099 -13.051758 -11.628418 7
-0.39773601 -13.106445 -11.621094 7
-0.403534 -13.166016 -11.618164 7
-0.402008 -13.1875 -11.578613 7
-0.401306 -13.213867 -11.543457 7
-0.404663 -13.260742 -11.52832 7
-0.41207901 -13.329102 -11.532715 7
-0.421143 -13.404297 -11.544922 7
-0.61910999 -16.723633 -9.4716797 7
-0.63150001 -16.823242 -9.4790039 7
-0.64389002 -16.922852 -9.4858398 7
-0.64071703 -16.927734 -9.4335938 7
-0.62939501 -16.884766 -9.3500977 7
-0.63766497 -16.958984 -9.3408203 7
-0.69747901 -18.019531 -8.2944336 7
-0.70251501 -18.073242 -8.2675781 7
-0.70425397 -18.105469 -8.2304688 7
-0.697815 -18.085938 -8.1655273 7
-0.70446801 -18.149414 -8.144043 7
-0.70867902 -18.198242 -8.1147461 7
-0.267975 -9.2265615 15.77832 7
-0.25717199 -9.1513672 15.736816 7
-0.25882 -9.1230469 15.768555 7
-0.27795401 -9.1259766 15.924805 7
-0.26550299 -9.0117188 15.894043 7
-0.26632699 -8.9804688 15.92041 7
-0.193848 -6.054688 16.834961 7
-0.194672 -6.0205078 16.85498 7
-0.199646 -5.9970698 16.901855 7
-0.20462 -5.9726558 16.94873 7
-0.195465 -5.9130859 16.90332 7
-0.20047 -5.889648 16.950195 7
0.15136699 14.297852 -1.601562 7
0.15145899 14.291016 -1.635254 7
0.149933 14.294922 -1.671387 7
0.14920001 14.291992 -1.706543 7
0.148499 14.290039 -1.7412111 7
0.15258799 14.253906 -1.768066 7
0.153503 14.240234 -1.800293 7
0.15600599 14.216797 -1.829102 7
0.160126 14.180664 -1.856445 7
0.16180401 14.160156 -1.887207 7
-0.374268 -9.3671885 -13.383789 7
-0.37100199 -9.4228516 -13.319336 7
-0.375458 -9.5068359 -13.29834 7
-0.37396199 -9.5693359 -13.243164 7
-0.374908 -9.6074219 -13.225586 7
-0.378387 -9.6533203 -13.22168 7
-0.37942499 -9.7246094 -13.180176 7
-0.38473499 -9.8125 -13.162598 7
-0.385681 -9.8496094 -13.143555 7
-0.35934401 -11.84082 -11.238281 7
-0.36373901 -11.889648 -11.230957 7
-0.368103 -11.939453 -11.223633 7
-0.375916 -12.005859 -11.232422 7
-0.37686199 -12.040039 -11.208008 7
-0.37439001 -12.056641 -11.16748 7
-0.376221 -12.09375 -11.146484 7
-0.378021 -12.131836 -11.125977 7
-0.57574499 -15.364258 -9.2299805 7
-0.58102399 -15.418945 -9.2133789 7
-0.57937598 -15.433594 -9.1699219 7
-0.566589 -15.385742 -9.0849609 7
-0.57788098 -15.472656 -9.090332 7
-0.58483899 -15.535156 -9.0791016 7
-0.58926398 -15.584961 -9.0585938 7
-0.597076 -15.652344 -9.0498047 7
-0.67193598 -16.99707 -7.7011719 7
-0.674622 -17.033203 -7.6689448 7
-0.69192499 -17.15625 -7.6821289 7
-0.69976801 -17.224609 -7.6655269 7
-0.69729602 -17.230469 -7.6162109 7
-0.69741797 -17.250977 -7.5756841 7
-0.25659201 -8.8984385 14.909668 7
-0.246124 -8.828125 14.873047 7
-0.255768 -8.7998047 14.968262 7
0.134369 13.585938 -1.943848 7
0.13528401 13.571289 -1.974609 7
0.137909 13.546875 -2.0019529 7
0.139679 13.527344 -2.030762 7
0.14483599 13.484375 -2.0537109 7
0.145752 13.470703 -2.0834961 7
0.15005501 13.433594 -2.1079099 7
0.15185501 13.414062 -2.13623 7
0.152771 13.399414 -2.1665039 7
0.152863 13.390625 -2.1977539 7
0.157166 13.352539 -2.2211909 7
-0.31585699 -10.564453 -10.88916 7
-0.315918 -10.591797 -10.863281 7
-0.318726 -10.631836 -10.851562 7
-0.31878701 -10.660156 -10.826172 7
-0.32607999 -10.719727 -10.834961 7
-0.33334401 -10.779297 -10.84375 7
-0.33795199 -10.827148 -10.839844 7
-0.34613001 -10.890625 -10.853027 7
-0.35159299 -10.942383 -10.852539 7
-0.35531601 -10.987305 -10.84375 7
-0.35449201 -11.011719 -10.813477 7
-0.35189801 -11.02832 -10.774414 7
-0.35736099 -11.080078 -10.772949 7
-0.36465499 -11.139648 -10.780762 7
-0.56573498 -14.414062 -8.8847656 7
-0.55157501 -14.40918 -8.7290039 7
-0.55709797 -14.461914 -8.7148438 7
-0.56533802 -14.529297 -8.7099609 7
-0.572662 -14.59082 -8.7016602 7
-0.58178699 -14.662109 -8.6992188 7
-0.62283301 -15.763672 -7.3398442 7
-0.63470501 -15.849609 -7.3383789 7
-0.63931298 -15.895508 -7.3149409 7
-0.64843798 -15.967773 -7.3041992 7
-0.231567 -8.5253906 14.01709 7
-0.170105 -5.422852 15.228027 7
-0.176514 -5.4042969 15.278809 7
-0.180176 -5.3808589 15.312988 7
-0.17193601 -5.329102 15.277344 7
-0.17926 -5.313477 15.333008 7
-0.17923 -5.280273 15.346191 7
0.062896997 13.736328 1.440918 7
0.065734997 13.717773 1.376465 7
0.067718998 13.706055 1.312012 7
0.110748 12.941406 -2.246094 7
0.11618 12.898438 -2.2670901 7
0.120667 12.861328 -2.289062 7
0.120758 12.852539 -2.3193359 7
0.12796 12.798828 -2.335938 7
0.128021 12.790039 -2.3657229 7
0.130768 12.764648 -2.390625 7
0.133514 12.737305 -2.4160161 7
0.13537601 12.717773 -2.4423831 7
0.13366701 12.719727 -2.4755859 7
0.134644 12.704102 -2.503906 7
0.13739 12.678711 -2.527832 7
-0.527924 -13.460938 -8.4086914 7
-0.52243 -13.478516 -8.3242188 7
-0.15734901 -5.398438 14.421875 7
-0.163086 -5.3496089 14.479492 7
-0.154449 -5.2988281 14.444336 7
-0.161163 -5.2841802 14.494141 7
-0.156342 -5.242188 14.480469 7
-0.147705 -5.1914058 14.444336 7
-0.15152 -5.1689448 14.478516 7
-0.157288 -5.1503911 14.523438 7
-0.47552499 -12.386719 -7.9985352 7
-0.139587 -5.0957031 13.697266 7
-0.14361601 -5.0751948 13.730469 7
-0.144592 -5.047852 13.748047 7
-0.139587 -5.007812 13.733398 7
-0.13452099 -4.967773 13.71875 7
-0.13452099 -4.938477 13.730957 7
-0.13452099 -4.9101558 13.742676 7
-0.141541 -4.8955078 13.791504 7
-0.14859 -4.8818359 13.84082 7
-0.14254799 -4.8398442 13.820312 7
-0.14456201 -4.8144531 13.842773 7
0.023894999 12.671875 1.273926 7
0.025939999 12.660156 1.244141 7
0.029967999 12.635742 1.215332 7
0.032012999 12.624023 1.186035 7
0.030121 12.633789 1.155762 7
0.025299 12.662109 1.125488 7
0.027313 12.649414 1.095703 7
0.034302 12.608398 1.0673831 7
0.03241 12.618164 1.037598 7
0.027557001 12.645508 1.0068361 7
0.031585999 12.621094 0.97802699 7
-0.13269 -4.7763672 13.162598 7
-0.136902 -4.7568359 13.195312 7
-0.136871 -4.7285161 13.207031 7
-0.136871 -4.7011719 13.217773 7
-0.14947499 -4.6982422 13.293945 7
-0.146332 -4.6650391 13.289062 7
-0.14105199 -4.625977 13.273438 7
-0.14212 -4.6005859 13.290039 7
-0.14523301 -4.578125 13.316895 7
-0.14312699 -4.545898 13.316895 7
-0.156799 -4.5449219 13.397949 7
-0.16098 -4.5244141 13.430664 7
-0.15676901 -4.4882808 13.419434 7
-0.122223 -4.4648442 12.030273 7
-0.122223 -4.4394531 12.041016 7
-0.122192 -4.414062 12.051758 7
-0.114166 -4.374023 12.025391 7
-0.114166 -4.3496089 12.035645 7
-0.111847 -4.320312 12.035156 7
-0.114136 -4.2988281 12.056641 7
-0.12793 -4.297852 12.130859 7
-0.123322 -4.264648 12.119629 7
-0.119873 -4.234375 12.11377 7
-0.118713 -4.2070308 12.118164 7
-0.118713 -4.1816411 12.128418 7
-0.118713 -4.155273 12.138672 7
-0.109772 -4.1542969 11.561523 7
-0.108582 -4.1279302 11.566406 7
-0.113373 -4.1123052 11.597168 7
-0.121735 -4.1035161 11.644043 7
-0.120514 -4.0761719 11.648926 7
-0.115753 -4.0439448 11.637207 7
-0.118103 -4.023438 11.657715 7
-0.116913 -3.9970701 11.662109 7
-0.118103 -3.9746089 11.677246 7
-0.122894 -3.9589839 11.708008 7
-0.124084 -3.936523 11.722656 7
-0.12524401 -3.9130859 11.737793 7
-0.12646499 -3.890625 11.752441 7
-0.124054 -3.8623049 11.750977 7
-0.130035 -3.847656 11.787598 7
-0.116516 -3.90625 11.216309 7
-0.11026 -3.8486331 11.208008 7
-0.084595002 -3.8095701 10.59668 7
-0.084564 -3.7880859 10.605957 7
-0.098876998 -3.7910161 10.672852 7
-0.101471 -3.773438 10.692383 7
-0.096283004 -3.742188 10.680664 7
-0.096252002 -3.7207029 10.689453 7
-0.089752004 -3.688477 10.671387 7
-0.091034003 -3.667969 10.686035 7
-0.092345998 -3.648438 10.700195 7
-0.094939999 -3.6308589 10.719727 7
-0.105347 -3.625 10.770996 7
-0.104034 -3.6005859 10.774414 7
-0.105316 -3.5800779 10.788574 7
-0.105316 -3.558594 10.796875 7
-0.106598 -3.5380859 10.811035 7
-0.103668 -3.8369141 10.241699 7
-0.103668 -3.8154299 10.250977 7
-0.100952 -3.7900391 10.249023 7
-0.102295 -3.7714839 10.26416 7
-0.096892998 -3.742188 10.251465 7
-0.096892998 -3.7216799 10.260254 7
-0.096892998 -3.7001951 10.269531 7
-0.096892998 -3.679688 10.27832 7
-0.100952 -3.6650391 10.303711 7
-0.110382 -3.6582029 10.349121 7
-0.106323 -3.6308589 10.342285 7
-0.100922 -3.601562 10.330078 7
-0.100891 -3.579102 10.338867 7
-0.100891 -3.558594 10.347168 7
-0.100891 -3.5371089 10.355957 7
-0.103577 -3.5205081 10.375 7
-0.16064499 -6.405273 8.3510742 7
-0.077606 -3.516602 9.831543 7
-0.078979 -3.4980471 9.8461914 7
-0.087433003 -3.4912109 9.8862305 7
-0.093047999 -3.4794919 9.9155273 7
-0.081786998 -3.402344 9.8984385 7
-0.084595002 -3.386719 9.9169922 7
-0.083191 -3.3642581 9.9199219 7
-0.16348299 -6.3935552 7.889648 7
-0.149719 -6.342773 7.8681641 7
-0.14679 -6.3193359 7.8745122 7
-0.14679 -6.3037109 7.8901372 7
-0.14681999 -6.2880859 7.905273 7
-0.14974999 -6.28125 7.9282231 7
-0.152679 -6.273438 7.9516602 7
-0.157074 -6.2695308 7.9790039 7
-0.158539 -6.257812 7.9980469 7
-0.15274 -6.226562 7.996582 7
-0.086364999 -3.4951169 9.5083008 7
-0.077606 -3.4628911 9.4853516 7
-0.074707001 -3.4404299 9.4833984 7
-0.083466001 -3.414062 9.53125 7
-0.08783 -3.382812 9.5634766 7
-0.089263998 -3.3457029 9.5849609 7
-0.084868997 -3.3193359 9.5776367 7
-0.079040997 -3.2919919 9.5639648 7
-0.084868997 -3.2626951 9.6010742 7
-0.095062003 -3.238281 9.6538086 7
-0.17752101 -6.3994141 7.4448242 7
-0.162415 -6.34375 7.4213872 7
-0.177551 -6.3701172 7.4755859 7
-0.177551 -6.3564448 7.4907231 7
-0.170044 -6.3212891 7.4863281 7
-0.16851801 -6.3027339 7.4975591 7
-0.162506 -6.2724609 7.4970698 7
-0.16098 -6.2539058 7.507812 7
-0.14740001 -6.203125 7.4868159 7
-0.142883 -6.1767578 7.4897461 7
-0.148956 -6.1787109 7.5205078 7
-0.14444 -6.1523442 7.523438 7
-0.139893 -6.125977 7.5258789 7
-0.147461 -6.1308589 7.5605469 7
-0.153534 -6.1318359 7.5917969 7
-0.158081 -6.1289058 7.6186519 7
-0.15051299 -6.09375 7.612793 7
-0.088561997 -3.507812 9.1298828 7
-0.076476999 -3.4716799 9.0976562 7
-0.080994003 -3.4599609 9.121582 7
-0.077972002 -3.436523 9.1191406 7
-0.088531002 -3.433594 9.1640615 7
-0.077941999 -3.4003911 9.1362305 7
-0.080994003 -3.386719 9.1542969 7
-0.082488999 -3.3701169 9.1679688 7
-0.074920997 -3.3232419 9.1582031 7
-0.077941999 -3.308594 9.1762695 7
-0.074920997 -3.2861331 9.1738281 7
-0.093047999 -3.2744141 9.2524414 7
-0.088500999 -3.249023 9.2446289 7
-0.086975001 -3.2285161 9.2475586 7
-0.088500999 -3.2119141 9.2602539 7
-0.137482 -6.0712891 7.1367192 7
-0.13906901 -6.0625 7.1547852 7
-0.13906901 -6.0488281 7.1694341 7
-0.13754299 -6.03125 7.1801758 7
-0.13754299 -6.0175781 7.1943359 7
-0.135986 -6 7.2045898 7
-0.14852899 -6.0185552 7.2504878 7
-0.15722699 -6.0283198 7.2880859 7
-0.14785799 -5.9912109 7.2788091 7
-0.15100101 -5.984375 7.3007808 7
-0.14010599 -5.9433589 7.2875981 7
-0.13696299 -5.920898 7.2939448 7
-0.13699301 -5.907227 7.3076172 7
-0.13073701 -5.8779302 7.3056641 7
-0.13855 -5.882812 7.340332 7
-0.127655 -5.8417969 7.3261719 7
-0.132355 -5.8398442 7.3520508 7
-0.075255997 -3.191406 8.8994141 7
-0.081482001 -3.1826169 8.9272461 7
-0.076812997 -3.1582029 8.9194336 7
-0.086181998 -3.1533201 8.9584961 7
-0.076782003 -3.1230471 8.9345703 7
-0.079925999 -3.110352 8.9526367 7
-0.076782003 -3.0878911 8.949707 7
-0.073853001 -3.183594 8.5483398 7
-0.067351997 -3.157227 8.5351562 7
-0.067351997 -3.140625 8.5429688 7
-0.067351997 -3.124023 8.550293 7
-0.072205 -3.113281 8.5742188 7
-0.072205 -3.0957029 8.581543 7
-0.073821999 -3.0810549 8.5942383 7
-0.073821999 -3.0644529 8.6015615 7
-0.073821999 -3.047852 8.6088867 7
-0.077056997 -3.035156 8.6264648 7
-0.077056997 -3.0175779 8.6337891 7
-0.059234999 -2.9775391 8.5839844 7
-0.065704003 -2.96875 8.6118164 7
-0.070556998 -2.957031 8.6347656 7
-0.073792003 -2.945312 8.6523438 7
-0.068939 -2.921875 8.644043 7
-0.067290999 -2.902344 8.6459961 7
-0.077056997 -2.8974609 8.684082 7
-0.083526999 -2.889648 8.7119141 7
-0.069977 -3.199219 8.1928711 7
-0.076691002 -3.1933589 8.2207031 7
-0.080077998 -3.1826169 8.2387695 7
-0.069977 -3.152344 8.2158203 7
-0.073334001 -3.140625 8.2333984 7
-0.073334001 -3.124023 8.2407227 7
-0.073334001 -3.108398 8.2485352 7
-0.069977 -3.0869141 8.2460938 7
-0.073334001 -3.0761721 8.2636719 7
-0.066588998 -3.0498049 8.2504883 7
-0.069977 -3.039062 8.2680664 7
-0.061554 -3.011719 8.25 7
-0.064879999 -2.999023 8.2675781 7
-0.064911 -2.9824221 8.2749023 7
-0.066588998 -2.96875 8.2871094 7
-0.073302999 -2.9619141 8.3149414 7
-0.07666 -2.9501951 8.3325195 7
-0.081726 -2.9404299 8.3549805 7
-0.080017 -2.921875 8.3569336 7
-0.066559002 -2.8876951 8.3227539 7
-0.056701999 -2.8779299 7.9907231 7
-0.058777001 -3.1923831 7.558105 7
-0.064177997 -3.186523 7.5810552 7
-0.056976002 -3.160156 7.5683589 7
-0.058777001 -3.148438 7.5810552 7
-0.058777001 -3.1347661 7.5883789 7
-0.064177997 -3.1279299 7.6113281 7
-0.064177997 -3.1123049 7.6191411 7
-0.064177997 -3.0986331 7.6264648 7
-0.058777001 -3.0761721 7.6186519 7
-0.058777001 -3.0605471 7.625977 7
-0.058777001 -3.046875 7.6333008 7
-0.058777001 -3.03125 7.640625 7
-0.060608 -3.019531 7.6533198 7
-0.065978996 -3.011719 7.6757808 7
-0.058777001 -2.9873049 7.6630859 7
-0.060547002 -2.8701169 7.7250981 7
-0.060547002 -2.855469 7.7319341 7
-0.058745999 -2.8378911 7.7338872 7
-0.060547002 -2.8251951 7.7460942 7
-0.058745999 -2.808594 7.7475591 7
-0.058745999 -2.792969 7.754395 7
-0.058745999 -2.7783201 7.7607422 7
-0.058745999 -2.7636721 7.7680659 7
-0.058715999 -2.7480471 7.7744141 7
-0.065948002 -2.742188 7.8017578 7
-0.065917999 -2.726562 7.808105 7
-0.065948002 -2.7119141 7.8144531 7
-0.064117 -2.6943359 7.8164058 7
-0.065917999 -2.6816411 7.8276372 7
-0.065917999 -2.6669919 7.8339839 7
-0.058715999 -2.641602 7.820312 7
-0.065886997 -2.6347661 7.847168 7
-0.065886997 -2.6191411 7.8540039 7
-0.071289003 -2.6113279 7.8754878 7
-0.069489002 -2.59375 7.8764648 7
-0.080292001 -2.5908201 7.914062 7
-0.31148201 -9.1541414 15.99041 7
-0.086469002 -4.6550059 12.854601 7
-0.139155 -3.9131949 11.452978 7
-0.104862 -3.6612971 10.328012 7
-0.130909 -6.0873232 7.6187458 7
-0.063900001 -3.3961999 9.3528795 7
-0.074616998 -3.2109799 9.5576477 7
-0.097863004 -3.0144179 8.7578239 7
-0.079279996 -3.0931499 8.0935106 7
-0.077312998 -2.9093201 8.2020521 7
-0.050345998 -3.120465 7.4206352 7
-0.048450001 -2.9264719 7.562706 7
-0.052306999 -2.6286311 7.8029032 7
-0.52470702 -14.987451 -8.9684858 7
-0.210145 -8.7710342 14.80287 7
-0.093102001 -3.9050529 11.437236 7
-0.146328 -3.5999629 10.578863 7
-0.108003 -3.339668 9.8417778 7
-0.064627998 -3.3380721 9.049263 7
-0.037741002 -3.14079 8.5572701 7
-0.051082999 -2.949553 8.7371073 7
-0.081736997 -3.187557 8.0794907 7
-0.077063002 -2.98177 8.1637011 7
-0.040943999 -3.171706 7.5514531 7
-0.046386 -3.0066011 7.6772609 7
-0.048069999 -2.8284619 7.7809768 7
-0.057987001 -2.65835 7.9153161 7
-0.040040001 -2.896349 7.432847 7
0.20507701 16.202021 -1.08223 7
0.045124002 13.45499 -2.0652609 7
0.216737 14.889357 -1.540282 7
0.22866599 13.50013 -2.071059 7
