# .PCD v0.7 - Point Cloud Data file format
VERSION 0.7
FIELDS x y z intensity
SIZE 4 4 4 4
TYPE F F F F
COUNT 1 1 1 1
WIDTH 1135
HEIGHT 1
VIEWPOINT 0 0 0 1 0 0 0
POINTS 1135
DATA ascii
1.426147 71.925781 18.710449 7
1.423004 72.313477 18.623047 7
1.4371639 71.05957 18.149414 7
1.45639 69.313477 17.568359 7
1.2876281 65.625 16.693359 7
1.30188 64.650391 16.307617 7
1.291412 65.489258 16.337402 7
1.304932 64.564453 15.967773 7
1.328735 62.883789 15.436035 7
1.34671 61.624023 15.004395 7
1.24646 71.301758 11.216797 7
1.254456 70.755859 10.973145 7
1.265167 70 10.704102 7
1.276306 69.208984 10.434082 7
1.290741 68.166016 10.13623 7
1.3041379 67.198242 9.8535156 7
1.189209 59.921875 14.935059 7
1.199188 59.375977 14.665527 7
1.223145 57.989258 14.215332 7
1.192413 59.900391 14.485352 7
1.1928101 61.013672 11.591797 7
1.206207 60.239258 11.318359 7
1.204834 60.371094 11.193848 7
1.227295 59.036133 10.836914 7
1.241516 58.207031 10.565918 7
1.2110291 60.137695 10.719727 7
1.219788 59.644531 10.500977 7
1.231262 58.982422 10.259277 7
1.123383 66.22168 9.5795898 7
1.136292 65.461914 9.3305664 7
1.141418 65.189453 9.1425781 7
1.152496 64.543945 8.9125977 7
1.160095 64.112305 8.7099609 7
1.167725 63.681641 8.5092773 7
1.053741 57.043945 13.996094 7
1.093781 55.071289 13.428711 7
1.102692 54.668945 13.207031 7
1.1307679 53.292969 12.78125 7
1.095947 56.082031 10.224121 7
1.104889 55.663086 10.024414 7
1.110992 55.386719 9.8486328 7
1.131927 54.347656 9.5615234 7
1.075165 57.364258 9.7314453 7
1.086761 56.803711 9.5141602 7
1.091522 56.595703 9.3486328 7
1.0995179 56.219727 9.1616211 7
1.10675 55.882812 8.9814453 7
1.114899 55.500977 8.7973633 7
0.993469 53.047852 12.876953 7
1.01416 52.170898 12.561035 7
1.026611 51.65918 12.325684 7
1.050323 50.640625 11.987793 7
1.032928 52.350586 9.2827148 7
1.041412 52.03418 8.9853516 7
1.059357 51.25 8.7495117 7
0.99899298 54.176758 8.5107422 7
1.014618 53.529297 8.1708984 7
1.017059 53.453125 8.0336914 7
1.02301 53.244141 7.7524409 7
1.0350651 52.722656 7.5654302 7
0.88897699 50.695312 12.101074 7
0.92312598 49.395508 11.708008 7
0.94119298 48.726562 11.450684 7
0.96432501 47.853516 11.154785 7
0.99554402 46.666016 10.80127 7
0.931885 49.952148 8.6650391 7
0.94860798 49.313477 8.4545898 7
0.94619799 49.439453 8.3535156 7
0.95962501 48.933594 8.1660156 7
0.97406 48.386719 7.9755859 7
0.913513 51.073242 7.2329102 7
0.91998303 50.841797 7.0854492 7
0.92739898 50.568359 6.9350591 7
0.93441802 50.314453 6.7880859 7
0.943726 49.96582 6.6323242 7
0.95043898 49.720703 6.48877 7
0.95871001 49.411133 6.340332 7
0.87295502 53.318359 4.4423828 7
0.81814599 47.966797 11.203125 7
0.86190802 46.461914 10.786133 7
0.87548798 46.019531 10.585449 7
0.896698 45.305664 10.333496 7
0.85848999 47.411133 7.8701172 7
0.871948 46.956055 7.6967769 7
0.87359601 46.922852 7.5800781 7
0.88528401 46.53125 7.4179692 7
0.90295398 45.923828 7.230957 7
0.926422 45.105469 7.0214839 7
0.84170502 48.420898 6.1538091 7
0.84237701 48.420898 6.0380859 7
0.84661901 48.291016 5.9111328 7
0.85647601 47.956055 5.766602 7
0.86260998 47.755859 5.6357422 7
0.873474 47.387695 5.4912109 7
0.77523798 44.453125 10.152344 7
0.79995698 43.704102 9.9003906 7
0.81191999 43.354492 9.7270508 7
0.82931501 42.833008 9.5239258 7
0.85089099 42.178711 9.2988281 7
0.802917 44.328125 7.1245122 7
0.81405598 43.992188 6.976562 7
0.82232702 43.749023 6.8417969 7
0.82428002 43.709961 6.7324219 7
0.83724999 43.31543 6.581543 7
0.83377099 43.448242 6.4936519 7
0.790802 45.197266 4.7573242 7
0.796875 45.017578 4.6376948 7
0.80184901 44.873047 4.5214839 7
0.80541998 44.773438 4.4086909 7
0.80950898 44.658203 4.2954102 7
0.813232 44.553711 4.1835942 7
0.71356201 48.058594 2.4619141 7
0.69561797 42.169922 9.5078115 7
0.71093798 41.763672 9.3291016 7
0.73577899 41.085938 9.1020508 7
0.74096698 40.96582 8.9804688 7
0.73498499 41.740234 6.5029302 7
0.74719203 41.40918 6.3647461 7
0.75433302 41.222656 6.2436519 7
0.76208502 41.019531 6.1230469 7
0.76483202 40.958984 6.0185552 7
0.77035499 40.818359 5.905273 7
0.77749598 40.630859 5.7885742 7
0.71954298 42.672852 3.7744141 7
0.73556501 42.232422 3.550781 7
0.737091 42.202148 3.449707 7
0.743164 42.037109 3.342773 7
0.74325597 42.046875 3.2441411 7
0.68884301 38.823242 5.0351558 7
0.691589 38.767578 4.9379878 7
0.696594 38.654297 4.835938 7
0.70065302 38.561523 4.7363281 7
0.703857 38.493164 4.639648 7
0.70754999 38.425781 4.4511719 7
0.714508 38.256836 4.348145 7
0.71972698 38.135742 4.249023 7
0.71685803 38.223633 4.1645508 7
0.65637201 39.983398 2.867188 7
0.657776 39.957031 2.7719729 7
0.66409302 39.802734 2.672852 7
0.67352301 39.56543 2.57373 7
0.59426898 41.827148 0.066405997 7
0.61160302 37.467773 2.0888669 7
0.61379999 37.421875 2 7
0.61727899 37.34668 1.910645 7
0.62072802 37.271484 1.822266 7
0.62414598 37.196289 1.733887 7
0.62884498 37.089844 1.645996 7
0.53524798 39.426758 -0.67431599 7
0.54138201 39.28125 -0.75927699 7
0.54583699 39.176758 -0.84570301 7
0.55267298 39.013672 -0.92773402 7
0.106659 16.041992 -48.586914 7
-0.82968098 -22.47168 57.102051 7
-0.64804101 -18.373047 54.79248 7
-0.67578101 -18.298828 55.405273 7
0.55767798 34.46582 7.0307622 7
0.56283599 34.374023 6.933105 7
0.57287598 34.179688 6.820312 7
0.55850202 35.248047 1.45752 7
0.55365002 35.359375 1.373535 7
0.554932 35.334961 1.290527 7
0.559753 35.234375 1.208496 7
0.56515503 35.123047 1.126953 7
0.57238799 34.969727 1.045898 7
0.57559198 34.904297 0.96435499 7
0.58578497 34.685547 0.88622999 7
0.58282501 34.753906 0.80273402 7
0.45626801 37.532227 -1.296875 7
0.468079 37.276367 -1.365234 7
0.472626 37.174805 -1.4462889 7
0.48092699 36.993164 -1.519043 7
0.48867801 36.822266 -1.592773 7
-0.70977801 -20.412109 50.939941 7
-0.64034998 -17.038086 50.86377 7
0.51406902 33.485352 0.84912097 7
0.51400799 33.489258 0.77050799 7
0.51510602 33.469727 0.69140601 7
0.52203399 33.333008 0.616211 7
0.52197301 33.335938 0.53759801 7
0.53414899 33.094727 0.46679699 7
0.53555298 33.069336 0.38964799 7
0.54510498 32.87793 0.31884801 7
0.54797399 32.823242 0.243164 7
0.551117 32.762695 0.168457 7
0.40490699 35.677734 -1.898438 7
0.418488 35.401367 -1.956543 7
0.418457 35.398438 -2.0405271 7
0.42828399 35.198242 -2.1040039 7
0.43664601 35.027344 -2.1694341 7
0.444702 34.860352 -2.234863 7
0.44726601 34.804688 -2.312012 7
0.44491601 34.847656 -2.3999021 7
0.44543499 34.832031 -2.4819341 7
0.490753 31.041016 -0.063477002 7
0.493164 30.996094 -0.134766 7
0.498169 30.904297 -0.203125 7
0.50094599 30.853516 -0.27294901 7
0.503052 30.813477 -0.34326199 7
0.51025403 30.679688 -0.40820301 7
0.50695801 30.740234 -0.48486301 7
0.50335699 30.804688 -0.56152302 7
0.405121 32.488281 -3.000977 7
0.405029 32.483398 -3.078125 7
0.40270999 32.518555 -3.1616211 7
-1.6560971 -55.59082 -27.429688 7
-1.728851 -56.708984 -27.836914 7
-1.749939 -57.078125 -27.856934 7
-1.750977 -57.157227 -27.726562 7
-1.803314 -59.43457 -24.585938 7
-1.834198 -59.952148 -24.642578 7
0.453033 29.306641 -0.66455102 7
0.458069 29.219727 -0.727539 7
0.460327 29.179688 -0.79345697 7
0.46395901 29.116211 -0.85742199 7
0.46658301 29.070312 -0.92236298 7
0.47125199 28.987305 -0.98388702 7
0.47695899 28.888672 -1.044434 7
0.46340901 29.116211 -1.1337889 7
0.35925299 30.698242 -3.5610349 7
0.363251 30.621094 -3.6225591 7
0.36001599 30.666992 -3.7045901 7
0.35885599 30.676758 -3.78125 7
-1.920319 -51.569336 -32.733887 7
-1.950134 -52.021484 -32.85498 7
-1.972168 -52.375 -32.910156 7
-1.998108 -52.77832 -32.995605 7
-1.780396 -50.817383 -29.874512 7
-1.803986 -51.189453 -29.936523 7
-1.848206 -51.828125 -30.157715 7
-1.881897 -52.332031 -30.293945 7
-1.916779 -52.853516 -30.4375 7
-1.953613 -53.398438 -30.593262 7
-1.988525 -53.921875 -30.732422 7
-1.418304 -47.095703 -25.344727 7
-1.431793 -47.333008 -25.330078 7
-1.456177 -47.711914 -25.39502 7
-1.501556 -48.366211 -25.61084 7
-1.5314029 -48.818359 -25.710449 7
-1.546844 -49.082031 -25.705078 7
-1.584106 -49.632812 -25.85498 7
-1.4135441 -47.783203 -23.826172 7
-1.475677 -48.664062 -24.14209 7
-1.51062 -49.185547 -24.266602 7
-1.534637 -49.563477 -24.313477 7
-1.635254 -52.323242 -21.782715 7
-1.702637 -53.297852 -22.061523 7
-0.464966 -15.820312 36.69873 7
-0.481354 -15.834961 36.95459 7
0.41601601 27.12207 4.6870122 7
0.45837399 26.797852 1.478516 7
0.45819101 26.803711 1.415527 7
0.461395 26.756836 1.353027 7
0.413544 27.473633 -1.316895 7
0.41784701 27.402344 -1.374512 7
0.42440799 27.296875 -1.4287111 7
0.42648301 27.260742 -1.489746 7
0.42703199 27.24707 -1.5537111 7
0.30487099 28.875977 -4.179688 7
0.30838001 28.810547 -4.237793 7
0.31231701 28.740234 -4.2939448 7
0.311768 28.737305 -4.36377 7
0.306366 28.80957 -4.4492192 7
-1.531036 -43.543945 -27.899414 7
-1.556549 -43.908203 -27.994141 7
-1.573792 -44.176758 -28.022461 7
-1.604279 -44.602539 -28.152344 7
-1.643463 -45.131836 -28.347656 7
-1.6644289 -45.445312 -28.400391 7
-1.684998 -45.754883 -28.44873 7
-1.7221071 -46.262695 -28.62207 7
-1.750549 -46.666992 -28.727539 7
-1.785217 -47.146484 -28.878418 7
-1.805756 -47.458984 -28.919922 7
-1.328339 -42.420898 -24.191406 7
-1.353882 -42.788086 -24.273438 7
-1.362 -42.944336 -24.229004 7
-1.384216 -43.270508 -24.28418 7
-1.417236 -43.728516 -24.415527 7
-1.443573 -44.106445 -24.49707 7
-1.45752 -44.333984 -24.489746 7
-1.3086849 -43.273438 -21.991699 7
-1.359589 -43.956055 -22.225098 7
-1.3378299 -43.738281 -21.975586 7
-1.489594 -47.083984 -19.749023 7
-1.5497741 -47.902344 -19.978516 7
0.404724 25.847656 1.24707 7
0.41134599 25.753906 1.1875 7
0.41796899 25.660156 1.128418 7
0.424164 25.570312 1.0693361 7
0.427582 25.522461 1.010254 7
0.37222299 26.254883 -1.6181639 7
0.37597701 26.195312 -1.673828 7
0.38015699 26.128906 -1.728516 7
0.38211101 26.09082 -1.8486331 7
0.387909 26.000977 -1.898926 7
0.255615 27.599609 -4.526855 7
0.255371 27.59082 -4.5932622 7
0.26452601 27.436523 -4.695312 7
0.275848 27.261719 -4.722168 7
-1.401001 -38.020508 -26.332031 7
-1.4141541 -38.223633 -26.341309 7
-1.429504 -38.450195 -26.366211 7
-1.453369 -38.766602 -26.455566 7
-1.472748 -39.036133 -26.508789 7
-1.49707 -39.360352 -26.598145 7
-1.517334 -39.639648 -26.65625 7
-1.544739 -39.99707 -26.766602 7
-1.5712889 -40.344727 -26.868652 7
-1.59201 -40.632812 -26.925781 7
-1.110687 -36.160156 -22.211426 7
-1.180939 -36.986328 -22.623047 7
-1.214172 -37.405273 -22.768555 7
-1.228668 -37.620117 -22.780273 7
-1.2418211 -37.819336 -22.782227 7
-1.271454 -38.201172 -22.898438 7
-1.286865 -38.426758 -22.913086 7
-1.12973 -37.735352 -19.938477 7
-1.149597 -38.008789 -19.974121 7
-1.184204 -38.452148 -20.102539 7
-1.204529 -38.732422 -20.138672 7
-1.2047729 -38.783203 -20.046875 7
-1.256592 -39.473633 -20.183105 7
-1.286377 -41.085938 -17.650391 7
-1.3345031 -41.698242 -17.812988 7
-0.326538 -10.704102 31.578613 7
0.36236599 24.518555 0.90185499 7
0.35949701 24.556641 0.84277302 7
0.366577 24.461914 0.78759801 7
0.37283301 24.37793 0.73242199 7
0.38079801 24.270508 0.67919898 7
0.34173599 24.647461 -2.147949 7
0.34854099 24.542969 -2.250977 7
0.35433999 24.459961 -2.296387 7
0.356628 24.421875 -2.3496089 7
0.35290501 24.463867 -2.4155271 7
0.357391 24.397461 -2.4638669 7
0.35842901 24.375977 -2.519531 7
0.215729 25.884766 -5.1303711 7
0.21890301 25.829102 -5.1811519 7
0.224213 25.745117 -5.2246089 7
0.226959 25.695312 -5.2763672 7
0.229736 25.645508 -5.3276372 7
0.234192 25.573242 -5.3725591 7
-1.356689 -34.553711 -25.099609 7
-1.376892 -34.810547 -25.166016 7
-1.3994451 -35.091797 -25.249023 7
-1.416779 -35.322266 -25.291504 7
-1.100769 -33.893555 -20.410645 7
-1.0723881 -33.649414 -20.141602 7
-1.035889 -33.319336 -19.821777 7
-1.0198669 -33.200195 -19.637207 7
-1.007202 -33.116211 -19.474609 7
-0.99404901 -33.027344 -19.310059 7
-1.044037 -34.100586 -18.657227 7
-1.067596 -34.395508 -18.720215 7
-1.0773619 -34.543945 -18.697266 7
-1.088501 -34.708008 -18.682129 7
-1.114471 -35.027344 -18.755859 7
-1.134216 -35.283203 -18.791504 7
-1.175415 -35.767578 -18.95459 7
-1.2709661 -38.216797 -16.559082 7
-1.317993 -38.77832 -16.708984 7
-0.400116 -13.295898 29.265137 7
-0.42453 -13.356445 29.560059 7
-0.43035901 -13.319336 29.655273 7
0.314789 23.326172 3.5361331 7
0.34823599 23.081055 0.30127001 7
0.352081 23.03125 0.249512 7
0.35781899 22.958008 0.199219 7
0.36215201 22.902344 0.14843801 7
0.366943 22.84082 0.098145001 7
0.361572 22.908203 0.040038999 7
0.311768 23.3125 -2.608398 7
0.31329301 23.28418 -2.660156 7
0.31896999 23.205078 -2.702637 7
0.320068 23.18457 -2.7553711 7
0.32022101 23.173828 -2.8100591 7
0.32132 23.152344 -2.8623049 7
0.19229101 24.205078 -5.789062 7
0.19247399 24.188477 -5.8457031 7
0.193085 24.165039 -5.9013672 7
0.18499801 24.248047 -5.9882808 7
-0.25894201 6.1689448 -29.467773 7
-0.222565 5.9316411 -29.031738 7
-0.91137701 -29.861328 -17.53125 7
-0.89212 -29.717773 -17.342773 7
-0.92092901 -30.039062 -17.444824 7
-0.94870001 -30.348633 -17.539551 7
-0.94119298 -30.318359 -17.421387 7
-0.95623797 -30.507812 -17.4375 7
-0.96356201 -30.621094 -17.408203 7
-0.98623699 -30.884766 -17.468262 7
-1.104736 -33.582031 -15.174805 7
-1.130035 -33.87793 -15.220215 7
-1.191956 -34.585938 -15.362793 7
0.307587 21.911133 -0.0078119999 7
0.313721 21.837891 -0.054198999 7
0.319336 21.769531 -0.100586 7
0.32498199 21.701172 -0.146973 7
0.33224499 21.612305 -0.24218801 7
0.33288601 21.601562 -0.29296899 7
0.29113799 21.735352 -3.2954099 7
0.290802 21.729492 -3.348145 7
0.29245001 21.700195 -3.39502 7
0.29357901 21.677734 -3.4438479 7
0.292236 21.682617 -3.4985349 7
0.14740001 22.77832 -6.1347661 7
0.147064 22.764648 -6.1904302 7
0.14721701 22.74707 -6.2436519 7
0.152283 22.672852 -6.2783198 7
0.15591399 22.616211 -6.3178711 7
0.151123 22.652344 -6.390625 7
-1.022827 -25.118164 -22.191406 7
-1.027344 -25.207031 -22.163086 7
-0.834167 -26.849609 -16.540039 7
-0.825562 -26.813477 -16.424805 7
-0.82192999 -26.821289 -16.338867 7
-0.84228498 -27.042969 -16.392578 7
-0.856628 -27.211914 -16.411133 7
-0.86987299 -27.371094 -16.422363 7
-0.87603801 -27.466797 -16.39209 7
-0.90585297 -27.81543 -16.430664 7
-1.0502321 -30.667969 -14.38623 7
-1.0547791 -30.74707 -14.334473 7
-1.0374449 -30.617188 -14.177246 7
-1.059113 -30.893555 -14.133789 7
-1.081207 -31.138672 -14.164062 7
-1.102722 -31.379883 -14.19043 7
0.28564501 20.689453 -0.359375 7
0.28949001 20.644531 -0.40429699 7
0.29657 20.5625 -0.44531199 7
0.29949999 20.524414 -0.540039 7
0.30337501 20.479492 -0.58398402 7
0.30511501 20.456055 -0.63037097 7
0.25640899 20.573242 -3.5444341 7
0.260254 20.521484 -3.5834961 7
0.25882 20.526367 -3.6357419 7
0.25894201 20.513672 -3.684082 7
0.25961301 20.496094 -3.730957 7
0.25869799 20.495117 -3.782227 7
-0.77603102 -22.677734 -17.896484 7
-0.79782099 -22.933594 -17.926758 7
-0.81362897 -23.099609 -17.973633 7
-0.81958002 -23.189453 -17.955078 7
-0.825562 -23.279297 -17.937012 7
-0.75414997 -24.078125 -15.621094 7
-0.74221802 -24.056641 -15.437012 7
-0.75457799 -24.196289 -15.449219 7
-0.76171899 -24.294922 -15.431152 7
-0.772919 -24.424805 -15.436035 7
-0.78704798 -24.581055 -15.456543 7
-0.79531902 -24.6875 -15.443848 7
-0.815979 -24.935547 -15.439941 7
-0.97949201 -27.954102 -13.419434 7
-0.97088599 -27.911133 -13.312012 7
-0.96814001 -27.918945 -13.232422 7
-0.98461902 -28.097656 -13.240723 7
-1.003448 -28.297852 -13.259766 7
-0.26651001 -8.0859385 24.024902 7
-0.264709 -8.0263672 24.027344 7
0.26193199 19.566406 -0.72851598 7
0.26037601 19.578125 -0.77636701 7
0.266785 19.510742 -0.81445301 7
0.27145401 19.457031 -0.85449201 7
0.27270499 19.439453 -0.89892602 7
0.27682501 19.393555 -0.93994099 7
0.223572 19.441406 -3.8579099 7
0.226532 19.400391 -3.8959961 7
0.230621 19.347656 -3.9306641 7
0.231903 19.325195 -3.972168 7
0.229736 19.333984 -4.0244141 7
0.23101801 19.30957 -4.0664058 7
0.233978 19.268555 -4.1040039 7
-0.956146 -20.333008 -20.422852 7
-0.96673602 -20.452148 -20.446777 7
-0.97735602 -20.571289 -20.470215 7
-0.98425299 -20.666992 -20.467285 7
-0.98562598 -20.725586 -20.426758 7
-0.97653198 -20.716797 -20.314941 7
-0.71826202 -20.306641 -17.172852 7
-0.72271699 -20.379883 -17.152344 7
-0.72592199 -20.445312 -17.123535 7
-0.73281902 -20.535156 -17.117188 7
-0.74529999 -20.666016 -17.145996 7
-0.75531 -20.779297 -17.158691 7
-0.76342797 -20.879883 -17.159668 7
-0.76727301 -20.950195 -17.133301 7
-0.71218902 -22.12793 -14.731445 7
-0.72778302 -22.28418 -14.763672 7
-0.74212599 -22.430664 -14.789062 7
-0.74038702 -22.454102 -14.725586 7
-0.74792498 -22.548828 -14.712402 7
-0.75857502 -22.666992 -14.71582 7
-0.77413899 -22.825195 -14.745605 7
-0.78909302 -22.976562 -14.771484 7
-0.94653302 -25.985352 -12.545898 7
-0.96710199 -26.188477 -12.574707 7
-0.97842401 -26.313477 -12.561035 7
-1.077637 -27.931641 -11.281738 7
-0.30108601 -10.852539 21.623047 7
-0.301117 -10.805664 21.648926 7
0.24173 18.537109 -1.132812 7
0.244873 18.501953 -1.172363 7
0.25042701 18.442383 -1.2080081 7
0.25176999 18.424805 -1.249512 7
0.1875 18.460938 -4.1899409 7
0.192413 18.401367 -4.2192378 7
0.19494601 18.366211 -4.2563481 7
0.193878 18.363281 -4.3027339 7
0.190979 18.375977 -4.3544922 7
0.19711301 18.306641 -4.3803711 7
0.197845 18.288086 -4.4213872 7
0.19796801 18.273438 -4.464355 7
-0.82067901 -17.026367 -19.395996 7
-0.825378 -17.099609 -19.386719 7
-0.83206201 -17.186523 -19.390625 7
-0.84655797 -17.317383 -19.447754 7
-0.85909998 -17.4375 -19.491211 7
-0.86447102 -17.516602 -19.48584 7
-0.87701398 -17.636719 -19.527832 7
-0.88629198 -17.740234 -19.547852 7
-0.89883399 -17.859375 -19.589844 7
-0.90029901 -17.916992 -19.556152 7
-0.88995397 -17.904297 -19.443359 7
-0.63925201 -17.930664 -16.299316 7
-0.64526403 -18.009766 -16.29248 7
-0.66302502 -18.163086 -16.359375 7
-0.670349 -18.250977 -16.360352 7
-0.67639202 -18.330078 -16.353027 7
-0.68109101 -18.401367 -16.337402 7
-0.68905598 -18.493164 -16.342285 7
-0.622742 -19.643555 -14.025391 7
-0.62612897 -19.702148 -13.996582 7
-0.63620001 -19.842773 -13.955566 7
-0.65142798 -19.985352 -13.989746 7
-0.66662598 -20.12793 -14.023438 7
-0.66949499 -20.21875 -13.941895 7
-0.67684901 -20.305664 -13.931641 7
-0.84170502 -23.379883 -11.733887 7
-0.85565197 -23.518555 -11.737305 7
-0.87619001 -23.707031 -11.768555 7
-0.88815302 -23.829102 -11.762695 7
-0.89816302 -23.936523 -11.747559 7
-0.885773 -23.870117 -11.638184 7
-0.880005 -23.855469 -11.556641 7
-0.88735998 -23.941406 -11.530762 7
-0.92437702 -24.820312 -10.452148 7
-0.92776501 -24.874023 -10.405762 7
-0.93450898 -24.955078 -10.371094 7
-0.94650298 -25.077148 -10.355957 7
-0.97561598 -25.336914 -10.403809 7
-0.98495501 -25.438477 -10.377441 7
-0.97915602 -25.417969 -10.29541 7
-0.98129302 -25.460938 -10.242188 7
-0.232483 -7.1660161 21.159668 7
-0.228424 -7.0605469 21.160645 7
0.22219799 17.540039 -1.295898 7
0.216553 17.584961 -1.345215 7
0.214111 17.600586 -1.390625 7
0.213562 17.599609 -1.433105 7
0.220764 17.529297 -1.4638669 7
0.221527 17.517578 -1.503906 7
0.228058 17.452148 -1.535156 7
0.23394801 17.392578 -1.566406 7
0.162872 17.360352 -4.4941411 7
0.15978999 17.374023 -4.5444341 7
0.164368 17.320312 -4.5717769 7
0.171509 17.245117 -4.5908198 7
0.17163099 17.230469 -4.6313481 7
0.16982999 17.232422 -4.6777339 7
0.16864 17.227539 -4.7226558 7
0.170074 17.204102 -4.7592769 7
0.172089 17.171875 -4.793457 7
-0.75787401 -14.523438 -18.858887 7
-0.75180101 -14.540039 -18.781738 7
-0.73397797 -14.49707 -18.625 7
-0.73062098 -14.527344 -18.567383 7
-0.73626697 -14.602539 -18.570312 7
-0.75640899 -14.749023 -18.67041 7
-0.78411901 -14.93457 -18.822266 7
-0.78973401 -15.008789 -18.82373 7
-0.59109497 -16.042969 -15.694824 7
-0.58914202 -16.070312 -15.644043 7
-0.60031098 -16.174805 -15.67334 7
-0.60873401 -16.263672 -15.685059 7
-0.62335199 -16.388672 -15.733887 7
-0.628326 -16.457031 -15.724609 7
-0.579346 -17.985352 -13.366211 7
-0.59469599 -18.120117 -13.403809 7
-0.60659802 -18.231445 -13.42334 7
-0.61016798 -18.289062 -13.397949 7
-0.606812 -18.300781 -13.336426 7
-0.62008703 -18.421875 -13.361328 7
-0.63128698 -18.52832 -13.375 7
0.206177 16.604492 -1.775879 7
0.209015 16.574219 -1.810547 7
0.214661 16.511719 -1.878906 7
0.13848899 16.37793 -4.8388672 7
0.136566 16.378906 -4.8837891 7
0.149536 16.260742 -4.8808589 7
0.14624 16.272461 -4.9301758 7
0.14093 16.300781 -4.9858398 7
0.147827 16.229492 -5.0024409 7
0.146576 16.225586 -5.0444341 7
0.14398199 16.230469 -5.0917969 7
0.15152 16.157227 -5.105957 7
-0.52871698 -14.095703 -15.049805 7
-0.53030401 -14.141602 -15.024902 7
-0.53552198 -14.207031 -15.021973 7
-0.54891998 -14.31543 -15.065918 7
-0.55267298 -14.373047 -15.053711 7
-0.51232898 -16.121094 -12.763672 7
-0.52343798 -16.219727 -12.782227 7
-0.533081 -16.310547 -12.792969 7
-0.54342699 -16.404297 -12.806641 7
-0.54351801 -16.4375 -12.767578 7
-0.53921503 -16.443359 -12.706055 7
-0.54666102 -16.521484 -12.70459 7
-0.55923498 -16.629883 -12.728516 7
-0.75436401 -19.87207 -10.72998 7
-0.74432403 -19.858398 -10.594238 7
-0.75765997 -19.976562 -10.600586 7
-0.76879901 -20.079102 -10.597168 7
-0.77993798 -20.182617 -10.593262 7
-0.78448498 -20.241211 -10.563477 7
-0.82531703 -21.268555 -9.2753906 7
-0.82836902 -21.314453 -9.2353516 7
-0.83734101 -21.402344 -9.215332 7
-0.84701502 -21.494141 -9.1972656 7
-0.87213099 -21.696289 -9.2319336 7
-0.87078899 -21.710938 -9.175293 7
-0.86648601 -21.704102 -9.1088867 7
-0.198029 -6.360352 18.804688 7
-0.19653299 -6.3154302 18.809082 7
-0.19351199 -6.266602 18.802246 7
-0.197235 -6.235352 18.844238 7
0.17752101 15.826172 -1.938965 7
0.17977899 15.800781 -1.972656 7
0.18277 15.770508 -2.0048831 7
0.182129 15.766602 -2.043457 7
0.187286 15.71875 -2.0712891 7
0.191681 15.675781 -2.1000979 7
0.192505 15.661133 -2.1357419 7
0.194794 15.635742 -2.167969 7
0.19632 15.614258 -2.202148 7
0.200012 15.578125 -2.2324221 7
0.120026 15.331055 -5.157227 7
0.117981 15.331055 -5.2001948 7
0.121674 15.290039 -5.2241211 7
0.120361 15.28418 -5.264648 7
0.12619001 15.225586 -5.28125 7
0.128418 15.192383 -5.3100591 7
0.12637299 15.192383 -5.3530269 7
0.12503099 15.185547 -5.3935552 7
0.125854 15.164062 -5.4267578 7
-0.63922101 -10.602539 -17.211914 7
-0.643951 -10.664062 -17.217285 7
-0.649445 -10.727539 -17.226562 7
-0.65414399 -10.788086 -17.230957 7
-0.65960699 -10.851562 -17.240234 7
-0.49920699 -12.385742 -14.682129 7
-0.48773199 -12.371094 -14.583984 7
-0.48242199 -12.382812 -14.522949 7
-0.48175001 -12.416016 -14.48877 7
-0.48107901 -12.450195 -14.45459 7
-0.48889199 -12.523438 -14.469727 7
-0.495148 -12.588867 -14.476562 7
-0.50064099 -12.651367 -14.478027 7
-0.50772101 -12.72168 -14.48877 7
-0.506226 -12.750977 -14.449219 7
-0.458435 -14.417969 -12.342773 7
-0.45697001 -14.441406 -12.300293 7
-0.45785499 -14.478516 -12.270508 7
-0.463379 -14.540039 -12.263672 7
-0.47506699 -14.635742 -12.287598 7
-0.481354 -14.701172 -12.28418 7
-0.48919699 -14.776367 -12.288574 7
-0.497803 -14.854492 -12.296387 7
-0.49945101 -14.895508 -12.268555 7
-0.50033599 -14.932617 -12.237305 7
-0.50662202 -14.999023 -12.23291 7
-0.69692999 -18.250977 -10.169922 7
-0.69711298 -18.304688 -10.083008 7
-0.70733601 -18.395508 -10.07959 7
-0.71597302 -18.475586 -10.069336 7
-0.73327601 -18.638672 -10.047363 7
-0.73803699 -18.695312 -10.021484 7
-0.79681402 -19.908203 -8.6611328 7
-0.80316198 -19.973633 -8.6347656 7
-0.821899 -20.12207 -8.6484385 7
-0.82125902 -20.140625 -8.5981445 7
0.16284201 14.956055 -2.265137 7
0.15914901 14.975586 -2.3076169 7
0.165314 14.920898 -2.331543 7
0.168457 14.890625 -2.3608401 7
0.1716 14.858398 -2.389648 7
0.17395 14.832031 -2.4204099 7
0.174835 14.816406 -2.453613 7
0.17721599 14.790039 -2.483398 7
0.17806999 14.774414 -2.5170901 7
0.18045001 14.748047 -2.546875 7
0.104523 14.320312 -5.4477539 7
0.10083 14.330078 -5.4946289 7
0.102417 14.302734 -5.5229492 7
0.102509 14.286133 -5.5566411 7
0.101074 14.279297 -5.5952148 7
0.105713 14.231445 -5.612793 7
0.108826 14.192383 -5.6357422 7
0.106628 14.19043 -5.6772461 7
0.105988 14.178711 -5.7133789 7
0.10379 14.176758 -5.754395 7
-0.44717401 -10.925781 -13.959961 7
-0.445618 -10.954102 -13.924316 7
-0.45306399 -11.020508 -13.940918 7
-0.46212801 -11.094727 -13.96582 7
-0.46301299 -11.133789 -13.943848 7
-0.467163 -11.185547 -13.940918 7
-0.42669699 -13.171875 -11.772461 7
-0.433319 -13.236328 -11.773926 7
-0.436676 -13.28418 -11.758789 7
-0.436768 -13.314453 -11.726562 7
-0.43685901 -13.344727 -11.695312 7
-0.438568 -13.383789 -11.671387 7
-0.44683799 -13.456055 -11.679199 7
-0.455933 -13.532227 -11.691895 7
-0.46173099 -13.591797 -11.6875 7
-0.467529 -13.652344 -11.683105 7
-0.46438599 -13.666016 -11.634766 7
-0.46447799 -13.696289 -11.602051 7
-0.46127301 -13.708984 -11.553711 7
-0.46301299 -13.749023 -11.528809 7
-0.64013702 -16.773438 -9.5805664 7
-0.64355499 -16.819336 -9.5537109 7
-0.65673798 -16.921875 -9.5634766 7
-0.73339802 -18.259766 -8.2753906 7
-0.72937 -18.255859 -8.21875 7
-0.73684698 -18.325195 -8.199707 7
-0.74267602 -18.383789 -8.1743164 7
-0.75018299 -18.451172 -8.1547852 7
-0.23678599 -8.9033203 15.706055 7
-0.23349001 -8.8574219 15.70752 7
-0.235138 -8.8300781 15.738281 7
-0.243469 -8.8261719 15.808594 7
-0.24511699 -8.7978516 15.839844 7
-0.242645 -8.7558594 15.845215 7
-0.24096701 -8.7148438 15.856445 7
-0.241791 -8.6835938 15.881836 7
-0.239288 -8.640625 15.887695 7
-0.174988 -5.7167969 16.820312 7
-0.16995201 -5.6318359 16.81543 7
-0.17410301 -5.6054692 16.855957 7
-0.17739899 -5.577148 16.891113 7
-0.183228 -5.5537109 16.942871 7
0.15194701 14.079102 -2.5805659 7
0.15203901 14.068359 -2.61377 7
0.15863 14.003906 -2.6665039 7
0.16284201 13.956055 -2.7236331 7
0.163727 13.94043 -2.754395 7
0.167816 13.902344 -2.7788091 7
0.16632099 13.90332 -2.8154299 7
0.166412 13.892578 -2.847656 7
-0.40335101 -9.6005859 -13.398926 7
-0.40515101 -9.6416016 -13.385742 7
-0.406921 -9.6826172 -13.37207 7
-0.41479501 -9.7802734 -13.369629 7
-0.42779499 -9.8984385 -13.394531 7
-0.38558999 -11.858398 -11.400391 7
-0.38482699 -11.883789 -11.367676 7
-0.389191 -11.93457 -11.360352 7
-0.39614901 -11.996094 -11.365234 7
-0.40136701 -12.050781 -11.361816 7
-0.406616 -12.103516 -11.358398 7
-0.40325901 -12.117188 -11.312988 7
-0.405029 -12.154297 -11.291992 7
-0.40856901 -12.200195 -11.279785 7
-0.41122401 -12.241211 -11.263184 7
-0.41644299 -12.295898 -11.258789 7
-0.433716 -12.40625 -11.312012 7
-0.432098 -12.427734 -11.273926 7
-0.42874101 -12.441406 -11.228027 7
-0.62109399 -15.716797 -9.1655273 7
-0.62722802 -15.775391 -9.1503906 7
-0.63681 -15.853516 -9.1479492 7
-0.63861102 -15.887695 -9.1166992 7
-0.63610798 -15.897461 -9.0693359 7
-0.63967901 -15.941406 -9.0444336 7
-0.63632202 -15.946289 -8.9936523 7
-0.639862 -15.990234 -8.96875 7
-0.694336 -16.979492 -7.969727 7
-0.69445801 -17.001953 -7.929688 7
-0.69970697 -17.052734 -7.9057622 7
-0.692047 -17.029297 -7.840332 7
-0.69729602 -17.081055 -7.8164058 7
-0.700867 -17.123047 -7.7866211 7
-0.70526099 -17.170898 -7.7587891 7
-0.713135 -17.238281 -7.7426758 7
-0.227539 -8.6025391 14.865723 7
-0.23101801 -8.5830078 14.905762 7
-0.234497 -8.5625 14.945801 7
-0.24762 -8.5771484 15.039551 7
-0.239777 -8.4853516 15.036621 7
-0.231049 -8.390625 15.026855 7
-0.22930899 -8.3515615 15.037109 7
0.145142 13.256836 -2.914551 7
0.146942 13.235352 -2.941406 7
0.14785799 13.217773 -2.9707029 7
0.15393101 13.158203 -3.02002 7
0.15316799 13.15332 -3.0527339 7
0.15325899 13.141602 -3.0834961 7
0.15164199 13.140625 -3.1186521 7
0.144989 13.173828 -3.164551 7
0.147614 13.146484 -3.1899409 7
-0.34710699 -10.567383 -11.095215 7
-0.349884 -10.607422 -11.083008 7
-0.357178 -10.667969 -11.092773 7
-0.36087 -10.711914 -11.084961 7
-0.35732999 -10.725586 -11.041992 7
-0.35922199 -10.762695 -11.025391 7
-0.35839799 -10.787109 -10.995117 7
-0.356659 -10.808594 -10.960938 7
-0.36306801 -10.865234 -10.965332 7
-0.36853001 -10.916016 -10.965332 7
-0.36865199 -10.945312 -10.939453 7
-0.37319899 -10.993164 -10.934082 7
-0.368774 -11.00293 -10.887207 7
-0.37429801 -11.055664 -10.88623 7
-0.383362 -11.123047 -10.902344 7
-0.39065599 -11.181641 -10.910156 7
-0.39614901 -11.234375 -10.908691 7
-0.39892599 -11.275391 -10.894531 7
-0.408905 -11.345703 -10.914062 7
-0.408081 -11.371094 -10.882812 7
-0.588745 -14.491211 -8.9594727 7
-0.58071899 -14.473633 -8.8950195 7
-0.57446301 -14.462891 -8.8369141 7
-0.584503 -14.540039 -8.8393555 7
-0.59091198 -14.597656 -8.828125 7
-0.59732097 -14.654297 -8.815918 7
-0.66909802 -16.021484 -7.4008789 7
-0.681885 -16.114258 -7.4013672 7
-0.69192499 -16.19043 -7.3925781 7
-0.21350101 -8.3105469 14.005371 7
-0.222656 -8.3125 14.073242 7
-0.145752 -5.4326172 15.053711 7
-0.147552 -5.3720698 15.090332 7
-0.151215 -5.3164058 15.137207 7
-0.14843801 -5.2773442 15.134277 7
-0.147522 -5.2431641 15.141113 7
-0.14569101 -5.2060552 15.143066 7
-0.149353 -5.1826172 15.176758 7
-0.159393 -5.171875 15.249023 7
-0.156616 -5.132812 15.245117 7
0.065246999 13.714844 0.62939501 7
0.069793999 13.68457 0.59960902 7
0.068115003 13.693359 0.56640601 7
0.071746998 13.667969 0.53613299 7
0.075409003 13.641602 0.50585902 7
0.072844997 13.65625 0.47265601 7
0.081848003 13.59668 0.44482401 7
0.075684004 13.633789 0.409668 7
0.06955 13.670898 0.37402299 7
0.075011998 13.634766 0.34521499 7
0.11908 12.700195 -2.9038091 7
0.112915 12.727539 -2.9472661 7
0.112122 12.72168 -2.9794919 7
0.112183 12.710938 -3.0087891 7
0.111481 12.695312 -3.070801 7
0.119568 12.636719 -3.08252 7
0.121429 12.614258 -3.1079099 7
0.120605 12.608398 -3.139648 7
0.125122 12.570312 -3.1591799 7
0.126984 12.547852 -3.1845701 7
0.127075 12.537109 -3.2138669 7
0.133331 12.486328 -3.2290039 7
-0.55010998 -13.441406 -8.6069336 7
-0.546417 -13.446289 -8.5615234 7
-0.54751599 -13.49707 -8.5009766 7
-0.54852301 -13.524414 -8.472168 7
-0.54956102 -13.552734 -8.4433594 7
-0.55721998 -13.613281 -8.4375 7
-0.56301898 -13.665039 -8.425293 7
-0.56781 -13.709961 -8.4091797 7
-0.132874 -5.0039058 14.416992 7
-0.141541 -4.992188 14.477539 7
-0.13479599 -4.9472661 14.45166 7
-0.131897 -4.9091802 14.447266 7
-0.14150999 -4.8994141 14.512695 7
-0.132874 -4.8505859 14.476074 7
-0.13763399 -4.8300781 14.514648 7
-0.149139 -4.8212891 14.591797 7
-0.51647902 -12.541992 -8.1313477 7
-0.51953101 -12.576172 -8.1123047 7
-0.53656 -12.699219 -8.1098633 7
-0.53970301 -12.757812 -8.0600586 7
-0.53680402 -12.765625 -8.0195312 7
-0.117859 -4.7880859 13.683594 7
-0.12085 -4.764648 13.710938 7
-0.12085 -4.7363281 13.722168 7
-0.12085 -4.7070308 13.733398 7
-0.122833 -4.6826172 13.755371 7
-0.124847 -4.65625 13.777832 7
-0.126862 -4.6308589 13.799316 7
-0.12381 -4.5966802 13.794434 7
-0.12884501 -4.5761719 13.832031 7
-0.12884501 -4.546875 13.843262 7
-0.131836 -4.523438 13.871094 7
-0.139893 -4.5097661 13.924805 7
-0.120605 -4.6689448 13.129395 7
-0.120575 -4.640625 13.141113 7
-0.116364 -4.6044922 13.130371 7
-0.115326 -4.5751948 13.13623 7
-0.114258 -4.5449219 13.141602 7
-0.118469 -4.5263672 13.173828 7
-0.120544 -4.5019531 13.196289 7
-0.125763 -4.483398 13.233887 7
-0.103149 -4.438477 12.477539 7
-0.097626001 -4.4023442 12.461426 7
-0.100922 -4.3818359 12.488281 7
-0.105316 -4.3632808 12.52002 7
-0.103119 -4.3330078 12.52002 7
-0.109711 -4.3193359 12.562988 7
-0.114105 -4.3007808 12.594727 7
-0.116302 -4.2792969 12.615723 7
-0.108582 -4.2382808 12.588379 7
-0.105286 -4.2060552 12.58252 7
-0.105255 -4.1787109 12.592773 7
-0.097473003 -4.140625 12.024414 7
-0.10321 -4.125977 12.061523 7
-0.106659 -4.1074219 12.087402 7
-0.099762 -4.0693359 12.064941 7
-0.098601997 -4.0419922 12.069336 7
-0.100891 -4.0214839 12.089844 7
-0.10318 -4 12.110352 7
-0.107758 -3.9824221 12.141113 7
-0.099486999 -4.1347661 11.510254 7
-0.100677 -4.1123052 11.526367 7
-0.103058 -4.092773 11.546875 7
-0.094665997 -4.0537109 11.519043 7
-0.092285 -4.0253911 11.518066 7
-0.092285 -4.0019531 11.527832 7
-0.095856003 -3.984375 11.553223 7
-0.111389 -3.9873049 11.632324 7
-0.105438 -3.953125 11.615234 7
-0.103027 -3.9248049 11.614258 7
-0.098236002 -3.8925779 11.602539 7
-0.099395998 -3.8701169 11.617188 7
-0.098205999 -3.84375 11.621094 7
-0.094756998 -3.8212891 11.136719 7
-0.091003001 -3.792969 11.129883 7
-0.086029001 -3.761719 11.117676 7
-0.091003001 -3.7470701 11.147949 7
-0.094727002 -3.7294919 11.172852 7
-0.095977999 -3.7089839 11.187012 7
-0.082549997 -3.829102 10.57373 7
-0.081238002 -3.804688 10.578125 7
-0.079925999 -3.780273 10.582031 7
-0.077331997 -3.753906 10.580566 7
-0.073425002 -3.7255859 10.57373 7
-0.070831001 -3.7001951 10.571777 7
-0.076018997 -3.686523 10.602051 7
-0.075989 -3.6650391 10.61084 7
-0.085114002 -3.6582029 10.656738 7
-0.087707996 -3.640625 10.676758 7
-0.082488999 -3.610352 10.663574 7
-0.074676998 -3.5761721 10.640137 7
-0.078583002 -3.5605471 10.665039 7
-0.078583002 -3.5380859 10.673828 7
-0.081177004 -3.5205081 10.692871 7
-0.094818003 -3.7167971 10.247559 7
-0.094788 -3.6962891 10.256348 7
-0.082611002 -3.592773 10.244629 7
-0.083953999 -3.574219 10.258301 7
-0.086669996 -3.5576169 10.277344 7
-0.094756998 -3.5498049 10.318359 7
-0.090697996 -3.5224609 10.310059 7
-0.146606 -6.398438 8.269043 7
-0.13961799 -6.3632808 8.2631836 7
-0.138184 -6.342773 8.2739258 7
-0.13821401 -6.3261719 8.2890615 7
-0.142456 -6.3222661 8.3168945 7
-0.066895001 -3.4794919 9.7958984 7
-0.071135998 -3.4667971 9.8203115 7
-0.071135998 -3.4472661 9.828125 7
-0.065490998 -3.398438 9.8237305 7
-0.079558998 -3.3994141 9.8847656 7
-0.080932997 -3.3818359 9.8984385 7
-0.075317003 -3.3330081 9.8935547 7
-0.072479002 -3.3076169 9.8911133 7
-0.154816 -6.3994141 7.824707 7
-0.15628099 -6.3876948 7.8442378 7
-0.15628099 -6.3720698 7.8598628 7
-0.15628099 -6.3564448 7.875 7
-0.157745 -6.344727 7.8945308 7
-0.150482 -6.3105469 7.8886719 7
-0.14321899 -6.2753911 7.8837891 7
-0.138855 -6.2470698 7.88623 7
-0.14032 -6.2363281 7.905273 7
-0.14032 -6.2207031 7.9204102 7
-0.14325 -6.2128911 7.9433589 7
-0.147644 -6.2099609 7.9702148 7
-0.154938 -6.2138672 8.0063477 7
-0.14474501 -6.170898 7.9916992 7
-0.147644 -6.1621089 8.0151367 7
-0.14767499 -6.1474609 8.0297852 7
-0.141846 -6.1152339 8.027832 7
-0.140411 -6.0957031 8.0380859 7
-0.140411 -6.0800781 8.0527344 7
-0.071014002 -3.5097661 9.4316406 7
-0.068115003 -3.4863279 9.4296885 7
-0.068085 -3.4667971 9.4379883 7
-0.068085 -3.4482419 9.4462891 7
-0.068085 -3.4287109 9.4545898 7
-0.072448999 -3.4160161 9.4785156 7
-0.063689999 -3.3837891 9.4555664 7
-0.060791001 -3.3613279 9.453125 7
-0.060791001 -3.3417971 9.4614258 7
-0.062224999 -3.3251951 9.4746094 7
-0.065154999 -3.3105471 9.4931641 7
-0.076782003 -3.3076169 9.5429688 7
-0.070952997 -3.2792971 9.5302734 7
-0.072388001 -3.2626951 9.543457 7
-0.068024002 -3.2363279 9.5356445 7
-0.065094002 -3.2138669 9.5327148 7
-0.069397002 -3.1845701 9.1899414 7
-0.073944002 -3.172852 9.2128906 7
-0.075438999 -3.15625 9.2260742 7
-0.078460999 -3.1425779 9.2441406 7
-0.067870997 -3.109375 9.215332 7
-0.069366001 -3.092773 9.2280273 7
-0.073913999 -3.0810549 9.2509766 7
-0.076935001 -3.066406 9.269043 7
-0.072388001 -3.0410161 9.2607422 7
-0.135956 -6.0537109 7.137207 7
-0.132843 -6.0175781 7.1582031 7
-0.129761 -5.9960942 7.1650391 7
-0.12817401 -5.9775391 7.175293 7
-0.137573 -5.9736328 7.2280269 7
-0.14541601 -5.9667969 7.2763672 7
-0.131378 -5.9023442 7.2685552 7
-0.128235 -5.8798828 7.2749019 7
-0.129822 -5.8701172 7.2929692 7
-0.126709 -5.8349609 7.3125 7
-0.131439 -5.8183589 7.3525391 7
-0.057158999 -3.1806641 8.8266602 7
-0.060302999 -3.167969 8.8447266 7
-0.063446 -3.155273 8.8623047 7
-0.063415997 -3.1376951 8.8706055 7
-0.066528 -3.125 8.8886719 7
-0.069672003 -3.1113279 8.9067383 7
-0.074340999 -3.0996089 8.9296885 7
-0.066528 -3.0712891 8.9111328 7
-0.072783999 -3.061523 8.9394531 7
-0.060272001 -3.027344 8.9047852 7
-0.064940996 -3.015625 8.9282227 7
-0.068053998 -3.0019529 8.9458008 7
-0.069641002 -2.9873049 8.9580078 7
-0.068085 -2.9667971 8.9599609 7
-0.066497996 -2.9462891 8.9624023 7
-0.075866997 -2.941406 9.0009766 7
-0.077454001 -2.925781 9.0126953 7
-0.077422999 -2.907227 9.0200195 7
-0.075866997 -2.8876951 9.0219727 7
-0.157684 -6.079102 6.7348628 7
-0.156067 -6.0625 6.745605 7
-0.152832 -6.0410161 6.7529302 7
-0.151245 -6.0244141 6.7636719 7
-0.151245 -6.0117192 6.777832 7
-0.143158 -5.9775391 6.7729492 7
-0.130188 -5.9326172 6.7573242 7
-0.131805 -5.922852 6.7753911 7
-0.125305 -5.8935552 6.7749019 7
-0.123718 -5.8769531 6.784668 7
-0.123718 -5.8642578 6.7988281 7
-0.126984 -5.859375 6.8208008 7
-0.127014 -5.8466802 6.8344731 7
-0.136719 -5.8574219 6.871582 7
-0.139984 -5.8525391 6.8930659 7
-0.135132 -5.827148 6.8959961 7
-0.138367 -5.8222661 6.91748 7
-0.12866201 -5.7851558 6.9082031 7
-0.131927 -5.780273 6.929688 7
-0.045166001 -2.878906 7.945312 7
-0.043427002 -2.8613279 7.9472661 7
-0.048645001 -2.8525391 7.9692378 7
-0.046905998 -2.8349609 7.9711909 7
-0.050384998 -2.824219 7.9882808 7
-0.059448 -2.8691411 7.7167969 7
-0.055847 -2.8486331 7.7138672 7
-0.052246001 -2.8300779 7.7104492 7
-0.055817001 -2.8183589 7.7280269 7
-0.052216001 -2.7988279 7.7246089 7
-0.055817001 -2.7880859 7.7416992 7
-0.057617001 -2.7763669 7.753418 7
-0.055817001 -2.7587891 7.7548828 7
-0.057617001 -2.746094 7.766602 7
-0.062987998 -2.7373049 7.789062 7
-0.06662 -2.726562 7.8056641 7
-0.061218001 -2.7050779 7.7973628 7
-0.063019 -2.6923831 7.809082 7
-0.059386998 -2.672852 7.8051758 7
-0.057587001 -2.655273 7.8061519 7
-0.057617001 -2.640625 7.8129878 7
-0.057587001 -2.625 7.8193359 7
-0.057587001 -2.609375 7.8256841 7
-0.057587001 -2.594727 7.8320308 7
-0.061188001 -2.5839839 7.8486328 7
-0.068359002 -2.5761721 7.8754878 7
-0.225345 -8.4880104 14.886465 7
-0.111628 -4.510457 13.269644 7
-0.13107 -3.9533679 11.343494 7
-0.101756 -3.7139299 10.26799 7
-0.064762004 -3.457015 9.3255339 7
-0.067111999 -3.237658 9.4725018 7
-0.091296002 -3.0886531 8.6588173 7
-0.038874 -2.8131349 7.5741668 7
-0.045931 -2.6851511 7.7181668 7
-0.060495999 -2.5759881 7.8961611 7
-0.38985699 -11.585127 -11.175496 7
-0.63606602 -17.01473 -7.7739038 7
-0.120669 -4.3491831 12.387154 7
-0.074419998 -3.934391 11.251363 7
-0.129907 -3.6344121 10.434813 7
-0.16885 -6.1760631 8.0481186 7
-0.090149 -3.3665409 9.7007828 7
-0.072604001 -3.178267 9.1854362 7
-0.047773998 -2.998435 8.6927567 7
-0.053734001 -2.6987369 7.8742671 7
-0.036293998 -2.761759 7.485465 7
-0.034557 -2.585248 7.5631542 7
0.219661 15.714236 -2.1357739 7
0.050574001 13.102158 -2.9990759 7
0.192149 15.784436 -2.060147 7
0.203986 14.387686 -2.5864229 7
-0.38634601 -10.682646 -10.658275 7
