# .PCD v0.7 - Point Cloud Data file format
VERSION 0.7
FIELDS x y z intensity
SIZE 4 4 4 4
TYPE F F F F
COUNT 1 1 1 1
WIDTH 1179
HEIGHT 1
VIEWPOINT 0 0 0 1 0 0 0
POINTS 1179
DATA ascii
1.6105649 71.753906 16.283691 7
1.624786 70.078125 15.766113 7
1.433472 70.519531 16.0625 7
1.448151 69.22168 15.624512 7
1.4781491 66.55957 14.755859 7
1.320984 62.850586 13.999512 7
1.331177 62.173828 13.712891 7
1.3577271 60.299805 13.197754 7
1.333771 62.110352 13.395996 7
1.34491 61.354492 13.101562 7
1.337494 63.068359 10.366211 7
1.341766 62.805664 10.178223 7
1.342957 62.773438 10.022461 7
1.34903 62.374023 9.8193359 7
1.271027 68.943359 8.546875 7
1.279327 68.371094 8.3251953 7
1.289093 67.6875 8.0961914 7
1.297485 67.109375 7.8803711 7
1.307373 66.412109 7.65625 7
1.187622 59.749023 13.096191 7
1.218048 57.976562 12.611328 7
1.228088 57.427734 12.365723 7
1.2583621 55.658203 11.895996 7
1.217712 59.173828 9.3984385 7
1.231506 58.374023 9.1523438 7
1.231567 58.415039 9.0175781 7
1.2451479 57.625 8.777832 7
1.216644 59.419922 8.8613281 7
1.22229 59.117188 8.6821289 7
1.2260441 58.929688 8.5185547 7
1.235291 58.40625 8.3168945 7
1.239471 58.19043 8.1523438 7
1.142395 64.711914 7.04248 7
1.1611331 63.586914 6.795898 7
1.16629 63.307617 6.6220698 7
1.09198 55.029297 11.767578 7
1.115997 53.862305 11.418945 7
1.129639 53.21582 11.17041 7
1.149658 52.248047 10.867188 7
1.115173 54.910156 8.2939453 7
1.133911 53.983398 8.0507812 7
1.130463 54.196289 7.9462891 7
1.1448669 53.491211 7.735352 7
1.1081851 55.557617 7.311523 7
1.1142271 55.280273 7.1503911 7
1.1213681 54.942383 6.985352 7
1.125824 54.745117 6.8354492 7
1.140106 54.041992 6.6386719 7
1.018311 51.914062 10.822754 7
1.037842 51.083008 10.549805 7
1.0532531 50.43457 10.3125 7
1.074554 49.521484 10.033203 7
1.037354 51.986328 7.5751948 7
1.049805 51.453125 7.3901372 7
1.057098 51.15332 7.2338872 7
1.0623471 50.944336 7.089355 7
1.07312 50.486328 6.918457 7
1.024261 52.916992 6.2949219 7
1.030396 52.666016 6.1469731 7
1.036285 52.426758 6.0014648 7
1.04129 52.227539 5.860352 7
1.052277 51.75293 5.6982422 7
1.063171 51.28418 5.5385742 7
0.962982 56.299805 3.795898 7
0.93881202 48.822266 9.8920898 7
0.960388 48.010742 9.6362305 7
0.97854602 47.332031 9.4072266 7
1.001984 46.443359 9.1464844 7
0.955688 48.947266 6.8505859 7
0.96160901 48.739258 6.7114258 7
0.97525001 48.22168 6.5415039 7
0.97183198 48.384766 6.4428711 7
0.98733503 47.790039 6.2685552 7
0.98886102 47.75293 6.1513672 7
1.016632 46.669922 5.9355469 7
0.93884301 49.99707 5.1801758 7
0.94360399 49.831055 5.0498052 7
0.94863898 49.652344 4.9194341 7
0.95696998 49.338867 4.7807622 7
0.962708 49.130859 4.6508789 7
0.96658301 48.99707 4.5263672 7
0.98025501 48.466797 4.379395 7
0.85540801 53.774414 3.0380859 7
0.86203003 53.526367 2.9042971 7
0.86749297 53.324219 2.773438 7
0.88058501 52.8125 2.637207 7
0.88488799 52.657227 2.5092771 7
0.85897797 46.556641 9.3017578 7
0.87887597 45.887695 9.0786133 7
0.89465302 45.361328 8.8823242 7
0.90847802 44.904297 8.699707 7
0.92507899 44.349609 8.5039062 7
0.88272101 46.473633 6.1616211 7
0.89874297 45.924805 5.9975591 7
0.89828497 45.964844 5.8920898 7
0.912476 45.479492 5.737793 7
0.91949499 45.25 5.6088872 7
0.916412 45.381836 5.5126948 7
0.86291498 47.569336 4.2373052 7
0.86831701 47.393555 4.1152339 7
0.87484699 47.177734 3.992188 7
0.881378 46.960938 3.8696289 7
0.88659698 46.791016 3.75 7
0.89196801 46.615234 3.6318359 7
0.910034 45.983398 3.4951169 7
0.79247999 50.488281 1.77832 7
0.801422 50.179688 1.658203 7
0.80508399 43.567383 8.4716797 7
0.82882702 42.84375 8.2529297 7
0.83883703 42.552734 8.1044922 7
0.855591 42.048828 7.9248052 7
0.856659 42.040039 7.8222661 7
0.82476801 43.59375 5.5493159 7
0.83926398 43.148438 5.40625 7
0.84341401 43.035156 5.293457 7
0.84591699 42.973633 5.1860352 7
0.85601801 42.666992 5.0585942 7
0.81881702 44.241211 2.7792971 7
0.82257098 44.133789 2.672363 7
0.82687402 44.006836 2.5649409 7
0.74026501 47.03418 0.52636701 7
0.74456799 46.902344 0.41894501 7
0.74887103 46.770508 0.31103501 7
0.73681599 41.114258 7.6879878 7
0.73996001 41.047852 7.579102 7
0.76095599 41.001953 4.8276372 7
0.76754802 40.829102 4.7167969 7
0.77594 40.603516 4.6025391 7
0.78066999 40.480469 4.4970698 7
0.78588903 40.347656 4.3920898 7
0.789581 40.254883 4.2900391 7
0.79434198 40.132812 4.186523 7
0.75344801 41.629883 1.826172 7
0.75857502 41.490234 1.7275389 7
0.760315 41.450195 1.629395 7
0.033295002 16.15918 -65.11084 7
-0.66482502 -23.716797 64.878418 7
0.68875098 38.203125 6.9667969 7
0.69220001 38.134766 6.8647461 7
0.69726598 38.025391 6.7583008 7
0.712677 38.244141 3.147949 7
0.717224 38.136719 3.0532229 7
0.71841401 38.117188 2.9624021 7
0.72250402 38.020508 2.8686521 7
0.72393799 37.995117 2.7783201 7
0.72668499 37.933594 2.687012 7
0.72918701 37.87793 2.5961909 7
0.67056298 39.519531 1.429199 7
0.67471302 39.419922 1.3369139 7
0.67968798 39.295898 1.244629 7
0.68606597 39.136719 1.153809 7
0.69058198 39.024414 1.062988 7
0.69467199 38.923828 0.97167999 7
0.69876099 38.823242 0.881836 7
-0.57693499 -21.457031 57.583008 7
-0.52722198 -18.047852 57.656738 7
0.63494903 36.818359 0.49267599 7
0.64565998 36.576172 0.240723 7
0.53567499 39.21875 -1.990234 7
0.53994799 39.117188 -2.074219 7
0.54681402 38.951172 -2.1513669 7
0.55081201 38.855469 -2.235352 7
0.55651897 38.71582 -2.405762 7
-0.45257601 -16.198242 51.524414 7
0.57968098 34.083984 5.7211909 7
0.58346599 34.017578 5.6313481 7
0.58865398 33.938477 5.4594731 7
0.57046503 34.888672 0.203125 7
0.561005 35.095703 0.111816 7
0.56344599 35.045898 0.03125 7
0.56967199 34.914062 -0.045898002 7
0.57827801 34.728516 -0.119141 7
0.58258098 34.637695 -0.197266 7
0.58908099 34.498047 -0.27148399 7
0.59417701 34.388672 -0.34667999 7
0.59658802 34.336914 -0.425293 7
0.60659802 34.123047 -0.49365199 7
0.59335297 34.410156 -0.59228498 7
0.48660299 36.673828 -2.8261721 7
0.49600199 36.464844 -2.8886721 7
0.49679601 36.443359 -2.973145 7
-0.086883999 14.682617 -48.568848 7
-0.085205004 14.553711 -48.569824 7
-0.158875 11.961914 -51.088867 7
0.533508 32.978516 -0.40771499 7
0.52059901 33.235352 -0.50146502 7
0.52609301 33.125977 -0.57324201 7
0.53366101 32.974609 -0.64160198 7
0.53802502 32.888672 -0.71337903 7
0.54556298 32.737305 -0.78076202 7
0.549927 32.649414 -0.85205102 7
0.555695 32.53418 -0.92040998 7
0.55767798 32.492188 -0.99462903 7
0.55941802 32.458008 -1.068848 7
0.42410299 35.078125 -3.2055659 7
0.42581201 35.038086 -3.2841799 7
0.43304399 34.886719 -3.347656 7
0.44058201 34.730469 -3.4091799 7
0.44522101 34.630859 -3.4785161 7
0.45074499 34.515625 -3.5444341 7
0.452728 34.46875 -3.620605 7
0.45184299 34.479492 -3.7055659 7
0.44833401 34.541992 -3.7988279 7
-0.139221 13.62207 -45.710449 7
-0.47045901 -17.050781 43.358398 7
0.49768099 30.780273 -1.310059 7
0.50427198 30.65625 -1.37207 7
0.50674403 30.609375 -1.439941 7
0.50921601 30.560547 -1.508301 7
0.51074201 30.530273 -1.577637 7
0.519135 30.369141 -1.706055 7
0.40393099 32.286133 -4.1650391 7
0.407013 32.22168 -4.2314448 7
0.40914899 32.172852 -4.3017578 7
0.40878299 32.170898 -4.3798828 7
0.46698001 28.915039 -1.9619139 7
0.471313 28.836914 -2.0209961 7
0.472931 28.804688 -2.086426 7
0.47659299 28.738281 -2.1469729 7
0.47854599 28.700195 -2.210938 7
0.36306801 30.376953 -4.7895508 7
0.363617 30.356445 -4.8598628 7
0.362488 30.364258 -4.936523 7
-1.9711 -53.758789 -29.975098 7
-1.997894 -54.175781 -30.046387 7
-1.662292 -50.836914 -25.603516 7
-1.692596 -51.298828 -25.692871 7
-1.7240601 -51.775391 -25.787109 7
-1.748505 -52.161133 -25.831543 7
-1.768677 -52.490234 -25.844727 7
-1.808746 -53.083008 -25.992676 7
-1.834381 -53.487305 -26.039551 7
-1.498016 -49.06543 -23.636719 7
-1.655548 -51.28125 -24.456543 7
-1.732391 -52.367188 -24.846191 7
-1.712677 -52.161133 -24.589844 7
-1.771149 -54.328125 -21.77002 7
-1.850464 -55.469727 -22.099121 7
-0.39990199 -14.801758 36.168945 7
-0.29538 -11.319336 35.864746 7
-0.28299001 -11.181641 35.71875 7
-0.306885 -11.208008 36.07959 7
0.45117199 26.850586 0.57617199 7
0.460785 26.703125 0.51855499 7
0.46398899 26.654297 0.45703101 7
0.465698 26.62793 0.39550799 7
0.47158799 26.538086 0.336914 7
0.412018 27.34668 -2.3032229 7
0.41711399 27.262695 -2.3564451 7
0.42291301 27.166016 -2.4077151 7
0.425385 27.121094 -2.4672849 7
0.42880201 27.055664 -2.5878911 7
0.43502799 26.955078 -2.636719 7
0.433716 26.967773 -2.703613 7
0.43017599 27.015625 -2.776855 7
0.31045499 28.494141 -5.4638672 7
0.312866 28.443359 -5.5229492 7
0.31011999 28.47168 -5.6010742 7
-0.27066001 7.9013672 -37.446289 7
-0.28347799 7.8505859 -37.67041 7
-0.262512 7.6923828 -37.356445 7
-1.722778 -46.416992 -27.969727 7
-1.741272 -46.703125 -27.996582 7
-1.7685241 -47.094727 -28.086914 7
-1.80365 -47.580078 -28.233398 7
-1.8330081 -47.999023 -28.335449 7
-1.861481 -48.407227 -28.429199 7
-1.893738 -48.860352 -28.548828 7
-1.927673 -49.334961 -28.678223 7
-1.461365 -44.447266 -24.01416 7
-1.504456 -45.030273 -24.205078 7
-1.523407 -45.319336 -24.227051 7
-1.5394289 -45.573242 -24.228027 7
-1.578339 -46.108398 -24.384277 7
-1.600189 -46.435547 -24.421875 7
-1.617432 -46.704102 -24.427246 7
-1.432098 -45.022461 -21.996094 7
-1.484406 -45.726562 -22.223145 7
-1.470825 -45.610352 -22.026855 7
-1.544373 -46.582031 -22.384277 7
-1.644714 -49.217773 -19.88623 7
-1.730042 -50.364258 -20.237305 7
-0.265259 -10.647461 33.29248 7
-0.26696801 -10.580078 33.340332 7
0.40179399 25.827148 0.31738299 7
0.40035999 25.847656 0.25488299 7
0.406616 25.755859 0.19873001 7
0.41284201 25.665039 0.14257801 7
0.42025799 25.556641 0.087890998 7
0.42648301 25.46582 0.033202998 7
0.439789 25.272461 -0.074707001 7
0.387146 25.838867 -2.8920901 7
0.38894701 25.804688 -2.949219 7
0.39233401 25.748047 -3.0019529 7
0.393738 25.71875 -3.0595701 7
0.39993301 25.62207 -3.1040039 7
0.25711101 27.140625 -5.80127 7
0.26092499 27.073242 -5.851562 7
0.25591999 27.12793 -5.9355469 7
0.25213599 27.166992 -6.0151372 7
-1.513092 -39.617188 -26.242676 7
-1.535217 -39.917969 -26.311035 7
-1.556396 -40.208984 -26.371582 7
-1.585236 -40.582031 -26.487305 7
-1.610046 -40.914062 -26.571777 7
-1.6343991 -41.240234 -26.651367 7
-1.655609 -41.53418 -26.706543 7
-1.683105 -41.895508 -26.806641 7
-1.820618 -43.71582 -27.281738 7
-1.333527 -38.905273 -22.976562 7
-1.328308 -38.90332 -22.847656 7
-1.345032 -39.143555 -22.869141 7
-1.353271 -39.290039 -22.830566 7
-1.381653 -39.661133 -22.929199 7
-1.396637 -39.882812 -22.935059 7
-1.419647 -40.194336 -22.994629 7
-1.430145 -40.366211 -22.968262 7
-1.276947 -39.671875 -20.06543 7
-1.322876 -40.24707 -20.251953 7
-1.341858 -40.514648 -20.271484 7
-1.342468 -40.570312 -20.178223 7
-1.377228 -41.018555 -20.291016 7
-1.423218 -42.845703 -17.743652 7
-1.483124 -43.601562 -17.955566 7
-1.534515 -44.255859 -18.119141 7
0.379242 24.224609 -0.020508001 7
0.37503099 24.27832 -0.081542999 7
0.370453 24.339844 -0.14257801 7
0.37237501 24.311523 -0.199219 7
0.37777701 24.237305 -0.25097701 7
0.38748199 24.106445 -0.29833999 7
0.39242601 24.037109 -0.35009801 7
0.39651501 23.980469 -0.40234399 7
0.39800999 23.958008 -0.45703101 7
0.405121 23.860352 -0.50585902 7
0.40182501 23.901367 -0.56640601 7
0.39331099 24.012695 -0.63330102 7
0.346405 24.385742 -3.249512 7
0.353241 24.276367 -3.347656 7
0.353394 24.265625 -3.4042971 7
0.35833699 24.19043 -3.44873 7
0.36111501 24.143555 -3.4985349 7
0.20611601 25.617188 -6.1860352 7
0.20629901 25.598633 -6.246582 7
0.210785 25.524414 -6.2900391 7
0.21359301 25.472656 -6.3398442 7
0.220245 25.370117 -6.3735352 7
-0.30188 13.339844 -30.325195 7
-1.416046 -35.294922 -25.029297 7
-1.431 -35.50293 -25.053711 7
-1.445953 -35.710938 -25.07666 7
-1.466187 -35.970703 -25.13623 7
-1.267792 -35.597656 -21.278809 7
-1.190521 -34.850586 -20.690918 7
-1.215057 -35.155273 -20.766113 7
-1.154968 -34.583008 -20.293945 7
-1.1216739 -34.287109 -19.996582 7
-1.097412 -34.083008 -19.759277 7
-1.077454 -33.923828 -19.549805 7
-1.168365 -35.626953 -18.778809 7
-1.190063 -35.90332 -18.822266 7
-1.20697 -36.129883 -18.836914 7
-1.232971 -36.452148 -18.903809 7
-1.255585 -36.740234 -18.949219 7
-1.327209 -38.899414 -16.444824 7
-1.355621 -39.255859 -16.494629 7
-1.395111 -39.734375 -16.598145 7
-1.423553 -40.09082 -16.644531 7
-0.325836 -12.672852 28.611328 7
-0.31359899 -12.547852 28.508789 7
-0.334564 -12.586914 28.766602 7
-0.35504201 -12.624023 29.02002 7
0.344147 23.049805 -0.47607401 7
0.34341401 23.055664 -0.53125 7
0.34079 23.086914 -0.58886701 7
0.35229501 22.935547 -0.68408197 7
0.35757399 22.867188 -0.73144501 7
0.36517301 22.768555 -0.77636701 7
0.36904901 22.716797 -0.82470697 7
0.369232 22.710938 -0.87841803 7
0.37033099 22.693359 -0.930664 7
0.30279499 23.139648 -3.5566411 7
0.30618301 23.087891 -3.602051 7
0.30960101 23.036133 -3.6474609 7
0.30883801 23.035156 -3.7045901 7
0.317352 22.919922 -3.735352 7
0.31335399 22.958008 -3.80127 7
0.31491101 22.928711 -3.851074 7
0.31369001 22.932617 -3.9091799 7
0.314789 22.908203 -3.960449 7
0.31033301 22.952148 -4.0283198 7
-0.32940701 5.5908198 -30.666016 7
-1.343689 -31.40625 -23.788574 7
-1.345917 -31.484375 -23.728027 7
-1.373688 -31.790039 -23.848633 7
-1.388702 -31.981445 -23.87793 7
-1.411926 -32.248047 -23.963379 7
-1.426941 -32.441406 -23.991211 7
-1.00351 -30.956055 -17.525391 7
-1.01712 -31.174805 -17.456055 7
-1.0567631 -31.603516 -17.612793 7
-1.0527951 -31.608398 -17.51416 7
-1.063751 -31.757812 -17.500977 7
-1.079254 -31.953125 -17.514648 7
-1.094299 -32.144531 -17.523926 7
-1.207855 -34.774414 -15.163086 7
-1.22702 -35.008789 -15.172363 7
-1.25647 -35.347656 -15.22998 7
0.312592 21.748047 -0.99218798 7
0.31527701 21.712891 -1.040527 7
0.32339501 21.613281 -1.080078 7
0.32757601 21.561523 -1.125 7
0.332214 21.50293 -1.169434 7
0.33438101 21.473633 -1.217285 7
0.33554101 21.455078 -1.266113 7
0.28060901 21.564453 -4.186523 7
0.28326401 21.522461 -4.22998 7
0.280945 21.538086 -4.2880859 7
0.28408799 21.490234 -4.3295898 7
0.28573599 21.458984 -4.3754878 7
0.27944899 21.517578 -4.4467769 7
0.13150001 22.568359 -7.0415039 7
0.131134 22.552734 -7.0966802 7
0.132294 22.521484 -7.1459961 7
0.13348401 22.490234 -7.1943359 7
0.133636 22.46875 -7.2475591 7
0.13479599 22.4375 -7.295898 7
0.136444 22.401367 -7.3422852 7
-1.233673 -27.561523 -22.601562 7
-1.216278 -27.476562 -22.414062 7
-1.253601 -27.833008 -22.606934 7
-1.27124 -28.032227 -22.662598 7
-1.288849 -28.230469 -22.716309 7
-1.301544 -28.389648 -22.73584 7
-0.935516 -27.957031 -16.626465 7
-0.92028803 -27.860352 -16.472168 7
-0.92755097 -27.966797 -16.446777 7
-0.946289 -28.176758 -16.48584 7
-0.95791602 -28.322266 -16.484375 7
-0.968445 -28.457031 -16.475586 7
-0.97732502 -28.578125 -16.457031 7
-0.99609399 -28.789062 -16.493164 7
-1.135254 -31.685547 -14.16748 7
-1.15567 -31.916016 -14.186035 7
-1.179413 -32.177734 -14.21875 7
-1.193817 -32.350586 -14.208496 7
-0.20782501 -8.03125 25.088379 7
0.288544 20.540039 -1.291016 7
0.28872699 20.533203 -1.339355 7
0.29208401 20.492188 -1.382812 7
0.29757699 20.426758 -1.422852 7
0.30355799 20.356445 -1.460938 7
0.30587801 20.326172 -1.506348 7
0.309753 20.27832 -1.547852 7
0.312042 20.248047 -1.591797 7
0.247284 20.352539 -4.4824219 7
0.24853501 20.327148 -4.526855 7
0.24762 20.324219 -4.578125 7
0.24880999 20.297852 -4.6225591 7
0.24633799 20.311523 -4.6791992 7
0.24700899 20.291992 -4.7246089 7
0.24398801 20.30957 -4.7832031 7
0.095245004 21.071289 -7.6279302 7
0.095398001 21.049805 -7.6777339 7
-0.301025 7.5976558 -25.277344 7
-0.29730201 7.5224609 -25.255859 7
-1.140991 -24.25293 -21.505859 7
-1.144012 -24.327148 -21.468262 7
-1.155212 -24.461914 -21.485352 7
-1.17514 -24.661133 -21.5625 7
-0.86489898 -23.499023 -18.132812 7
-0.85626203 -23.478516 -18.020996 7
-0.86978102 -23.625977 -18.050293 7
-0.87628198 -23.72168 -18.03418 7
-0.89218098 -23.889648 -18.077148 7
-0.83773798 -24.962891 -15.643066 7
-0.84078997 -25.027344 -15.600098 7
-0.85144001 -25.154297 -15.599121 7
-0.86379999 -25.295898 -15.607422 7
-0.87265003 -25.408203 -15.595703 7
-0.87921101 -25.501953 -15.570801 7
-0.88690197 -25.605469 -15.551758 7
-0.89929199 -25.74707 -15.557617 7
-0.91342199 -25.90332 -15.572754 7
-1.048828 -28.667969 -13.375 7
-1.04425 -28.660156 -13.285645 7
-1.06311 -28.861328 -13.301758 7
-1.0819089 -29.061523 -13.316406 7
-1.100739 -29.262695 -13.330566 7
-1.100311 -29.292969 -13.258789 7
-1.085754 -29.195312 -13.125 7
-1.153717 -30.441406 -11.98584 7
-1.1626281 -30.551758 -11.948242 7
-1.174438 -30.69043 -11.921875 7
-0.24862701 -10.831055 22.659668 7
-0.236755 -10.728516 22.581055 7
-0.24389599 -10.709961 22.669434 7
-0.18585201 -7.5693359 23.391602 7
-0.19769301 -7.5556641 23.52002 7
-0.191742 -7.484375 23.482422 7
-0.19351199 -7.438477 23.51709 7
-0.200012 -7.405273 23.595703 7
0.25747699 19.483398 -1.6201169 7
0.26046801 19.447266 -1.6611331 7
0.26519799 19.392578 -1.69873 7
0.269867 19.339844 -1.737305 7
0.275116 19.279297 -1.773438 7
0.27755699 19.249023 -1.814941 7
0.282776 19.188477 -1.851562 7
0.28582799 19.152344 -1.891113 7
0.218018 19.150391 -4.8256841 7
0.217072 19.146484 -4.8745122 7
0.217163 19.130859 -4.9199219 7
0.21804801 19.094727 -5.007812 7
0.217041 19.089844 -5.0566411 7
-1.014557 -20.833008 -20.554199 7
-1.020233 -20.919922 -20.541992 7
-1.033325 -21.056641 -20.580566 7
-1.0426641 -21.166992 -20.592773 7
-1.057037 -21.313477 -20.638184 7
-1.067627 -21.433594 -20.658691 7
-1.083801 -21.591797 -20.715332 7
-1.090729 -21.689453 -20.709961 7
-1.095764 -21.773438 -20.690918 7
-0.82669097 -21.209961 -17.553223 7
-0.81942701 -21.202148 -17.45752 7
-0.80773902 -21.164062 -17.333496 7
-0.81216401 -21.237305 -17.310059 7
-0.82156402 -21.347656 -17.316895 7
-0.84024 -21.523438 -17.380859 7
-0.84652698 -21.611328 -17.367676 7
-0.84970099 -21.677734 -17.334961 7
-0.865906 -21.836914 -17.382324 7
-0.78878802 -22.796875 -14.899414 7
-0.80001801 -22.919922 -14.905762 7
-0.81500202 -23.073242 -14.931641 7
-0.826904 -23.203125 -14.94043 7
-0.82449299 -23.22168 -14.87207 7
-0.833893 -23.331055 -14.866699 7
-0.84762597 -23.475586 -14.883789 7
-0.85949701 -23.604492 -14.890625 7
-0.85723901 -23.661133 -14.765137 7
-0.99365199 -26.350586 -12.670898 7
-1.0018311 -26.451172 -12.643555 7
-1.008118 -26.535156 -12.60791 7
-1.022552 -26.6875 -12.606445 7
-1.048859 -26.970703 -12.591309 7
-1.052704 -27.03418 -12.543457 7
-1.0717469 -27.828125 -11.245117 7
-1.1168211 -28.298828 -11.216309 7
-1.1474 -28.59082 -11.263672 7
-0.26748699 -10.52832 21.466309 7
-0.243561 -10.378906 21.29541 7
-0.23791499 -10.307617 21.272949 7
-0.26626599 -10.379883 21.530762 7
-0.28073099 -10.345703 21.699219 7
-0.187775 -7.2392578 22.10791 7
-0.187134 -7.139648 22.136719 7
-0.198456 -7.125 22.25293 7
0.23876999 18.426758 -1.9326169 7
0.23651101 18.441406 -1.980469 7
0.237244 18.427734 -2.0224609 7
0.241028 18.384766 -2.059082 7
0.246582 18.323242 -2.0922849 7
0.245636 18.274414 -2.1264651 7
0.25003099 18.226562 -2.1611331 7
0.251984 18.200195 -2.2001951 7
0.25451699 18.168945 -2.238281 7
0.178436 18.185547 -5.121582 7
0.178619 18.169922 -5.164062 7
0.18054201 18.136719 -5.2011719 7
0.17770401 18.149414 -5.2539058 7
0.17901599 18.12207 -5.29248 7
0.18277 18.072266 -5.3227539 7
0.17987099 18.083008 -5.3754878 7
0.177002 18.09375 -5.4287109 7
-0.88931298 -17.585938 -19.582031 7
-0.893372 -17.657227 -19.566895 7
-0.89935303 -17.741211 -19.564941 7
-0.90402198 -17.816406 -19.553711 7
-0.91268897 -17.915039 -19.568359 7
-0.92721599 -18.047852 -19.622559 7
-0.939758 -18.169922 -19.663086 7
-0.95101899 -18.285156 -19.694336 7
-0.95837402 -18.376953 -19.699219 7
-0.96630901 -18.470703 -19.70752 7
-0.96444702 -18.508789 -19.650391 7
-0.72808802 -18.636719 -16.575195 7
-0.72293103 -18.644531 -16.499023 7
-0.72759998 -18.71582 -16.48291 7
-0.73754901 -18.820312 -16.498047 7
-0.75210601 -18.957031 -16.541016 7
-0.76400799 -19.074219 -16.567383 7
-0.76541102 -19.125 -16.529785 7
-0.75369298 -19.09082 -16.413086 7
-0.751831 -19.119141 -16.355957 7
-0.70788598 -20.250977 -14.355957 7
-0.70929003 -20.296875 -14.314941 7
-0.70214802 -20.283203 -14.228027 7
-0.694305 -20.262695 -14.137207 7
-0.70233202 -20.355469 -14.131348 7
-0.70968598 -20.443359 -14.12207 7
-0.72293103 -20.573242 -14.142578 7
-0.73684698 -20.707031 -14.166992 7
-0.74414098 -20.793945 -14.155273 7
-0.74295002 -20.821289 -14.099121 7
-0.75357097 -20.932617 -14.10498 7
-0.76748699 -21.068359 -14.126953 7
-0.76892102 -21.114258 -14.083984 7
-0.90585297 -23.915039 -11.819336 7
-0.92373699 -24.083008 -11.837402 7
-0.93637103 -24.209961 -11.83252 7
-0.95230103 -24.364258 -11.841309 7
-0.99304199 -25.401367 -10.516602 7
-0.99911499 -25.476562 -10.478027 7
-0.99920702 -25.504883 -10.41748 7
-1.019745 -25.696289 -10.432129 7
-0.163513 -6.6513672 20.725586 7
-0.16879299 -6.6191411 20.785645 7
0.21301299 17.442383 -2.2705081 7
0.21377601 17.427734 -2.3105471 7
0.221619 17.349609 -2.335938 7
0.227539 17.289062 -2.3657229 7
0.22958399 17.262695 -2.402344 7
0.23101801 17.242188 -2.4399409 7
0.237579 17.177734 -2.4672849 7
0.241547 17.133789 -2.5 7
0.23782299 17.157227 -2.5483401 7
0.15280201 17.038086 -5.4980469 7
0.152954 17.021484 -5.5375981 7
0.151794 17.014648 -5.5820308 7
0.15524299 16.954102 -5.6508789 7
0.154724 16.942383 -5.6928711 7
0.15420499 16.930664 -5.7348628 7
-0.668365 -16.592773 -15.958984 7
-0.66714501 -16.666992 -15.871582 7
-0.68457001 -16.80957 -15.936035 7
-0.69229102 -16.894531 -15.941895 7
-0.665649 -18.668945 -13.567871 7
-0.678253 -18.786133 -13.588379 7
-0.67627001 -18.807617 -13.532715 7
-0.679138 -18.861328 -13.502441 7
-0.68200701 -18.914062 -13.472168 7
-0.69320703 -19.021484 -13.483887 7
-0.70788598 -19.15332 -13.513184 7
-0.89950597 -22.487305 -11.250488 7
0.189026 16.526367 -2.589844 7
0.192535 16.488281 -2.621582 7
0.201538 16.405273 -2.641602 7
0.206421 16.355469 -2.6699221 7
0.204468 16.362305 -2.7128911 7
0.20871 16.318359 -2.742188 7
0.21359301 16.269531 -2.77002 7
0.210327 16.287109 -2.815918 7
0.21859699 16.208984 -2.835938 7
0.216675 16.21582 -2.878906 7
0.124084 16.066406 -5.8027339 7
0.124207 16.049805 -5.840332 7
0.13244601 15.96875 -5.8486328 7
0.12853999 15.983398 -5.9008789 7
0.123901 16.001953 -5.9555659 7
0.122681 15.994141 -5.9985352 7
0.13028 15.919922 -6.0083008 7
0.13443001 15.869141 -6.0307622 7
0.13186599 15.873047 -6.0776372 7
-0.59655797 -14.474609 -15.338867 7
-0.59005702 -14.480469 -15.265625 7
-0.59378099 -14.538086 -15.252441 7
-0.60339397 -14.625977 -15.274414 7
-0.60348499 -14.665039 -15.239746 7
-0.61825597 -14.78125 -15.291016 7
-0.61908001 -14.824219 -15.260254 7
-0.62942499 -14.918945 -15.285645 7
-0.62509203 -14.933594 -15.224121 7
-0.62371802 -14.96582 -15.180176 7
-0.61721802 -14.967773 -15.105957 7
-0.591187 -16.676758 -12.981934 7
-0.59786999 -16.75 -12.976562 7
-0.602386 -16.810547 -12.958984 7
-0.599518 -16.826172 -12.904297 7
-0.60620099 -16.899414 -12.897461 7
-0.61657703 -16.996094 -12.909668 7
-0.62918103 -17.106445 -12.932617 7
-0.63070703 -17.148438 -12.898926 7
-0.63006598 -17.177734 -12.854492 7
-0.81567401 -20.300781 -10.866699 7
-0.80398601 -20.249023 -10.770996 7
-0.80331397 -20.272461 -10.720215 7
-0.81603998 -20.415039 -10.673828 7
-0.830109 -20.538086 -10.680664 7
-0.83831799 -20.62207 -10.664062 7
-0.84356701 -20.685547 -10.635254 7
-0.84365797 -20.712891 -10.586426 7
-0.89611799 -21.78125 -9.409668 7
-0.88522297 -21.75293 -9.2680664 7
-0.90524298 -21.918945 -9.2841797 7
-0.92303503 -22.069336 -9.2924805 7
-0.94821203 -22.273438 -9.324707 7
-0.14032 -6.0517578 18.453125 7
-0.14181501 -6.014648 18.479004 7
-0.14325 -5.9375 18.518555 7
-0.14624 -5.90625 18.554199 7
0.178192 15.545898 -2.9003911 7
0.179718 15.524414 -2.933594 7
0.18347199 15.484375 -2.9619141 7
0.18356299 15.473633 -2.9985349 7
0.18585201 15.445312 -3.0297849 7
0.188141 15.418945 -3.0610349 7
0.192535 15.374023 -3.0874021 7
0.19265699 15.363281 -3.1230471 7
0.19134501 15.363281 -3.1625979 7
0.105072 14.990234 -6.101562 7
0.105164 14.970703 -6.1367192 7
0.106689 14.942383 -6.1665039 7
0.107544 14.918945 -6.1992192 7
0.106934 14.90625 -6.2368159 7
0.109924 14.866211 -6.2607422 7
0.106445 14.873047 -6.3095698 7
0.106567 14.855469 -6.3442378 7
0.101685 14.87207 -6.398438 7
-0.69003302 -10.700195 -17.499512 7
-0.68469203 -10.724609 -17.438477 7
-0.68633997 -10.774414 -17.422852 7
-0.689484 -10.830078 -17.41748 7
-0.699615 -10.912109 -17.456543 7
-0.70431501 -10.974609 -17.460449 7
-0.71212798 -11.047852 -17.484375 7
-0.71762103 -11.113281 -17.492676 7
-0.72466999 -11.183594 -17.510742 7
-0.727844 -11.240234 -17.504395 7
-0.73409998 -11.308594 -17.51709 7
-0.73574799 -11.359375 -17.5 7
-0.739685 -11.417969 -17.498047 7
-0.73278803 -11.435547 -17.425781 7
-0.544159 -12.775391 -14.718262 7
-0.548096 -12.831055 -14.710449 7
-0.55831897 -12.952148 -14.707031 7
-0.56533802 -13.022461 -14.716797 7
-0.570831 -13.085938 -14.717285 7
-0.51620501 -14.820312 -12.467773 7
-0.52325398 -14.890625 -12.468262 7
-0.53189099 -14.969727 -12.476074 7
-0.53662097 -15.029297 -12.463379 7
-0.54367101 -15.098633 -12.462891 7
-0.55227703 -15.178711 -12.470215 7
-0.56015003 -15.254883 -12.472656 7
-0.560974 -15.291016 -12.439941 7
-0.56106597 -15.323242 -12.403809 7
-0.56808501 -15.393555 -12.401855 7
-0.572815 -15.453125 -12.388184 7
-0.589203 -15.576172 -12.431641 7
-0.59082001 -15.618164 -12.402344 7
-0.59091198 -15.650391 -12.365234 7
-0.58709699 -15.660156 -12.309082 7
-0.74469 -18.59668 -10.211914 7
-0.75720203 -18.701172 -10.21582 7
-0.76351899 -18.767578 -10.195801 7
-0.76748699 -18.820312 -10.166504 7
-0.83944702 -20.114258 -8.8911133 7
-0.83096302 -20.081055 -8.8144531 7
-0.83960003 -20.163086 -8.7958984 7
-0.85214198 -20.269531 -8.7885742 7
-0.85223401 -20.292969 -8.7407227 7
-0.87567103 -20.473633 -8.769043 7
-0.141418 -5.7324219 17.552734 7
-0.142212 -5.6972661 17.571777 7
-0.13745099 -5.6464839 17.552734 7
-0.14059401 -5.6152339 17.588379 7
0.157074 14.71875 -3.152344 7
0.159454 14.691406 -3.1816411 7
0.161835 14.663086 -3.210938 7
0.163452 14.639648 -3.241699 7
0.16433699 14.623047 -3.2744141 7
0.16824301 14.583008 -3.2998049 7
0.169891 14.561523 -3.3300779 7
0.168457 14.560547 -3.3681641 7
0.170105 14.537109 -3.398438 7
0.166412 14.553711 -3.4423831 7
0.161194 14.580078 -3.4897461 7
0.16433699 14.545898 -3.516113 7
0.085662998 13.947266 -6.4155269 7
0.085754 13.927734 -6.44873 7
0.081298999 13.939453 -6.4985352 7
0.084564 13.880859 -6.5522461 7
0.083922997 13.868164 -6.5874019 7
0.081786998 13.863281 -6.6289058 7
0.081238002 13.830078 -6.6972661 7
-0.50598103 -11.238281 -14.172852 7
-0.51095599 -11.294922 -14.174316 7
-0.51510602 -11.348633 -14.170898 7
-0.51925701 -11.402344 -14.166992 7
-0.52590901 -11.46582 -14.176758 7
-0.52514601 -11.499023 -14.14502 7
-0.46429399 -13.137695 -12.122559 7
-0.467621 -13.185547 -12.10791 7
-0.46933001 -13.224609 -12.084961 7
-0.46777299 -13.249023 -12.04541 7
-0.463745 -13.259766 -11.993164 7
-0.469513 -13.319336 -11.990234 7
-0.47699001 -13.387695 -11.995605 7
-0.48199499 -13.443359 -11.987305 7
-0.48449701 -13.487305 -11.967773 7
-0.48782301 -13.536133 -11.95166 7
-0.48791501 -13.567383 -11.919922 7
-0.48797601 -13.598633 -11.887207 7
-0.49380499 -13.658203 -11.883301 7
-0.50125098 -13.727539 -11.886719 7
-0.69702101 -17 -9.9077148 7
-0.69381702 -17.006836 -9.8544922 7
-0.68810999 -16.999023 -9.7924805 7
-0.69317597 -17.080078 -9.7299805 7
-0.69992101 -17.170898 -9.6733398 7
-0.78417999 -18.614258 -8.3012695 7
-0.79165602 -18.683594 -8.2802734 7
-0.793365 -18.71582 -8.2412109 7
-0.81481898 -18.874023 -8.2646484 7
-0.19341999 -8.5888672 15.572754 7
-0.19265699 -8.5527344 15.588379 7
-0.20175201 -8.5517578 15.664062 7
-0.123474 -5.4189448 16.559082 7
-0.127625 -5.3935552 16.599121 7
-0.126801 -5.3544922 16.606934 7
-0.123444 -5.311523 16.597656 7
-0.12677 -5.2832031 16.632324 7
0.140228 13.929688 -3.233398 7
0.136292 13.945312 -3.2753911 7
0.133972 13.950195 -3.3139651 7
0.13488799 13.933594 -3.344727 7
0.134216 13.926758 -3.3798831 7
0.141571 13.867188 -3.394531 7
0.142456 13.850586 -3.4248049 7
0.14416499 13.827148 -3.453613 7
0.148315 13.787109 -3.476562 7
0.15081801 13.759766 -3.5029299 7
0.15090901 13.748047 -3.534668 7
0.15261801 13.723633 -3.563477 7
0.155945 13.69043 -3.5874021 7
0.15527301 13.683594 -3.621582 7
0.152924 13.6875 -3.659668 7
0.152252 13.680664 -3.6943359 7
0.150757 13.678711 -3.730469 7
0.14681999 13.693359 -3.772949 7
0.149353 13.665039 -3.7988279 7
-0.44567901 -12.193359 -11.581543 7
-0.45178199 -12.250977 -11.581543 7
-0.456146 -12.301758 -11.573242 7
-0.456238 -12.331055 -11.543945 7
-0.45282 -12.344727 -11.497559 7
-0.458893 -12.40332 -11.49707 7
-0.46585101 -12.46582 -11.500977 7
-0.68661499 -16.103516 -9.3198242 7
-0.73940998 -17.28418 -7.983398 7
-0.73956299 -17.327148 -7.9013672 7
-0.74655199 -17.389648 -7.8818359 7
-0.750916 -17.4375 -7.8540039 7
-0.76483202 -17.541016 -7.85498 7
0.119598 13.19043 -3.5341799 7
0.117157 13.194336 -3.5717771 7
0.122314 13.149414 -3.589844 7
0.124084 13.126953 -3.6162109 7
0.129272 13.082031 -3.6342771 7
0.128571 13.076172 -3.6669919 7
0.129456 13.056641 -3.695801 7
0.132111 13.027344 -3.7202151 7
0.133057 13.009766 -3.7485349 7
0.134857 12.987305 -3.7749021 7
0.137512 12.958008 -3.7983401 7
0.136719 12.950195 -3.8310549 7
-0.41680899 -11.0625 -11.195312 7
-0.41870099 -11.099609 -11.177734 7
-0.419617 -11.132812 -11.155273 7
-0.41790801 -11.154297 -11.120605 7
-0.418854 -11.1875 -11.098145 7
-0.42434701 -11.240234 -11.097168 7
-0.43252599 -11.303711 -11.10791 7
-0.43798801 -11.355469 -11.106934 7
-0.446228 -11.420898 -11.118164 7
-0.448975 -11.460938 -11.103516 7
-0.45446801 -11.514648 -11.101562 7
-0.63665801 -14.80957 -8.9824219 7
-0.64218098 -14.863281 -8.9667969 7
-0.20648199 -8.0576172 14.14209 7
-0.20468099 -8.0205078 14.151855 7
-0.11203 -4.8779302 15.048828 7
-0.114777 -4.8525391 15.07666 7
-0.114746 -4.8193359 15.087891 7
0.066009998 13.649414 -0.021973001 7
0.060759999 13.680664 -0.058104999 7
0.062652998 13.666016 -0.088867001 7
0.060943998 13.673828 -0.12207 7
0.063750997 13.652344 -0.152344 7
0.070068002 13.608398 -0.17968801 7
0.069274999 13.609375 -0.212402 7
0.072967999 13.583008 -0.241211 7
0.073974997 13.572266 -0.27197301 7
0.078521997 13.539062 -0.29980499 7
-0.58914202 -13.677734 -8.6386719 7
-0.186279 -7.9902339 13.210938 7
-0.192993 -7.985352 13.263184 7
-0.18630999 -7.9345698 13.249023 7
-0.18054201 -7.8876948 13.238281 7
-0.177673 -7.8496089 13.242676 7
-0.182465 -7.8369141 13.286133 7
-0.19113199 -7.8369141 13.348145 7
-0.202637 -7.8466802 13.424805 7
-0.18536399 -7.7626948 13.356445 7
-0.177734 -7.7089839 13.335938 7
-0.183502 -7.7001948 13.383301 7
-0.092377 -4.7988281 14.241211 7
-0.095245004 -4.7744141 14.269531 7
-0.096190996 -4.7460942 14.286621 7
-0.107727 -4.7402339 14.362305 7
-0.094269 -4.6816411 14.29834 7
-0.080871999 -4.6230469 14.233398 7
-0.100983 -4.6035161 14.369629 7
-0.097107001 -4.5654302 14.358887 7
-0.53775001 -12.529297 -8.315918 7
-0.54577601 -12.588867 -8.3144531 7
-0.54879802 -12.623047 -8.2944336 7
-0.55581701 -12.677734 -8.2885742 7
-0.55691499 -12.705078 -8.2617188 7
-0.57089198 -12.792969 -8.2797852 7
-0.089325003 -4.4726558 13.636719 7
-0.087311 -4.4394531 13.636719 7
-0.090332001 -4.4169922 13.663574 7
-0.092316002 -4.391602 13.685059 7
-0.092345998 -4.3623052 13.695312 7
-0.093323 -4.3349609 13.711426 7
-0.097382002 -4.3144531 13.743164 7
-0.098357998 -4.2871089 13.759766 7
-0.08371 -4.460938 13.000977 7
-0.085754 -4.436523 13.022949 7
-0.080504999 -4.398438 13.006348 7
-0.080536 -4.3720698 13.01709 7
-0.075255997 -4.3349609 13.000488 7
-0.082611002 -4.3212891 13.048828 7
-0.090972997 -4.3085942 13.102051 7
-0.088898003 -4.2783198 13.101562 7
-0.08783 -4.2480469 13.106445 7
-0.089934997 -4.2246089 13.127441 7
-0.088836998 -4.1943359 13.132812 7
-0.092009999 -4.172852 13.158691 7
-0.071044996 -4.1474609 12.419434 7
-0.077637002 -4.132812 12.461914 7
-0.072144002 -4.0712891 12.454102 7
-0.074309997 -4.0488281 12.475098 7
-0.072082996 -4.0175781 12.474121 7
-0.076964997 -4.1582031 11.912598 7
-0.067780003 -4.0908198 11.889648 7
-0.068908997 -4.0429692 11.914551 7
-0.067749001 -4.016602 11.918945 7
-0.071198002 -3.9980471 11.944824 7
-0.074615002 -3.954102 11.980469 7
-0.068878002 -3.8925779 11.972656 7
-0.072296001 -3.8486331 12.007324 7
-0.073151 -3.829102 11.50293 7
-0.070739999 -3.7763669 11.510742 7
-0.061462 -3.8369141 10.969238 7
-0.055266999 -3.8037109 10.952148 7
-0.058990002 -3.7871089 10.977051 7
-0.060180999 -3.765625 10.991699 7
-0.065186001 -3.750977 11.022461 7
-0.060210999 -3.7207029 11.009766 7
-0.068939 -3.7128911 11.056641 7
-0.070160002 -3.6923831 11.070801 7
-0.068908997 -3.6669919 11.074219 7
-0.075134002 -3.6533201 11.109863 7
-0.066405997 -3.617188 11.081055 7
-0.070129 -3.5996089 11.105957 7
-0.070129 -3.578125 11.114258 7
-0.066405997 -3.547852 11.106934 7
-0.076355003 -3.5419919 11.158203 7
-0.056793001 -3.5488279 10.570801 7
-0.056793001 -3.5283201 10.579102 7
-0.060059 -3.5185549 10.175781 7
-0.057372998 -3.4931641 10.173828 7
-0.058715999 -3.4746089 10.1875 7
-0.057342999 -3.452148 10.190918 7
-0.057526 -3.507812 9.746582 7
-0.054687999 -3.483398 9.7446289 7
-0.061737001 -3.4746089 9.7788086 7
-0.061707001 -3.4550779 9.7875977 7
-0.050476 -3.417969 9.7539062 7
-0.044861 -3.389648 9.7407227 7
-0.044861 -3.3701169 9.7485352 7
-0.044829998 -3.3496089 9.7568359 7
-0.049042001 -3.335938 9.78125 7
-0.056090999 -3.327148 9.8154297 7
-0.058899 -3.3125 9.8339844 7
-0.064514004 -3.300781 9.862793 7
-0.057464998 -3.269531 9.8447266 7
-0.050446 -3.2392581 9.8261719 7
-0.050446 -3.219727 9.8339844 7
-0.052643001 -3.199219 9.4897461 7
-0.055573002 -3.183594 9.5078115 7
-0.048278999 -3.1542971 9.4887695 7
-0.045348998 -3.1308589 9.4858398 7
-0.046813998 -3.1142581 9.4985352 7
-0.046813998 -3.094727 9.5063477 7
-0.046783 -3.0751951 9.5136719 7
-0.049713001 -3.0605471 9.5317383 7
-0.061370999 -3.0576169 9.581543 7
-0.059875 -3.035156 9.5839844 7
-0.058440998 -3.014648 9.5859385 7
-0.125549 -6.078125 7.4980469 7
-0.119537 -6.047852 7.4970698 7
-0.124084 -6.045898 7.523438 7
-0.13168301 -6.0498052 7.5576172 7
-0.139221 -6.0556641 7.592773 7
-0.13168301 -6.0205078 7.5864258 7
-0.12866201 -5.999023 7.592773 7
-0.134735 -6 7.6235352 7
-0.125671 -5.9619141 7.6132808 7
-0.125671 -5.9472661 7.6279302 7
-0.131744 -5.9472661 7.6582031 7
-0.13177501 -5.9326172 7.6723628 7
-0.12570199 -5.9023442 7.6699219 7
-0.122711 -5.8798828 7.67627 7
-0.116669 -5.8486328 7.6738281 7
-0.050354 -3.1982419 9.1098633 7
-0.044280998 -3.170898 9.0966797 7
-0.042785998 -3.1503911 9.0996094 7
-0.045807 -3.136719 9.1176758 7
-0.053344999 -3.128906 9.1508789 7
-0.051819 -3.1074221 9.1538086 7
-0.051819 -3.089844 9.1611328 7
-0.060851999 -3.0830081 9.2006836 7
-0.054839998 -3.0576169 9.1865234 7
-0.048767 -3.030273 9.1728516 7
-0.048767 -3.011719 9.1801758 7
-0.047240999 -2.9912109 9.1821289 7
-0.053284001 -2.9814451 9.2104492 7
-0.054809999 -2.9638669 9.2231445 7
-0.056304999 -2.9482419 9.2358398 7
-0.063873 -2.9394529 9.2695312 7
-0.066895001 -2.925781 9.2866211 7
-0.057799999 -2.894531 9.262207 7
-0.315826 -8.8349609 3.2119141 7
-0.31585699 -8.8300781 3.2329099 7
-0.31277499 -8.8154297 3.2514651 7
-0.315918 -8.8222656 3.2749021 7
-0.31747401 -8.8232422 3.297852 7
-0.31909201 -8.8242188 3.319824 7
-0.31601 -8.8076172 3.3383789 7
-0.31601 -8.8027344 3.359863 7
-0.31915301 -8.8085938 3.383301 7
-0.31921399 -8.8046885 3.4038091 7
-0.323883 -8.8164062 3.4287109 7
-0.322357 -8.8046885 3.44873 7
-0.32861301 -8.8212891 3.4750979 7
-0.32708699 -8.8105469 3.4946289 7
-0.32711801 -8.8056641 3.515625 7
-0.137115 -6.0751948 7.1298828 7
-0.13555899 -6.0576172 7.140625 7
-0.12619001 -6.0185552 7.1318359 7
-0.118408 -5.985352 7.1264648 7
-0.121521 -5.9794922 7.148438 7
-0.123108 -5.9707031 7.1665039 7
-0.122833 -5.9570308 7.1806641 7
-0.11972 -5.9345698 7.1875 7
-0.122864 -5.929688 7.2099609 7
-0.127533 -5.9267578 7.2358398 7
-0.135406 -5.9335942 7.27002 7
-0.130707 -5.907227 7.2719731 7
-0.130707 -5.8935552 7.2861328 7
-0.116669 -5.84375 7.2641602 7
-0.122925 -5.8457031 7.2944341 7
-0.121368 -5.827148 7.304688 7
-0.116699 -5.8017578 7.3056641 7
-0.121399 -5.7998052 7.3320308 7
-0.112061 -5.7626948 7.3212891 7
-0.050200999 -3.1923831 8.7973633 7
-0.043945 -3.1650391 8.7841797 7
-0.043915 -3.1308589 8.7993164 7
-0.037689 -3.1044919 8.7861328 7
-0.037719999 -3.0869141 8.793457 7
-0.050200999 -3.0869141 8.8427734 7
-0.048615001 -3.066406 8.8452148 7
-0.048615001 -3.0498049 8.8525391 7
-0.051727001 -3.0361331 8.8701172 7
-0.053314 -3.0029299 8.8901367 7
-0.045441002 -2.9736331 8.871582 7
-0.043915 -2.954102 8.8735352 7
-0.048583999 -2.925781 8.9033203 7
-0.042328 -2.8994141 8.8891602 7
-0.045441002 -2.8857419 8.9072266 7
-0.144318 -6.0371089 6.7226558 7
-0.14276101 -6.0205078 6.733398 7
-0.144379 -6.0126948 6.7514648 7
-0.14276101 -5.9951172 6.762207 7
-0.139557 -5.9746089 6.769043 7
-0.126587 -5.9150391 6.7670898 7
-0.123352 -5.8945308 6.773438 7
-0.115265 -5.860352 6.769043 7
-0.115265 -5.8476558 6.7827148 7
-0.113678 -5.8310552 6.7929692 7
-0.11203 -5.813477 6.8032231 7
-0.115326 -5.8095698 6.824707 7
-0.128296 -5.8154302 6.8837891 7
-0.126678 -5.7988281 6.8935552 7
-0.121826 -5.773438 6.8955078 7
-0.041168001 -2.8720701 8.234375 7
-0.042815998 -2.8574221 8.246582 7
-0.044525001 -2.844727 8.2587891 7
-0.044525001 -2.828125 8.265625 7
-0.047851998 -2.8154299 8.2827148 7
-0.044495001 -2.7949221 8.2792969 7
-0.039459001 -2.773438 8.2705078 7
-0.039459001 -2.7568359 8.2773438 7
-0.041106999 -2.742188 8.2890615 7
-0.041138001 -2.7255859 8.2958984 7
-0.041138001 -2.7099609 8.3022461 7
-0.041138001 -2.6933589 8.3085938 7
-0.027008001 -2.8574221 7.8930659 7
-0.030486999 -2.8466799 7.9101558 7
-0.032226998 -2.8173831 7.9291992 7
-0.032226998 -2.7871089 7.9423828 7
-0.037445001 -2.777344 7.9648442 7
-0.042663999 -2.7529299 7.9936519 7
-0.042663999 -2.7373049 8.0004883 7
-0.030486999 -2.6923831 7.9770508 7
-0.032196 -2.6611331 7.995605 7
-0.037415002 -2.652344 8.0180664 7
-0.037415002 -2.621094 8.0307617 7
-0.047821 -2.601562 8.0742188 7
-0.046082001 -2.5839839 8.0756836 7
-0.042571999 -2.563477 8.0712891 7
-0.038970999 -2.874023 7.6464839 7
-0.046172999 -2.867188 7.6733398 7
-0.049743999 -2.8574221 7.690918 7
-0.046142999 -2.8232419 7.6943359 7
-0.042541999 -2.8037109 7.690918 7
-0.044342 -2.7910161 7.7026372 7
-0.037140001 -2.753906 7.6958008 7
-0.029937999 -2.7294919 7.6821289 7
-0.042541999 -2.7285161 7.7246089 7
-0.053314 -2.7128911 7.7685552 7
-0.038940001 -2.679688 7.7338872 7
-0.044342 -2.671875 7.7563481 7
-0.046112001 -2.6425779 7.7744141 7
-0.038910002 -2.6191411 7.7602539 7
-0.044312 -2.610352 7.782227 7
-0.047882002 -2.5849609 7.804688 7
-0.040709998 -2.561523 7.7905269 7
-0.24618401 -8.431324 15.290607 7
-0.081134997 -4.792099 14.38674 7
-0.083347 -3.5753889 10.989971 7
-0.05342 -3.3609011 9.955246 7
-0.130253 -6.039989 7.676476 7
-0.017356999 -3.132637 9.0570688 7
-0.025162 -2.9477639 9.2311831 7
-0.035571001 -2.8759811 7.8933282 7
-0.041407 -2.7304471 8.0356979 7
-0.044578001 -2.5688851 8.1580544 7
-0.021442 -2.782656 7.4627042 7
-0.015352 -2.610992 7.5405822 7
-0.018586 -2.4706149 7.6578488 7
-0.01321 -2.2996311 7.4091058 7
-0.12863401 -8.1401625 14.106071 7
-0.062776998 -5.0583968 15.502186 7
-0.52800298 -10.998322 -10.997364 7
-0.139329 -4.4529161 13.676397 7
-0.095251001 -4.0058231 12.322075 7
-0.043613002 -3.6161549 11.140896 7
-0.14345799 -5.958528 7.3839622 7
-0.036849 -3.1625581 8.954401 7
-0.035314001 -2.927588 9.0587454 7
-0.13272899 -5.8091769 6.848824 7
-0.035755999 -2.8092079 8.0193996 7
-0.045894001 -2.6297059 8.1588497 7
-0.026511 -2.700207 7.7305021 7
-0.0058559999 -2.5835819 7.4208312 7
-0.01169 -2.420337 7.523807 7
-0.0174 -2.2512679 7.6205831 7
0.18864 16.214605 -2.867331 7
0.017247001 13.397801 -3.653631 7
0.34228399 18.632492 -2.0315399 7
0.195926 13.809277 -3.4116981 7
-0.481011 -12.293001 -11.417262 7
