# .PCD v0.7 - Point Cloud Data file format
VERSION 0.7
FIELDS x y z intensity
SIZE 4 4 4 4
TYPE F F F F
COUNT 1 1 1 1
WIDTH 1128
HEIGHT 1
VIEWPOINT 0 0 0 1 0 0 0
POINTS 1128
DATA ascii
1.856689 69.647461 13.663086 7
1.671356 64.716797 12.621094 7
1.673798 64.588867 12.285645 7
1.683014 63.510742 11.95166 7
1.695007 62.079102 11.565918 7
1.701111 63.12207 8.3959961 7
1.6368099 72.522461 7.5185552 7
1.6448669 71.538086 7.2670898 7
1.652496 70.617188 7.0249019 7
1.658722 69.87793 6.8017578 7
1.665619 69.041992 6.574707 7
1.674347 67.969727 6.3349609 7
1.546234 60.664062 11.513184 7
1.554962 59.900391 11.242188 7
1.569458 58.588867 10.887207 7
1.551483 60.369141 11.025391 7
1.540588 62.763672 8.3857422 7
1.5482481 62.081055 8.1630859 7
1.553619 61.618164 7.9667969 7
1.554688 61.581055 7.815918 7
1.556 61.514648 7.6625981 7
1.561493 61.039062 7.469727 7
1.495239 68.273438 6.387207 7
1.500031 67.865234 6.1972661 7
1.509949 66.946289 5.9755859 7
1.515259 66.483398 5.7871089 7
1.516907 66.382812 5.6230469 7
1.525391 65.602539 5.4199219 7
1.534668 64.740234 5.2158198 7
1.428192 55.636719 10.264648 7
1.436157 55.101562 10.047363 7
1.45401 53.835938 9.7216797 7
1.4256901 57.02832 7.19873 7
1.430969 56.679688 7.0292969 7
1.432556 56.604492 6.887207 7
1.41687 57.977539 6.464355 7
1.422852 57.568359 6.2929692 7
1.429962 57.123047 5.984375 7
1.368561 62.426758 4.3276372 7
1.376617 61.902344 4.0107422 7
1.294373 53.837891 9.8564453 7
1.32254 52.219727 9.3544922 7
1.337158 51.421875 8.9863281 7
1.349884 50.692383 8.7583008 7
1.313995 53.769531 6.367188 7
1.326385 53.040039 6.175293 7
1.332703 52.682617 6.0195308 7
1.345001 51.958008 5.8339839 7
1.312408 54.237305 5.1210942 7
1.3147891 54.123047 4.985352 7
1.321533 53.739258 4.8334961 7
1.326721 53.448242 4.6889648 7
1.268402 57.664062 2.6201169 7
1.205811 49.74707 8.7338867 7
1.222931 48.912109 8.4951172 7
1.232758 48.446289 8.3120117 7
1.250214 47.592773 8.0776367 7
1.214111 50.228516 5.5605469 7
1.227386 49.572266 5.390625 7
1.227173 49.609375 5.2753911 7
1.2360229 49.181641 5.1264648 7
1.2492369 48.523438 4.9633789 7
1.203735 51.139648 4.0585942 7
1.205902 51.051758 3.933105 7
1.210449 50.84082 3.8027339 7
1.21817 50.466797 3.6669919 7
1.220093 50.388672 3.5444341 7
1.145874 54.703125 1.520996 7
1.1121221 48.124023 8.2807617 7
1.1307679 47.321289 8.0546885 7
1.147125 46.618164 7.8457031 7
1.154083 46.335938 7.6962891 7
1.170288 45.636719 7.4931641 7
1.1318361 48.036133 5.1713872 7
1.140259 47.676758 5.0307622 7
1.148712 47.316406 4.8925781 7
1.150269 47.272461 4.7773442 7
1.1585391 46.916992 4.641602 7
1.159302 46.907227 4.5292969 7
1.1216739 48.916016 3.269531 7
1.127411 48.673828 3.1455081 7
1.131012 48.53125 3.0263669 7
1.135437 48.347656 2.906738 7
1.140137 48.151367 2.7871089 7
1.0330811 45.464844 7.5600591 7
1.049896 44.829102 7.3686519 7
1.0647579 44.267578 7.1889648 7
1.078339 43.758789 7.0185552 7
1.092926 43.208008 6.8461909 7
1.109985 42.557617 6.6645508 7
1.047455 45.571289 4.640625 7
1.05423 45.321289 4.5161128 7
1.063904 44.954102 4.3852539 7
1.066254 44.878906 4.2744141 7
1.070557 44.727539 4.1591802 7
1.085022 44.166992 4.0219731 7
1.086823 44.114258 3.914062 7
1.034241 46.491211 2.5048831 7
1.034912 46.482422 2.39502 7
1.038635 46.349609 2.2832029 7
1.044189 46.139648 2.1704099 7
1.04892 45.964844 2.0600591 7
1.05249 45.838867 1.950195 7
1.054993 45.751953 1.841797 7
0.95382702 50.060547 0.21582 7
0.95022601 43.669922 7.1352539 7
0.96301299 43.241211 6.9760742 7
0.978149 42.731445 6.8100591 7
0.99093598 42.301758 6.655273 7
1.0061949 41.785156 6.4926758 7
1.017975 41.390625 6.3466802 7
0.97885102 43.272461 4.19873 7
0.98031598 43.238281 4.09375 7
0.98748797 42.998047 3.9780271 7
0.99078399 42.898438 3.871094 7
0.99505597 42.764648 3.7626951 7
1.00354 42.477539 3.6469729 7
1.0022579 42.541016 3.5498049 7
0.954041 44.55957 1.750977 7
0.95620698 44.496094 1.645996 7
0.96334797 44.25 1.540527 7
0.966461 44.150391 1.436035 7
0.97085601 44.003906 1.3330081 7
0.97845501 43.740234 1.230957 7
0.88314801 47.386719 -0.69775403 7
0.92550701 40.633789 3.253906 7
0.93359399 40.386719 3.147949 7
0.93881202 40.232422 3.046387 7
0.93984997 40.211914 2.9506841 7
0.94543499 40.046875 2.8505859 7
0.947052 40.008789 2.7548831 7
0.90481597 41.630859 0.54492199 7
0.83682299 43.992188 -2.0107419 7
0.85235602 38.09375 5.6816411 7
0.85287499 38.097656 5.5913091 7
0.861664 37.862305 5.4755859 7
0.76840198 37.041992 -0.57568401 7
0.77117902 36.972656 -0.65917999 7
0.77032501 36.996094 -0.74853498 7
0.775787 36.856445 -0.82714802 7
0.77963299 36.757812 -0.90771502 7
0.682648 39.289062 -3.2275391 7
0.690521 39.080078 -3.295898 7
0.69238299 39.02832 -3.382812 7
0.693573 38.992188 -3.4716799 7
-0.315521 -15.813477 53.671875 7
0.69906598 35.316406 -1.0517581 7
0.70278901 35.228516 -1.128418 7
0.70971698 35.064453 -1.199219 7
0.712677 34.993164 -1.276855 7
0.71664399 34.899414 -1.352051 7
0.72134399 34.788086 -1.425293 7
0.725555 34.6875 -1.499023 7
0.71975702 34.826172 -1.594238 7
0.60000598 37.623047 -3.554688 7
0.601776 37.576172 -3.6386721 7
0.60623199 37.46582 -3.7133789 7
0.61022902 37.366211 -3.789551 7
0.62081897 37.102539 -3.9306641 7
0.62503099 36.998047 -4.0039058 7
-0.168671 15.682617 -56.949219 7
-0.42315701 -18.262695 50.304688 7
0.64871198 33.183594 -1.6982419 7
0.656555 33.009766 -1.8388669 7
0.66082799 32.914062 -1.907715 7
0.66329998 32.860352 -1.980469 7
0.67053199 32.700195 -2.0410161 7
0.67376697 32.62793 -2.1113279 7
0.67001301 32.707031 -2.1977539 7
0.54931599 35.207031 -4.1767578 7
0.546417 35.261719 -4.2714839 7
0.54345697 35.317383 -4.3662109 7
0.547791 35.217773 -4.4345698 7
0.55181903 35.12207 -4.5039058 7
0.565247 34.825195 -4.5366211 7
0.56634498 34.785156 -4.6992192 7
0.568542 34.730469 -4.7739258 7
0.61572301 31.016602 3.7363279 7
0.62570202 30.829102 3.6499021 7
0.63479602 30.658203 3.5654299 7
0.59170502 31.773438 -1.99707 7
0.59197998 31.766602 -2.0722661 7
0.60153198 31.569336 -2.2006841 7
0.61456299 31.299805 -2.3183589 7
0.61685199 31.25 -2.387207 7
0.61828601 31.217773 -2.4580081 7
0.627289 31.035156 -2.5087891 7
0.49069199 33.578125 -4.8735352 7
0.499084 33.392578 -5.000977 7
0.50747699 33.21582 -5.047852 7
0.51034498 33.149414 -5.1162109 7
0.50979602 33.150391 -5.1977539 7
-0.257294 13.616211 -48.741699 7
-0.28509501 13.652344 -49.350098 7
0.55972302 29.5625 -2.6108401 7
0.55932599 29.563477 -2.6821289 7
0.569763 29.369141 -2.7250979 7
0.56649798 29.421875 -2.8037109 7
0.56863397 29.376953 -2.867676 7
0.57144201 29.321289 -2.930176 7
0.57391399 29.270508 -2.992676 7
0.57635498 29.217773 -3.0556641 7
0.57723999 29.196289 -3.1225591 7
0.450562 31.239258 -5.5131841 7
0.45556599 31.136719 -5.5673828 7
0.45834401 31.074219 -5.6303711 7
0.46402001 30.960938 -5.6806641 7
0.462982 30.96582 -5.7592769 7
0.523224 27.839844 -3.2402339 7
0.52587903 27.788086 -3.2988279 7
0.52645898 27.772461 -3.362793 7
0.52774 27.743164 -3.425781 7
0.53207397 27.662109 -3.4785161 7
0.40786701 29.380859 -6.117188 7
0.410126 29.328125 -6.1777339 7
0.40765399 29.354492 -6.2587891 7
0.402069 29.431641 -6.3540039 7
-0.29861501 -13.850586 35.040039 7
-0.186188 -10.369141 34.561035 7
-0.15820301 -10.091797 34.219238 7
0.50180101 26.041992 -0.69042999 7
0.505768 25.977539 -0.74609399 7
0.51235998 25.874023 -0.79882801 7
0.51898199 25.770508 -0.85009801 7
0.52783197 25.630859 -0.89794898 7
0.53329498 25.542969 -0.95019501 7
0.468384 26.318359 -3.562012 7
0.46786499 26.317383 -3.6264651 7
0.46881101 26.292969 -3.6860349 7
0.47387701 26.206055 -3.733398 7
0.477112 26.147461 -3.785645 7
0.47842401 26.117188 -3.84375 7
0.480499 26.076172 -3.898926 7
0.48260501 26.03418 -3.9545901 7
0.48394799 26.004883 -4.012207 7
0.47854599 26.077148 -4.0922852 7
0.339874 27.833008 -6.42627 7
0.34008801 27.813477 -6.4916992 7
0.34143099 27.777344 -6.5522461 7
0.346863 27.680664 -6.5942378 7
0.349731 27.621094 -6.6479492 7
0.352173 27.569336 -6.703125 7
0.35464501 27.514648 -6.757812 7
0.462982 24.895508 -0.99658197 7
0.465179 24.860352 -1.052246 7
0.47384599 24.733398 -1.097656 7
0.47885099 24.65625 -1.148926 7
0.48587 24.551758 -1.195312 7
0.489288 24.499023 -1.247559 7
0.436005 24.923828 -4.203125 7
0.43820199 24.880859 -4.2548828 7
0.44003299 24.844727 -4.308105 7
0.30859399 26.211914 -7.0297852 7
-1.753387 -43.990234 -23.480957 7
-1.765747 -44.185547 -23.453125 7
-1.785919 -44.46875 -23.473145 7
-1.818359 -44.890625 -23.568359 7
-1.853943 -45.34668 -23.681641 7
-1.86911 -45.575195 -23.666504 7
-1.904266 -46.02832 -23.773438 7
-1.721985 -44.675781 -21.285156 7
-1.786316 -45.464844 -21.547852 7
-1.7663569 -45.289062 -21.325684 7
-1.80835 -45.822266 -21.456543 7
-1.841614 -47.498047 -18.748535 7
-1.906464 -48.30957 -18.956055 7
-1.976715 -49.1875 -19.186523 7
0.43130499 23.453125 -1.30957 7
0.42761201 23.499023 -1.371582 7
0.42822301 23.485352 -1.42627 7
0.42971799 23.461914 -1.4794919 7
0.43942299 23.327148 -1.517578 7
0.44570899 23.239258 -1.562012 7
0.39230299 23.537109 -4.483398 7
0.39810199 23.448242 -4.519043 7
0.39483601 23.479492 -4.5864258 7
0.397614 23.430664 -4.6333008 7
0.39996299 23.387695 -4.6806641 7
0.40274 23.338867 -4.726562 7
0.24646001 24.839844 -7.3803711 7
0.25137299 24.758789 -7.4169922 7
0.25543201 24.6875 -7.45752 7
0.25906399 24.623047 -7.4995122 7
0.25839201 24.612305 -7.561523 7
0.25650001 24.619141 -7.629395 7
-1.880371 -40.646484 -25.993652 7
-1.915375 -41.060547 -26.130371 7
-1.942902 -41.461914 -26.115234 7
-1.9720761 -41.819336 -26.208984 7
-1.993042 -42.094727 -26.24707 7
-1.619934 -39.180664 -22.402832 7
-1.6409 -39.451172 -22.439453 7
-1.656525 -39.667969 -22.441895 7
-1.6726381 -39.889648 -22.445801 7
-1.7249759 -40.488281 -22.671875 7
-1.5602421 -39.848633 -19.694824 7
-1.564697 -39.946289 -19.625 7
-1.5817569 -40.174805 -19.624023 7
-1.620178 -40.634766 -19.740723 7
-1.6207581 -40.689453 -19.647461 7
-1.659668 -41.154297 -19.762695 7
-1.7027889 -42.905273 -17.183105 7
-1.74707 -43.4375 -17.290527 7
-1.8097841 -44.172852 -17.481445 7
-0.27072099 -11.907227 28.291504 7
0.39636201 22.303711 -1.63623 7
0.39056399 22.373047 -1.699707 7
0.39859 22.265625 -1.737793 7
0.40591401 22.164062 -1.829102 7
0.40841699 22.126953 -1.876953 7
0.41369599 22.055664 -1.919434 7
0.34433001 22.450195 -4.8110352 7
0.35098299 22.356445 -4.8408198 7
0.353912 22.307617 -4.8842769 7
0.35638401 22.263672 -4.9287109 7
0.355194 22.265625 -4.9858398 7
0.35769701 22.22168 -5.0297852 7
0.35601801 22.227539 -5.0888672 7
0.20449799 23.455078 -7.686523 7
0.20468099 23.433594 -7.742188 7
0.20400999 23.422852 -7.8017578 7
0.207397 23.363281 -7.8413091 7
0.209869 23.313477 -7.8852539 7
0.20819101 23.3125 -7.9492192 7
-0.397064 8.4238281 -31.071777 7
-0.38763401 8.3164062 -30.972656 7
-1.737 -35.52832 -24.688965 7
-1.752167 -35.726562 -24.703613 7
-1.772552 -35.97168 -24.751953 7
-1.7965699 -36.251953 -24.823242 7
-1.8117369 -36.449219 -24.835938 7
-1.445465 -34.626953 -20.099121 7
-1.408112 -34.319336 -19.797363 7
-1.400391 -34.293945 -19.669922 7
-1.37027 -34.052734 -19.413086 7
-1.34433 -33.851562 -19.181641 7
-1.336609 -33.825195 -19.056641 7
-1.320557 -33.71875 -18.883301 7
-1.345367 -34.418945 -18.210938 7
-1.35376 -34.545898 -18.175293 7
-1.3772891 -34.821289 -18.221191 7
-1.397644 -35.06543 -18.249512 7
-1.406067 -35.193359 -18.211426 7
-1.424377 -35.418945 -18.226562 7
-1.447876 -35.694336 -18.268555 7
-1.533691 -37.958984 -15.803223 7
-1.566071 -38.328125 -15.86084 7
-1.594269 -38.65625 -15.897461 7
-1.633911 -39.101562 -15.984863 7
0.36520401 21.03418 -1.92041 7
0.35940599 21.094727 -1.981934 7
0.36007699 21.081055 -2.030273 7
0.35925299 21.083984 -2.082031 7
0.36340299 21.02832 -2.1230471 7
0.37057501 20.939453 -2.1586909 7
0.375671 20.873047 -2.1977539 7
0.38317901 20.766602 -2.3300779 7
0.38436899 20.746094 -2.3764651 7
0.311676 21.045898 -5.125 7
0.31527701 20.991211 -5.1621089 7
0.31698599 20.958984 -5.2060552 7
0.31964099 20.916016 -5.2460942 7
0.31878701 20.911133 -5.2988281 7
0.31945801 20.888672 -5.3466802 7
0.31912199 20.87793 -5.3974609 7
-0.37869301 7.7392578 -28.446289 7
-0.450073 4.632812 -29.973633 7
-1.217865 -30.62793 -17.138184 7
-1.25177 -30.976562 -17.248047 7
-1.271271 -31.195312 -17.27832 7
-1.260803 -31.143555 -17.147949 7
-1.28363 -31.393555 -17.195312 7
-1.288177 -31.477539 -17.144531 7
-1.304352 -31.666016 -17.154785 7
-1.327728 -31.921875 -17.202148 7
-1.421448 -34.27832 -14.740234 7
-1.452606 -34.611328 -14.795898 7
-1.478271 -34.893555 -14.826172 7
-1.5083309 -35.217773 -14.874512 7
0.332672 19.929688 -2.2680659 7
0.32910201 19.960938 -2.3232419 7
0.329254 19.951172 -2.3701169 7
0.33316001 19.901367 -2.4086909 7
0.33969101 19.823242 -2.441895 7
0.342529 19.785156 -2.4829099 7
0.34585601 19.741211 -2.5224609 7
0.27609301 19.830078 -5.4638672 7
0.28066999 19.75293 -5.5415039 7
0.27764899 19.768555 -5.5996089 7
0.27728301 19.756836 -5.6479492 7
0.276398 19.750977 -5.6982422 7
0.274445 19.755859 -5.7529302 7
0.112823 20.520508 -8.6826172 7
-1.347229 -25.97168 -21.998535 7
-1.361542 -26.131836 -22.030273 7
-1.099792 -27.208984 -16.246582 7
-1.098694 -27.240234 -16.175781 7
-1.1046751 -27.331055 -16.14209 7
-1.118347 -27.484375 -16.148926 7
-1.130859 -27.629883 -16.148926 7
-1.140533 -27.791016 -16.066895 7
-1.147705 -27.890625 -16.037598 7
-1.182587 -28.223633 -16.151855 7
-1.196259 -28.379883 -16.154785 7
-1.1968991 -28.425781 -16.090332 7
-1.289642 -30.732422 -13.708984 7
-1.306244 -30.914062 -13.707031 7
-1.331177 -31.169922 -13.739746 7
-1.374512 -31.624023 -13.774414 7
-0.194702 -10.300781 22.344238 7
-0.197052 -10.260742 22.389648 7
0.30603001 18.832031 -2.5717771 7
0.30502301 18.833984 -2.6186521 7
0.302338 18.852539 -2.6694341 7
0.30761701 18.791016 -2.702637 7
0.312866 18.729492 -2.734863 7
0.31771901 18.664062 -2.8125 7
0.32132 18.620117 -2.848145 7
0.32617199 18.553711 -2.9248049 7
0.326294 18.542969 -2.96875 7
0.240051 18.685547 -5.766602 7
0.243591 18.634766 -5.7973628 7
0.246582 18.59082 -5.8305659 7
0.24444599 18.59375 -5.882812 7
0.245148 18.571289 -5.9243159 7
0.244202 18.564453 -5.972168 7
0.244324 18.546875 -6.0161128 7
0.24056999 18.566406 -6.0751948 7
-1.057343 -23.295898 -17.885742 7
-1.066193 -23.405273 -17.882324 7
-1.066925 -23.455078 -17.830078 7
-1.080139 -23.594727 -17.851074 7
-1.095886 -23.753906 -17.886719 7
-1.115997 -23.945312 -17.946777 7
-1.038361 -24.710938 -15.654785 7
-1.038422 -24.750977 -15.596191 7
-1.01416 -24.642578 -15.352051 7
-1.028015 -24.788086 -15.364746 7
-1.04126 -24.929688 -15.373535 7
-1.057587 -25.09375 -15.397949 7
-1.068939 -25.220703 -15.396484 7
-1.073395 -25.293945 -15.358887 7
-1.075989 -25.353516 -15.312012 7
-1.094849 -25.537109 -15.34668 7
-1.1112061 -25.704102 -15.368164 7
-1.133209 -25.916016 -15.416992 7
-1.250824 -28.457031 -13.10791 7
-1.246521 -28.454102 -13.021973 7
-1.263489 -28.628906 -13.024414 7
-0.21774299 -10.179688 21.140137 7
-0.21652199 -10.12793 21.154297 7
-0.203308 -10.026367 21.068848 7
-0.19512901 -9.9453115 21.025391 7
-0.203918 -9.9355469 21.121582 7
-0.219666 -9.953125 21.275391 7
-0.23349001 -9.9638672 21.414062 7
-0.114136 -6.6894531 21.605469 7
-0.122955 -6.6669922 21.699219 7
-0.124817 -6.5761719 21.74707 7
-0.122284 -6.5214839 21.740723 7
0.27285799 17.916992 -2.897949 7
0.26947001 17.946289 -2.9482419 7
0.27145401 17.918945 -2.9858401 7
0.275177 17.874023 -3.019531 7
0.28317299 17.789062 -3.04248 7
0.28515601 17.761719 -3.0800779 7
0.287689 17.728516 -3.1157229 7
0.29025301 17.694336 -3.1513669 7
0.293365 17.654297 -3.1860349 7
0.20269801 17.660156 -6.0864258 7
0.20107999 17.658203 -6.1347661 7
0.199432 17.65625 -6.183105 7
0.200745 17.626953 -6.2202148 7
0.206909 17.555664 -6.2382808 7
0.20163 17.583984 -6.3007808 7
0.200592 17.577148 -6.3466802 7
0.022675 18.068359 -9.2851562 7
0.025238 18.022461 -9.3164062 7
0.025970001 17.991211 -9.3554688 7
0.032715 17.911133 -9.3642578 7
0.029266 17.915039 -9.4248047 7
0.027039001 17.90918 -9.4790039 7
0.02478 17.902344 -9.5336914 7
0.021361999 17.905273 -9.5942383 7
-0.95962501 -20.408203 -17.197266 7
-0.95706201 -20.433594 -17.132812 7
-0.95315599 -20.451172 -17.061035 7
-0.96121198 -20.546875 -17.059082 7
-0.97192401 -20.65918 -17.071777 7
-0.983307 -20.777344 -17.088379 7
-0.992706 -20.880859 -17.092285 7
-0.998779 -20.963867 -17.077637 7
-0.99356103 -20.972656 -16.99707 7
-0.92379802 -21.97168 -14.714844 7
-0.92529303 -22.055664 -14.617188 7
-0.936005 -22.168945 -14.619141 7
-0.94872999 -22.296875 -14.630371 7
-0.96224999 -22.466797 -14.591797 7
-0.96890301 -22.550781 -14.571289 7
-0.98623699 -22.712891 -14.604492 7
-1.001129 -22.893555 -14.569336 7
-1.166931 -25.949219 -12.228027 7
-1.189636 -26.157227 -12.257324 7
-1.2023619 -26.287109 -12.245605 7
-1.202423 -26.320312 -12.183594 7
-1.219574 -27.110352 -10.849609 7
-1.238312 -27.288086 -10.851562 7
-1.2503361 -27.412109 -10.828613 7
-1.2763979 -27.647461 -10.85498 7
-1.299805 -27.863281 -10.870605 7
-0.097717002 -6.382812 20.237305 7
-0.098357998 -6.3398442 20.258301 7
-0.103027 -6.3076172 20.312012 7
-0.11438 -6.2929692 20.420898 7
-0.106995 -6.2294922 20.375 7
-0.107666 -6.186523 20.395508 7
-0.112335 -6.1533198 20.44873 7
0.24444599 16.946289 -3.222656 7
0.24520899 16.928711 -3.26123 7
0.247284 16.900391 -3.296387 7
0.253815 16.832031 -3.3193359 7
0.25973499 16.770508 -3.344727 7
0.26116899 16.748047 -3.3808589 7
0.264496 16.708008 -3.4116211 7
0.269104 16.657227 -3.4399409 7
0.271851 16.624023 -3.472168 7
0.26876801 16.639648 -3.519531 7
0.17144801 16.523438 -6.454102 7
0.169067 16.525391 -6.503418 7
0.170471 16.49707 -6.5366211 7
0.170624 16.477539 -6.5756841 7
0.170105 16.462891 -6.6166992 7
0.170258 16.444336 -6.6557622 7
0.16717499 16.450195 -6.70752 7
-1.121552 -17.647461 -19.772461 7
-1.1218261 -17.794922 -19.645996 7
-1.125458 -17.864258 -19.625977 7
-1.1283571 -17.927734 -19.600586 7
-1.135468 -18.015625 -19.602539 7
-1.148163 -18.133789 -19.638672 7
-1.15387 -18.213867 -19.630371 7
-1.167969 -18.338867 -19.674316 7
-1.173645 -18.417969 -19.665039 7
-0.89270002 -18.258789 -16.563477 7
-0.88299602 -18.242188 -16.463867 7
-0.88586402 -18.301758 -16.437012 7
-0.888062 -18.356445 -16.404785 7
-0.89444 -18.435547 -16.397461 7
-0.89453101 -18.477539 -16.353516 7
-0.847992 -19.876953 -14.079102 7
-0.84664899 -19.904297 -14.024902 7
-0.86004603 -20.02832 -14.044434 7
-0.86294597 -20.083008 -14.01123 7
-0.87213099 -20.178711 -14.009277 7
-0.888336 -20.323242 -14.041504 7
-0.898224 -20.422852 -14.041992 7
-0.895477 -20.441406 -13.979004 7
-0.90188599 -20.518555 -13.961914 7
-0.91668701 -20.652344 -13.98584 7
-0.91815197 -20.698242 -13.943359 7
-1.085297 -23.741211 -11.661133 7
-1.093811 -23.833984 -11.638184 7
-1.197296 -25.456055 -10.258301 7
0.230042 15.972656 -3.5483401 7
0.234192 15.927734 -3.5756841 7
0.234375 15.916016 -3.612793 7
0.23925801 15.865234 -3.6376951 7
0.23803701 15.865234 -3.6782229 7
0.246307 15.786133 -3.6938479 7
0.25048801 15.740234 -3.719727 7
0.240448 15.810547 -3.784668 7
0.144012 15.642578 -6.4726558 7
0.13681 15.662109 -6.5756841 7
0.13699301 15.641602 -6.612793 7
0.14114401 15.591797 -6.6333008 7
0.14465301 15.546875 -6.65625 7
-0.95379603 -14.269531 -18.830078 7
-0.92816198 -14.245117 -18.597168 7
-0.92752099 -14.289062 -18.558594 7
-0.94461101 -14.414062 -18.632812 7
-0.95223999 -14.541992 -18.610352 7
-0.96786499 -14.662109 -18.674316 7
-0.979065 -14.759766 -18.708984 7
-0.99118 -14.910156 -18.713867 7
-0.995758 -14.977539 -18.705566 7
-1.01059 -15.095703 -18.762695 7
-1.023468 -15.25 -18.769043 7
-0.79119903 -15.734375 -15.950195 7
-0.79126 -15.774414 -15.913086 7
-0.77575701 -15.731445 -15.786133 7
-0.77362102 -15.760742 -15.73584 7
-0.774445 -15.804688 -15.702637 7
-0.78045702 -15.876953 -15.69873 7
-0.78497303 -15.94043 -15.686523 7
-0.79394501 -16.02832 -15.699219 7
-0.80368 -16.120117 -15.71582 7
-0.81118798 -16.201172 -15.719238 7
-0.811279 -16.241211 -15.680664 7
-0.74649 -17.673828 -13.340332 7
-0.75472999 -17.757812 -13.339355 7
-0.76596099 -17.860352 -13.351562 7
-0.77789301 -17.967773 -13.368164 7
-0.77795398 -18.001953 -13.325195 7
-0.78027302 -18.048828 -13.292969 7
-0.78848302 -18.132812 -13.290527 7
-0.80117798 -18.244141 -13.308594 7
-0.81314099 -18.351562 -13.323242 7
-0.81686401 -18.408203 -13.297363 7
-0.81988502 -18.460938 -13.268066 7
-0.82742298 -18.541016 -13.259766 7
-0.994385 -21.484375 -11.168945 7
-0.99069202 -21.488281 -11.103516 7
-0.98703003 -21.492188 -11.038086 7
-1.003448 -21.630859 -11.049805 7
-1.019104 -21.766602 -11.059082 7
-1.032562 -21.887695 -11.058594 7
-1.043793 -21.993164 -11.048828 7
-1.03714 -21.975586 -10.97168 7
-1.028229 -21.943359 -10.885254 7
-1.081635 -23.041016 -9.6293945 7
-1.09137 -23.134766 -9.6069336 7
-1.111481 -23.302734 -9.6181641 7
-1.12793 -23.445312 -9.6166992 7
-0.085326999 -5.7158198 18.138184 7
-0.091278002 -5.6923828 18.195801 7
-0.092772998 -5.65625 18.220215 7
0.200745 15.219727 -3.5537109 7
0.202301 15.196289 -3.585449 7
0.19812 15.216797 -3.632812 7
0.190338 15.265625 -3.6889651 7
0.194763 15.219727 -3.7133789 7
0.198486 15.179688 -3.7397461 7
0.20147701 15.145508 -3.7675779 7
0.202332 15.12793 -3.80127 7
0.20462 15.097656 -3.8305659 7
0.206146 15.073242 -3.8623049 7
0.20770299 15.049805 -3.894531 7
0.21286 14.998047 -3.9155271 7
0.21585099 14.963867 -3.9423831 7
0.215942 14.951172 -3.9775391 7
0.215363 14.943359 -4.0151372 7
0.210449 14.967773 -4.0644531 7
0.209167 14.96582 -4.1035161 7
0.204254 14.990234 -4.1533198 7
-0.82632399 -11.599609 -17.912598 7
-0.82489002 -11.639648 -17.875 7
-0.828125 -11.697266 -17.867188 7
-0.83599901 -11.772461 -17.888672 7
-0.84075898 -11.835938 -17.889648 7
-0.84716803 -11.905273 -17.901367 7
-0.85116601 -11.96582 -17.897461 7
-0.85668898 -12.032227 -17.90332 7
-0.88021898 -12.169922 -18.021973 7
-0.87722802 -12.204102 -17.973145 7
-0.875763 -12.243164 -17.934082 7
-0.71713299 -13.763672 -15.310547 7
-0.71331799 -13.785156 -15.256348 7
-0.71334797 -13.822266 -15.223145 7
-0.707977 -13.835938 -15.15918 7
-0.710388 -13.885742 -15.139648 7
-0.717529 -13.958008 -15.145508 7
-0.72308302 -14.023438 -15.143555 7
-0.705383 -16.041992 -12.915527 7
-0.704651 -16.070312 -12.873535 7
-0.71566802 -16.166016 -12.888672 7
-0.72433501 -16.24707 -12.89209 7
-0.72985798 -16.311523 -12.879883 7
-0.72997999 -16.344727 -12.841309 7
-0.73474097 -16.405273 -12.824707 7
-0.73477203 -16.4375 -12.785645 7
-0.74975598 -16.554688 -12.818359 7
-0.94116199 -19.863281 -10.548828 7
-0.95455903 -19.975586 -10.551758 7
-0.96716303 -20.083984 -10.551758 7
-0.97113001 -20.136719 -10.518555 7
-0.965698 -20.128906 -10.450195 7
-0.96340901 -20.141602 -10.393555 7
-1.0118411 -21.180664 -9.184082 7
-1.018097 -21.24707 -9.1542969 7
-1.026886 -21.353516 -9.0810547 7
0.17532299 14.382812 -3.8808589 7
0.174042 14.368164 -3.952637 7
0.172668 14.366211 -3.9902339 7
0.17892499 14.296875 -4.0410161 7
0.184357 14.245117 -4.059082 7
0.185974 14.219727 -4.0888672 7
0.187592 14.195312 -4.1176758 7
-0.64495802 -11.895508 -14.683594 7
-0.64172399 -11.918945 -14.636719 7
-0.64346302 -11.962891 -14.617676 7
-0.64849901 -12.021484 -14.616211 7
-0.65035999 -12.103516 -14.568359 7
-0.609375 -14.114258 -12.32959 7
-0.617737 -14.188477 -12.335938 7
-0.62109399 -14.238281 -12.318359 7
-0.62695301 -14.298828 -12.312012 7
-0.63031 -14.348633 -12.293945 7
-0.63287401 -14.391602 -12.271973 7
-0.63622999 -14.44043 -12.253418 7
-0.642914 -14.506836 -12.250977 7
-0.64956701 -14.573242 -12.24707 7
-0.65713501 -14.643555 -12.248535 7
-0.664612 -14.712891 -12.248535 7
-0.85574299 -17.941406 -10.169922 7
-0.84341401 -17.921875 -10.038574 7
-0.85421801 -18.010742 -10.035645 7
-0.86093098 -18.077148 -10.017578 7
-0.870911 -18.163086 -10.01123 7
-0.081878997 -5.2558589 16.326172 7
-0.080231003 -5.1816411 16.340332 7
-0.081055 -5.148438 16.35791 7
-0.085998997 -5.124023 16.403809 7
0.152283 13.535156 -4.1938481 7
0.155579 13.5 -4.2163091 7
0.15969799 13.458984 -4.2363281 7
0.15978999 13.445312 -4.2680659 7
0.16311599 13.410156 -4.2900391 7
0.166412 13.375 -4.3129878 7
0.168915 13.344727 -4.3374019 7
0.169861 13.325195 -4.3657231 7
0.17153899 13.300781 -4.3925781 7
0.17163099 13.287109 -4.4238281 7
0.174988 13.251953 -4.445312 7
-0.59353602 -10.506836 -14.078125 7
-0.57342499 -12.829102 -11.941895 7
-0.57608002 -12.87207 -11.923828 7
-0.585693 -12.948242 -11.938477 7
-0.589203 -12.996094 -11.924316 7
-0.59539801 -13.055664 -11.921875 7
-0.59371901 -13.079102 -11.882812 7
-0.59548998 -13.117188 -11.859375 7
-0.59817499 -13.160156 -11.84082 7
-0.60775799 -13.236328 -11.854004 7
-0.613922 -13.296875 -11.851074 7
-0.623505 -13.373047 -11.86377 7
-0.625305 -13.412109 -11.840332 7
-0.80609101 -16.664062 -9.6376953 7
-0.81567401 -16.742188 -9.6323242 7
-0.823578 -16.8125 -9.6210938 7
-0.83053601 -16.876953 -9.6064453 7
-0.194672 -8.3066406 14.811035 7
-0.19207799 -8.265625 14.815918 7
-0.17636099 -8.1474609 14.766602 7
-0.18158001 -8.1015615 14.834961 7
-0.192902 -8.0751953 14.937988 7
-0.18679801 -8.0234385 14.922363 7
-0.079467997 -4.7929692 15.652832 7
-0.080352999 -4.7617192 15.669434 7
0.14303599 12.663086 -4.4980469 7
0.142303 12.655273 -4.530273 7
0.143372 12.620117 -4.5878911 7
0.14681999 12.584961 -4.6069341 7
0.14862099 12.560547 -4.6308589 7
0.146332 12.546875 -4.6972661 7
0.147369 12.511719 -4.7539058 7
-0.50872803 -11.233398 -11.640137 7
-0.50970501 -11.268555 -11.617676 7
-0.51159698 -11.305664 -11.599609 7
-0.51532 -11.351562 -11.589844 7
-0.51901197 -11.397461 -11.580078 7
-0.519104 -11.427734 -11.552734 7
-0.53005999 -11.504883 -11.577637 7
-0.53378302 -11.550781 -11.567383 7
-0.53567499 -11.587891 -11.54834 7
-0.54577601 -11.662109 -11.567383 7
-0.550385 -11.711914 -11.561035 7
-0.55322301 -11.753906 -11.545898 7
-0.553253 -11.783203 -11.518066 7
-0.55056798 -11.801758 -11.477051 7
-0.76998901 -15.433594 -9.3115234 7
-0.77371198 -15.477539 -9.2875977 7
-0.783813 -15.554688 -9.2861328 7
-0.79299903 -15.62793 -9.2822266 7
-0.165741 -7.9501948 13.905762 7
-0.15933201 -7.9003911 13.890137 7
-0.165741 -7.891602 13.943359 7
-0.173981 -7.889648 14.006348 7
-0.18035901 -7.8808589 14.05957 7
-0.162994 -7.704102 14.040527 7
-0.072998002 -4.7998052 14.829102 7
-0.069335997 -4.7597661 14.818848 7
-0.070251003 -4.7304692 14.835449 7
-0.073913999 -4.7060552 14.868652 7
-0.076629996 -4.679688 14.896484 7
-0.07666 -4.6474609 14.907715 7
-0.073882997 -4.610352 14.902344 7
-0.078460999 -4.5878911 14.94043 7
-0.078460999 -4.554688 14.95166 7
-0.085785002 -4.5380859 15.006836 7
-0.083007999 -4.5 15.000977 7
0.118408 12.061523 -4.500977 7
0.119385 12.041016 -4.526855 7
0.118652 12.033203 -4.5576172 7
0.122253 11.99707 -4.5751948 7
0.118805 12.00293 -4.61377 7
0.121613 11.973633 -4.6337891 7
0.120911 11.948242 -4.6928711 7
0.121002 11.93457 -4.7207031 7
0.121979 11.914062 -4.7460942 7
0.122955 11.893555 -4.7719731 7
-0.71743798 -14.25293 -8.9575195 7
-0.66394001 -13.058594 -8.6293945 7
-0.67199701 -13.118164 -8.6259766 7
-0.68008399 -13.178711 -8.6225586 7
-0.68713403 -13.235352 -8.6152344 7
-0.69522101 -13.295898 -8.6113281 7
-0.70227098 -13.350586 -8.6035156 7
-0.69931 -13.360352 -8.5615234 7
-0.69937098 -13.383789 -8.5297852 7
-0.69537401 -13.388672 -8.484375 7
-0.69744903 -13.419922 -8.4589844 7
-0.69546503 -13.43457 -8.4204102 7
-0.058959998 -4.4746089 13.461426 7
-0.060973998 -4.4492192 13.48291 7
-0.053925 -4.407227 13.456055 7
-0.054901 -4.3798828 13.472168 7
-0.055907998 -4.3535161 13.488281 7
-0.056885 -4.3251948 13.503906 7
-0.059905998 -4.3027339 13.530762 7
-0.060943998 -4.2763672 13.546387 7
-0.058899 -4.2431641 13.545898 7
-0.057891998 -4.2138672 13.550781 7
-0.062896997 -4.1943359 13.587891 7
-0.062927 -4.1650391 13.597656 7
-0.62057501 -12.167969 -8.2304688 7
-0.62060499 -12.189453 -8.2016602 7
-0.62063599 -12.212891 -8.1728516 7
-0.62173498 -12.239258 -8.1469727 7
-0.62179601 -12.261719 -8.1181641 7
-0.63961798 -12.360352 -8.1479492 7
-0.64178503 -12.392578 -8.1254883 7
-0.64810199 -12.441406 -8.1166992 7
-0.65127599 -12.477539 -8.0976562 7
-0.646088 -12.477539 -8.0507812 7
-0.044739 -4.1523442 12.279297 7
-0.046936002 -4.1308589 12.299805 7
-0.041412 -4.094727 12.283203 7
-0.041382 -4.0429692 12.302734 7
-0.041382 -4.016602 12.312012 7
-0.041412 -3.992188 12.321777 7
-0.044677999 -3.9716799 12.347656 7
-0.048004001 -3.9511721 12.373535 7
-0.043609999 -3.917969 12.361328 7
-0.043579001 -3.8662109 12.379883 7
-0.04245 -3.8378911 12.383789 7
-0.049072001 -3.8232419 12.425781 7
-0.050170999 -3.7998049 12.44043 7
-0.055663999 -3.7832029 12.476562 7
-0.047180001 -3.8349609 11.375488 7
-0.040008999 -3.7988279 11.353027 7
-0.038818002 -3.773438 11.356934 7
-0.042389002 -3.7558589 11.381836 7
-0.041198999 -3.730469 11.385742 7
-0.047180001 -3.7167971 11.421387 7
-0.045959 -3.691406 11.424805 7
-0.050751001 -3.6748049 11.455566 7
-0.041168001 -3.6357419 11.420898 7
-0.043579001 -3.6152339 11.44043 7
-0.043579001 -3.592773 11.449219 7
-0.043549001 -3.5683589 11.458008 7
-0.050719999 -3.554688 11.499023 7
-0.053130999 -3.535156 11.518555 7
-0.039551001 -3.7792971 10.89209 7
-0.044525001 -3.765625 10.921875 7
-0.035858002 -3.7285161 10.894043 7
-0.037078999 -3.6855471 10.91748 7
-0.042084001 -3.671875 10.947266 7
-0.039581001 -3.644531 10.945801 7
-0.042052999 -3.6035161 10.973633 7
-0.047028001 -3.5888669 11.004395 7
-0.035828002 -3.5488279 10.964355 7
-0.021118 -3.5175779 10.420898 7
-0.021118 -3.496094 10.430176 7
-0.023712 -3.4794919 10.449219 7
-0.023682 -3.457031 10.45752 7
-0.030182 -3.4462891 10.492188 7
-0.036713 -3.4355471 10.527344 7
-0.036651999 -3.4130859 10.536133 7
-0.032806002 -3.3857419 10.527832 7
-0.027588001 -3.355469 10.514648 7
-0.027588001 -3.3349609 10.522461 7
-0.027557001 -3.3125 10.530762 7
-0.027557001 -3.2900391 10.539062 7
-0.043334998 -3.515625 10.107422 7
-0.041962001 -3.492188 10.110352 7
-0.043334998 -3.4736331 10.124023 7
-0.037932999 -3.4443359 10.111328 7
-0.032531999 -3.4160161 10.098633 7
-0.032531999 -3.394531 10.106934 7
-0.033844002 -3.375 10.120605 7
-0.036559999 -3.359375 10.13916 7
-0.041962001 -3.347656 10.168457 7
-0.045990001 -3.332031 10.192871 7
-0.046021 -3.311523 10.200684 7
-0.040587999 -3.282227 10.187012 7
-0.041962001 -3.2636721 10.200684 7
-0.039246 -3.238281 10.197754 7
-0.039246 -3.21875 10.205566 7
-0.041931 -3.2011721 10.224121 7
-0.040192001 -3.186523 9.8081055 7
-0.031769 -3.1542971 9.7832031 7
-0.033142 -3.136719 9.796875 7
-0.030365 -3.1123049 9.7929688 7
-0.030304 -3.092773 9.8007812 7
-0.037354 -3.082031 9.8354492 7
-0.042998999 -3.0712891 9.8637695 7
-0.042969 -3.050781 9.8710938 7
-0.044372998 -3.032227 9.8837891 7
-0.045775998 -3.0136721 9.8969727 7
-0.048553001 -2.9980471 9.9150391 7
-0.045775998 -2.9746089 9.9116211 7
-0.042969 -2.9501951 9.9082031 7
-0.026093001 -3.1816411 9.390625 7
-0.030425999 -3.1494141 9.4213867 7
-0.036285002 -3.1201169 9.4575195 7
-0.031920999 -3.0761721 9.456543 7
-0.027557001 -3.032227 9.4555664 7
-0.027557001 -2.9941411 9.4702148 7
-0.037749998 -2.96875 9.5219727 7
-0.037719999 -2.929688 9.5366211 7
-0.042084001 -2.8974609 9.5664062 7
-0.13470501 -6.0742192 7.5483398 7
-0.12262 -6.0273442 7.5307622 7
-0.12262 -6.0136719 7.5449219 7
-0.124146 -6.0029302 7.5629878 7
-0.13317899 -6.0107422 7.6025391 7
-0.13470501 -6 7.6210942 7
-0.13317899 -5.9804692 7.6313481 7
-0.139221 -5.9824219 7.6616211 7
-0.12713601 -5.921875 7.6577148 7
-0.12713601 -5.90625 7.671875 7
-0.124115 -5.8837891 7.6777339 7
-0.034821 -3.1943359 9.0478516 7
-0.034821 -3.175781 9.0561523 7
-0.031799 -3.1533201 9.0527344 7
-0.034790002 -3.139648 9.0712891 7
-0.028748 -3.1123049 9.0576172 7
-0.031769 -3.0996089 9.0751953 7
-0.036285002 -3.0869141 9.0991211 7
-0.037811 -3.0722661 9.1118164 7
-0.034790002 -3.0488279 9.1083984 7
-0.037994001 -3.0371089 9.1318359 7
-0.034972999 -3.014648 9.1289062 7
-0.037932999 -2.999023 9.1469727 7
-0.036437999 -2.9785161 9.1484385 7
-0.031920999 -2.954102 9.1401367 7
-0.039459001 -2.9462891 9.1738281 7
-0.04245 -2.9316411 9.1914062 7
-0.031891 -2.8994141 9.1616211 7
-0.037964001 -2.889648 9.1894531 7
-0.138519 -6.079102 7.1313481 7
-0.14321899 -6.0644531 7.171875 7
-0.14947499 -6.0673828 7.202148 7
-0.13696299 -6.0205078 7.1850591 7
-0.12759399 -5.9824219 7.17627 7
-0.118225 -5.9443359 7.1665039 7
-0.122894 -5.9423828 7.1928711 7
-0.121338 -5.9248052 7.2036128 7
-0.122925 -5.9160161 7.2211909 7
-0.122925 -5.9013672 7.235352 7
-0.129181 -5.9033198 7.2651372 7
-0.135406 -5.905273 7.295898 7
-0.135437 -5.891602 7.3100591 7
-0.129181 -5.8613281 7.3076172 7
-0.122925 -5.8320308 7.3056641 7
-0.122955 -5.8183589 7.3193359 7
-0.124512 -5.8076172 7.3374019 7
-0.124512 -5.7939448 7.351562 7
-0.118286 -5.764648 7.3491211 7
-0.127655 -5.773438 7.387207 7
-0.021880999 -3.1875 8.6914062 7
-0.032776002 -3.1855471 8.7358398 7
-0.024994001 -3.157227 8.7172852 7
-0.029694 -3.1474609 8.7407227 7
-0.035950001 -3.1386721 8.7685547 7
-0.034393001 -3.1191411 8.7714844 7
-0.029663 -3.094727 8.7631836 7
-0.023437999 -3.0693359 8.75 7
-0.017151 -3.042969 8.7363281 7
-0.023437999 -3.0341799 8.7646484 7
-0.020293999 -3.011719 8.7617188 7
-0.026550001 -3.003906 8.7900391 7
-0.021880999 -2.9794919 8.7817383 7
-0.029663 -2.972656 8.8144531 7
-0.03125 -2.957031 8.8271484 7
-0.03125 -2.9394529 8.8344727 7
-0.029694 -2.9199221 8.8359385 7
-0.023406999 -2.894531 8.8222656 7
-0.119781 -5.7441411 6.4580078 7
-0.10968 -5.7080078 6.4492192 7
-0.10968 -5.6845698 6.4760742 7
-0.12146 -5.7001948 6.5161128 7
-0.12817401 -5.6933589 6.558105 7
-0.12988301 -5.6845698 6.5756841 7
-0.123138 -5.655273 6.574707 7
-0.114746 -5.6230469 6.5693359 7
-0.116425 -5.6025391 6.6000981 7
-0.111389 -5.577148 6.6020508 7
-0.111389 -5.5527339 6.628418 7
-0.12149 -5.5654302 6.6645508 7
-0.113068 -5.532227 6.6586909 7
-0.108063 -5.507812 6.660645 7
-0.108032 -5.4824219 6.6870122 7
-0.108032 -5.469727 6.699707 7
-0.027344 -2.871094 8.1835938 7
-0.025635 -2.8525391 8.1855469 7
-0.023956001 -2.8339839 8.1870117 7
-0.01767 -2.811523 8.1787109 7
-0.034453999 -2.8173831 8.2373047 7
-0.031067001 -2.795898 8.2338867 7
-0.031067001 -2.780273 8.2402344 7
-0.02771 -2.7597661 8.2368164 7
-0.020996001 -2.735352 8.2231445 7
-0.022675 -2.7207029 8.2348633 7
-0.024352999 -2.707031 8.246582 7
-0.022644 -2.688477 8.2480469 7
-0.031067001 -2.6826169 8.2807617 7
-0.031067001 -2.6660161 8.2875977 7
-0.026031001 -2.644531 8.277832 7
-0.031067001 -2.6337891 8.300293 7
-0.031067001 -2.617188 8.3066406 7
-0.136108 -5.7451172 6.1010742 7
-0.12570199 -5.7080078 6.09375 7
-0.117004 -5.6650391 6.1030269 7
-0.118713 -5.6455078 6.1337891 7
-0.120453 -5.6386719 6.1508789 7
-0.118744 -5.6230469 6.160645 7
-0.118713 -5.6113281 6.1743159 7
-0.123962 -5.6123052 6.1992192 7
-0.122192 -5.5849609 6.222168 7
-0.12741099 -5.5751948 6.2597661 7
-0.122192 -5.5507808 6.262207 7
-0.122253 -5.539062 6.2753911 7
-0.122223 -5.5273442 6.2885742 7
-0.118744 -5.5068359 6.2944341 7
-0.115265 -5.4775391 6.3129878 7
-0.118744 -5.4726558 6.3339839 7
-0.115265 -5.452148 6.339355 7
-0.028351 -2.874023 7.8891602 7
-0.025390999 -2.8564451 7.8911128 7
-0.02713 -2.84375 7.902832 7
-0.013214 -2.8105471 7.8691411 7
-0.016663 -2.7988279 7.8857422 7
-0.016663 -2.7841799 7.8925781 7
-0.013214 -2.764648 7.8891602 7
-0.018402001 -2.7558589 7.9111328 7
-0.018402001 -2.7412109 7.91748 7
-0.030579001 -2.7392581 7.9604492 7
-0.030579001 -2.7236331 7.9672852 7
-0.034058001 -2.7119141 7.9838872 7
-0.030579001 -2.6923831 7.9804692 7
-0.018402001 -2.6630859 7.9506841 7
-0.020142 -2.6494141 7.9628911 7
-0.014954 -2.628906 7.953125 7
-0.018433001 -2.6162109 7.9702148 7
-0.018433001 -2.6005859 7.976562 7
-0.018402001 -2.5849609 7.9829102 7
-0.027069001 -2.579102 8.0151367 7
-0.037537001 -2.5761721 8.0527344 7
-0.157013 -5.749023 5.7695308 7
-0.149841 -5.7216802 5.7695308 7
-0.13906901 -5.6738281 5.7763672 7
-0.137238 -5.6591802 5.7866211 7
-0.139038 -5.6523442 5.8037109 7
-0.13006601 -5.610352 5.8129878 7
-0.122833 -5.5820308 5.8129878 7
-0.128235 -5.5849609 5.8369141 7
-0.128235 -5.563477 5.8632808 7
-0.12826499 -5.5527339 5.8764648 7
-0.128235 -5.5419922 5.8901372 7
-0.13906901 -5.5449219 5.9379878 7
-0.13366701 -5.5214839 5.9404302 7
-0.13006601 -5.5019531 5.9467769 7
-0.124695 -5.4794922 5.94873 7
-0.13186599 -5.484375 5.976562 7
-0.121094 -5.4492192 5.967773 7
-0.02832 -2.8613279 7.6191411 7
-0.02832 -2.8466799 7.625977 7
-0.02832 -2.832031 7.632812 7
-0.042725001 -2.8349609 7.6801758 7
-0.033752002 -2.8095701 7.6621089 7
-0.031920999 -2.7919919 7.664062 7
-0.037323002 -2.7841799 7.6855469 7
-0.02832 -2.7587891 7.6665039 7
-0.026550001 -2.742188 7.6679692 7
-0.022949001 -2.722656 7.6645508 7
-0.022949001 -2.7080081 7.6713872 7
-0.022949001 -2.6933589 7.6777339 7
-0.030121 -2.6855471 7.7050781 7
-0.035491999 -2.6767581 7.7270508 7
-0.030151 -2.65625 7.7182622 7
-0.030121 -2.640625 7.7246089 7
-0.030151 -2.625977 7.730957 7
-0.039092999 -2.6220701 7.7626948 7
-0.030151 -2.5957029 7.7436519 7
-0.030121 -2.5810549 7.75 7
-0.030151 -2.566406 7.7563481 7
-0.022868 -3.922236 12.286627 7
-0.034256 -3.15031 9.865324 7
-0.109863 -5.97193 7.4681358 7
-0.022112001 -3.0449679 9.1509705 7
-0.142414 -5.6371641 6.3963342 7
-0.135125 -5.4696512 6.6003799 7
-0.019377001 -2.7303929 7.8628068 7
-0.026929 -2.59217 8.0092449 7
-0.002206 -2.6352749 7.4240642 7
-0.0044979998 -2.4965501 7.5375128 7
-0.16430099 -8.0536823 14.747644 7
-0.046776 -4.761487 15.456103 7
-0.642474 -12.145425 -11.618497 7
-0.75076401 -13.416047 -11.945758 7
-0.78648001 -13.637651 -8.7670259 7
-0.26307401 -7.5086122 12.925889 7
-0.029372999 -3.733855 10.95027 7
-0.066775002 -3.4179311 10.060409 7
-0.037089001 -3.188663 9.411417 7
-0.060896002 -2.9830711 9.6773052 7
-0.141921 -5.8698039 7.4861279 7
-0.016171999 -3.006042 8.8946199 7
-0.16266499 -5.580369 6.3162651 7
-0.04513 -2.7276499 8.1102505 7
-0.025382999 -2.788625 7.6807809 7
-0.016171999 -2.5924871 7.7269921 7
-0.0057160002 -2.667665 7.3789692 7
0.0022420001 -2.4862001 7.425858 7
-0.013628 -2.3352871 7.5689321 7
0.079801001 12.105921 -4.5576301 7
0.199628 11.95239 -4.555356 7
