# .PCD v0.7 - Point Cloud Data file format
VERSION 0.7
FIELDS x y z intensity
SIZE 4 4 4 4
TYPE F F F F
COUNT 1 1 1 1
WIDTH 979
HEIGHT 1
VIEWPOINT 0 0 0 1 0 0 0
POINTS 979
DATA ascii
2.1170039 66.949219 9.1179199 7
2.118469 65.936523 8.845459 7
2.1201169 64.69043 8.5524902 7
2.12146 63.710938 8.2941895 7
2.1257319 74.018555 3.943115 7
2.1265869 73.457031 3.7512209 7
2.127625 72.742188 3.5576169 7
2.1287229 71.821289 3.362061 7
2.129395 71.480469 3.1845701 7
1.958252 62.336914 8.3144531 7
1.963379 61.054688 8.0288086 7
1.966431 60.3125 7.8061519 7
1.962219 61.608398 7.7939448 7
1.952698 68.732422 2.652832 7
1.955078 68.143555 2.482178 7
1.95752 67.53125 2.3139651 7
1.959778 66.970703 2.1494141 7
1.7844239 58.288086 7.433105 7
1.788574 57.755859 7.2414551 7
1.801331 55.951172 6.9294429 7
1.807312 55.146484 6.720459 7
1.812378 55.90625 3.3461909 7
1.792297 58.989258 3.3071289 7
1.796692 58.383789 3.150635 7
1.798584 58.15332 3.0070801 7
1.802429 57.618164 2.8574221 7
1.806641 57.041992 2.7094729 7
1.762512 64.237305 1.493408 7
1.765625 63.81543 1.342773 7
1.767395 63.599609 1.193604 7
1.6644289 55.398438 6.9030762 7
1.676636 55.237305 3.4814451 7
1.682129 54.719727 3.204102 7
1.684998 54.442383 3.0671389 7
1.690063 53.925781 2.925293 7
1.697083 53.196289 2.780762 7
1.671387 56.125977 2.4516599 7
1.675415 55.717773 2.3137209 7
1.677673 55.501953 2.1794429 7
1.6806639 55.210938 2.045898 7
1.565918 49.678711 5.5056152 7
1.577271 48.800781 5.3193359 7
1.5521851 51.505859 2.8478999 7
1.556702 51.164062 2.718262 7
1.562317 50.733398 2.5883789 7
1.563416 50.666016 2.467041 7
1.569153 50.222656 2.3405759 7
1.5435179 52.500977 1.509766 7
1.544678 52.430664 1.38623 7
1.548828 52.114258 1.263916 7
1.550598 51.990234 1.1418459 7
1.553528 51.772461 1.021484 7
1.498474 56.628906 -1.03418 7
1.505798 56.043945 -1.1394041 7
1.435974 48.713867 5.433105 7
1.446228 48.074219 5.2678218 7
1.448975 48.542969 2.203125 7
1.45752 48 2.0830081 7
1.460449 47.825195 1.967773 7
1.465515 47.509766 1.852783 7
1.469727 47.24707 1.739502 7
1.4356689 49.694336 0.45947301 7
1.439636 49.446289 0.34814501 7
1.444824 49.115234 0.240723 7
1.446533 49.017578 0.127441 7
1.45166 48.692383 0.021729 7
1.456848 48.375 -0.19751 7
1.341858 45.996094 1.83374 7
1.349915 45.570312 1.723145 7
1.355103 45.3125 1.507568 7
1.3566279 45.242188 1.400879 7
1.369019 44.579102 1.2980959 7
1.328369 46.983398 -0.37890601 7
1.331055 46.845703 -0.48413101 7
1.3349 46.639648 -0.58544898 7
1.3390501 46.424805 -0.68554699 7
1.342346 46.25 -0.78662097 7
1.341309 46.314453 -0.899414 7
1.274353 50.09375 -2.880615 7
1.277527 49.920898 -2.983887 7
1.282349 49.65918 -3.078613 7
1.271729 43.711914 1.521973 7
1.268433 43.881836 1.4187011 7
1.27356 43.646484 1.316162 7
1.27832 43.429688 1.2146 7
1.281494 43.288086 1.11377 7
1.286499 43.058594 1.01416 7
1.245667 45.166016 -0.82519501 7
1.24707 45.102539 -0.92846698 7
1.251953 44.874023 -1.022217 7
1.255066 44.727539 -1.119873 7
1.25885 44.551758 -1.214844 7
1.261597 44.427734 -1.41748 7
1.196045 47.625 -3.442627 7
1.2034301 47.270508 -3.743408 7
1.181519 41.849609 1.010498 7
1.1882319 41.580078 0.91601598 7
1.193909 41.349609 0.82202101 7
1.195557 41.290039 0.72534198 7
1.199707 41.124023 0.63159198 7
1.2073359 40.811523 0.54199201 7
1.208984 40.75 0.44726601 7
1.206543 40.858398 0.3479 7
1.1609499 42.854492 -1.63623 7
1.162231 42.799805 -1.7336431 7
1.166504 42.623047 -1.821533 7
1.172485 42.375977 -1.902588 7
1.183899 41.898438 -2.062988 7
1.099854 45.397461 -4.2050781 7
1.10675 45.104492 -4.2763672 7
1.110535 44.939453 -4.3630371 7
1.112976 44.832031 -4.4567871 7
1.11377 39.922852 0.30200201 7
1.119812 39.704102 0.214844 7
1.12207 39.625 0.124023 7
1.12793 39.410156 0.038818002 7
1.128479 39.395508 -0.053955 7
1.085266 41.043945 -1.968262 7
1.0802 41.234375 -2.08252 7
1.085754 41.02832 -2.161865 7
1.09082 40.837891 -2.2419429 7
1.093201 40.748047 -2.3305659 7
1.095764 40.650391 -2.417969 7
1.0153199 43.580078 -4.5810552 7
1.019287 43.427734 -4.664062 7
1.020447 43.37793 -4.7614751 7
1.027161 43.119141 -4.8278809 7
1.032349 42.918945 -4.901855 7
1.035645 42.788086 -4.985352 7
0.95526099 40.724609 -5.4728999 7
0.96081501 40.530273 -5.5378418 7
0.96307403 40.444336 -5.6210942 7
0.959656 40.547852 -5.7382808 7
0.96234101 36.276367 -3.213623 7
0.96392798 36.224609 -3.293457 7
0.96447802 36.202148 -3.3774409 7
0.966003 36.149414 -3.457031 7
0.87133801 38.74707 -5.8833008 7
-0.37048301 -18.354492 58.6875 7
-0.235046 -14.416016 56.553955 7
0.87548798 34.664062 -3.5939939 7
0.88177502 34.490234 -3.6513669 7
0.88476598 34.401367 -3.7211909 7
0.88775599 34.314453 -3.7905271 7
0.89251697 34.180664 -3.8522949 7
0.89483601 34.109375 -3.9238279 7
0.898987 33.993164 -3.9873049 7
0.89801002 34.008789 -4.0722661 7
0.793396 36.510742 -6.450439 7
0.80157501 36.28125 -6.4897461 7
0.80328399 36.22168 -6.5664058 7
0.80541998 36.151367 -6.6401372 7
-0.29492199 14.326172 -62.923096 7
0.82092297 32.685547 -4.000977 7
0.82617199 32.529297 -4.2116699 7
0.83044398 32.418945 -4.270752 7
0.83422899 32.318359 -4.331543 7
0.83819598 32.211914 -4.3908691 7
0.83715802 32.228516 -4.472168 7
0.72509801 34.606445 -6.7949219 7
0.727112 34.540039 -6.865479 7
0.73229998 34.401367 -6.9177251 7
0.73126203 34.40918 -7.0056152 7
0.73596197 34.282227 -7.059814 7
0.73925799 34.186523 -7.1218262 7
0.737427 34.211914 -7.2141109 7
0.741211 34.106445 -7.2727051 7
-0.43615699 10.630859 -60.684814 7
0.75860602 30.882812 -4.5371089 7
0.76300001 30.775391 -4.5915532 7
0.76904303 30.620117 -4.7111821 7
0.76873797 30.617188 -4.785645 7
0.660034 32.532227 -7.4567871 7
0.66650403 32.375977 -7.4951172 7
0.67254603 32.208008 -7.6130371 7
0.70233202 29.540039 -4.8366699 7
0.70440698 29.484375 -4.8974609 7
0.70977801 29.367188 -4.9440918 7
0.71185303 29.311523 -5.004395 7
0.71716303 29.192383 -5.050293 7
0.718445 29.154297 -5.1140141 7
0.72314501 29.046875 -5.1616211 7
0.72186297 29.05957 -5.2365718 7
0.59625202 31.130859 -7.6855469 7
0.59893799 31.058594 -7.743896 7
0.60339397 30.952148 -7.791748 7
0.60546899 30.890625 -7.8527832 7
0.61102301 30.762695 -7.8928218 7
0.61004603 30.762695 -7.9724121 7
-0.397156 11.347656 -49.435303 7
0.661255 27.505859 -5.3649902 7
0.66326898 27.455078 -5.4211431 7
0.66497803 27.411133 -5.4785161 7
0.663818 27.416992 -5.5490718 7
0.66613799 27.361328 -5.603271 7
0.668091 27.30957 -5.658936 7
0.66320801 27.382812 -5.7470698 7
0.546875 28.932617 -8.3217773 7
0.54852301 28.881836 -8.3806152 7
0.54675299 28.891602 -8.4602051 7
0.53845203 29.016602 -8.5803223 7
-0.48431399 7.2373052 -47.069092 7
-0.464966 7.0693359 -46.727295 7
-0.139954 -9.5966797 36.730225 7
0.64880401 25.984375 -2.615967 7
0.64520299 26.038086 -2.6875 7
0.649414 25.958984 -2.7373049 7
0.655334 25.850586 -2.782227 7
0.65954602 25.771484 -2.8312991 7
0.67077601 25.554688 -2.980957 7
0.67266798 25.515625 -3.0358889 7
0.61199999 26.03125 -5.780273 7
0.613159 25.998047 -5.8366699 7
0.61456299 25.957031 -5.891602 7
0.617432 25.895508 -5.9396968 7
0.61383098 25.94043 -6.0185552 7
0.48272699 27.483398 -8.7011719 7
0.48822001 27.37207 -8.7331543 7
0.49108899 27.304688 -8.7810059 7
0.48333699 27.405273 -8.8935547 7
-0.112976 -8.9023438 33.590332 7
-0.121338 -8.7832031 33.750732 7
0.59857202 24.530273 -2.9250491 7
0.59570301 24.566406 -2.9907229 7
0.60186797 24.452148 -3.089355 7
0.60717797 24.360352 -3.131592 7
0.60955799 24.314453 -3.1821289 7
0.61645502 24.189453 -3.2766111 7
0.622437 24.085938 -3.3149409 7
0.62365699 24.057617 -3.3681641 7
0.619385 24.115234 -3.4389651 7
0.54931599 24.670898 -5.971436 7
0.55017102 24.641602 -6.0266109 7
0.55517602 24.533203 -6.1193848 7
0.555664 24.508789 -6.175293 7
0.55920398 24.421875 -6.275146 7
0.56445301 24.325195 -6.3076172 7
0.559753 24.378906 -6.3881841 7
0.55151403 23.856445 -0.050537001 7
0.54766798 23.912109 -0.110596 7
0.552185 23.84375 -0.16235401 7
0.55865502 23.746094 -0.21167 7
0.55304003 23.501953 -3.2453611 7
0.55517602 23.461914 -3.294678 7
0.555237 23.450195 -3.3500979 7
0.55853301 23.393555 -3.3955081 7
0.56616199 23.272461 -3.42749 7
0.57104498 23.192383 -3.4672849 7
0.57354701 23.145508 -3.514648 7
0.508789 23.390625 -6.4243159 7
0.51208502 23.327148 -6.4641109 7
0.51452601 23.274414 -6.5075679 7
0.51660198 23.228516 -6.5524902 7
0.51629603 23.214844 -6.6091309 7
0.50689697 23.328125 -6.7106929 7
-0.56396502 5.1523442 -38.158203 7
0.51025403 22.209961 -3.5419919 7
0.50817901 22.225586 -3.601074 7
0.51525903 22.111328 -3.6845701 7
0.52264398 22.00293 -3.7128911 7
0.52917498 21.904297 -3.744385 7
0.53185999 21.857422 -3.7875979 7
0.46014401 22.030273 -6.7346191 7
0.46026599 22.010742 -6.7866211 7
0.46203601 21.969727 -6.829834 7
0.462524 21.944336 -6.8798828 7
0.46478301 21.897461 -6.920898 7
0.46612501 21.860352 -6.966064 7
0.309082 23.016602 -9.75 7
0.31298801 22.942383 -9.7810059 7
0.315613 22.884766 -9.8193359 7
0.31396499 22.878906 -9.8837891 7
-0.454956 11.447266 -32.393311 7
-0.45770299 11.37793 -32.453369 7
-0.467224 11.336914 -32.601807 7
-0.47430399 11.285156 -32.717285 7
0.471008 21.107422 -3.85376 7
0.474792 21.049805 -3.8918459 7
0.479004 20.986328 -3.927979 7
0.48547399 20.893555 -3.956543 7
0.48883101 20.841797 -3.9953611 7
0.49072301 20.805664 -4.0380859 7
0.49261501 20.769531 -4.0812988 7
0.49365199 20.744141 -4.1269531 7
0.41870099 20.764648 -7.1496582 7
0.419678 20.733398 -7.1938481 7
0.25762901 21.689453 -10.051025 7
0.25634801 21.677734 -10.110352 7
0.259583 21.614258 -10.141846 7
0.259644 21.586914 -10.192627 7
-0.47582999 10.854492 -30.345947 7
0.43463099 19.854492 -4.195312 7
0.43920901 19.791016 -4.2272949 7
0.44415301 19.72168 -4.2575679 7
0.44677699 19.679688 -4.2954102 7
0.44879201 19.642578 -4.3352051 7
0.45184299 19.595703 -4.3710942 7
0.45141599 19.586914 -4.419189 7
0.45446801 19.539062 -4.454834 7
0.37457299 19.498047 -7.3391109 7
0.37268099 19.498047 -7.39502 7
0.372192 19.481445 -7.4433589 7
0.371277 19.47168 -7.4941411 7
0.36840799 19.481445 -7.554688 7
0.364014 19.506836 -7.6230469 7
-1.671204 -35.984375 -19.661621 7
-1.715332 -37.258789 -18.215576 7
-1.73938 -37.53125 -18.245605 7
-1.755371 -37.727539 -18.234375 7
-1.77948 -38.00293 -18.261963 7
-1.7976069 -38.219727 -18.259766 7
-1.813599 -38.416992 -18.245361 7
0.411926 18.601562 -4.500977 7
0.41406199 18.56543 -4.5375981 7
0.41577101 18.533203 -4.575439 7
0.41796899 18.49707 -4.6118159 7
0.41796899 18.482422 -4.6555181 7
0.418091 18.467773 -4.69873 7
0.41552699 18.479492 -4.751709 7
0.32702601 18.480469 -7.403564 7
0.32342499 18.49707 -7.4648442 7
0.32769799 18.432617 -7.4880371 7
0.32769799 18.410156 -7.53125 7
0.327759 18.388672 -7.574707 7
0.32782 18.368164 -7.6179199 7
0.326294 18.361328 -7.6689448 7
-1.8843991 -33.045898 -23.473389 7
-1.867432 -32.962891 -23.290771 7
-1.884949 -33.163086 -23.316895 7
-1.908813 -33.412109 -23.379883 7
-1.931396 -33.65332 -23.435059 7
-1.950073 -33.861328 -23.465088 7
-1.957764 -33.980469 -23.429199 7
-1.539856 -32.722656 -17.349854 7
-1.561401 -32.953125 -17.378174 7
-1.545532 -32.854492 -17.220215 7
-1.5296021 -32.756836 -17.0625 7
-1.5552371 -33.023438 -17.109619 7
-1.581665 -33.339844 -17.079346 7
-1.605713 -33.591797 -17.116455 7
-1.7653199 -36.524414 -14.537598 7
-0.095764004 -6.342773 22.753662 7
-0.090332001 -6.2783198 22.718506 7
-0.093323 -6.235352 22.761475 7
-0.102173 -6.2089839 22.860596 7
-0.093262002 -6.1347661 22.791016 7
-0.094420999 -6.0869141 22.816895 7
0.374084 17.685547 -4.486084 7
0.371887 17.694336 -4.5351558 7
0.36859101 17.711914 -4.5883789 7
0.366943 17.713867 -4.6359859 7
0.369324 17.677734 -4.6696782 7
0.37329099 17.625 -4.6975098 7
0.37616 17.583008 -4.7294922 7
0.37738001 17.556641 -4.766602 7
0.28338599 17.356445 -7.6875 7
0.28173801 17.348633 -7.7365718 7
0.283997 17.306641 -7.7661128 7
0.28576699 17.268555 -7.798584 7
0.286926 17.236328 -7.8334961 7
0.28527799 17.229492 -7.8825679 7
0.28643799 17.196289 -7.91748 7
0.28704801 17.168945 -7.9553218 7
0.101135 17.589844 -10.915039 7
0.102295 17.550781 -10.949463 7
0.101196 17.530273 -10.997559 7
0.098449998 17.524414 -11.055664 7
0.101257 17.470703 -11.079834 7
0.101257 17.44043 -11.12085 7
0.102417 17.401367 -11.155029 7
-1.750122 -29.274414 -22.325684 7
-1.778931 -29.542969 -22.427002 7
-1.8056639 -29.851562 -22.442627 7
-1.822998 -30.03418 -22.4729 7
-1.386902 -29.178711 -16.175049 7
-1.401794 -29.339844 -16.177246 7
-1.420959 -29.537109 -16.199463 7
-1.433472 -29.677734 -16.188477 7
-1.439819 -29.769531 -16.147705 7
-1.456543 -29.946289 -16.155762 7
-1.475769 -30.144531 -16.175049 7
-1.488831 -30.291016 -16.164551 7
-1.638855 -33.048828 -13.693604 7
-0.10675 -6.061523 21.618408 7
-0.109253 -6.0214839 21.655273 7
-0.112976 -5.9335942 21.717285 7
-0.109253 -5.8779302 21.697754 7
0.32952899 16.825195 -4.8562012 7
0.327209 16.832031 -4.9040532 7
0.32843 16.804688 -4.9394531 7
0.33270299 16.751953 -4.9641109 7
0.338135 16.688477 -4.984375 7
0.34362799 16.623047 -5.004395 7
0.34362799 16.607422 -5.043457 7
0.34735101 16.560547 -5.0695801 7
0.349792 16.521484 -5.0996089 7
0.236572 16.347656 -8.0009766 7
0.236633 16.324219 -8.0397949 7
0.24029499 16.272461 -8.0600586 7
0.237305 16.273438 -8.1132812 7
0.237976 16.246094 -8.1484385 7
0.236145 16.237305 -8.1958008 7
0.238647 16.195312 -8.2219238 7
0.237488 16.181641 -8.2661133 7
0.047791 16.310547 -11.318604 7
0.050170999 16.260742 -11.342529 7
0.054931998 16.194336 -11.351562 7
0.056763001 16.150391 -11.378662 7
0.052551001 16.151367 -11.442139 7
-1.615784 -25.547852 -21.395752 7
-1.274048 -24.389648 -17.919678 7
-1.282654 -24.494141 -17.908447 7
-1.303589 -24.686523 -17.964355 7
-1.315491 -24.81543 -17.969971 7
-1.333191 -24.984375 -18.006836 7
-1.343811 -25.104492 -18.004395 7
-1.2724 -26.055664 -15.414795 7
-1.288147 -26.211914 -15.42749 7
-1.289001 -26.256836 -15.368652 7
-1.3087161 -26.443359 -15.39917 7
-1.3258671 -26.611328 -15.416748 7
-1.333191 -26.704102 -15.387451 7
-1.354248 -26.902344 -15.422119 7
-1.355652 -26.951172 -15.364502 7
-1.4875489 -29.451172 -13.085449 7
-1.4940799 -29.599609 -12.898438 7
-1.515198 -29.801758 -12.907959 7
-1.536926 -30.008789 -12.919434 7
-1.556091 -30.195312 -12.920166 7
-0.202209 -8.9433594 20.03833 7
-0.20422401 -8.9072266 20.075439 7
-0.20422401 -8.8632812 20.09668 7
-0.18139599 -8.7353516 19.938965 7
-0.179443 -8.6835938 19.943848 7
-0.081482001 -5.7255859 20.189697 7
-0.076172002 -5.6679692 20.158691 7
-0.084105998 -5.6435552 20.239014 7
-0.098205999 -5.6347661 20.369629 7
-0.086121 -5.5595698 20.282715 7
-0.083434999 -5.5087891 20.273438 7
-0.090759002 -5.4824219 20.348145 7
-0.104126 -5.46875 20.473145 7
0.30114701 15.806641 -5.1271968 7
0.30761701 15.738281 -5.1418462 7
0.30957001 15.689453 -5.2089839 7
0.311584 15.657227 -5.2390141 7
0.31610101 15.604492 -5.2590332 7
0.32067901 15.533203 -5.3161621 7
0.31945801 15.529297 -5.3571782 7
0.31756601 15.52832 -5.4008789 7
0.205566 15.113281 -8.3249512 7
0.204346 15.099609 -8.3669434 7
0.20562699 15.066406 -8.3959961 7
0.205017 15.047852 -8.4343262 7
0.20318601 15.038086 -8.4794922 7
0.201233 15.029297 -8.5246582 7
0.19873001 15.024414 -8.572998 7
-1.465088 -22.058594 -20.568115 7
-1.4775389 -22.18457 -20.588867 7
-1.49823 -22.360352 -20.658447 7
-1.495056 -22.390625 -20.584717 7
-1.173645 -21.674805 -17.250488 7
-1.1806639 -21.762695 -17.236816 7
-1.200012 -21.930664 -17.290039 7
-1.202942 -21.991211 -17.25293 7
-1.221619 -22.15625 -17.301758 7
-1.117981 -22.960938 -14.697754 7
-1.167236 -23.414062 -14.766846 7
-1.18457 -23.572266 -14.793457 7
-1.186157 -23.620117 -14.743652 7
-1.18634 -23.657227 -14.687744 7
-1.20575 -23.830078 -14.721924 7
-1.225891 -24.008789 -14.759277 7
-1.389832 -26.920898 -12.333984 7
-1.393494 -26.978516 -12.282959 7
-1.4150389 -27.170898 -12.299561 7
-0.074828997 -5.2431641 19.192627 7
0.26586899 15.007812 -5.324707 7
0.27331501 14.93457 -5.333252 7
0.26928699 14.949219 -5.3830571 7
0.274719 14.890625 -5.3986821 7
0.28643799 14.71875 -5.530273 7
0.283813 14.706055 -5.6098628 7
0.27917501 14.69043 -5.7312012 7
0.169434 14.070312 -8.6047363 7
-1.245483 -17.727539 -19.858154 7
-1.316956 -18.689453 -19.76123 7
-1.327942 -18.796875 -19.781494 7
-1.337708 -18.947266 -19.748535 7
-1.328491 -18.945312 -19.647217 7
-1.0400389 -18.674805 -16.620605 7
-1.0365601 -18.696289 -16.556152 7
-1.044739 -18.785156 -16.555664 7
-1.047058 -18.839844 -16.522949 7
-1.055847 -18.930664 -16.525635 7
-1.0647579 -19.024414 -16.52832 7
-1.073608 -19.118164 -16.530762 7
-1.0732419 -19.197266 -16.436035 7
-1.075562 -19.251953 -16.401855 7
-1.005188 -20.374023 -14.077881 7
-1.016968 -20.486328 -14.085449 7
-1.02948 -20.599609 -14.095703 7
-1.039795 -20.702148 -14.094971 7
-1.050903 -20.808594 -14.097412 7
-1.059814 -20.901367 -14.089355 7
-1.062866 -20.957031 -14.053467 7
-1.070312 -21.038086 -14.037842 7
-1.084229 -21.164062 -14.05249 7
-1.096802 -21.280273 -14.05957 7
-1.103516 -21.360352 -14.039795 7
-1.1073 -21.419922 -14.005859 7
-1.27002 -24.235352 -11.781006 7
-1.250488 -24.126953 -11.649658 7
-1.263855 -24.25 -11.641113 7
-1.2800291 -24.392578 -11.643555 7
-1.299194 -24.557617 -11.656006 7
-1.306702 -24.639648 -11.624756 7
-0.076172002 -5.1132808 18.172852 7
-0.081421003 -5.0849609 18.223633 7
-0.079894997 -5.0410161 18.224609 7
-0.076903999 -4.9960942 18.2146 7
0.235596 14.179688 -5.4433589 7
0.23205601 14.189453 -5.489502 7
0.232788 14.166992 -5.5205078 7
0.232849 14.150391 -5.5537109 7
0.235718 14.111328 -5.5761719 7
0.23938 14.069336 -5.596436 7
0.242249 14.03125 -5.618896 7
0.241638 14.019531 -5.654541 7
0.245911 13.97168 -5.6713872 7
0.25097701 13.917969 -5.6853032 7
0.25244099 13.890625 -5.7128911 7
0.25317401 13.869141 -5.7426758 7
0.129333 13.094727 -8.7814941 7
0.129333 13.070312 -8.8122559 7
0.126526 13.063477 -8.857666 7
0.12793 13.029297 -8.8811045 7
0.126526 13.013672 -8.9191895 7
0.126526 12.989258 -8.9494629 7
-1.132202 -14.863281 -19.142822 7
-1.130798 -14.904297 -19.098145 7
-1.126343 -14.931641 -19.034668 7
-1.116577 -14.93457 -18.938477 7
-1.118225 -14.989258 -18.912354 7
-1.121399 -15.049805 -18.895264 7
-1.1307369 -15.139648 -18.914795 7
-1.137756 -15.21875 -18.92041 7
-1.145569 -15.302734 -18.930664 7
-1.154846 -15.391602 -18.949707 7
-1.163452 -15.477539 -18.963379 7
-1.174988 -15.578125 -18.995605 7
-1.176697 -15.633789 -18.967773 7
-1.181458 -15.703125 -18.958252 7
-1.182312 -15.753906 -18.925293 7
-0.920959 -16.071289 -15.983887 7
-0.92645299 -16.138672 -15.975342 7
-0.92730701 -16.182617 -15.941162 7
-0.93048102 -16.238281 -15.919434 7
-0.93981898 -16.328125 -15.931152 7
-0.94458002 -16.392578 -15.917725 7
-0.956177 -16.493164 -15.94165 7
-0.95788598 -16.541992 -15.910645 7
-0.96105999 -16.598633 -15.887939 7
-0.955872 -16.610352 -15.819336 7
-0.90173298 -17.938477 -13.700439 7
-0.89495802 -17.933594 -13.624268 7
-0.89050299 -17.941406 -13.559814 7
-0.89679003 -18.011719 -13.546387 7
-0.90692103 -18.105469 -13.55127 7
-0.91320801 -18.176758 -13.537354 7
-0.92102098 -18.256836 -13.531006 7
-0.92730701 -18.327148 -13.516357 7
-0.93359399 -18.398438 -13.501953 7
-0.93530297 -18.443359 -13.465576 7
-0.94226098 -18.517578 -13.454102 7
-0.95550501 -18.628906 -13.471191 7
-0.97021502 -18.750977 -13.495117 7
-0.97576898 -18.818359 -13.475586 7
-0.97973597 -18.875977 -13.44873 7
-1.159241 -21.933594 -11.154785 7
-1.167908 -22.018555 -11.134033 7
-1.182678 -22.143555 -11.135498 7
-1.192871 -22.239258 -11.119873 7
-1.2053829 -22.349609 -11.111816 7
-0.081359997 -4.890625 17.308594 7
-0.083740003 -4.859375 17.336914 7
-0.072692998 -4.797852 17.270752 7
0.210449 13.241211 -5.771729 7
0.212036 13.213867 -5.7971191 7
0.214294 13.180664 -5.8195801 7
0.21661399 13.148438 -5.842041 7
0.219666 13.092773 -5.8920898 7
0.221985 13.060547 -5.9143071 7
0.221313 13.030273 -5.9785161 7
0.21984901 13.022461 -6.0148931 7
0.219055 13.008789 -6.0488281 7
-0.97650099 -11.797852 -18.228027 7
-0.97338903 -11.831055 -18.179932 7
-0.96868902 -11.859375 -18.122314 7
-0.972839 -11.920898 -18.118408 7
-0.986633 -12.018555 -18.174072 7
-0.98760998 -12.066406 -18.150146 7
-0.99822998 -12.152344 -18.185303 7
-1.007996 -12.236328 -18.215088 7
-1.009766 -12.288086 -18.195801 7
-1.018738 -12.367188 -18.220459 7
-1.026123 -12.441406 -18.234863 7
-1.0271 -12.491211 -18.209961 7
-1.032043 -12.555664 -18.209229 7
-1.024109 -12.570312 -18.130859 7
-0.82134998 -13.760742 -15.382324 7
-0.82470697 -13.81543 -15.367188 7
-0.82806402 -13.869141 -15.352295 7
-0.834656 -13.938477 -15.354736 7
-0.845276 -14.026367 -15.37915 7
-0.84869403 -14.081055 -15.363281 7
-0.81439197 -16.023438 -13.032715 7
-0.82342499 -16.104492 -13.036621 7
-0.835693 -16.204102 -13.055664 7
-0.84491003 -16.319336 -13.020752 7
-0.85150099 -16.387695 -13.012207 7
-0.854065 -16.43457 -12.984863 7
-0.86389202 -16.520508 -12.990723 7
-0.86975098 -16.585938 -12.978271 7
-1.1046751 -20.238281 -10.577881 7
-1.119446 -20.355469 -10.582275 7
-1.174805 -21.514648 -9.161377 7
-1.182251 -21.585938 -9.1328115 7
-1.197144 -21.706055 -9.126709 7
-0.066528 -4.7392578 16.313721 7
-0.076476999 -4.6904302 16.402588 7
-0.068970002 -4.6386719 16.364014 7
-0.065613002 -4.5966802 16.353027 7
-0.068115003 -4.5664058 16.380615 7
-0.069824003 -4.5351558 16.402588 7
0.19976801 13.75293 -2.537842 7
0.180237 12.476562 -5.8615718 7
0.17950401 12.463867 -5.8937988 7
0.17950401 12.445312 -5.9230962 7
0.181152 12.417969 -5.9460449 7
0.18518101 12.375977 -5.9602051 7
0.18365499 12.368164 -5.9953609 7
0.185242 12.34082 -6.0180659 7
0.187683 12.307617 -6.0380859 7
0.189331 12.280273 -6.060791 7
0.188538 12.266602 -6.092773 7
0.190125 12.238281 -6.115479 7
0.190979 12.21582 -6.1411128 7
0.192627 12.1875 -6.1635742 7
-0.76519799 -11.977539 -14.950195 7
-0.76446497 -12.011719 -14.917236 7
-0.76965302 -12.070312 -14.91626 7
-0.76904303 -12.142578 -14.854004 7
-0.75427198 -14.446289 -12.581299 7
-0.75689697 -14.490234 -12.558838 7
-0.76129198 -14.543945 -12.544189 7
-0.76391602 -14.588867 -12.521484 7
-0.76324499 -14.617188 -12.48291 7
-0.771851 -14.692383 -12.487549 7
-0.780518 -14.767578 -12.492188 7
-0.78997803 -14.845703 -12.5 7
-0.99127197 -18.210938 -10.221191 7
-0.99810803 -18.276367 -10.203369 7
-1.006775 -18.351562 -10.190674 7
-1.017151 -18.438477 -10.183838 7
-1.025879 -18.514648 -10.17041 7
-0.074951001 -4.460938 15.666504 7
-0.069701999 -4.382812 15.654541 7
-0.070496 -4.351562 15.670654 7
0.168274 13.304688 -2.26123 7
0.169128 13.289062 -2.29126 7
0.16918901 13.280273 -2.3222661 7
0.165894 13.293945 -2.359863 7
0.16595501 13.285156 -2.391113 7
0.16009501 13.313477 -2.434082 7
0.168579 13.249023 -2.4482419 7
0.171143 13.222656 -2.4746089 7
0.172058 13.208008 -2.503906 7
0.172058 13.198242 -2.5349121 7
-0.690979 -12.850586 -12.215088 7
-0.70361298 -12.938477 -12.24292 7
-0.71008301 -13.029297 -12.210205 7
-0.71112102 -13.06543 -12.18335 7
-0.70855701 -13.084961 -12.139893 7
-0.92541498 -16.695312 -9.829834 7
-0.93810999 -16.790039 -9.8347168 7
-0.94897503 -16.874023 -9.8330078 7
-0.95990002 -16.958008 -9.8308105 7
-0.188721 -7.6386719 14.209961 7
-0.182312 -7.5888672 14.193115 7
-0.183228 -7.5625 14.216309 7
-0.188721 -7.547852 14.26416 7
-0.196106 -7.5410161 14.322021 7
-0.200684 -7.5253911 14.36499 7
-0.19702099 -7.4824219 14.363281 7
-0.18603501 -7.4179692 14.320801 7
-0.181458 -7.3720698 14.313477 7
-0.071960002 -4.4580078 14.876221 7
-0.069214001 -4.421875 14.870361 7
-0.059997998 -4.3710942 14.825928 7
-0.067322001 -4.3535161 14.880615 7
-0.062743999 -4.3125 14.863525 7
-0.077393003 -4.3095698 14.961914 7
-0.069153003 -4.2617192 14.922363 7
-0.063598998 -4.219727 14.899658 7
-0.070983998 -4.2011719 14.953857 7
-0.070923001 -4.1699219 14.964111 7
0.13281199 12.731445 -2.564697 7
0.13110401 12.732422 -2.598145 7
0.138184 12.677734 -2.61377 7
0.14001501 12.657227 -2.6398931 7
0.1427 12.630859 -2.6643071 7
0.14105199 12.631836 -2.69751 7
0.146423 12.589844 -2.716064 7
0.147339 12.573242 -2.7436521 7
0.146484 12.568359 -2.775146 7
0.144775 12.569336 -2.8083501 7
0.144775 12.558594 -2.8378911 7
0.14398199 12.553711 -2.869385 7
-0.87029999 -15.362305 -9.5334473 7
-0.87701398 -15.420898 -9.5197754 7
-0.88091999 -15.464844 -9.496582 7
-0.89044201 -15.539062 -9.4924316 7
-0.90185499 -15.621094 -9.494873 7
-0.81567401 -14.084961 -9.1967773 7
-0.81878698 -14.123047 -9.1733398 7
-0.82482898 -14.175781 -9.1601562 7
-0.83679199 -14.254883 -9.1672363 7
-0.84381098 -14.313477 -9.1572266 7
-0.85376 -14.384766 -9.1569824 7
-0.84106398 -14.347656 -9.0788574 7
-0.18176299 -7.3544922 12.725586 7
-0.178772 -7.3183589 12.728516 7
-0.17675801 -7.2851558 12.736572 7
-0.16571 -7.2236328 12.700439 7
-0.16168199 -7.1845698 12.697998 7
-0.16369601 -7.1630859 12.725098 7
-0.16571 -7.1425781 12.751953 7
-0.17382801 -7.141602 12.808105 7
-0.18292201 -7.140625 12.869385 7
-0.177856 -7.0986328 12.861572 7
-0.173889 -7.0605469 12.859131 7
-0.050781 -4.155273 13.474609 7
-0.053833 -4.132812 13.500977 7
-0.051819 -4.0996089 13.499756 7
-0.046753 -4.0625 13.482422 7
-0.048705999 -4.0371089 13.503174 7
-0.049743999 -4.0107422 13.518311 7
-0.052795 -3.9873049 13.544434 7
-0.053771999 -3.960938 13.559326 7
-0.054749001 -3.933594 13.574463 7
-0.053711001 -3.902344 13.578613 7
-0.053711001 -3.8730471 13.587891 7
-0.053711001 -3.844727 13.597168 7
-0.74572802 -12.822266 -8.9387207 7
-0.74481201 -12.842773 -8.9047852 7
-0.75213599 -12.896484 -8.8991699 7
-0.75945997 -12.953125 -8.8933105 7
-0.76782203 -13.013672 -8.890625 7
-0.77514601 -13.069336 -8.8842773 7
-0.057372998 -3.8212891 13.041992 7
-0.057372998 -3.7939451 13.051025 7
-0.056334998 -3.764648 13.054688 7
-0.055236999 -3.7363279 13.05835 7
-0.056274001 -3.7099609 13.073242 7
-0.059448 -3.688477 13.098389 7
-0.060486 -3.6621089 13.112793 7
-0.040100001 -3.8193359 12.331299 7
-0.043396 -3.7998049 12.356689 7
-0.041198999 -3.769531 12.35498 7
-0.040100001 -3.7412109 12.358643 7
-0.042236 -3.719727 12.378418 7
-0.045531999 -3.699219 12.403809 7
-0.043334998 -3.6689451 12.401855 7
-0.041138001 -3.640625 12.399902 7
-0.042236 -3.6162109 12.413818 7
-0.043274 -3.5917971 12.428223 7
-0.043274 -3.5654299 12.436523 7
-0.048827998 -3.547852 12.472656 7
-0.041138001 -3.503906 11.42749 7
-0.042296998 -3.4814451 11.44165 7
-0.045898002 -3.4638669 11.466064 7
-0.045898002 -3.4404299 11.474365 7
-0.045898002 -3.4160161 11.482666 7
-0.044677999 -3.390625 11.485352 7
-0.043457001 -3.3642581 11.488281 7
-0.042236 -3.3388669 11.490723 7
-0.042296998 -3.3154299 11.499023 7
-0.034607001 -3.511719 10.936768 7
-0.039551001 -3.4970701 10.966553 7
-0.029602 -3.4589839 10.931885 7
-0.033325002 -3.4423831 10.956543 7
-0.045837 -3.4394529 11.018799 7
-0.037048001 -3.4033201 10.989502 7
-0.03833 -3.3818359 11.00293 7
-0.046997 -3.3730471 11.048828 7
-0.034545999 -3.3310549 11.003174 7
-0.024536001 -3.292969 10.967773 7
-0.035767 -3.2880859 11.02417 7
-0.035767 -3.264648 11.032471 7
-0.043274 -3.2529299 11.072754 7
-0.043212999 -3.230469 11.080322 7
-0.036559999 -3.2285161 10.568848 7
-0.032653999 -3.2001951 10.560547 7
-0.035889 -3.183594 10.171631 7
-0.045348998 -3.175781 10.216553 7
-0.045288 -3.1542971 10.224609 7
-0.046691999 -3.1357419 10.237549 7
-0.039856002 -3.105469 10.218262 7
-0.03717 -3.082031 10.215088 7
-0.038513001 -3.0625 10.227783 7
-0.03717 -3.039062 10.230225 7
-0.036499001 -3.191406 9.7587891 7
-0.032226998 -3.164062 9.7507324 7
-0.026611 -3.136719 9.7370605 7
-0.023804 -3.09375 9.7412109 7
-0.026611 -3.078125 9.7595205 7
-0.037842002 -3.074219 9.8095703 7
-0.033629999 -3.0283201 9.8083496 7
-0.035034001 -3.0107419 9.8210449 7
-0.032166 -2.9863279 9.8178711 7
-0.026550001 -2.938477 9.8105469 7
-0.027953999 -2.920898 9.8232422 7
-0.029358 -2.9033201 9.8356934 7
-0.037781 -2.894531 9.8747559 7
-0.027344 -3.1933589 9.3623047 7
-0.028809 -3.175781 9.3752441 7
-0.031738002 -3.1611331 9.3935547 7
-0.030273 -3.139648 9.3959961 7
-0.025878999 -3.1162109 9.3874512 7
-0.024413999 -3.094727 9.3898926 7
-0.024413999 -3.0761721 9.3972168 7
-0.021484001 -3.0527339 9.3942871 7
-0.021484001 -3.0341799 9.4016113 7
-0.022949001 -3.016602 9.4140615 7
-0.022949001 -2.9980471 9.4213867 7
-0.034607001 -2.9951169 9.4711914 7
-0.025818 -2.9619141 9.4467773 7
-0.030151 -2.949219 9.4699707 7
-0.028687 -2.9287109 9.4714355 7
-0.019958001 -2.8974609 9.4467773 7
-0.021361999 -2.8808589 9.4592295 7
-0.033264 -2.874023 9.1479492 7
-0.045348998 -2.8720701 9.1975098 7
-0.033202998 -2.8378911 9.1618652 7
-0.033202998 -2.8193359 9.1689453 7
-0.039306998 -2.808594 9.1967773 7
-0.040771 -2.7919919 9.2089844 7
-0.033202998 -2.7626951 9.189209 7
-0.031677 -2.742188 9.1906738 7
-0.040709998 -2.735352 9.2294922 7
-0.045288 -2.7050779 9.2585449 7
-0.040709998 -2.6806641 9.2492676 7
-0.040709998 -2.624023 9.2685547 7
-0.040709998 -2.605469 9.2749023 7
-0.030151 -2.8769529 8.8305664 7
-0.028564001 -2.8574221 8.8320312 7
-0.030151 -2.842773 8.8444824 7
-0.041076999 -2.8378911 8.8881836 7
-0.033264 -2.811523 8.8686523 7
-0.033264 -2.792969 8.8752441 7
-0.031738002 -2.7744141 8.8769531 7
-0.025390999 -2.7480471 8.8625488 7
-0.033264 -2.7392581 8.8955078 7
-0.027039001 -2.714844 8.8811045 7
-0.03009 -2.7001951 8.8981934 7
-0.03009 -2.6826169 8.9047852 7
-0.036377002 -2.672852 8.932373 7
-0.034790002 -2.652344 8.9338379 7
-0.036377002 -2.636719 8.9455566 7
-0.033202998 -2.6152339 8.9411621 7
-0.037903 -2.6025391 8.963623 7
-0.036377002 -2.5830081 8.9648438 7
-0.044128001 -2.5751951 8.9975586 7
-0.025269 -2.860352 8.4829102 7
-0.02533 -2.84375 8.4897461 7
-0.025269 -2.8261721 8.496582 7
-0.02533 -2.8095701 8.503418 7
-0.022034001 -2.789062 8.4997559 7
-0.025269 -2.7763669 8.5168457 7
-0.031799 -2.7675779 8.5446777 7
-0.035034001 -2.7548831 8.5617676 7
-0.031799 -2.733398 8.5581055 7
-0.038268998 -2.7255859 8.5856934 7
-0.022034001 -2.688477 8.5395508 7
-0.025269 -2.6748049 8.5566406 7
-0.025269 -2.6582029 8.5629883 7
-0.028503001 -2.644531 8.5803223 7
-0.026854999 -2.625977 8.581543 7
-0.028441999 -2.609375 8.5932617 7
-0.026794 -2.5908201 8.5942383 7
-0.034912001 -2.5839839 8.6271973 7
-0.034972999 -2.5654299 8.6333008 7
-0.146606 -5.7460942 6.5783691 7
-0.148315 -5.7373052 6.596436 7
-0.14160199 -5.7080078 6.594727 7
-0.13659699 -5.6845698 6.5969238 7
-0.14001501 -5.679688 6.6181641 7
-0.13830601 -5.6630859 6.6281738 7
-0.14172401 -5.6591802 6.6491699 7
-0.155212 -5.679688 6.693604 7
-0.148499 -5.6503911 6.6916499 7
-0.150208 -5.641602 6.709229 7
-0.141785 -5.5957031 6.7167969 7
-0.13677999 -5.570312 6.7185059 7
-0.036377002 -2.875977 8.1950684 7
-0.036377002 -2.860352 8.2021484 7
-0.033020001 -2.839844 8.1987305 7
-0.036377002 -2.828125 8.2160645 7
-0.029663 -2.8027339 8.2021484 7
-0.019592 -2.7744141 8.1777344 7
-0.024658 -2.764648 8.1999512 7
-0.026245 -2.75 8.2119141 7
-0.024597 -2.7324221 8.2133789 7
-0.022949001 -2.7138669 8.2148438 7
-0.026306 -2.702148 8.2316895 7
-0.039733998 -2.703125 8.2800293 7
-0.041443001 -2.688477 8.291748 7
-0.029663 -2.6582029 8.2617188 7
-0.027953999 -2.639648 8.2631836 7
-0.024597 -2.6191411 8.2587891 7
-0.027953999 -2.6074221 8.2758789 7
-0.022887999 -2.5839839 8.2666016 7
-0.027892999 -2.5732419 8.2888184 7
-0.161743 -5.7470698 6.2165532 7
-0.161743 -5.7246089 6.243896 7
-0.154846 -5.695312 6.2429199 7
-0.1427 -5.6435552 6.244873 7
-0.14447001 -5.6357422 6.2617192 7
-0.14105199 -5.6044922 6.2814941 7
-0.144531 -5.5888672 6.3156738 7
-0.15325899 -5.5976558 6.3478999 7
-0.151611 -5.570312 6.3708501 7
-0.151611 -5.5576172 6.3842769 7
-0.14294399 -5.5136719 6.3918462 7
-0.143005 -5.4892578 6.4182129 7
-0.143005 -5.476562 6.4316411 7
-0.137817 -5.4404302 6.4462891 7
-0.15118399 -5.4482422 6.1005859 7
-0.136794 -4.9381709 17.557049 7
-0.28235599 -7.1362929 12.595482 7
-0.066391997 -3.204288 10.96607 7
-0.043754999 -3.128561 9.9719248 7
-0.046022002 -2.815819 8.4489775 7
-0.046626002 -2.6277599 8.5598145 7
-0.141857 -5.3955131 5.8456779 7
-0.12942 -5.221519 6.034493 7
-0.014517 -2.494627 7.6126041 7
-0.040031001 -2.5532751 7.1164289 7
-0.042397998 -2.427489 7.2263322 7
-0.038401 -2.2772281 7.303021 7
-0.033470001 -2.5104439 6.8217049 7
-0.021353999 -2.349164 6.8724928 7
-0.21016601 -7.1441302 12.592244 7
-0.14658201 -4.162292 13.911781 7
-0.095055997 -3.733285 12.46021 7
-0.059645001 -3.4152739 11.384388 7
-0.067281 -2.9296839 9.7459049 7
-0.039864998 -2.7579679 9.1644287 7
-0.020213 -2.8379791 8.5980244 7
-0.021193 -2.620892 8.7004681 7
-0.167732 -5.5697179 6.3790998 7
-0.052859001 -2.6906919 8.1698341 7
-0.150078 -5.415813 5.944346 7
-0.133348 -5.3327188 5.4174871 7
-0.026733 -2.4856529 7.5695391 7
-0.027383 -2.308609 7.6468468 7
-0.15762 -5.191031 4.923347 7
-0.16512699 -5.1461048 5.1105919 7
-0.054510999 -2.550899 7.2106361 7
-0.048997 -2.3804159 7.2635341 7
-0.031114001 -2.450402 6.9517298 7
-0.027185 -2.292701 7.006104 7
-0.014084 -2.366657 6.7361059 7
0.35899201 16.584513 -1.761243 7
0.29628301 15.899983 -5.146347 7
0.29611999 14.646409 -5.4910679 7
0.23015299 12.633851 -2.6797199 7
-0.72056901 -12.936769 -12.183289 7
