# .PCD v0.7 - Point Cloud Data file format
VERSION 0.7
FIELDS x y z intensity
SIZE 4 4 4 4
TYPE F F F F
COUNT 1 1 1 1
WIDTH 787
HEIGHT 1
VIEWPOINT 0 0 0 1 0 0 0
POINTS 787
DATA ascii
2.345886 70.517578 0.66992199 7
2.3448491 69.864258 0.51318401 7
2.124084 62.461914 2.672852 7
2.1251221 61.832031 2.515625 7
2.132812 63.536133 -0.457764 7
2.1335449 63.214844 -0.59692401 7
2.134155 63.02832 -0.73974597 7
2.13501 62.542969 -0.86987299 7
2.1352539 69.226562 -2.9289551 7
2.1361079 68.701172 -3.058105 7
2.1369629 68.082031 -3.1782229 7
2.1378779 67.563477 -3.30249 7
2.1386721 67.026367 -3.4233401 7
1.9714971 59.361328 2.4929199 7
1.974609 58.613281 2.3422849 7
1.976807 58.116211 2.1982419 7
1.978821 60.286133 -0.90869099 7
1.981689 59.55957 -1.02002 7
1.982849 59.34375 -1.151123 7
1.985718 58.605469 -1.256348 7
1.965515 66.179688 -3.4992681 7
1.967712 65.648438 -3.6147461 7
1.969849 65.133789 -3.7290039 7
1.971863 64.654297 -3.8439939 7
1.973328 64.325195 -3.969727 7
1.975098 63.927734 -4.087646 7
1.803528 56.092773 2.0197749 7
1.807983 55.50293 1.8837889 7
1.813904 54.689453 1.749512 7
1.819458 53.928711 1.618896 7
1.835632 53.021484 -1.891113 7
1.81189 56.688477 -2.2619629 7
1.8132319 56.538086 -2.3859861 7
1.817566 55.933594 -2.4768071 7
1.819641 55.666016 -2.5896001 7
1.822144 55.341797 -2.697021 7
1.824158 55.080078 -2.8076169 7
1.682678 53.885742 1.644775 7
1.7080081 52.25293 -1.939697 7
1.711365 51.912109 -2.0400391 7
1.715149 51.529297 -2.1359861 7
1.719604 51.072266 -2.224365 7
1.695618 53.875 -3.070801 7
1.700256 53.397461 -3.156738 7
1.702698 53.15918 -3.262207 7
1.705139 52.920898 -3.366699 7
1.70929 52.494141 -3.452148 7
1.586121 48.399414 0.81909198 7
1.5925291 47.911133 0.71337903 7
1.598938 47.416992 0.60961902 7
1.60791 46.71875 0.51318401 7
1.5808721 49.407227 -1.999756 7
1.584412 49.136719 -2.0966799 7
1.588501 48.824219 -2.1894529 7
1.590515 48.680664 -2.294189 7
1.5925291 48.538086 -2.3981929 7
1.598755 48.043945 -2.472168 7
1.576233 50.078125 -3.8344729 7
1.57959 49.831055 -4.0466309 7
1.582886 49.579102 -4.13623 7
1.5853879 49.385742 -4.2321782 7
1.591431 48.900391 -4.2927251 7
1.469238 46.876953 0.62475598 7
1.479431 46.230469 0.52832001 7
1.486145 45.805664 0.42919901 7
1.49939 44.975586 0.236816 7
1.5059201 44.568359 0.143555 7
1.478394 46.720703 -2.2463379 7
1.480103 46.632812 -2.4611821 7
1.484741 46.336914 -2.546387 7
1.4896851 46.018555 -2.6274409 7
1.494629 45.705078 -2.70752 7
1.500244 45.345703 -2.7819819 7
1.4719239 47.366211 -4.5595698 7
1.362061 44.664062 0.23632801 7
1.376465 43.893555 0.15527301 7
1.386047 43.387695 0.068604 7
1.391541 43.102539 -0.023682 7
1.399597 42.676758 -0.109131 7
1.408447 42.206055 -0.19067401 7
1.377808 44.120117 -2.7800291 7
1.382812 43.854492 -2.858398 7
1.38916 43.510742 -2.927979 7
1.389587 43.494141 -3.0300291 7
1.39679 43.106445 -3.092041 7
1.400635 42.902344 -3.1726069 7
1.285522 42.84375 -0.001221 7
1.292725 42.511719 -0.089599997 7
1.301331 42.111328 -0.17382801 7
1.311218 41.650391 -0.253418 7
1.314819 41.488281 -0.34472701 7
1.314026 41.536133 -0.445068 7
1.30542 42.121094 -2.972656 7
1.31012 41.899414 -3.0488279 7
1.317322 41.557617 -3.1105959 7
1.318604 41.499023 -3.2033689 7
1.32251 41.313477 -3.2810061 7
1.325439 41.173828 -3.363281 7
1.3232419 41.28418 -3.4750979 7
1.225891 39.961914 -3.5241699 7
1.072327 36.577148 -6.8286128 7
1.072876 36.545898 -6.9121089 7
1.075745 36.439453 -6.978271 7
1.005371 38.383789 -9.7587891 7
1.006531 38.329102 -9.8410645 7
0.99780297 34.726562 -7.0932622 7
0.99822998 34.700195 -7.1738281 7
1.004089 34.515625 -7.2141109 7
1.00647 34.431641 -7.2792969 7
1.007874 34.376953 -7.351562 7
1.010986 34.271484 -7.4103999 7
1.01355 34.182617 -7.4733891 7
1.0137939 34.161133 -7.5539551 7
0.92498797 36.375 -10.101318 7
0.92694098 36.297852 -10.171143 7
0.923706 32.806641 -7.3676758 7
0.92633098 32.723633 -7.427979 7
0.92742902 32.679688 -7.4987788 7
0.93219 32.541016 -7.5427251 7
0.93633997 32.416992 -7.5905762 7
0.93804902 32.355469 -7.6560059 7
0.940247 32.283203 -7.7180181 7
0.94348103 32.183594 -7.7709961 7
0.94390899 32.155273 -7.845459 7
0.86456299 30.969727 -7.7260742 7
0.79724097 29.298828 -8.0749512 7
0.80004901 29.21875 -8.1257324 7
0.804138 29.095703 -8.237793 7
0.80773902 29.000977 -8.28125 7
0.69751 30.725586 -11.013428 7
0.69854701 30.604492 -11.136719 7
0.70111102 30.525391 -11.188477 7
-0.218262 8.4394531 -52.473145 7
-0.32312 5.452148 -55.196289 7
-0.30316201 5.2753911 -54.754639 7
-0.53436297 -13.182617 49.952148 7
0.73760998 28.008789 -8.2255859 7
0.73889202 27.963867 -8.2839355 7
0.73907501 27.94043 -8.3498545 7
0.740417 27.895508 -8.4077148 7
0.74542201 27.776367 -8.4396973 7
0.75018299 27.665039 -8.4733887 7
0.753479 27.581055 -8.5166016 7
0.75506598 27.530273 -8.5712891 7
0.63592499 29.19043 -11.26416 7
0.633362 29.214844 -11.356689 7
0.64227301 29.016602 -11.351807 7
0.64251697 28.987305 -11.419922 7
0.64495802 28.913086 -11.469238 7
-0.27954099 7.8701172 -49.49585 7
-0.28912401 7.7783198 -49.710693 7
-0.259644 7.5654302 -49.115723 7
0.74133301 25.916016 -5.7556152 7
0.74493402 25.836914 -5.7990718 7
0.747253 25.779297 -5.8486328 7
0.75024402 25.710938 -5.8947749 7
0.690552 26.041992 -8.6672363 7
0.694763 25.947266 -8.7006836 7
0.69494599 25.922852 -8.7617188 7
0.69726598 25.861328 -8.8076172 7
0.69812 25.826172 -8.8640137 7
0.70257598 25.725586 -8.8942871 7
0.70214802 25.711914 -8.9589844 7
0.64324999 24.487305 -8.9990234 7
0.64538598 24.429688 -9.0427246 7
0.64660603 24.388672 -9.0935059 7
0.64679003 24.363281 -9.1508789 7
0.646851 24.337891 -9.208252 7
-0.26135299 -7.297852 36.364746 7
0.63067597 23.323242 -6.170898 7
0.633789 23.260742 -6.210938 7
0.63763398 23.185547 -6.2470698 7
0.64147902 23.112305 -6.282959 7
0.64605701 23.027344 -6.314209 7
0.650635 22.942383 -6.3457031 7
0.65228301 22.901367 -6.3920898 7
0.58367902 23.029297 -9.1601562 7
0.583435 23.009766 -9.2165527 7
0.585388 22.957031 -9.2583008 7
0.58850098 22.889648 -9.2924805 7
0.58862299 22.863281 -9.3461914 7
0.58990502 22.822266 -9.3925781 7
0.59295702 22.754883 -9.4257812 7
0.59387201 22.717773 -9.4743652 7
0.589966 22.75 -9.5559082 7
-0.454041 2.954102 -40.673584 7
-0.42297399 2.7207029 -40.185547 7
-0.39575201 -10.529297 35.106689 7
-0.40338099 -10.480469 35.231934 7
0.59112501 22.145508 -6.416748 7
0.595276 22.072266 -6.44873 7
0.59973103 21.992188 -6.4787598 7
0.60266101 21.93457 -6.516602 7
0.60400403 21.899414 -6.5620122 7
0.60290498 21.895508 -6.6196289 7
0.60266101 21.882812 -6.6733398 7
0.53332502 21.958984 -9.2885742 7
0.533813 21.927734 -9.3374023 7
0.53436297 21.896484 -9.3864746 7
0.53765899 21.829102 -9.4172363 7
0.53619403 21.824219 -9.4790039 7
0.53753698 21.782227 -9.5224609 7
0.54199201 21.698242 -9.5444336 7
0.54486102 21.635742 -9.5766602 7
-0.34826699 9.4863281 -35.237305 7
-0.365051 9.4609385 -35.502686 7
-0.214294 -6.3867192 31.308105 7
0.54425001 20.966797 -6.452148 7
0.54095501 20.990234 -6.518311 7
0.54028302 20.983398 -6.5717769 7
0.54650903 20.868164 -6.6411128 7
0.55304003 20.766602 -6.6577148 7
0.485046 20.484375 -9.6154795 7
0.48431399 20.467773 -9.6691895 7
0.48492399 20.436523 -9.7145996 7
0.487122 20.384766 -9.7485352 7
0.48980701 20.327148 -9.779541 7
0.48950201 20.304688 -9.8303223 7
0.49304199 20.237305 -9.8549805 7
0.49481201 20.189453 -9.8911133 7
-0.361938 8.9570312 -32.560547 7
-0.36993399 8.9042969 -32.688721 7
-0.379639 8.8574219 -32.839844 7
-0.378784 8.7724609 -32.848877 7
-0.35827601 5.0205078 -33.27124 7
-0.357483 4.9355469 -33.27124 7
-0.34918201 4.7548828 -33.177979 7
0.50268602 19.811523 -6.7568359 7
0.50372303 19.78125 -6.7988281 7
0.50933802 19.697266 -6.8178711 7
0.51037598 19.666992 -6.8596191 7
0.51324499 19.614258 -6.892334 7
0.51568598 19.567383 -6.9265141 7
0.51666301 19.536133 -6.9680181 7
0.52050799 19.473633 -6.9951172 7
0.43945301 19.212891 -9.9274902 7
-1.922974 -42.731445 -18.163574 7
-1.967346 -43.280273 -18.16626 7
-0.195557 -5.8476558 27.267578 7
-0.19134501 -5.7773442 27.236328 7
0.46557599 18.49707 -7.048584 7
0.470581 18.424805 -7.0671391 7
0.472168 18.387695 -7.103271 7
0.47570801 18.331055 -7.1289058 7
0.47729501 18.293945 -7.1645508 7
0.47888201 18.257812 -7.199707 7
0.477539 18.251953 -7.2504878 7
0.48205599 18.18457 -7.2705078 7
0.47827101 18.206055 -7.3334961 7
0.39007601 17.889648 -10.143066 7
0.39208999 17.842773 -10.172119 7
0.38977101 17.838867 -10.230225 7
-0.38812301 8.0410156 -28.186523 7
-0.38201901 4.3144531 -28.846191 7
-0.375366 4.0869141 -28.794434 7
-0.36956799 4.0048828 -28.734619 7
-1.806946 -37.475586 -19.332031 7
-1.726868 -36.814453 -18.742676 7
-1.6837161 -36.498047 -18.347656 7
-1.636108 -36.091797 -18.019531 7
-1.734192 -37.704102 -17.081543 7
-1.751282 -37.911133 -17.070801 7
-1.780334 -38.233398 -17.114746 7
-1.802856 -38.491211 -17.126953 7
-0.198181 -5.5439448 25.655273 7
-0.18866 -5.4082031 25.584717 7
0.429382 17.444336 -7.0605469 7
0.42474401 17.469727 -7.125 7
0.42694101 17.428711 -7.1555181 7
0.428101 17.398438 -7.1911621 7
0.431885 17.341797 -7.2138672 7
0.43463099 17.293945 -7.2412109 7
0.43737799 17.24707 -7.2687988 7
0.439087 17.210938 -7.3010249 7
0.43963599 17.18457 -7.339355 7
0.34503201 16.692383 -10.279053 7
0.34356701 16.677734 -10.328613 7
0.343079 16.655273 -10.371094 7
0.342163 16.635742 -10.417236 7
0.340698 16.62207 -10.466309 7
0.33868399 16.612305 -10.519287 7
-1.681519 -31.125977 -22.130615 7
-1.693848 -31.279297 -22.130127 7
-1.718262 -31.529297 -22.20166 7
-1.73761 -31.740234 -22.241211 7
-1.745911 -31.861328 -22.214111 7
-1.827698 -32.579102 -22.624023 7
-1.483765 -32.390625 -16.239746 7
-1.504272 -32.611328 -16.259521 7
-1.52832 -32.864258 -16.294678 7
-1.534851 -32.961914 -16.246826 7
-1.5419919 -33.064453 -16.201172 7
-1.566589 -33.322266 -16.236816 7
-1.569092 -33.383789 -16.168213 7
-1.600098 -33.699219 -16.231445 7
-1.615967 -33.880859 -16.223389 7
-1.753052 -36.513672 -13.596191 7
-1.777161 -36.771484 -13.599121 7
-1.811096 -37.119141 -13.637939 7
-0.175781 -5.4121089 23.871582 7
-0.16369601 -5.3369141 23.781982 7
-0.167236 -5.2919922 23.828857 7
-0.17846701 -5.264648 23.949219 7
-0.171326 -5.195312 23.893555 7
-0.171326 -5.1425781 23.906006 7
0.393738 16.289062 -7.3737788 7
0.39837599 16.227539 -7.3894038 7
0.400085 16.189453 -7.419189 7
0.40191701 16.15332 -7.44873 7
0.405945 16.097656 -7.4667969 7
0.40771499 16.05957 -7.4960942 7
0.40838599 16.03418 -7.5307622 7
0.41021699 15.975586 -7.5978999 7
0.40869099 15.969727 -7.644043 7
0.299438 15.417969 -10.571533 7
0.29785201 15.40332 -10.618652 7
-1.541809 -27.123047 -21.43335 7
-1.542603 -27.180664 -21.372803 7
-1.559998 -27.360352 -21.412354 7
-1.571228 -27.496094 -21.414062 7
-1.586731 -27.661133 -21.440918 7
-1.592407 -27.754883 -21.408691 7
-1.610962 -27.944336 -21.452637 7
-1.6283571 -28.125 -21.48877 7
-1.634033 -28.21875 -21.455078 7
-1.353088 -28.844727 -15.679443 7
-1.35022 -28.859375 -15.596191 7
-1.358337 -28.963867 -15.565674 7
-1.372009 -29.114258 -15.561035 7
-1.3968509 -29.356445 -15.60791 7
-1.4013669 -29.431641 -15.558594 7
-1.413269 -29.567383 -15.543213 7
-1.427551 -29.722656 -15.538818 7
-1.446838 -29.919922 -15.556885 7
-1.461182 -30.077148 -15.551514 7
-1.625549 -32.983398 -12.990967 7
-1.646118 -33.193359 -12.988525 7
-1.671631 -33.447266 -13.003418 7
-0.17626999 -5.110352 22.598145 7
-0.178772 -5.0664058 22.632812 7
-0.18383799 -5.0273442 22.69043 7
-0.185669 -4.9804692 22.719238 7
-0.176819 -4.9121089 22.6521 7
-0.182495 -4.8730469 22.7146 7
0.353149 15.353516 -7.5722661 7
0.35742199 15.296875 -7.5869141 7
0.36108401 15.246094 -7.6052251 7
0.36236599 15.212891 -7.6347661 7
0.36364701 15.180664 -7.6647949 7
0.36492899 15.149414 -7.6943359 7
0.36804199 15.102539 -7.714355 7
0.366943 15.09082 -7.7558589 7
0.368164 15.058594 -7.7853999 7
0.25128201 14.5 -10.57666 7
0.248962 14.489258 -10.625977 7
0.249634 14.455078 -10.656006 7
0.249146 14.430664 -10.693848 7
0.252197 14.379883 -10.70874 7
0.253418 14.341797 -10.735107 7
0.25354001 14.3125 -10.768555 7
0.25128201 14.301758 -10.817383 7
0.25366199 14.25293 -10.835449 7
0.25317401 14.228516 -10.873291 7
-1.4111331 -23.365234 -20.761963 7
-1.40802 -23.395508 -20.686768 7
-1.4245 -23.554688 -20.730225 7
-1.434387 -23.669922 -20.733643 7
-1.445007 -23.791016 -20.740723 7
-1.461426 -23.948242 -20.782471 7
-1.466187 -24.030273 -20.753418 7
-1.476074 -24.147461 -20.754883 7
-1.48999 -24.290039 -20.779785 7
-1.4927371 -24.359375 -20.737549 7
-1.203125 -23.612305 -17.564209 7
-1.213196 -23.769531 -17.506348 7
-1.229126 -23.96875 -17.479004 7
-1.250854 -24.164062 -17.540039 7
-1.253601 -24.225586 -17.496826 7
-1.19574 -25.293945 -14.99707 7
-1.203125 -25.386719 -14.971436 7
-1.204529 -25.43457 -14.91748 7
-1.2184449 -25.576172 -14.922363 7
-1.2375489 -25.756836 -14.951416 7
-1.244934 -25.849609 -14.924316 7
-1.2522579 -25.942383 -14.896729 7
-1.264221 -26.069336 -14.890137 7
-1.2774661 -26.206055 -14.889404 7
-1.295898 -26.382812 -14.912109 7
-1.3026119 -26.47168 -14.879883 7
-1.474854 -29.450195 -12.383301 7
-1.486145 -29.573242 -12.354736 7
-1.500793 -29.72168 -12.337891 7
-1.528442 -29.975586 -12.368408 7
-0.170654 -4.7431641 21.305664 7
-0.169312 -4.6933589 21.305908 7
-0.17730699 -4.6621089 21.38501 7
-0.181274 -4.6220698 21.43042 7
0.31085199 14.441406 -7.6989751 7
0.312195 14.40918 -7.726562 7
0.31549099 14.363281 -7.7446289 7
0.318726 14.316406 -7.7624512 7
0.319397 14.289062 -7.7929692 7
0.32141101 14.251953 -7.816895 7
0.32342499 14.216797 -7.8408198 7
0.32415801 14.189453 -7.8710942 7
0.32800299 14.136719 -7.8850098 7
0.32873499 14.110352 -7.9147949 7
0.326904 14.101562 -7.9580078 7
0.32824701 14.069336 -7.984375 7
0.207886 13.198242 -10.892578 7
0.207947 13.167969 -10.923584 7
0.20929 13.130859 -10.946533 7
0.20874 13.105469 -10.981445 7
0.20751999 13.083984 -11.020264 7
0.208252 13.049805 -11.046631 7
0.20770299 13.024414 -11.081299 7
0.20770299 12.994141 -11.112061 7
0.20782501 12.962891 -11.142334 7
-1.2750241 -19.949219 -20.118408 7
-1.275818 -20.003906 -20.075439 7
-1.2835079 -20.097656 -20.074463 7
-1.291931 -20.196289 -20.077148 7
-1.303772 -20.313477 -20.10083 7
-1.31427 -20.424805 -20.115723 7
-1.32196 -20.520508 -20.113037 7
-1.333801 -20.638672 -20.135254 7
-1.3511961 -20.790039 -20.190674 7
-1.349243 -20.829102 -20.128662 7
-1.350037 -20.883789 -20.083496 7
-1.087891 -20.741211 -16.95459 7
-1.129761 -21.176758 -16.984375 7
-1.105774 -22.780273 -14.479004 7
-1.114929 -22.880859 -14.467529 7
-1.127502 -23.004883 -14.472412 7
-1.13385 -23.083984 -14.447021 7
-1.13678 -23.140625 -14.405273 7
-1.147278 -23.25 -14.39917 7
-1.158447 -23.364258 -14.395508 7
-1.175842 -23.522461 -14.42041 7
-1.355713 -26.677734 -11.801758 7
-1.401611 -27.053711 -11.906494 7
-1.413574 -27.174805 -11.885254 7
0.29187 13.375977 -7.8720698 7
0.285889 13.395508 -7.9338379 7
0.28125 13.40625 -7.98877 7
0.28735399 13.341797 -7.9897461 7
-1.0984499 -16.149414 -19.408691 7
-1.0971071 -16.19043 -19.361084 7
-1.105225 -16.280273 -19.373047 7
-1.11261 -16.364258 -19.379639 7
-1.12146 -16.457031 -19.395264 7
-1.1281739 -16.538086 -19.396729 7
-1.132629 -16.609375 -19.384521 7
-1.142944 -16.708008 -19.408203 7
-1.149658 -16.790039 -19.408936 7
-1.154846 -16.864258 -19.400635 7
-1.1644289 -16.960938 -19.418945 7
-1.164551 -17.009766 -19.378418 7
-1.159546 -17.032227 -19.306641 7
-1.149536 -17.029297 -19.203857 7
-0.91894501 -17.302734 -16.428223 7
-0.92199701 -17.361328 -16.403564 7
-0.92358398 -17.410156 -16.370361 7
-0.93389899 -17.509766 -16.386963 7
-0.941284 -17.591797 -16.38623 7
-0.94799799 -17.670898 -16.381348 7
-0.95611602 -17.757812 -16.384277 7
-0.96203601 -17.833008 -16.374756 7
-0.969482 -17.915039 -16.373047 7
-0.97399902 -17.981445 -16.354736 7
-0.92797899 -19.530273 -13.943359 7
-0.93463099 -19.606445 -13.928711 7
-0.94494599 -19.707031 -13.931885 7
-0.95391798 -19.798828 -13.92749 7
-0.964966 -19.90332 -13.933105 7
-0.97314501 -19.989258 -13.924561 7
-0.98565698 -20.104492 -13.936523 7
-0.98651099 -20.145508 -13.89209 7
-0.99615502 -20.242188 -13.889648 7
-1.004333 -20.329102 -13.879639 7
-1.018311 -20.453125 -13.896973 7
-1.0265501 -20.540039 -13.885986 7
-1.033203 -20.617188 -13.868408 7
-1.0369869 -20.677734 -13.83667 7
-1.042236 -20.746094 -13.811035 7
-1.044556 -20.795898 -13.772217 7
-1.239014 -23.958984 -11.472412 7
-1.236938 -23.974609 -11.407227 7
-1.249512 -24.091797 -11.396484 7
-1.273865 -24.291016 -11.427979 7
-1.288635 -24.423828 -11.423828 7
-1.2976069 -24.516602 -11.397949 7
-1.301392 -24.571289 -11.352783 7
-1.2971801 -24.569336 -11.278809 7
-1.295837 -24.59082 -11.215332 7
-0.140991 -4.4433589 18.925049 7
-0.146973 -4.4130859 18.980713 7
-0.153687 -4.3847661 19.041992 7
-0.154419 -4.34375 19.058105 7
-0.145447 -4.2851558 19.000732 7
-0.14910901 -4.250977 19.039307 7
-0.15509 -4.2207031 19.094971 7
-0.159546 -4.186523 19.138916 7
0.241211 12.613281 -8.0270996 7
0.244812 12.566406 -8.0388184 7
0.244202 12.548828 -8.0717773 7
0.246399 12.511719 -8.0908203 7
0.25 12.46582 -8.1022949 7
0.25079301 12.439453 -8.1279297 7
0.25085399 12.415039 -8.1574707 7
0.25238001 12.383789 -8.1791992 7
0.25524899 12.342773 -8.1938477 7
0.255371 12.320312 -8.2229004 7
0.256836 12.288086 -8.2443848 7
0.256165 12.268555 -8.2770996 7
-0.96704102 -12.936523 -18.778564 7
-0.97174102 -13.001953 -18.7771 7
-0.97955298 -13.081055 -18.794678 7
-0.98040801 -13.131836 -18.768555 7
-0.98895299 -13.213867 -18.790283 7
-0.98980701 -13.264648 -18.763672 7
-0.99761999 -13.34375 -18.780518 7
-0.99462903 -13.376953 -18.729248 7
-0.99633801 -13.431641 -18.707031 7
-0.81146199 -14.667969 -15.958252 7
-0.81384301 -14.720703 -15.936523 7
-0.81707799 -14.776367 -15.918945 7
-0.82025099 -14.832031 -15.901367 7
-0.82342499 -14.887695 -15.883545 7
-0.83203101 -14.970703 -15.89624 7
-0.84552002 -17.3125 -13.5896 7
-0.85107398 -17.378906 -13.574463 7
-0.85424799 -17.431641 -13.54834 7
-0.86206102 -17.510742 -13.543945 7
-0.87146002 -17.598633 -13.547363 7
-0.88159198 -17.692383 -13.553955 7
-0.88403302 -17.740234 -13.523193 7
-0.88568097 -17.78418 -13.488037 7
-0.89270002 -17.858398 -13.479248 7
-1.138611 -21.639648 -11.111084 7
-1.134094 -21.638672 -11.04248 7
-1.145081 -21.738281 -11.031006 7
-1.155273 -21.833008 -11.016357 7
-1.166321 -21.961914 -10.952148 7
-1.191223 -22.15332 -10.989746 7
-0.73016399 -15.00293 -13.100586 7
-0.73760998 -15.075195 -13.101074 7
-0.74505597 -15.146484 -13.10083 7
-0.74597198 -15.185547 -13.068848 7
-0.75177002 -15.249023 -13.060547 7
-0.751831 -15.282227 -13.024414 7
-0.75927699 -15.354492 -13.023438 7
-0.76672399 -15.425781 -13.022217 7
-0.77087402 -15.480469 -13.004883 7
-0.777466 -15.546875 -12.999756 7
-0.78979498 -15.645508 -13.02124 7
-1.036926 -19.544922 -10.601807 7
-1.0452271 -19.623047 -10.585205 7
-1.063293 -19.760742 -10.604004 7
-0.13403299 -4.1503911 17.003174 7
-0.12323 -4.09375 16.94043 7
-0.12817401 -4.0664058 16.983887 7
-0.12731899 -4.0283198 16.988037 7
-0.135681 -4.0048828 17.053955 7
-0.133972 -3.964844 17.052246 7
-0.122314 -3.9091799 16.983154 7
-0.12817401 -3.882812 17.031982 7
-0.132324 -3.851562 17.069336 7
0.202209 12.887695 -4.8149409 7
0.204651 12.856445 -4.837646 7
0.20715301 12.826172 -4.8598628 7
-0.66387898 -13.231445 -12.799805 7
-0.66314697 -13.260742 -12.763916 7
-0.67089802 -13.329102 -12.770264 7
-0.67700201 -13.389648 -12.767578 7
-0.68304402 -13.450195 -12.764893 7
-0.68487501 -13.491211 -12.741455 7
-0.68835402 -13.541016 -12.72583 7
-0.69274902 -13.59375 -12.714111 7
-0.69622803 -13.642578 -12.698486 7
-0.70147699 -13.700195 -12.69043 7
-1.081543 -19.575195 -8.791748 7
-1.091125 -19.654297 -8.7741699 7
-1.103271 -19.75 -8.7641602 7
-1.113708 -19.835938 -8.7485352 7
-0.123779 -3.7949221 16.221924 7
-0.124634 -3.7626951 16.236572 7
-0.127258 -3.7314451 16.262695 7
-0.132507 -3.7050779 16.305176 7
-0.133362 -3.671875 16.319824 7
-1.0062259 -17.958984 -8.5087891 7
-1.01355 -18.022461 -8.4880371 7
-1.027222 -18.123047 -8.4865723 7
-1.039001 -18.210938 -8.4787598 7
-0.119507 -3.8310549 15.403076 7
-0.120422 -3.7998049 15.417969 7
-0.123169 -3.7714839 15.443848 7
-0.13507099 -3.7568359 15.525879 7
-0.12768599 -3.710938 15.48999 7
-0.120361 -3.6660161 15.454102 7
-0.128601 -3.6464839 15.513184 7
-0.128601 -3.613281 15.521973 7
-0.131348 -3.5830081 15.547607 7
-0.13403299 -3.5537109 15.572998 7
-0.83093297 -14.827148 -9.7373047 7
-0.84521502 -14.922852 -9.753418 7
-0.84338403 -14.939453 -9.7111816 7
-0.22381601 -6.7080078 13.417725 7
-0.110962 -3.4970701 14.059082 7
-0.111938 -3.467773 14.072998 7
-0.103943 -3.425781 14.036865 7
-0.109924 -3.4042971 14.078613 7
-0.22466999 -6.6621089 12.758301 7
-0.22259501 -6.6289058 12.76416 7
-0.108093 -3.511719 13.443604 7
-0.102844 -3.4755859 13.424316 7
-0.105957 -3.452148 13.449463 7
-0.108093 -3.4277339 13.46875 7
-0.111511 -3.4042971 13.498779 7
-0.110474 -3.375 13.501709 7
-0.110413 -3.3457029 13.509766 7
-0.105164 -3.3105471 13.48999 7
-0.110413 -3.2900391 13.525635 7
-0.109375 -3.2597661 13.527832 7
-0.115662 -3.2402339 13.569336 7
-0.117737 -3.2128911 13.588135 7
-0.229614 -6.7167969 12.021973 7
-0.226318 -6.6826172 12.023193 7
-0.22741701 -6.6601558 12.044189 7
-0.22418199 -6.625977 12.045654 7
-0.218628 -6.5849609 12.036865 7
-0.212036 -6.5410161 12.023193 7
-0.207642 -6.5039058 12.019043 7
-0.20990001 -6.485352 12.044434 7
-0.21539301 -6.4746089 12.084473 7
-0.227539 -6.4824219 12.154297 7
-0.224243 -6.4482422 12.155029 7
-0.21875 -6.4082031 12.145508 7
-0.099854 -3.4130859 12.805908 7
-0.095458999 -3.3251951 12.80835 7
-0.093262002 -3.295898 12.80542 7
-0.102051 -3.28125 12.857666 7
-0.097594999 -3.219727 12.851318 7
-0.212036 -6.3867192 11.498291 7
-0.087341003 -3.1855471 11.777344 7
-0.087341003 -3.1611331 11.784912 7
-0.089722 -3.139648 11.803711 7
-0.089722 -3.1152339 11.811279 7
-0.094543003 -3.097656 11.84082 7
-0.090942003 -3.0683589 11.831543 7
-0.093323 -3.046875 11.850342 7
-0.089722 -3.0175779 11.84082 7
-0.087341003 -2.9892581 11.837158 7
-0.092101999 -2.9707029 11.866455 7
-0.094481997 -2.949219 11.884766 7
-0.099303998 -2.9306641 11.913818 7
-0.101685 -2.9082029 11.932129 7
-0.085205004 -3.1982419 11.303711 7
-0.076537997 -3.1630859 11.273438 7
-0.086425997 -3.1298831 11.331787 7
-0.080200002 -3.097656 11.312256 7
-0.081482001 -3.0761721 11.325439 7
-0.086425997 -3.035156 11.362061 7
-0.103882 -3.035156 11.446045 7
-0.087646 -2.9902339 11.382324 7
-0.078918003 -2.9316411 11.358154 7
-0.087646 -2.9189451 11.403564 7
-0.087646 -2.8955081 11.4104 7
-0.075438999 -2.875977 10.460693 7
-0.082213998 -2.863281 10.494873 7
-0.083557002 -2.84375 10.507324 7
-0.082153 -2.820312 10.508789 7
-0.076782003 -2.7919919 10.493652 7
-0.076782003 -2.7705081 10.500488 7
-0.079467997 -2.7529299 10.518066 7
-0.076720998 -2.7275391 10.513672 7
-0.079467997 -2.7099609 10.531494 7
-0.084899999 -2.695312 10.559814 7
-0.062256001 -2.8642581 9.994873 7
-0.062194999 -2.84375 10.001709 7
-0.062194999 -2.8232419 10.008789 7
-0.062194999 -2.8027339 10.015381 7
-0.065002002 -2.785156 10.033203 7
-0.074890003 -2.7783201 10.077881 7
-0.073425002 -2.7558589 10.079102 7
-0.069274999 -2.730469 10.069336 7
-0.065002002 -2.7050779 10.059814 7
-0.065002002 -2.683594 10.066406 7
-0.065002002 -2.6630859 10.072998 7
-0.063598998 -2.641602 10.073975 7
-0.070618004 -2.628906 10.107422 7
-0.072021 -2.609375 10.119385 7
-0.076172002 -2.592773 10.142334 7
-0.077637002 -2.5751951 10.153809 7
-0.064575002 -2.858398 9.6494141 7
-0.061646 -2.8349609 9.6455078 7
-0.055847 -2.8095701 9.6311045 7
-0.060180999 -2.7744141 9.6606445 7
-0.060180999 -2.735352 9.6743164 7
-0.068908997 -2.707031 9.7194824 7
-0.067443997 -2.6855471 9.7207031 7
-0.061584 -2.6582029 9.7060547 7
-0.060180999 -2.6181641 9.7133789 7
-0.061646 -2.5810549 9.7314453 7
-0.046142999 -2.5449221 8.3669434 7
-0.046142999 -2.5283201 8.373291 7
-0.054504 -2.5205081 8.4057617 7
-0.054565001 -2.5048831 8.4118652 7
-0.054504 -2.4873049 8.4179688 7
-0.057861 -2.4746089 8.4345703 7
-0.057921998 -2.4580081 8.4406738 7
-0.057861 -2.441406 8.4467773 7
-0.052855998 -2.4199221 8.4365234 7
-0.047791 -2.3974609 8.4267578 7
-0.05957 -2.3935549 8.4697266 7
-0.057921998 -2.375 8.4699707 7
-0.052795 -2.3525391 8.4599609 7
-0.051146999 -2.3339839 8.4604492 7
-0.054504 -2.320312 8.4768066 7
-0.066284001 -2.3173831 8.5195312 7
-0.067932002 -2.3017581 8.5307617 7
-0.064575002 -2.28125 8.5256348 7
-0.066284001 -2.266602 8.5366211 7
-0.074707001 -2.2568359 8.5688477 7
-0.083251998 1.62207 8.8266602 7
-0.074828997 1.632812 8.7956543 7
-0.074828997 1.650391 8.7919922 7
-0.073059 1.6669919 8.7827148 7
-0.076416001 1.686523 8.7897949 7
-0.072998002 1.702148 8.7751455 7
-0.071350001 1.717773 8.7658691 7
-0.076293997 1.7392581 8.7783203 7
-0.069580004 1.750977 8.7526855 7
-0.072936997 1.771484 8.7595205 7
-0.066161998 1.783203 8.7336426 7
-0.067809999 1.8017581 8.7348633 7
-0.074524 1.8232419 8.7526855 7
-0.074463002 1.841797 8.7485352 7
-0.066040002 1.851562 8.717041 7
-0.066040002 1.869141 8.7128906 7
-0.067688003 1.887695 8.7143555 7
-0.069335997 1.90625 8.715332 7
-0.049377002 -2.5498049 8.0834961 7
-0.044188999 -2.5283201 8.0742188 7
-0.040709998 -2.5087891 8.0698242 7
-0.047667999 -2.500977 8.0966797 7
-0.049377002 -2.4863279 8.1081543 7
-0.052917 -2.4746089 8.1245117 7
-0.049377002 -2.4550779 8.1203613 7
-0.056396 -2.4462891 8.1472168 7
-0.059875 -2.4345701 8.1635742 7
-0.054625999 -2.4130859 8.1538086 7
-0.059875 -2.402344 8.175293 7
-0.047667999 -2.3730471 8.1442871 7
-0.049377002 -2.359375 8.1555176 7
-0.049377002 -2.342773 8.1611328 7
-0.045898002 -2.3232419 8.15625 7
-0.049377002 -2.3105471 8.1726074 7
-0.049377002 -2.2949221 8.1779795 7
-0.059813999 -2.289062 8.2158203 7
-0.061584 -2.2753911 8.2265615 7
-0.066771999 -2.264648 8.248291 7
-0.061584 -2.2431641 8.2375488 7
-0.13986 -3.8234689 15.623957 7
-0.086737998 -3.495188 13.312859 7
-0.14028899 -2.9451621 11.856687 7
-0.067454003 -2.7054911 9.7351122 7
-0.065737002 -2.5066431 8.3523474 7
-0.067079 -2.3258481 8.4555607 7
-0.088743001 1.602849 8.9073095 7
-0.081228003 1.788924 8.7952213 7
-0.057186998 -2.104526 7.2665362 7
-0.052386001 -1.980529 7.0778069 7
-0.110047 -3.8194671 16.846191 7
-0.15527201 -3.4932251 13.162745 7
-0.246075 -6.3552771 11.209329 7
-0.084821999 -3.1360941 11.735437 7
-0.099496998 -2.7148769 10.06004 7
-0.068590999 -2.511076 8.3330727 7
-0.074899003 -2.309545 8.4446468 7
-0.050576001 -2.163286 7.157938 7
-0.059324 -2.0097139 7.2499242 7
-0.048866998 -1.957559 7.0414691 7
0.247398 16.17293 -7.457603 7
0.249762 13.826082 -7.9255042 7
0.25051799 12.840117 -8.1238308 7
0.25062501 11.973479 -8.3182402 7
