# .PCD v0.7 - Point Cloud Data file format
VERSION 0.7
FIELDS x y z intensity
SIZE 4 4 4 4
TYPE F F F F
COUNT 1 1 1 1
WIDTH 818
HEIGHT 1
VIEWPOINT 0 0 0 1 0 0 0
POINTS 818
DATA ascii
2.4294429 71.180664 -4.5881348 7
2.4277949 70.594727 -4.7055659 7
2.4264531 70.078125 -4.8266602 7
2.423584 69.141602 -4.9064941 7
2.4213259 68.380859 -4.9985352 7
2.220886 64.533203 -5.7028809 7
2.033325 55.404297 0.30517599 7
2.034668 54.979492 0.18481401 7
2.0371089 54.167969 0.076416001 7
2.0396731 53.304688 -0.026123 7
2.0365601 56.455078 -2.9250491 7
2.0380249 55.983398 -3.020752 7
2.0388789 55.762695 -3.1352539 7
2.040894 55.074219 -3.2084961 7
2.037415 56.804688 -3.8981929 7
1.891663 53.835938 0.10083 7
1.89502 53.257812 -0.0092770001 7
1.898438 52.663086 -0.116211 7
1.901306 52.185547 -0.22485401 7
1.905579 51.4375 -0.32104501 7
1.909546 50.743164 -0.41601601 7
1.89801 53.75 -3.207031 7
1.901123 53.208008 -3.2858889 7
1.903625 52.777344 -3.372314 7
1.904785 52.589844 -3.4802251 7
1.898499 54.06543 -4.5236821 7
1.899719 53.871094 -4.6306152 7
1.9009399 53.681641 -4.7373052 7
1.903809 53.171875 -4.8051758 7
1.749573 50.991211 -0.32617199 7
1.756409 50.214844 -0.41626 7
1.759766 49.84668 -0.52002001 7
1.776001 48.506836 -3.9206541 7
1.756348 50.977539 -5.175293 7
1.758545 50.735352 -5.2653809 7
1.7603149 50.539062 -5.360352 7
1.763672 50.152344 -5.427979 7
1.765442 49.950195 -5.5202641 7
1.769165 49.521484 -5.579102 7
1.674805 45.554688 -1.183105 7
1.654358 47.663086 -3.8022461 7
1.657715 47.371094 -3.8825679 7
1.660583 47.120117 -3.966553 7
1.663574 46.863281 -4.048584 7
1.663269 46.544922 -4.1269531 7
1.666931 46.224609 -4.1984859 7
1.6394041 48.774414 -5.6879878 7
1.6418459 48.560547 -5.773438 7
1.644775 48.305664 -5.8518071 7
1.6474 48.074219 -5.932373 7
1.648743 47.957031 -6.030273 7
1.543457 45.115234 -1.064209 7
1.551636 44.547852 -1.136963 7
1.557983 44.109375 -1.214844 7
1.56073 43.927734 -1.307861 7
1.568787 43.365234 -1.3742681 7
1.572998 43.079102 -1.457031 7
1.552551 44.663086 -4.1218262 7
1.557495 44.306641 -4.1826172 7
1.560181 44.119141 -4.2641602 7
1.564026 43.849609 -4.3339839 7
1.563904 43.859375 -4.4406738 7
1.446106 43.083984 -1.351562 7
1.456116 42.492188 -1.412109 7
1.463135 42.088867 -1.483887 7
1.468262 41.794922 -1.562012 7
1.473083 41.519531 -1.640137 7
1.456726 42.53418 -4.2563481 7
1.460754 42.294922 -4.325439 7
1.463684 42.124023 -4.4030762 7
1.467163 41.918945 -4.4750981 7
1.471741 41.644531 -4.5351558 7
1.474121 41.501953 -4.614502 7
1.470703 41.702148 -4.7451172 7
1.366089 40.361328 -4.552002 7
1.367004 40.3125 -4.6420898 7
1.369446 40.1875 -4.7199712 7
1.372131 40.051758 -4.7956538 7
1.375244 39.892578 -4.8666992 7
1.377686 39.765625 -4.9431152 7
1.381042 39.594727 -5.0109859 7
1.380676 39.608398 -5.1091309 7
1.298279 38.350586 -5.4492192 7
1.3002321 38.259766 -5.5258789 7
1.3017581 38.185547 -5.6052251 7
1.303955 38.082031 -5.6789551 7
1.305603 38.000977 -5.7565918 7
1.3071899 37.925781 -5.8352051 7
1.27179 39.295898 -7.6533198 7
1.275696 39.114258 -7.7084961 7
1.14209 35.152344 -8.4506836 7
1.058533 34.143555 -8.3508301 7
1.065613 33.912109 -8.3703613 7
1.064392 33.93457 -8.463623 7
1.068848 33.782227 -8.505127 7
1.070007 33.730469 -8.576416 7
1.074036 33.587891 -8.6201172 7
1.074646 33.552734 -8.6960449 7
1.078369 33.421875 -8.7424316 7
1.072693 33.576172 -8.876709 7
0.986206 35.777344 -11.345215 7
0.98699999 35.730469 -11.42334 7
0.99151599 35.574219 -11.461426 7
0.99902302 32.082031 -8.6582031 7
1.001282 32.001953 -8.7158203 7
1.0037839 31.916992 -8.7714844 7
1.005371 31.852539 -8.8339844 7
1.006592 31.799805 -8.8999023 7
1.012207 31.631836 -8.9272461 7
1.011353 31.633789 -9.0112305 7
-0.47113001 -14.166016 62.749023 7
-0.516541 -14.262695 63.837646 7
0.92645299 30.451172 -8.8640137 7
0.92663598 30.425781 -8.9360352 7
0.92846698 30.362305 -8.9938955 7
0.93255597 30.244141 -9.0327148 7
0.93414301 30.185547 -9.0922852 7
0.93725598 30.088867 -9.1381836 7
0.93927002 30.018555 -9.1931152 7
0.94268799 29.916992 -9.236084 7
0.83532703 31.963867 -11.886719 7
0.83557099 31.930664 -11.961914 7
0.84002697 31.796875 -11.993408 7
0.84435999 31.667969 -12.026855 7
0.84576398 31.609375 -12.090088 7
-0.39691201 -13.192383 56.103516 7
-0.44604501 -13.311523 57.181641 7
-0.29162601 -9.6757812 54.598389 7
0.76770002 30.169922 -12.225098 7
0.771667 30.057617 -12.259521 7
0.77136201 30.036133 -12.334961 7
0.775024 29.928711 -12.371582 7
-0.28363001 8.2685547 -60.327393 7
-0.40270999 5.610352 -63.904785 7
-0.38244599 5.414062 -63.41626 7
0.79937702 27.385742 -9.3623047 7
0.80053699 27.317383 -9.4846191 7
0.805664 27.172852 -9.5759277 7
0.80773902 27.108398 -9.6245117 7
0.810974 27.023438 -9.6633301 7
0.8125 26.969727 -9.7160645 7
0.80987501 26.99707 -9.8017578 7
0.69537401 28.566406 -12.498291 7
-0.45929 -11.952148 48.974121 7
0.79046601 26.014648 -6.722168 7
0.795959 25.894531 -6.7512212 7
0.80181903 25.768555 -6.7780762 7
0.804932 25.693359 -6.8205571 7
0.80957001 25.589844 -6.8537598 7
0.809753 25.570312 -6.9138179 7
0.803711 25.666992 -7.0131841 7
0.743164 26.075195 -9.6149902 7
0.74365199 26.042969 -9.6740723 7
0.74859601 25.931641 -9.6982422 7
0.75116003 25.861328 -9.7404795 7
0.75433302 25.78125 -9.777832 7
0.75506598 25.743164 -9.8339844 7
0.754089 25.738281 -9.9042969 7
-0.364319 7.1035161 -51.579102 7
0.74298102 24.522461 -6.7695308 7
0.74047899 24.546875 -6.842773 7
0.74029499 24.532227 -6.9023442 7
0.74212599 24.484375 -6.9509282 7
0.74585003 24.404297 -6.987061 7
0.75024402 24.311523 -7.0192871 7
0.69653302 24.283203 -9.9606934 7
0.69866902 24.223633 -10.002686 7
0.697815 24.211914 -10.067383 7
0.69995099 24.15332 -10.109131 7
0.69982898 24.131836 -10.168457 7
0.574036 25.271484 -13.095459 7
0.70184302 23.904297 -3.996582 7
0.70300299 23.874023 -4.0490718 7
0.70635998 23.80957 -4.0930181 7
0.71142602 23.716797 -4.1298828 7
0.641357 23.048828 -10.045166 7
0.64459199 22.873047 -10.297363 7
0.64758301 22.803711 -10.32959 7
0.64740002 22.78125 -10.385986 7
0.64544702 22.783203 -10.456055 7
-0.39825401 5.9130859 -43.540771 7
-0.375732 5.7568359 -43.166016 7
-0.170837 -6.6455078 35.244629 7
-0.169067 -6.4804692 35.25293 7
0.64563 21.932617 -7.0678711 7
0.64202899 21.966797 -7.1408691 7
0.640625 21.967773 -7.201416 7
0.63769501 21.991211 -7.27002 7
0.639709 21.942383 -7.3112788 7
0.644409 21.856445 -7.3364258 7
0.64703399 21.782227 -7.42627 7
0.64947498 21.727539 -7.4638672 7
0.65344203 21.652344 -7.4926758 7
0.65393102 21.625977 -7.5412598 7
0.65521199 21.587891 -7.5852051 7
0.65154999 21.620117 -7.6586909 7
0.58313 21.637695 -10.252686 7
0.58135998 21.634766 -10.317627 7
0.58349597 21.582031 -10.354248 7
0.58361799 21.553711 -10.405273 7
0.58642602 21.489258 -10.435791 7
0.587708 21.445312 -10.478271 7
0.58825701 21.411133 -10.525879 7
0.58880597 21.37793 -10.573242 7
0.58898902 21.349609 -10.623535 7
0.583435 21.395508 -10.717529 7
-0.412292 8.9980469 -39.093262 7
-0.29541001 -9.7314453 33.89624 7
-0.320862 -9.7539062 34.255371 7
-0.34845001 -9.7841797 34.642334 7
-0.32104501 -9.6005859 34.306885 7
0.58941698 21.040039 -7.4030762 7
0.59197998 20.986328 -7.438477 7
0.592529 20.958984 -7.4858398 7
0.59435999 20.916016 -7.5256348 7
0.60229498 20.794922 -7.5307622 7
0.604065 20.751953 -7.5700679 7
0.60620099 20.704102 -7.6071782 7
0.61041301 20.62793 -7.6318359 7
0.61260998 20.580078 -7.6687012 7
0.53283697 20.482422 -10.571289 7
0.537476 20.398438 -10.58667 7
0.53515601 20.399414 -10.652832 7
0.53979498 20.31543 -10.667725 7
0.53753698 20.316406 -10.733643 7
0.53649902 20.302734 -10.790527 7
-0.41339099 8.8525391 -36.27002 7
-0.42205799 8.7929688 -36.421631 7
-0.429932 8.7304688 -36.561768 7
-0.43896499 8.671875 -36.718994 7
-0.581177 1.8837889 -40.12207 7
-0.152954 -5.7392578 30.653564 7
0.549927 19.714844 -7.6877441 7
0.55700701 19.608398 -7.6938481 7
0.561279 19.518555 -7.7636719 7
0.56573498 19.442383 -7.7841802 7
0.56738299 19.381836 -7.8681641 7
0.56841999 19.350586 -7.9086909 7
0.568115 19.332031 -7.9570308 7
0.48168901 19.264648 -10.612549 7
0.47876 19.269531 -10.679688 7
0.47894299 19.241211 -10.725098 7
0.48083499 19.192383 -10.757812 7
0.48358199 19.133789 -10.78418 7
0.48419201 19.100586 -10.825928 7
0.483459 19.081055 -10.877197 7
-0.424072 8.2832031 -33.503906 7
-0.43457001 4.375 -34.51709 7
0.51391602 18.518555 -7.9240718 7
0.52014202 18.428711 -7.932373 7
0.51983601 18.412109 -7.9787598 7
0.42688 18.112305 -10.911377 7
0.43084699 18.043945 -10.927246 7
0.431885 18.004883 -10.963135 7
0.43206799 17.974609 -11.005371 7
0.43035901 17.963867 -11.061279 7
0.429077 17.948242 -11.113281 7
0.42828399 17.927734 -11.162109 7
-0.280518 -8.7861328 27.356201 7
-0.28039601 -8.7236328 27.377197 7
-0.29180899 -8.703125 27.519531 7
0.47039801 17.428711 -8.0058594 7
0.471558 17.394531 -8.0410156 7
0.474731 17.341797 -8.0651855 7
0.47735599 17.293945 -8.0915527 7
0.47949201 17.250977 -8.1208496 7
0.481628 17.206055 -8.1499023 7
0.48223901 17.178711 -8.1877441 7
0.48193401 17.161133 -8.2307129 7
0.48052999 17.15332 -8.2800293 7
0.38031 16.703125 -11.214355 7
0.37896699 16.686523 -11.26416 7
0.379089 16.65625 -11.303711 7
0.199219 16.811523 -14.466553 7
0.19842499 16.782227 -14.514404 7
0.19757099 16.751953 -14.561768 7
0.19085699 16.773438 -14.657959 7
-0.45233199 3.589844 -29.86792 7
-1.981079 -38.116211 -19.123291 7
-1.874084 -37.181641 -18.510254 7
-1.958069 -37.995117 -18.828125 7
-1.844849 -37.000977 -18.19043 7
-1.832214 -36.926758 -18.040771 7
-1.950684 -38.780273 -16.94873 7
-0.13415501 -5.0683589 25.121338 7
-0.128967 -4.945312 25.093994 7
-0.137878 -4.9082031 25.197266 7
0.43414301 16.317383 -8.1591797 7
0.43536401 16.285156 -8.1916504 7
0.434387 16.271484 -8.236084 7
0.43884301 16.208984 -8.2502441 7
0.43945301 16.180664 -8.2851562 7
0.44067401 16.146484 -8.3171387 7
0.32983401 15.675781 -11.204834 7
0.33172601 15.601562 -11.267578 7
0.33081099 15.580078 -11.311768 7
0.33203101 15.541016 -11.34082 7
0.32794201 15.545898 -11.407227 7
0.32861301 15.510742 -11.439941 7
0.323975 15.519531 -11.510254 7
-1.664673 -33.142578 -16.262695 7
-1.679932 -33.313477 -16.251953 7
-1.710632 -33.617188 -16.310303 7
-1.6989141 -33.554688 -16.176758 7
-1.734497 -33.902344 -16.254883 7
-1.741882 -34.004883 -16.206543 7
-1.740967 -34.036133 -16.120361 7
-1.762146 -34.258789 -16.13208 7
-1.772583 -34.388672 -16.095215 7
-0.121765 -4.7705078 23.491943 7
-0.13830601 -4.750977 23.663086 7
-0.121582 -4.6660161 23.514893 7
-0.128052 -4.6269531 23.588623 7
-0.133911 -4.585938 23.656982 7
-0.132019 -4.5292969 23.650635 7
0.39355499 15.310547 -8.3144531 7
0.39892599 15.219727 -8.357666 7
0.39965799 15.192383 -8.3901367 7
0.40203899 15.148438 -8.4130859 7
0.402161 15.124023 -8.4487305 7
0.40685999 15.0625 -8.4584961 7
0.40710399 15.013672 -8.529541 7
0.40612799 15 -8.5712891 7
0.40338099 15 -8.6225586 7
0.28869599 14.366211 -11.440674 7
0.289978 14.327148 -11.466553 7
0.28900099 14.304688 -11.508057 7
0.287415 14.286133 -11.553711 7
0.28924599 14.241211 -11.575195 7
0.28485101 14.244141 -11.640625 7
0.27874801 14.260742 -11.717529 7
0.277771 14.238281 -11.759277 7
-1.678528 -27.586914 -21.404297 7
-1.671204 -27.585938 -21.294189 7
-1.703308 -27.918945 -21.346191 7
-1.722473 -28.108398 -21.389648 7
-1.737854 -28.270508 -21.409912 7
-1.753296 -28.433594 -21.429932 7
-1.7724611 -28.623047 -21.470947 7
-1.777161 -28.708008 -21.428467 7
-1.545532 -29.920898 -15.483154 7
-1.563477 -30.102539 -15.491211 7
-1.573853 -30.223633 -15.465088 7
-1.589905 -30.390625 -15.463135 7
-1.604126 -30.541992 -15.452881 7
-1.809875 -33.847656 -12.812988 7
0.34930399 14.511719 -8.3327637 7
0.34576401 14.517578 -8.3864746 7
0.344666 14.503906 -8.4272461 7
0.34173599 14.503906 -8.4780273 7
0.34918201 14.421875 -8.4719238 7
0.35235599 14.375 -8.4892578 7
0.353699 14.341797 -8.5163574 7
0.35620099 14.297852 -8.5366211 7
0.358215 14.260742 -8.5600586 7
0.35644501 14.25 -8.6037598 7
0.36022899 14.198242 -8.6166992 7
0.235046 13.418945 -11.528809 7
0.23272701 13.404297 -11.576904 7
0.234741 13.362305 -11.596191 7
0.237854 13.30957 -11.606689 7
0.236206 13.291016 -11.650391 7
0.23632801 13.259766 -11.681396 7
0.235291 13.236328 -11.721191 7
0.23840301 13.18457 -11.731445 7
0.236755 13.165039 -11.774902 7
0.234497 13.150391 -11.822266 7
-1.692993 -23.607422 -22.994629 7
-1.538391 -23.856445 -20.72168 7
-1.546021 -23.955078 -20.708252 7
-1.551636 -24.041016 -20.682617 7
-1.563904 -24.170898 -20.696045 7
-1.580933 -24.331055 -20.73584 7
-1.59314 -24.459961 -20.748047 7
-1.608826 -24.612305 -20.779053 7
-1.6177371 -24.719727 -20.770996 7
-1.630066 -24.850586 -20.781738 7
-1.623596 -24.858398 -20.684326 7
-1.331055 -25.773438 -14.980469 7
-1.340027 -25.875977 -14.959229 7
-1.347595 -25.967773 -14.931885 7
-1.36731 -26.150391 -14.95874 7
-1.380249 -26.282227 -14.954834 7
-1.389221 -26.384766 -14.931885 7
-1.400146 -26.501953 -14.917725 7
-1.410522 -26.615234 -14.899902 7
-1.432861 -26.818359 -14.935791 7
-1.444519 -26.94043 -14.923096 7
-1.444702 -26.979492 -14.859131 7
-1.457031 -27.107422 -14.848389 7
-1.461243 -27.174805 -14.802002 7
-1.652222 -30.212891 -12.320801 7
-0.130005 -4.476562 21.013916 7
-0.124634 -4.420898 20.979004 7
-0.131897 -4.3876948 21.052246 7
-0.144531 -4.3662109 21.17041 7
-0.126343 -4.2851558 21.027588 7
-0.13501 -4.2548828 21.111816 7
-0.138245 -4.2148442 21.150391 7
-0.142822 -4.1757808 21.200439 7
0.306458 13.478516 -8.6525879 7
0.311768 13.416992 -8.6560059 7
0.31378201 13.378906 -8.677002 7
0.317139 13.332031 -8.690918 7
0.318542 13.298828 -8.7148438 7
0.321228 13.255859 -8.7319336 7
0.32141101 13.232422 -8.7629395 7
0.32476801 13.185547 -8.776123 7
0.32037401 13.193359 -8.8320312 7
0.32238799 13.154297 -8.8525391 7
0.321228 13.138672 -8.890625 7
0.320068 13.123047 -8.9287109 7
-1.3948359 -20.379883 -20.193848 7
-1.393738 -20.421875 -20.136963 7
-1.398193 -20.49707 -20.113525 7
-1.408325 -20.603516 -20.123291 7
-1.424011 -20.743164 -20.166016 7
-1.432007 -20.837891 -20.162598 7
-1.4484251 -20.981445 -20.208496 7
-1.4564821 -21.078125 -20.204346 7
-1.463745 -21.169922 -20.195557 7
-1.469666 -21.25293 -20.178467 7
-1.473389 -21.324219 -20.148193 7
-1.2171021 -23.091797 -14.469238 7
-1.2371221 -23.263672 -14.506104 7
-1.247925 -23.373047 -14.499268 7
-1.263733 -23.515625 -14.515137 7
-1.266785 -23.573242 -14.471924 7
-1.271912 -23.644531 -14.438477 7
-1.286316 -23.779297 -14.446289 7
-1.293579 -23.863281 -14.421631 7
-0.26330599 -7.6455078 19.974854 7
-0.25048801 -7.561523 19.89624 7
-0.26177999 -7.5537109 20.000488 7
-0.26739499 -7.5273442 20.061768 7
-0.26513699 -7.4326172 20.081299 7
-0.262207 -7.3789058 20.077393 7
0.28015101 12.447266 -8.8151855 7
0.28369099 12.400391 -8.8256836 7
0.28857401 12.344727 -8.8286133 7
0.28118899 12.369141 -8.8989258 7
0.28131101 12.34375 -8.9277344 7
0.28704801 12.258789 -8.9555664 7
-1.222168 -16.710938 -19.537109 7
-1.234314 -16.818359 -19.56958 7
-1.23822 -16.884766 -19.552002 7
-1.246582 -16.973633 -19.561279 7
-1.257202 -17.074219 -19.58374 7
-1.261169 -17.142578 -19.565674 7
-1.269592 -17.232422 -19.57373 7
-1.272034 -17.292969 -19.546387 7
-1.276001 -17.360352 -19.527344 7
-1.02124 -17.574219 -16.556152 7
-1.021423 -17.615234 -16.514404 7
-1.026855 -17.6875 -16.501221 7
-1.039246 -17.834961 -16.482422 7
-1.052063 -17.948242 -16.509521 7
-1.061951 -18.043945 -16.519531 7
-1.0728149 -18.186523 -16.490479 7
-1.014343 -19.620117 -14.030273 7
-1.024963 -19.720703 -14.033203 7
-1.030396 -19.787109 -14.011475 7
-1.034302 -19.84668 -13.981934 7
-1.046509 -19.957031 -13.991211 7
-1.0556639 -20.048828 -13.986084 7
-1.064026 -20.135742 -13.976562 7
-1.076233 -20.246094 -13.984619 7
-1.09137 -20.374023 -14.006104 7
-1.0960079 -20.439453 -13.978516 7
-1.102173 -20.511719 -13.95752 7
-1.106873 -20.576172 -13.929688 7
-1.118225 -20.680664 -13.932129 7
-1.130371 -20.791992 -13.937744 7
-1.139587 -20.883789 -13.929199 7
-1.145752 -20.957031 -13.906982 7
-1.151184 -21.026367 -13.880615 7
-1.153625 -21.076172 -13.84082 7
-1.3646851 -24.34082 -11.469482 7
-1.36261 -24.355469 -11.403809 7
-1.375549 -24.472656 -11.391357 7
-1.390747 -24.605469 -11.38623 7
-1.408203 -24.754883 -11.388428 7
-1.42041 -24.867188 -11.371826 7
-1.422058 -24.907227 -11.317871 7
-0.11438 -4.1425781 18.782715 7
-0.109131 -4.092773 18.753174 7
-0.114258 -4.061523 18.80249 7
-0.12542699 -4.0400391 18.896973 7
-0.118591 -3.9863279 18.855713 7
-0.112549 -3.9345701 18.820068 7
-0.11615 -3.907227 18.880371 7
-0.125 -3.8808589 18.957764 7
0.23480199 11.594727 -8.9782705 7
0.23925801 11.543945 -8.9819336 7
-0.91345203 -15.072266 -16.034668 7
-0.92071497 -15.147461 -16.038086 7
-0.92645299 -15.21582 -16.032471 7
-0.93206799 -15.282227 -16.026367 7
-0.93701202 -15.345703 -16.016357 7
-0.93273902 -17.40332 -13.755859 7
-0.93212903 -17.43457 -13.710449 7
-0.936279 -17.492188 -13.687988 7
-0.94268799 -17.5625 -13.67627 7
-0.95080602 -17.640625 -13.671631 7
-0.95727497 -17.711914 -13.659912 7
-0.96142602 -17.769531 -13.636475 7
-0.971802 -17.863281 -13.642334 7
-0.98071301 -17.947266 -13.640625 7
-0.98004198 -17.977539 -13.593994 7
-0.98730499 -18.053711 -13.584717 7
-0.99066198 -18.105469 -13.556152 7
-1.002686 -18.208984 -13.568115 7
-1.246582 -21.90332 -11.139648 7
-1.2412111 -21.897461 -11.067627 7
-1.250061 -21.982422 -11.047119 7
-1.261353 -22.082031 -11.03418 7
-1.272583 -22.181641 -11.020996 7
-1.290161 -22.323242 -11.029541 7
-0.106567 -3.7998049 17.853271 7
-0.110474 -3.7675779 17.890381 7
-0.768677 -12.056641 -15.634521 7
-0.77050799 -12.102539 -15.615234 7
-0.77154499 -12.145508 -15.591064 7
-0.76763898 -12.167969 -15.538574 7
-0.77020299 -12.219727 -15.529785 7
-0.77533001 -12.279297 -15.528809 7
-0.780518 -12.34082 -15.527588 7
-0.78478998 -12.396484 -15.52124 7
-0.78662097 -12.443359 -15.500977 7
-0.81060803 -15.049805 -13.299805 7
-0.816589 -15.113281 -13.291992 7
-0.82769799 -15.236328 -13.271973 7
-0.83551002 -15.342773 -13.234863 7
-0.83819598 -15.389648 -13.210449 7
-0.84503198 -15.458008 -13.205566 7
-0.84930402 -15.512695 -13.188477 7
-0.85614002 -15.581055 -13.182861 7
-1.153809 -19.911133 -10.645508 7
-1.169861 -20.03418 -10.654297 7
-1.184204 -20.146484 -10.656982 7
-0.107178 -3.5537109 16.966553 7
-0.73352098 -13.210938 -12.997803 7
-0.732849 -13.241211 -12.962158 7
-0.73736602 -13.294922 -12.95166 7
-0.747253 -13.405273 -12.93457 7
-0.75976598 -13.52832 -12.929199 7
-0.75927699 -13.591797 -12.860596 7
-0.759399 -13.624023 -12.828125 7
-0.77606201 -13.732422 -12.874268 7
-1.047852 -17.928711 -10.408203 7
-1.052368 -17.981445 -10.381348 7
-1.060364 -18.052734 -10.366699 7
-1.0718991 -18.143555 -10.364258 7
-1.080811 -18.219727 -10.352295 7
-0.976807 -16.326172 -10.155762 7
-0.98431402 -16.391602 -10.143311 7
-0.99639899 -16.479492 -10.146973 7
-1.000183 -16.525391 -10.12085 7
-1.013245 -16.619141 -10.127197 7
-1.072327 -17.93457 -8.6184082 7
-1.082581 -18.013672 -8.605957 7
-1.0910029 -18.081055 -8.5881348 7
-1.1040649 -18.176758 -8.5837402 7
-0.094971001 -3.4287109 15.352295 7
-0.107971 -3.360352 14.787354 7
-0.216858 -6.4667969 12.790283 7
-0.087707996 -3.140625 13.432861 7
-0.083434999 -3.105469 13.418213 7
-0.202759 -6.3505859 12.049316 7
-0.2005 -6.3193359 12.054688 7
-0.20269801 -6.2998052 12.07959 7
-0.20929 -6.2929692 12.124756 7
-0.073363997 -3.1855471 12.727295 7
-0.070006996 -3.1533201 12.718506 7
-0.073242001 -3.1318359 12.742432 7
-0.073181003 -3.105469 12.750244 7
-0.077575997 -3.0839839 12.780029 7
-0.077514999 -3.0566411 12.787354 7
-0.081909001 -3.0371089 12.817139 7
-0.070862003 -2.9951169 12.769043 7
-0.072998002 -2.9707029 12.787109 7
-0.074036002 -2.945312 12.799805 7
-0.076172002 -2.920898 12.818359 7
-0.084960997 -2.9042971 12.869629 7
-0.220642 -6.3955078 11.510742 7
-0.219421 -6.367188 11.520996 7
-0.215942 -6.3339839 11.521729 7
-0.205566 -6.2832031 11.493164 7
-0.20440701 -6.2568359 11.503174 7
-0.205505 -6.235352 11.522949 7
-0.206604 -6.2148442 11.542725 7
-0.212341 -6.2060552 11.582031 7
-0.216919 -6.1933589 11.616455 7
-0.216858 -6.1699219 11.631348 7
-0.215637 -6.141602 11.641357 7
-0.21215799 -6.108398 11.640869 7
-0.080321997 -3.1904299 12.244141 7
-0.079102002 -3.1630859 12.246582 7
-0.077941999 -3.1357419 12.248535 7
-0.076720998 -3.108398 12.250732 7
-0.068604 -3.0722661 12.219482 7
-0.070923001 -3.0498049 12.238037 7
-0.073181003 -3.0263669 12.256592 7
-0.074280001 -3.0019529 12.269287 7
-0.079956003 -2.984375 12.304199 7
-0.078795999 -2.957031 12.305908 7
-0.074157998 -2.925781 12.291016 7
-0.074340999 -2.9033201 12.309082 7
-0.219666 -6.391602 10.891602 7
-0.218384 -6.3652339 10.901855 7
-0.221985 -6.3525391 10.931396 7
-0.219543 -6.3232422 10.937012 7
-0.219482 -6.2998052 10.952148 7
-0.217041 -6.2714839 10.957764 7
-0.209839 -6.2304692 10.944092 7
-0.200195 -6.1826172 10.92041 7
-0.20013399 -6.1611328 10.935303 7
-0.20251501 -6.1435552 10.959473 7
-0.203674 -6.124023 10.979004 7
-0.208435 -6.1132808 11.012939 7
-0.218018 -6.1152339 11.066406 7
-0.218018 -6.092773 11.080811 7
-0.053771999 -2.8544919 10.778076 7
-0.053649999 -2.8095701 10.791748 7
-0.054931998 -2.789062 10.804199 7
-0.064025998 -2.7792971 10.849365 7
-0.058777001 -2.75 10.833984 7
-0.054809999 -2.7001951 10.830811 7
-0.053467002 -2.6767581 10.832031 7
-0.058594 -2.6386721 10.866943 7
-0.067626998 -2.8652339 10.425781 7
-0.070312001 -2.847656 10.443848 7
-0.066223003 -2.820312 10.434326 7
-0.064879999 -2.797852 10.435791 7
-0.064819001 -2.7763669 10.442627 7
-0.064758003 -2.7548831 10.449219 7
-0.064758003 -2.733398 10.456055 7
-0.070068002 -2.71875 10.484131 7
-0.074097 -2.702148 10.507324 7
-0.070068002 -2.6767581 10.497559 7
-0.067322001 -2.6513669 10.493164 7
-0.065917999 -2.6279299 10.493896 7
-0.068604 -2.610352 10.511475 7
-0.067199998 -2.5869141 10.512207 7
-0.067139 -2.5654299 10.518555 7
-0.072509997 -2.5498049 10.546875 7
-0.054260001 -2.8525391 9.9604492 7
-0.057068001 -2.835938 9.9780273 7
-0.061218001 -2.8212891 10.001221 7
-0.061218001 -2.800781 10.008301 7
-0.059753001 -2.7783201 10.009521 7
-0.051270001 -2.7470701 9.9836426 7
-0.045653999 -2.7207029 9.9685059 7
-0.046997 -2.702148 9.9807129 7
-0.048401002 -2.683594 9.9926758 7
-0.046936002 -2.6611331 9.9938955 7
-0.05249 -2.6474609 10.021973 7
-0.062316999 -2.6376951 10.066406 7
-0.053893998 -2.608398 10.040283 7
-0.053833 -2.5888669 10.046631 7
-0.050903 -2.558594 9.3310547 7
-0.050841998 -2.5400391 9.3374023 7
-0.061462 -2.5332029 9.3813477 7
-0.065978996 -2.5205081 9.4035645 7
-0.052306999 -2.485352 9.3613281 7
-0.053771999 -2.467773 9.3725586 7
-0.055298001 -2.4511721 9.3837891 7
-0.046142999 -2.421875 9.3574219 7
-0.049132999 -2.40625 9.3742676 7
-0.050659001 -2.389648 9.385498 7
-0.056701999 -2.3769529 9.4130859 7
-0.053589001 -2.355469 9.407959 7
-0.055114999 -2.3378911 9.4191895 7
-0.065673999 -2.3300779 9.4628906 7
-0.065613002 -2.3095701 9.4685059 7
-0.062560998 -2.289062 9.4631348 7
-0.054931998 -2.261719 9.4416504 7
-0.059509002 -2.2480471 9.463623 7
-0.044188999 -2.5175779 9.0161133 7
-0.045775998 -2.5019529 9.0275879 7
-0.055114999 -2.4941411 9.065918 7
-0.056641001 -2.4775391 9.0771484 7
-0.050292999 -2.4345701 9.0678711 7
-0.048767 -2.4150391 9.0686045 7
-0.048645001 -2.3779299 9.0800781 7
-0.050232001 -2.3613279 9.0913086 7
-0.047058001 -2.3408201 9.0859385 7
-0.048583999 -2.3232419 9.097168 7
-0.056396 -2.313477 9.1298828 7
-0.059509002 -2.2988279 9.1464844 7
-0.056334998 -2.277344 9.1411133 7
-0.056334998 -2.261719 9.1518555 7
-0.054687999 -2.2412109 9.1520996 7
-0.040100001 -2.5341799 8.6616211 7
-0.041687001 -2.519531 8.6728516 7
-0.040038999 -2.5 8.673584 7
-0.041625999 -2.485352 8.6850586 7
-0.044861 -2.4716799 8.7019043 7
-0.046448 -2.4560549 8.7133789 7
-0.049683001 -2.4423831 8.7299805 7
-0.049683001 -2.425781 8.7358398 7
-0.046386998 -2.4042971 8.730957 7
-0.047974002 -2.3886721 8.7421885 7
-0.044677999 -2.3681641 8.7373047 7
-0.046264999 -2.3525391 8.7485352 7
-0.044617001 -2.3330081 8.7490234 7
-0.039733998 -2.3105471 8.7385254 7
-0.044555999 -2.297852 8.7602539 7
-0.049438 -2.2861331 8.7819824 7
-0.054260001 -2.273438 8.8037109 7
-0.052611999 -2.253906 8.8039551 7
-0.053528 -2.5517581 8.3862305 7
-0.048401002 -2.5292971 8.3762207 7
-0.039978001 -2.503906 8.3562012 7
-0.039917 -2.4707029 8.3681641 7
-0.043274 -2.457031 8.3850098 7
-0.043212999 -2.4238279 8.3967295 7
-0.048218001 -2.4130859 8.4189453 7
-0.054931998 -2.4042971 8.4458008 7
-0.053222999 -2.3857419 8.4462891 7
-0.046448 -2.344727 8.4367676 7
-0.044739 -2.3261721 8.4370117 7
-0.043030001 -2.2910161 8.4428711 7
-0.046326 -2.2783201 8.4592295 7
-0.042969 -2.257812 8.4541016 7
-0.046264999 -2.2441411 8.4702148 7
-0.43756101 -8.3730469 0.97045898 7
-0.43762201 -8.3730469 0.99072301 7
-0.43414301 -8.3632812 1.010986 7
-0.43768299 -8.3740234 1.0305181 7
-0.43768299 -8.375 1.050781 7
-0.43945301 -8.3808594 1.070557 7
-0.432495 -8.359375 1.091064 7
-0.44299299 -8.3935547 1.1101069 7
-0.44653299 -8.4042969 1.130127 7
-0.44653299 -8.4052734 1.150391 7
-0.44830301 -8.4101562 1.17041 7
-0.44836399 -8.4111328 1.19043 7
-0.45184299 -8.4228516 1.210449 7
-0.45715299 -8.4394531 1.230469 7
-0.451904 -8.4228516 1.250488 7
-0.45715299 -8.4394531 1.270752 7
-0.45892301 -8.4453115 1.290771 7
-0.46246299 -8.4570312 1.3112791 7
-0.462524 -8.4570312 1.3312989 7
-0.46429399 -8.4619141 1.351562 7
-0.457275 -8.4394531 1.371338 7
-0.457275 -8.4394531 1.391602 7
-0.45208699 -8.421875 1.411621 7
-0.44335899 -8.3935547 1.431396 7
-0.44512901 -8.3994141 1.451172 7
-0.44341999 -8.3925781 1.471436 7
-0.44341999 -8.3925781 1.4912111 7
-0.44171101 -8.3867188 1.51123 7
-0.44696 -8.4033203 1.531738 7
-0.44000199 -8.3798828 1.551025 7
-0.44177201 -8.3847656 1.5712889 7
-0.44177201 -8.3847656 1.591309 7
-0.44531199 -8.3945312 1.611816 7
-0.44183299 -8.3828115 1.631592 7
-0.44531199 -8.3925781 1.6521 7
-0.44537401 -8.3925781 1.671875 7
-0.45068401 -8.4091797 1.692871 7
-0.44189501 -8.3789062 1.71167 7
-0.44543499 -8.3896484 1.732178 7
-0.45068401 -8.4052734 1.7531739 7
-0.452454 -8.4091797 1.773438 7
-0.45074499 -8.4023438 1.793213 7
-0.44549599 -8.3847656 1.8125 7
-0.445557 -8.3847656 1.83252 7
-0.445557 -8.3828115 1.852295 7
-0.44207799 -8.3701172 1.871582 7
-0.44207799 -8.3681641 1.891602 7
-0.44207799 -8.3671885 1.911621 7
-0.044922002 -2.5595701 8.0595703 7
-0.050110001 -2.5498049 8.0812988 7
-0.050110001 -2.5341799 8.0874023 7
-0.041382 -2.507812 8.0673828 7
-0.046569999 -2.4980471 8.0895996 7
-0.044799998 -2.4638669 8.0964355 7
-0.036072001 -2.4394529 8.0759277 7
-0.036010999 -2.422852 8.0817871 7
-0.036010999 -2.407227 8.0878906 7
-0.036010999 -2.391602 8.09375 7
-0.032471001 -2.3720701 8.0888672 7
-0.037719999 -2.3613279 8.1105957 7
-0.044617001 -2.351562 8.1376953 7
-0.046326 -2.3378911 8.1484385 7
-0.053222999 -2.329102 8.1755371 7
-0.049805 -2.3105471 8.170166 7
-0.041016001 -2.285156 8.1499023 7
-0.035767 -2.2636721 8.1394043 7
-0.035767 -2.249023 8.1447754 7
-0.149608 -3.494673 15.860722 7
-0.216755 -6.0931959 11.045897 7
-0.089404002 -2.8467219 10.547838 7
-0.088853002 -2.5672319 10.647551 7
-0.086774997 -2.462755 8.9593105 7
-0.102075 -2.297158 9.1502552 7
-0.045276001 -2.5273399 8.1871519 7
-0.052813001 -2.37327 8.3268223 7
-0.026474001 -2.0060551 7.667295 7
-0.047933001 -2.236356 7.3908348 7
-0.049183 -2.095983 7.4831681 7
-0.267629 -6.330956 12.586952 7
-0.094968997 -3.1729209 12.718899 7
-0.101392 -2.6969531 10.641714 7
-0.041187 -2.3947041 9.3168306 7
-0.016894 -2.5032971 8.7224121 7
-0.026718 -2.290796 8.8619213 7
-0.49592799 -8.3766556 1.546468 7
-0.494515 -8.4175797 1.861465 7
-0.057305999 -2.3920901 8.3190193 7
-0.020569 -2.210206 7.651536 7
-0.019351 -1.978037 7.4959512 7
-0.181743 -5.132278 4.8000979 7
-0.195559 -5.113173 4.993094 7
0.24218699 11.230257 -8.8705425 7
