# .PCD v0.7 - Point Cloud Data file format
VERSION 0.7
FIELDS x y z intensity
SIZE 4 4 4 4
TYPE F F F F
COUNT 1 1 1 1
WIDTH 668
HEIGHT 1
VIEWPOINT 0 0 0 1 0 0 0
POINTS 668
DATA ascii
1.672668 49.510742 -10.713501 7
1.6737061 49.414062 -10.813477 7
1.675842 49.208008 -10.885498 7
1.677124 49.082031 -10.976929 7
1.680847 48.724609 -11.00769 7
1.683899 48.426758 -11.053345 7
1.5591429 46.898438 -11.124146 7
1.462402 43.435547 -9.0994873 7
1.466431 43.182617 -9.145752 7
1.470764 42.913086 -9.1861572 7
1.472412 42.801758 -9.2658691 7
1.442627 44.379883 -11.58252 7
1.446838 44.113281 -11.616821 7
1.449097 43.963867 -11.685303 7
1.450745 43.848633 -11.763428 7
-0.166504 -9.9316406 61.930542 7
1.035767 34.030273 -12.581299 7
1.036255 33.984375 -12.657104 7
1.037903 33.908203 -12.719116 7
1.03949 33.830078 -12.780762 7
1.044373 33.657227 -12.800659 7
0.95282 31.975586 -12.808838 7
0.95684803 31.838867 -12.838379 7
0.95983899 31.729492 -12.879517 7
0.96203601 31.643555 -12.929688 7
0.96240199 31.603516 -13.001953 7
-0.190979 -8.6240234 47.818848 7
0.81121802 28.399414 -12.85083 7
0.80304003 28.538086 -13.005737 7
0.805664 28.451172 -13.046265 7
0.80578601 28.416016 -13.113403 7
0.80792201 28.34082 -13.158569 7
0.80999798 28.263672 -13.203857 7
0.81366003 28.155273 -13.232178 7
0.815552 28.084961 -13.279419 7
0.81762701 28.007812 -13.323608 7
0.69641101 29.776367 -16.023438 7
0.69848597 29.693359 -16.069702 7
0.69854701 29.651367 -16.139771 7
0.69921899 29.600586 -16.203613 7
0.70477301 29.448242 -16.206909 7
0.751221 26.785156 -13.310791 7
0.75543201 26.672852 -13.330933 7
0.756042 26.625977 -13.388184 7
0.758057 26.555664 -13.430664 7
-0.73504603 0.17285199 -57.948608 7
-0.145996 -8.0634766 40.175903 7
0.68560803 24.954102 -13.402588 7
0.6875 24.889648 -13.443115 7
0.68786597 24.847656 -13.498901 7
0.68884301 24.796875 -13.54834 7
0.69012499 24.741211 -13.594482 7
-0.62628198 3.0214839 -51.042358 7
-0.63702399 2.907227 -51.241821 7
0.68560803 23.948242 -10.293579 7
0.684753 23.935547 -10.35791 7
0.68292201 23.939453 -10.430054 7
0.68560803 23.869141 -10.465332 7
0.68768299 23.807617 -10.505615 7
0.690063 23.743164 -10.543213 7
0.69445801 23.647461 -10.564209 7
0.695862 23.597656 -10.609253 7
0.70123303 23.456055 -10.677002 7
0.70361298 23.390625 -10.713135 7
0.69946301 23.429688 -10.803955 7
0.626526 23.216797 -13.8125 7
-0.12384 -7.547852 34.19104 7
-0.0051270002 -4.046875 33.099609 7
0.62219203 22.375 -10.591431 7
0.62506098 22.304688 -10.621704 7
0.62695301 22.249023 -10.660156 7
0.62707502 22.220703 -10.712524 7
0.63354498 22.099609 -10.713623 7
0.63543701 22.044922 -10.751587 7
0.63873303 21.969727 -10.777588 7
0.64202899 21.894531 -10.803467 7
0.643188 21.849609 -10.846191 7
0.55779999 21.751953 -13.674072 7
0.55889899 21.702148 -13.715088 7
0.56182897 21.62793 -13.739136 7
0.56182897 21.59082 -13.790161 7
0.561584 21.55957 -13.84436 7
0.56231701 21.512695 -13.888428 7
0.55560303 21.567383 -14.004028 7
-0.621216 2.4404299 -42.78772 7
-0.164185 -7.360352 32.681152 7
0.57501203 21.118164 -10.819458 7
0.579651 21.027344 -10.833496 7
0.58282501 20.958984 -10.859131 7
0.58868402 20.854492 -10.863525 7
0.59063703 20.799805 -10.897461 7
0.499329 20.5625 -13.791748 7
0.50134301 20.501953 -13.822754 7
0.50366199 20.4375 -13.849731 7
0.50671399 20.364258 -13.869751 7
0.50872803 20.304688 -13.899902 7
0.506042 20.299805 -13.972534 7
-0.63861102 6.0683589 -39.932373 7
0.00091599999 -3.717773 28.984131 7
-0.0050659999 -3.664062 29.068115 7
0.43792701 19.150391 -13.760376 7
0.43670699 19.128906 -13.81665 7
0.43798801 19.078125 -13.850464 7
0.44049099 19.014648 -13.873291 7
0.440918 18.972656 -13.914307 7
0.440918 18.935547 -13.958984 7
0.44512901 18.854492 -13.966187 7
0.44390899 18.831055 -14.021851 7
0.443481 18.798828 -14.069946 7
-0.61206102 6.0019531 -36.377686 7
-0.605591 5.8964839 -36.299316 7
-0.626221 5.8496089 -36.590088 7
-0.63116503 5.7695308 -36.667114 7
-0.77935803 -1.575195 -36.313599 7
0.47045901 18.648438 -10.899414 7
0.46960399 18.628906 -10.949829 7
0.47460899 18.546875 -10.957764 7
0.47821 18.478516 -10.975098 7
0.481812 18.40918 -10.992188 7
0.48230001 18.374023 -11.032227 7
0.48675501 18.295898 -11.042358 7
0.48681599 18.266602 -11.085327 7
0.48822001 18.222656 -11.118164 7
0.48644999 18.210938 -11.174561 7
0.384399 17.621094 -14.08728 7
-0.60974097 1.695312 -34.12439 7
-0.62792999 1.62207 -34.36145 7
-0.60974097 1.527344 -34.137695 7
-0.151978 -6.9658198 26.45874 7
-0.14880399 -6.8964839 26.441528 7
-0.157654 -6.8642578 26.553711 7
-0.0057979999 -3.6044919 25.54187 7
0.42523199 17.263672 -10.949341 7
0.42388901 17.249023 -11.000122 7
0.42486599 17.209961 -11.033936 7
0.42486599 17.179688 -11.074341 7
0.424438 17.154297 -11.118286 7
0.42925999 17.078125 -11.123657 7
0.43261701 17.013672 -11.139404 7
0.43511999 16.960938 -11.161743 7
0.43609601 16.920898 -11.194702 7
0.32342499 16.24707 -14.085938 7
0.32342499 16.209961 -14.124146 7
0.320007 16.201172 -14.190796 7
0.32098401 16.15625 -14.220825 7
0.32098401 16.118164 -14.258667 7
0.320007 16.088867 -14.30481 7
0.319031 16.060547 -14.35083 7
-0.160034 -6.7744141 24.905518 7
-0.023925999 -3.515625 24.198853 7
-0.016052 -3.449219 24.126587 7
-0.021545 -3.4042971 24.192505 7
-0.031005999 -3.3652339 24.298828 7
-0.015930001 -3.2880859 24.151123 7
0.381897 15.850586 -11.225708 7
0.388062 15.764648 -11.21875 7
0.38861099 15.730469 -11.252075 7
0.38916001 15.695312 -11.285522 7
0.25946 14.970703 -14.131226 7
0.25787401 14.945312 -14.179321 7
0.25891101 14.899414 -14.205933 7
0.25933799 14.857422 -14.236694 7
0.25933799 14.820312 -14.271606 7
0.25885001 14.786133 -14.310669 7
0.255676 14.772461 -14.371094 7
0.25775099 14.71875 -14.388794 7
-1.926392 -38.431641 -15.856934 7
-1.944275 -38.637695 -15.839355 7
-1.968994 -38.907227 -15.848633 7
-0.015442 -3.3349609 22.711792 7
-0.015442 -3.285156 22.719849 7
0.33508301 14.733398 -11.21521 7
0.33453399 14.707031 -11.253784 7
0.33728001 14.654297 -11.269043 7
0.34173599 14.587891 -11.272705 7
0.34393299 14.541016 -11.291504 7
0.34503201 14.501953 -11.317871 7
0.34777799 14.449219 -11.332642 7
0.34832799 14.414062 -11.362671 7
0.34893799 14.378906 -11.392578 7
0.348389 14.353516 -11.430298 7
0.34667999 14.334961 -11.475586 7
0.34674099 14.303711 -11.509521 7
0.207031 13.431641 -14.301636 7
0.20648199 13.397461 -14.337769 7
0.208069 13.348633 -14.355713 7
0.20800801 13.311523 -14.387207 7
-0.0076290001 12.6875 -17.630615 7
-0.010498 12.658203 -17.684692 7
-0.017212 12.650391 -17.773193 7
-0.019531 12.617188 -17.822266 7
-1.719421 -33.613281 -15.562744 7
-1.72937 -33.737305 -15.524658 7
-1.751343 -33.963867 -15.537842 7
-1.769714 -34.161133 -15.534424 7
-1.781433 -34.299805 -15.502197 7
-1.79071 -34.416992 -15.458984 7
-1.806091 -34.587891 -15.440796 7
0.28131101 13.757812 -11.302979 7
0.28070101 13.701172 -11.371704 7
0.27984601 13.649414 -11.383179 7
0.28454599 13.585938 -11.383179 7
0.28570601 13.545898 -11.40686 7
0.288086 13.499023 -11.422485 7
0.28863499 13.463867 -11.450195 7
0.290344 13.388672 -11.501465 7
0.14605699 12.216797 -14.400391 7
0.148376 12.165039 -14.410522 7
0.149536 12.121094 -14.429688 7
0.150024 12.079102 -14.453613 7
0.147644 12.054688 -14.500732 7
0.146423 12.023438 -14.538208 7
0.149902 11.963867 -14.53833 7
0.144531 11.958008 -14.608643 7
0.139771 11.946289 -14.674438 7
-1.516113 -27.620117 -17.882568 7
-1.522034 -27.708008 -17.846802 7
-1.510071 -29.177734 -15.110229 7
-1.538635 -29.441406 -15.166016 7
-1.55304 -29.629883 -15.088013 7
-1.5687259 -29.791016 -15.084961 7
-1.5849611 -29.958008 -15.083984 7
-0.034058001 -3.1630859 20.444214 7
-0.02533 -3.1064451 20.377319 7
-0.031311002 -3.0693359 20.436401 7
-0.042663999 -3.0410161 20.541382 7
-0.030579001 -2.9785161 20.445312 7
-0.028503001 -2.9306641 20.435059 7
-0.035889 -2.8964839 20.505615 7
0.241455 12.429688 -11.467041 7
0.24585 12.371094 -11.466675 7
0.243958 12.351562 -11.508423 7
0.24768101 12.297852 -11.511963 7
0.24890099 12.257812 -11.532349 7
0.24957301 12.222656 -11.556763 7
0.25018299 12.1875 -11.581177 7
0.24823 12.166992 -11.622681 7
-1.350342 -23.74707 -17.557861 7
-1.355896 -23.827148 -17.530273 7
-1.354614 -23.863281 -17.466431 7
-1.391602 -26.010742 -14.8302 7
-1.4005131 -26.112305 -14.808105 7
-1.4109499 -26.225586 -14.791748 7
-1.415161 -26.293945 -14.747559 7
-1.428223 -26.426758 -14.742554 7
-1.436584 -26.523438 -14.715942 7
-0.049377002 -2.9755859 19.561401 7
-0.046448 -2.8857419 19.552612 7
0.186829 11.489258 -11.539062 7
0.19274899 11.422852 -11.526489 7
0.188721 11.416016 -11.579834 7
0.195374 11.345703 -11.5625 7
0.197327 11.304688 -11.575928 7
0.189392 11.318359 -11.655396 7
0.201294 11.219727 -11.602173 7
0.19189499 11.208984 -11.717041 7
-1.2830811 -18.050781 -20.30188 7
-1.281006 -18.089844 -20.245605 7
-1.2874759 -18.174805 -20.242432 7
-1.294739 -18.263672 -20.24353 7
-1.302673 -18.355469 -20.248657 7
-1.3128051 -18.510742 -20.2229 7
-1.317871 -18.587891 -20.209595 7
-1.325806 -18.679688 -20.213623 7
-1.336609 -18.788086 -20.234863 7
-1.343079 -18.874023 -20.22937 7
-1.355347 -18.990234 -20.258789 7
-1.3646851 -19.089844 -20.27002 7
-1.368286 -19.15918 -20.246338 7
-1.36261 -19.179688 -20.166138 7
-1.157776 -19.880859 -17.107666 7
-1.170715 -20 -17.131226 7
-1.180847 -20.103516 -17.13855 7
-1.149597 -21.786133 -14.615112 7
-1.148682 -21.800781 -14.546753 7
-1.160278 -21.912109 -14.549438 7
-1.167603 -21.99707 -14.53125 7
-1.172729 -22.067383 -14.502563 7
-1.187256 -22.200195 -14.517578 7
-1.19458 -22.28418 -14.498413 7
-1.206177 -22.397461 -14.499146 7
-1.212769 -22.477539 -14.475952 7
-1.22229 -22.577148 -14.465576 7
-1.2310179 -22.671875 -14.452026 7
-1.238342 -22.755859 -14.431152 7
-1.251404 -22.878906 -14.436401 7
-1.263062 -22.993164 -14.434448 7
-1.495544 -26.685547 -11.617676 7
-0.17456099 -6.3544922 18.607666 7
-0.1604 -6.2753911 18.519531 7
-0.152954 -6.2158198 18.479736 7
-0.158875 -6.1904302 18.53833 7
-0.16864 -6.1757808 18.624023 7
-0.173096 -6.1464839 18.671753 7
-0.16937301 -6.0957031 18.659058 7
-0.047485001 -2.8486331 18.542969 7
-0.040709998 -2.7998049 18.498169 7
-0.045898002 -2.765625 18.545166 7
-0.98333699 -16.050781 -16.930542 7
-0.98107898 -16.082031 -16.879395 7
-0.97961402 -16.117188 -16.832275 7
-0.98425299 -16.183594 -16.820068 7
-0.99261498 -16.268555 -16.828979 7
-0.99566698 -16.327148 -16.807617 7
-1.004822 -16.416016 -16.820068 7
-1.010986 -16.490234 -16.81543 7
-1.010986 -16.533203 -16.776123 7
-1.0103149 -16.571289 -16.732666 7
-1.009583 -16.610352 -16.688843 7
-1.015137 -18.806641 -14.380005 7
-1.01825 -18.861328 -14.35022 7
-1.029724 -18.96582 -14.360596 7
-1.031372 -19.011719 -14.32312 7
-1.034485 -19.066406 -14.292358 7
-1.045959 -19.170898 -14.302002 7
-1.050598 -19.235352 -14.27832 7
-1.0567631 -19.306641 -14.261719 7
-1.059875 -19.362305 -14.230347 7
-1.065308 -19.430664 -14.209717 7
-1.0706789 -19.5 -14.188599 7
-1.3521121 -23.759766 -11.409058 7
-1.366028 -23.882812 -11.401733 7
-1.374512 -23.96875 -11.374756 7
-0.179199 -6.375 17.593994 7
-0.163513 -6.21875 17.53125 7
-0.152466 -6.1513672 17.470215 7
-0.150879 -6.109375 17.474121 7
-0.15875199 -6.0917969 17.542847 7
-0.033507999 -2.871094 17.498657 7
-0.039733998 -2.765625 17.565063 7
-0.035767 -2.7216799 17.543213 7
-0.036559999 -2.6855471 17.55542 7
-0.041198999 -2.6513669 17.596191 7
-0.79577601 -12.182617 -16.556519 7
-0.79907203 -12.238281 -16.546631 7
-0.80224597 -12.292969 -16.536377 7
-0.80468798 -12.345703 -16.521484 7
-0.80712903 -12.44043 -16.476807 7
-0.81274402 -12.505859 -16.480225 7
-0.81677198 -12.564453 -16.474243 7
-0.81756598 -12.609375 -16.448853 7
-0.82476801 -12.681641 -16.461426 7
-0.82800299 -12.737305 -16.449951 7
-0.83203101 -12.795898 -16.443237 7
-0.83532703 -12.893555 -16.400635 7
-0.84008801 -12.954102 -16.398071 7
-0.84893799 -13.03418 -16.418457 7
-0.85534698 -13.103516 -16.424683 7
-0.85461402 -13.141602 -16.388794 7
-0.85943598 -13.205078 -16.385376 7
-0.86505097 -13.270508 -16.386353 7
-0.87310803 -13.389648 -16.369141 7
-0.847839 -15.673828 -14.070435 7
-0.85430902 -15.743164 -14.06543 7
-0.86071801 -15.8125 -14.060303 7
-0.86724901 -15.882812 -14.05481 7
-0.87127697 -15.939453 -14.037109 7
-0.87133801 -15.975586 -13.999146 7
-0.87701398 -16.040039 -13.989136 7
-0.88269001 -16.105469 -13.97876 7
-0.887573 -16.166992 -13.964478 7
-0.89483601 -16.241211 -13.96167 7
-0.89654499 -16.287109 -13.930908 7
-0.90539598 -16.368164 -13.935547 7
-0.90545702 -16.405273 -13.896851 7
-0.91674799 -16.5 -13.912476 7
-0.92486602 -16.579102 -13.912476 7
-0.924133 -16.610352 -13.869263 7
-1.207886 -21.020508 -11.192993 7
-1.216064 -21.099609 -11.172607 7
-1.22583 -21.188477 -11.157593 7
-1.23645 -21.283203 -11.145386 7
-1.245422 -21.369141 -11.126709 7
-1.247192 -21.408203 -11.081909 7
-0.028441999 -2.8535161 16.579102 7
-0.022583 -2.8095701 16.545898 7
-0.027527001 -2.780273 16.587158 7
-0.02832 -2.746094 16.599487 7
-0.034118999 -2.7167971 16.646118 7
-0.027465999 -2.672852 16.606934 7
-0.025818 -2.6357419 16.602051 7
-0.028259 -2.6025391 16.625488 7
-0.029053001 -2.5673831 16.637573 7
-1.1110229 -18.918945 -11.003296 7
-1.1162111 -18.976562 -10.977173 7
-1.123962 -19.049805 -10.960449 7
-1.12915 -19.108398 -10.933838 7
-1.1368411 -19.180664 -10.916382 7
-0.028748 -2.8525391 15.817627 7
-0.032226998 -2.8232419 15.847168 7
-0.032226998 -2.789062 15.854004 7
-0.021729 -2.742188 15.79248 7
-0.028687 -2.7167971 15.844604 7
-0.028625 -2.6826169 15.851318 7
-0.037354 -2.6591799 15.914551 7
-0.032042999 -2.6191411 15.886963 7
-0.024231 -2.5751951 15.841797 7
-1.018005 -16.993164 -10.814819 7
-1.034058 -17.107422 -10.834717 7
-1.04303 -17.182617 -10.827271 7
-1.0502321 -17.249023 -10.81311 7
-0.020812999 -2.5419919 13.796021 7
-0.020752 -2.5126951 13.802246 7
-0.02478 -2.488281 13.830811 7
-0.02478 -2.4589839 13.837036 7
-0.0177 -2.421875 13.803467 7
-0.021667 -2.367188 13.837891 7
-0.02771 -2.3154299 13.883057 7
-0.027649 -2.2861331 13.888794 7
-0.027649 -2.2558589 13.894287 7
-0.024352999 -2.5488279 13.25415 7
-0.031738002 -2.5283201 13.299927 7
-0.029602 -2.4980471 13.294556 7
-0.032715 -2.472656 13.317871 7
-0.036926001 -2.4501951 13.346313 7
-0.032715 -2.4169919 13.329712 7
-0.028441999 -2.3837891 13.312866 7
-0.031615999 -2.360352 13.335571 7
-0.031615999 -2.332031 13.341431 7
-0.032653999 -2.304688 13.352661 7
-0.036804002 -2.28125 13.380981 7
-0.039978001 -2.2548831 13.403442 7
-0.026245 -2.535156 12.679199 7
-0.024048001 -2.5058589 12.674194 7
-0.019653 -2.4746089 12.657715 7
-0.026245 -2.4550779 12.69751 7
-0.021850999 -2.4238279 12.68103 7
-0.025085 -2.4003911 12.703857 7
-0.027283 -2.375977 12.720825 7
-0.027283 -2.3496089 12.726562 7
-0.02063 -2.3154299 12.698486 7
-0.025085 -2.2939451 12.726685 7
-0.025024001 -2.266602 12.732178 7
-0.02832 -2.2441411 12.754639 7
-0.175659 -5.7587891 11.698364 7
-0.167603 -5.7148442 11.677124 7
-0.15734901 -5.6650391 11.64563 7
-0.15734901 -5.641602 11.65918 7
-0.15856899 -5.6201172 11.677612 7
-0.15741 -5.592773 11.685913 7
-0.169495 -5.5732422 11.768555 7
-0.162598 -5.532227 11.751587 7
-0.155701 -5.4912109 11.734375 7
-0.15460201 -5.4648442 11.74231 7
-0.155762 -5.4423828 11.76062 7
-0.034545999 -2.5400391 12.221191 7
-0.028809 -2.5087891 12.199463 7
-0.028809 -2.4824221 12.205566 7
-0.027588001 -2.4550779 12.205933 7
-0.023010001 -2.425781 12.189575 7
-0.021850999 -2.3994141 12.189819 7
-0.025269 -2.3769529 12.212402 7
-0.026427999 -2.3525391 12.223755 7
-0.036743 -2.3388669 12.280151 7
-0.030944999 -2.3066411 12.25769 7
-0.027527001 -2.277344 12.24646 7
-0.022887999 -2.2470701 12.22937 7
-0.18481401 -5.7460942 11.178589 7
-0.181274 -5.7138672 11.177612 7
-0.166931 -5.657227 11.131714 7
-0.164612 -5.6289058 11.135376 7
-0.15978999 -5.59375 11.129028 7
-0.161011 -5.5732422 11.147339 7
-0.167053 -5.563477 11.185547 7
-0.168274 -5.5439448 11.203979 7
-0.179077 -5.546875 11.262085 7
-0.181519 -5.5292969 11.285522 7
-0.174316 -5.4882808 11.268555 7
-0.17077599 -5.4570308 11.266846 7
-0.177551 -5.7148442 10.618408 7
-0.17382801 -5.6835942 10.617554 7
-0.161377 -5.6308589 10.58252 7
-0.15893599 -5.5810552 10.599365 7
-0.155212 -5.5517578 10.598145 7
-0.156555 -5.532227 10.616577 7
-0.159058 -5.4941411 10.652588 7
-0.17157 -5.5019531 10.714966 7
-0.167908 -5.4716802 10.713623 7
-0.01123 -2.234375 10.009277 7
-0.01123 -2.2138669 10.014771 7
-0.014038 -2.1962891 10.031128 7
-0.016845999 -2.1787109 10.047485 7
-0.022461001 -2.164062 10.074829 7
-0.023864999 -2.1455081 10.085693 7
-0.016845999 -2.1181641 10.063232 7
-0.01825 -2.0986331 10.073975 7
-0.014038 -2.074219 10.062378 7
-0.015381 -2.054688 10.07312 7
-0.019653 -2.0400391 10.094727 7
-0.019653 -2.0185549 10.099731 7
-0.023864999 -2.0019529 10.121338 7
-0.025269 -1.982422 10.131592 7
-0.019653 -1.957031 10.11438 7
-0.025269 -1.941406 10.141357 7
-0.010376 -2.2294919 9.6654053 7
-0.013245 -2.2119141 9.6817627 7
-0.014709 -2.1943359 9.692749 7
-0.01178 -2.171875 9.6870117 7
-0.014709 -2.155273 9.7033691 7
-0.019043 -2.139648 9.7249756 7
-0.016113 -2.117188 9.7193604 7
-0.017578 -2.0996089 9.7301025 7
-0.019043 -2.0810549 9.7407227 7
-0.016113 -2.058594 9.7347412 7
-0.017517 -2.0400391 9.7453613 7
-0.014648 -2.0175779 9.7392578 7
-0.018982001 -2.0019529 9.7607422 7
-0.018982001 -1.982422 9.7655029 7
-0.02478 -1.967773 9.7924805 7
-0.020447001 -1.9443361 9.7806396 7
-0.020447001 -1.924805 9.7854004 7
-0.019835999 -2.2255859 9.3548584 7
-0.024352999 -2.2099609 9.376709 7
-0.027404999 -2.1943359 9.3930664 7
-0.021361999 -2.1699221 9.3764648 7
-0.021300999 -2.1503911 9.3817139 7
-0.019835999 -2.1308589 9.3814697 7
-0.027404999 -2.1201169 9.4141846 7
-0.034972999 -2.108398 9.4466553 7
-0.025878999 -2.0810549 9.4189453 7
-0.033447001 -2.0693359 9.451416 7
-0.025878999 -2.042969 9.4290771 7
-0.019835999 -2.0185549 9.4121094 7
-0.022826999 -2.0019529 9.4279795 7
-0.018310999 -1.9794919 9.4163818 7
-0.02887 -1.969727 9.4598389 7
-0.021300999 -1.9443361 9.4371338 7
-0.031860001 -1.93457 9.4805908 7
-0.016907001 -2.2363279 9.0445557 7
-0.020020001 -2.2216799 9.0609131 7
-0.010681 -2.1943359 9.0336914 7
-0.016907001 -2.164062 9.06604 7
-0.016907001 -2.1279299 9.0765381 7
-0.016845999 -2.0917971 9.0870361 7
-0.020020001 -2.077148 9.1031494 7
-0.020020001 -2.058594 9.1080322 7
-0.016907001 -2.019531 9.1070557 7
-0.016845999 -1.984375 9.1170654 7
-0.018371999 -1.9482419 9.1320801 7
-0.013733 -1.9267581 9.1203613 7
-0.018005 -2.2363279 8.723999 7
-0.011475 -2.2128911 8.7078857 7
-0.014709 -2.1982419 8.7241211 7
-0.014771 -2.1816411 8.7294922 7
-0.0065919999 -2.157227 8.7078857 7
-0.011475 -2.1435549 8.729248 7
-0.011475 -2.125977 8.7344971 7
-0.011475 -2.109375 8.7397461 7
-0.0098270001 -2.089844 8.7393799 7
-0.0082400003 -2.0712891 8.7392578 7
-0.014709 -2.0605471 8.7657471 7
-0.014709 -2.042969 8.770874 7
-0.014709 -2.0253911 8.7757568 7
-0.014709 -2.007812 8.7808838 7
-0.0081789996 -1.984375 8.763916 7
-0.011414 -1.969727 8.7797852 7
-0.013062 -1.954102 8.789917 7
-0.013062 -1.936523 8.7947998 7
-0.015076 -2.2294919 8.4072266 7
-0.021850999 -2.204102 8.4393311 7
-0.023499001 -2.188477 8.4503174 7
-0.021850999 -2.170898 8.4501953 7
-0.0066530001 -2.1386721 8.4072266 7
-0.0083619999 -2.108398 8.4229736 7
-0.010071 -2.09375 8.4335938 7
-0.0050050002 -2.0556641 8.4273682 7
-0.013428 -2.046875 8.4595947 7
-0.016785 -2.032227 8.4754639 7
-0.015076 -2.0136721 8.4748545 7
-0.011719 -1.9775389 8.473999 7
-0.011719 -1.960938 8.4788818 7
-0.011719 -1.927734 8.4880371 7
-0.435974 -8.3632812 -0.30346701 7
-0.441223 -8.3837891 -0.28649899 7
-0.434387 -8.3652344 -0.26232901 7
-0.43103001 -8.3583984 -0.240234 7
-0.439697 -8.3896484 -0.225464 7
-0.44146699 -8.3984385 -0.206177 7
-0.44494599 -8.4121094 -0.188232 7
-0.445068 -8.4160156 -0.168091 7
-0.44165 -8.4082031 -0.146118 7
-0.450317 -8.4394531 -0.13073701 7
-0.44696 -8.4316406 -0.108765 7
-0.45050001 -8.4472656 -0.090576001 7
-0.455688 -8.4667969 -0.073119998 7
-0.45745799 -8.4755859 -0.053711001 7
-0.45416301 -8.4677734 -0.031738002 7
-0.45416301 -8.4707031 -0.011475 7
-0.020691 -2.2324221 8.1409912 7
-0.015503 -2.2119141 8.1304932 7
-0.013794 -2.1943359 8.1306152 7
-0.015503 -2.179688 8.1413574 7
-0.012024 -2.160156 8.1358643 7
-0.013794 -2.1474609 8.1464844 7
-0.013733 -2.1308589 8.1518555 7
-0.0085450001 -2.109375 8.1409912 7
-0.0068359999 -2.092773 8.1408691 7
-0.003357 -2.0722661 8.1352539 7
-0.0085450001 -2.0625 8.1563721 7
-0.0068359999 -2.0449221 8.1561279 7
-0.0068359999 -2.0292971 8.1611328 7
-0.0067750001 -2.0126951 8.1660156 7
-0.012024 -2.0019529 8.1871338 7
-0.012024 -1.986328 8.1920166 7
-0.015503 -1.972656 8.2075195 7
-0.015503 -1.957031 8.2124023 7
-0.010254 -1.936523 8.2010498 7
-0.016113 -1.917969 7.962769 7
-0.014282 -1.9013669 7.9621582 7
-0.021484001 -1.892578 7.9880371 7
-0.021484001 -1.87793 7.9927979 7
-0.017883001 -1.858398 7.9866939 7
-0.017883001 -1.828125 7.995605 7
-0.012451 -1.7607419 7.997314 7
-0.20918401 -6.151453 18.483957 7
-0.013769 -2.402864 14.07295 7
0.0020290001 -2.3914831 12.459545 7
-0.203226 -5.5353899 11.275211 7
-0.039744999 -2.2959559 11.005909 7
-0.016685 -2.0101399 10.141855 7
0.0053770002 -2.0021989 9.3624659 7
-0.040465999 -2.2173879 8.711998 7
-0.038463999 -2.012831 8.7822714 7
-0.025924999 -2.199249 8.2168493 7
-0.01839 -1.999615 8.255619 7
3.3e-05 -1.819648 7.8784699 7
0.0048199999 -2.134913 7.3888102 7
0.011524 -1.971746 7.4376988 7
0.0082719997 -1.8353471 7.52986 7
0.0030439999 -1.699723 7.627059 7
-0.015076 -1.822221 7.1815419 7
-0.024189999 -1.71013 7.293036 7
0.069564 -0.31905699 4.048255 7
0.070638001 -0.31876099 4.0650001 7
0.074327998 -0.30671901 4.0972681 7
0.059324 -0.31130099 4.1175981 7
0.065040998 -0.30514601 4.133235 7
0.065375 -0.29989299 4.152205 7
0.079415999 -0.27795899 3.9778099 7
0.086193003 -0.27884901 3.993372 7
0.084715001 -0.27515599 4.0094328 7
0.075501002 -0.28176701 4.023232 7
0.078985997 -0.274097 4.0389271 7
0.069475003 -0.27929699 4.055994 7
0.078170002 -0.26764899 4.0704269 7
0.078952 -0.26650801 4.0844188 7
0.068902001 -0.268944 4.101634 7
0.085437 -0.25939801 4.1144438 7
0.067016996 -0.255954 4.130527 7
0.078048997 -0.247557 4.142519 7
0.078147002 -0.241997 4.1578889 7
-0.061567999 -3.0499949 18.791859 7
-0.0065870001 -2.6776741 15.955488 7
-0.073729999 -2.405406 13.898745 7
-0.038853999 -2.087513 9.8635998 7
-0.011319 -2.2339351 9.1815472 7
-0.0065540001 -1.984561 9.2308674 7
0.007733 -2.1361921 8.707737 7
-0.024373 -2.0437829 8.2648468 7
-0.0091840001 -1.780454 7.9850578 7
0.0024860001 -2.0944009 7.5819268 7
0.003144 -1.914505 7.6379371 7
-0.001071 -1.735435 7.7091541 7
0.015022 -1.860521 7.376112 7
0.015396 -1.68885 7.422606 7
-0.00605 -1.801674 7.0941329 7
-0.019017 -1.649843 7.1889038 7
0.17679501 13.351056 -11.396051 7
