# .PCD v0.7 - Point Cloud Data file format
VERSION 0.7
FIELDS x y z intensity
SIZE 4 4 4 4
TYPE F F F F
COUNT 1 1 1 1
WIDTH 1353
HEIGHT 1
VIEWPOINT 0 0 0 1 0 0 0
POINTS 1353
DATA ascii
0.232887 -1.499634 -72.933594 7
0.162926 -1.5456541 -67.166992 7
0.14114401 5.1651611 -67.5 7
0.119659 5.0537109 -68.230469 7
0.084274001 -1.581787 -62.111328 7
0.121376 -1.701416 -60.978516 7
0.170883 -1.80481 -59.47168 7
0.195099 4.9125981 -58.401367 7
0.117241 4.9569092 -60.75293 7
0.031585999 5.0081792 -63.336914 7
0.019805999 -1.8701169 -57.015625 7
0.081786998 -1.950806 -55.331055 7
0.128151 -2.039185 -54.068359 7
0.17499501 -2.1208501 -52.795898 7
0.116035 -2.315063 -54.375977 7
0.216911 5.0896001 -51.330078 7
0.173103 5.0776372 -52.546875 7
0.148224 5.010376 -53.222656 7
0.188171 4.7845459 -52.15625 7
0.15676901 4.7303472 -53.007812 7
0.090003997 4.7520752 -54.807617 7
0.17684899 1.348755 -52.526367 7
0.058037002 -2.0335691 -50.578125 7
0.092758 -2.1212161 -49.71875 7
0.122696 -2.210083 -48.976562 7
0.067978002 -2.391113 -50.303711 7
-0.80345201 -3.3127439 66.561523 7
-0.797867 -3.1525879 66.452148 7
-0.74168402 -2.942261 65.239258 7
-0.71765101 -0.373413 64.833008 7
0.151237 4.8875728 -48.001953 7
0.108734 4.8696289 -49.042969 7
0.183449 4.5783691 -47.231445 7
0.13808399 4.5638428 -48.34375 7
0.103722 4.52002 -49.1875 7
0.016472001 -2.0939939 -46.331055 7
0.068047002 -2.2650149 -45.175781 7
0.120201 -2.3309331 -44.313477 7
0.044815 -2.5280759 -45.972656 7
0.116684 -2.5515139 -44.37207 7
-0.697411 -0.33203101 59.110352 7
-0.63182098 -0.190796 57.802734 7
-0.63161498 -0.057128999 57.802734 7
0.148109 4.7570801 -43.415039 7
0.110779 4.7355962 -44.246094 7
0.078445002 4.698853 -44.966797 7
0.13951901 4.4555659 -43.62793 7
0.114319 4.401855 -44.191406 7
0.060867 4.4040532 -45.378906 7
-0.002533 -2.277344 -43.270508 7
0.035613999 -2.3414309 -42.481445 7
0.069756001 -2.4063721 -41.775391 7
-0.000481 -2.5917971 -43.200195 7
0.063118003 -2.6186521 -41.891602 7
0.082405001 -2.6964109 -41.488281 7
-0.60430902 -0.181885 53.290039 7
-0.63398701 -0.05957 53.845703 7
0.114479 4.7625728 -40.604492 7
0.085762002 4.7271729 -41.195312 7
0.048774999 4.7072749 -41.957031 7
0.117523 4.455688 -40.567383 7
0.082230002 4.4301758 -41.291992 7
0.052101001 4.390625 -41.914062 7
0.19156601 1.016968 -39.445312 7
0.001671 -2.6499021 -39.219727 7
0.0090330001 -2.7366941 -39.074219 7
0.033638 -2.800415 -38.606445 7
-0.55969203 -2.9345701 48.202148 7
-0.57630903 -2.8408201 48.496094 7
-0.49815401 -0.046021 47.313477 7
-0.49269101 0.171387 47.224609 7
0.076324001 4.7937012 -37.566406 7
0.056793001 4.744751 -37.936523 7
0.036628999 4.69519 -38.319336 7
0.0051270002 4.6697998 -38.927734 7
0.044167001 4.4918208 -38.212891 7
0.127609 0.956909 -36.80957 7
0.124657 0.86718798 -36.864258 7
0.15311401 0.76574701 -36.334961 7
0.177452 0.66784698 -35.879883 7
0.178444 0.49047899 -35.859375 7
-0.020973001 -2.917969 -36.430664 7
-0.00038099999 -2.9793701 -36.068359 7
0.016106 -3.044678 -35.775391 7
0.033645999 -3.107178 -35.466797 7
-0.472267 -2.837769 43.469727 7
-0.511536 -2.778564 44.101562 7
-0.527969 -2.69397 44.371094 7
-0.46833 0.052733999 43.556641 7
-0.44207001 0.151123 43.141602 7
-0.45993 0.251831 43.427734 7
0.041579999 4.8465581 -35.120117 7
0.02417 4.7982178 -35.426758 7
0.0081179999 4.745605 -35.710938 7
-0.023193 4.7242432 -36.255859 7
-0.039588999 4.6688228 -36.544922 7
0.121147 1.222412 -33.967773 7
0.110695 1.059692 -34.148438 7
0.115067 0.55139202 -34.073242 7
0.147919 0.45983899 -33.505859 7
0.132126 0.378418 -33.995117 7
0.147644 -0.034545999 -30.594727 7
-0.04174 -3.113647 -33.564453 7
-0.032616001 -3.183228 -33.411133 7
-0.014977 -3.2393799 -33.125 7
-0.0076899999 -3.309937 -33.000977 7
-0.472343 -2.526001 40.226562 7
-0.39940599 0.232178 39.298828 7
-0.39754501 0.41149899 39.274414 7
0.036483999 5.010376 -32.070312 7
0.036385 4.9310298 -32.082031 7
0.018448001 4.8111572 -32.383789 7
-0.0064539998 4.7851558 -32.782227 7
-0.030235 4.7547612 -33.163086 7
-0.051787999 4.717896 -33.511719 7
0.111862 1.358398 -31.163086 7
0.135094 1.266479 -30.798828 7
0.13573501 0.194702 -30.786133 7
0.104843 0.119873 -31.271484 7
0.122894 0.041870002 -30.985352 7
0.120201 -0.179077 -29.071289 7
-0.073501997 -3.184937 -31.704102 7
-0.070877001 -3.2593989 -31.655273 7
-0.055130001 -3.314209 -31.416016 7
-0.040977001 -3.3703611 -31.199219 7
-0.054618999 -3.4685061 -31.387695 7
-0.36093101 0.459351 36.436523 7
-0.35741401 0.54162598 36.388672 7
-0.353035 0.62353498 36.328125 7
0.052406002 4.9415278 -29.589844 7
0.037140001 4.9039311 -29.831055 7
0.023987001 4.8592529 -30.032227 7
-0.001022 4.8397222 -30.407227 7
-0.02565 4.817627 -30.77832 7
-0.054244999 4.8022461 -31.204102 7
0.13681801 1.539673 -28.641602 7
0.113708 1.484985 -28.983398 7
0.121941 1.407104 -28.863281 7
0.117882 1.337646 -28.925781 7
0.090011999 1.282593 -29.336914 7
0.085525997 0.184937 -29.592773 7
0.125282 0.037230998 -29.00293 7
0.088333003 -0.097900003 -27.056641 7
0.090178996 -0.300659 -27.027344 7
0.105934 -0.36523399 -26.808594 7
0.11657 -0.43017599 -26.663086 7
-0.079308003 -3.316895 -29.265625 7
-0.094008997 -3.411499 -29.456055 7
-0.081276 -3.464844 -29.273438 7
-0.057098001 -3.5712891 -28.926758 7
-0.35575101 0.584961 33.918945 7
-0.34377301 0.658813 33.765625 7
-0.34228501 0.735107 33.74707 7
0.041328002 5.006958 -27.352539 7
0.045531999 4.928833 -27.306641 7
0.025345 4.90625 -27.587891 7
0.014587 4.8612061 -27.745117 7
-0.002174 4.8287349 -27.981445 7
-0.026215 4.8111572 -28.314453 7
0.132866 1.626465 -26.438477 7
0.118217 1.571411 -26.639648 7
0.118553 1.504395 -26.637695 7
0.12616 1.432495 -26.536133 7
0.108955 1.377197 -26.773438 7
0.094299003 1.31958 -26.975586 7
0.097557001 -0.34484899 -25.199219 7
0.071792997 -0.41296399 -25.525391 7
0.090949997 -0.47241199 -25.279297 7
0.097626001 -0.596802 -25.188477 7
-0.110718 -3.550293 -27.567383 7
-0.100746 -3.6030271 -27.431641 7
-0.086173996 -3.6477051 -27.238281 7
-0.076180004 -3.6989751 -27.101562 7
-0.105263 -3.8148191 -27.458008 7
0.014725 5.0550542 -25.711914 7
0.015114 4.989624 -25.717773 7
0.0031359999 4.952148 -25.878906 7
-0.0096509997 4.9171138 -26.056641 7
-0.029410999 4.8953862 -26.31543 7
-0.049178999 4.872437 -26.573242 7
0.105484 1.538818 -24.928711 7
0.082291 1.430908 -25.392578 7
0.090744004 -0.32104501 -23.378906 7
0.073402002 -0.38293499 -23.582031 7
0.085135996 -0.43957499 -23.441406 7
0.098366 -0.495361 -23.282227 7
0.074593 -0.56005901 -23.560547 7
0.076964997 -0.61840802 -23.530273 7
-0.091797002 -3.584229 -25.232422 7
-0.098334998 -3.6577151 -25.298828 7
-0.091041997 -3.7088621 -25.203125 7
-0.077308998 -3.7487791 -25.033203 7
-0.073463 -3.8049321 -24.977539 7
0.0077510001 5.0689702 -23.783203 7
0.0062179998 5.0124512 -23.8125 7
-0.00073999999 4.9681401 -23.904297 7
-0.011162 4.9312739 -24.037109 7
-0.026512001 4.9046631 -24.225586 7
-0.048278999 4.8912349 -24.489258 7
-0.043907002 4.8200679 -24.449219 7
0.077049002 1.507568 -23.375 7
0.055854999 -0.527466 -22.114258 7
0.058655001 -0.74890101 -22.072266 7
0.067024 -0.80127001 -21.977539 7
0.070106998 -0.85534698 -21.94043 7
-0.0077209999 5.0482178 -22.219727 7
-0.017273 5.0135498 -22.334961 7
-0.024727 4.9737549 -22.425781 7
-0.034813002 4.9393311 -22.545898 7
-0.053328998 4.9230962 -22.758789 7
-0.064475998 4.889648 -22.889648 7
0.075240999 1.904663 -21.720703 7
0.087318003 1.838989 -21.591797 7
0.077721 1.79248 -21.700195 7
0.081336997 1.734497 -21.663086 7
0.088142 1.674194 -21.591797 7
0.071693003 1.63208 -21.776367 7
0.056892 -0.64892602 -20.576172 7
0.047768001 -0.703857 -20.666992 7
0.058410998 -0.75219703 -20.555664 7
0.067351997 -0.80090302 -20.459961 7
0.045249999 -0.86157203 -20.68457 7
0.047432002 -0.91284198 -20.660156 7
-0.122528 -3.894531 -22.055664 7
-0.102264 -3.915283 -21.84082 7
-0.099105999 -4.0194092 -21.786133 7
-0.095245004 -4.0671391 -21.737305 7
-0.014603 5.10498 -20.677734 7
-0.018593 5.061646 -20.729492 7
-0.023727 5.0203862 -20.791992 7
-0.033371001 4.9892578 -20.900391 7
-0.040192001 4.951416 -20.980469 7
-0.058304001 4.9378662 -21.172852 7
-0.066223003 4.9012451 -21.266602 7
0.070243999 1.888916 -20.263672 7
0.057190001 1.848755 -20.401367 7
0.079712003 1.777832 -20.173828 7
0.072310999 1.732422 -20.253906 7
0.062622003 1.688599 -20.356445 7
0.063698001 1.635986 -20.348633 7
0.042061001 -0.66296399 -19.395508 7
0.039581001 -0.71301299 -19.416992 7
0.031090001 -0.76538098 -19.49707 7
0.023810999 -0.817505 -19.564453 7
0.038741998 -0.86108398 -19.417969 7
0.049461 -0.90576202 -19.310547 7
0.031815 -1.061401 -19.472656 7
0.030540001 -1.111572 -19.481445 7
-0.126175 -3.874512 -20.642578 7
-0.1371 -3.94519 -20.737305 7
-0.137794 -3.998657 -20.733398 7
-0.130081 -4.0374761 -20.649414 7
-0.125954 -4.0822749 -20.600586 7
-0.117645 -4.1192632 -20.510742 7
-0.03334 5.0874019 -19.463867 7
-0.036369 5.0447998 -19.503906 7
-0.044806998 5.013916 -19.594727 7
-0.051460002 4.9785161 -19.668945 7
-0.059310999 4.9455571 -19.753906 7
-0.077331997 4.9345698 -19.936523 7
-0.082771003 4.8953862 -19.999023 7
-0.064254999 4.80481 -19.833984 7
0.049339 1.890991 -19.150391 7
0.057610001 1.786255 -19.077148 7
0.053932 1.740479 -19.116211 7
0.038208 -0.993164 -18.131836 7
0.027031001 -1.184082 -18.22168 7
-0.049102999 5.1367192 -18.236328 7
-0.05043 5.0930181 -18.259766 7
-0.054924 5.056396 -18.310547 7
-0.060729999 5.0220952 -18.373047 7
-0.069701999 4.9951172 -18.463867 7
-0.083786003 4.9786382 -18.599609 7
-0.083824001 4.9309082 -18.612305 7
-0.062187001 4.8366699 -18.431641 7
0.045944002 2.0072019 -17.891602 7
0.046532001 1.960815 -17.891602 7
0.044495001 1.870605 -17.916992 7
0.049538001 1.82019 -17.875977 7
0.046928 1.776489 -17.902344 7
0.01857 -0.99011201 -17.208984 7
0.011742 -1.037354 -17.263672 7
0.01152 -1.1700439 -17.255859 7
-0.163132 -4.0507808 -18.338867 7
-0.17000601 -4.109375 -18.385742 7
-0.16469599 -4.146606 -18.330078 7
-0.15055101 -4.1679692 -18.201172 7
-0.149956 -4.2131348 -18.185547 7
-0.14870501 -4.256958 -18.164062 7
0.031730998 1.777222 -16.946289 7
0.033645999 1.688354 -16.9375 7
0.011513 -0.97790498 -16.198242 7
0.013588 -1.018555 -16.178711 7
0.0085220002 -1.062744 -16.217773 7
-0.010201 -1.11377 -16.366211 7
0.00048799999 -1.150269 -16.276367 7
-0.000313 -1.1923831 -16.279297 7
0.0032200001 -1.2323 -16.24707 7
-0.167068 -4.1756592 -17.160156 7
-0.16068999 -4.2080078 -17.098633 7
-0.15645599 -4.2441411 -17.054688 7
-0.15941601 -4.2928472 -17.068359 7
-0.168144 -4.3525391 -17.125 7
-0.17468999 -4.4085689 -17.166016 7
-0.17838299 -4.4593511 -17.182617 7
0.032921001 1.880615 -15.863281 7
0.029991001 1.8419189 -15.891602 7
0.032097001 1.79895 -15.87793 7
0.034903999 1.755493 -15.859375 7
0.042725001 1.70813 -15.798828 7
0.036231998 1.672119 -15.855469 7
0.026146 1.63855 -15.941406 7
-0.0057299999 -0.97070301 -15.357422 7
0.0025480001 -1.00647 -15.291016 7
0.003235 -1.0456541 -15.283203 7
-0.0036619999 -1.088501 -15.332031 7
-0.021919001 -1.137573 -15.469727 7
-0.011368 -1.171753 -15.385742 7
-0.0091549996 -1.210205 -15.365234 7
-0.0084610004 -1.249512 -15.356445 7
-0.18446399 -4.1827388 -16.21582 7
-0.177727 -4.2121582 -16.155273 7
-0.177811 -4.2537842 -16.145508 7
-0.17387401 -4.289062 -16.107422 7
-0.185463 -4.3929439 -16.170898 7
-0.194664 -4.4516602 -16.227539 7
-0.05658 5.0405269 -14.958984 7
-0.063431002 5.0167241 -15.020508 7
-0.068007998 4.987793 -15.066406 7
-0.070312001 4.9534912 -15.094727 7
-0.078681998 4.932373 -15.166992 7
-0.096106999 4.9306641 -15.307617 7
-0.097672001 4.894043 -15.330078 7
-0.084076002 4.8251948 -15.242188 7
0.031799 1.58313 -14.932617 7
0.038573999 1.539551 -14.884766 7
0.044594001 1.496338 -14.841797 7
0.038474999 1.4619139 -14.891602 7
0.027802 1.430176 -14.975586 7
0.039886001 1.383423 -14.886719 7
0.044380002 1.341675 -14.854492 7
0.048873998 1.300293 -14.823242 7
-0.0057979999 -0.99169898 -14.427734 7
0.002968 -1.0250241 -14.361328 7
0.0084990002 -1.059692 -14.318359 7
0.012451 -1.094727 -14.287109 7
-0.010056 -1.143677 -14.445312 7
-0.014931 -1.1837161 -14.477539 7
-0.007797 -1.217285 -14.422852 7
-0.0062409998 -1.2537839 -14.408203 7
-0.19292399 -4.2020259 -15.244141 7
-0.184174 -4.225708 -15.171875 7
-0.18184701 -4.260376 -15.144531 7
-0.18031301 -4.2966309 -15.123047 7
-0.175583 -4.3270259 -15.080078 7
-0.183708 -4.3808589 -15.125 7
-0.193436 -4.4378662 -15.182617 7
0.024178 1.353394 -14.092773 7
0.043304 1.268188 -13.960938 7
0.049674999 1.227905 -13.916992 7
0.053612001 1.189209 -13.890625 7
0.044746 1.157715 -13.957031 7
0.032676999 1.127441 -14.045898 7
0.044661999 1.0843509 -13.962891 7
0.052634999 1.043945 -13.907227 7
0.058189001 1.004761 -13.869141 7
0.059746001 0.96777302 -13.860352 7
0.005959 -0.971802 -13.546875 7
-0.007584 -1.01355 -13.636719 7
0.0024870001 -1.044189 -13.56543 7
0.004929 -1.078369 -13.544922 7
0.0057140002 -1.113525 -13.536133 7
-0.0078349998 -1.155762 -13.625977 7
-0.017181 -1.196411 -13.686523 7
-0.0096439999 -1.227783 -13.631836 7
-0.010544 -1.263916 -13.634766 7
-0.192963 -4.1774902 -14.356445 7
-0.20067599 -4.2281489 -14.397461 7
-0.191467 -4.2489009 -14.324219 7
-0.18985 -4.2832031 -14.302734 7
-0.188232 -4.3171391 -14.28125 7
-0.19001 -4.3574219 -14.282227 7
-0.19432101 -4.4023442 -14.299805 7
-0.203705 -4.4569092 -14.351562 7
0.048836 0.92382801 -13.161133 7
0.049621999 0.888794 -13.157227 7
0.042831 0.85668898 -13.206055 7
0.041092001 0.82263201 -13.219727 7
0.042732 0.78723103 -13.209961 7
0.051109001 0.749268 -13.152344 7
0.053603999 0.71386701 -13.136719 7
0.059464 0.67724597 -13.098633 7
0.062781997 0.64172399 -13.076172 7
0.059363998 0.608154 -13.101562 7
-0.001144 -0.99328601 -12.839844 7
-0.0074160001 -1.029907 -12.876953 7
-0.00038899999 -1.060303 -12.829102 7
-0.0030980001 -1.095215 -12.84375 7
0.0021820001 -1.1262209 -12.806641 7
-0.011208 -1.1669919 -12.889648 7
-0.028114 -1.2099611 -12.996094 7
-0.013092 -1.2355959 -12.895508 7
-0.015807999 -1.270874 -12.90918 7
-0.199699 -4.190186 -13.548828 7
-0.212212 -4.2478032 -13.618164 7
-0.202507 -4.2658691 -13.545898 7
-0.198158 -4.2932129 -13.507812 7
-0.196457 -4.3251948 -13.485352 7
-0.19652601 -4.3604741 -13.475586 7
-0.195732 -4.394043 -13.458984 7
-0.20648199 -4.4489751 -13.515625 7
0.044594001 0.61486799 -12.46582 7
0.049881 0.58056599 -12.433594 7
0.055130001 0.546143 -12.399414 7
0.057762001 0.512573 -12.383789 7
0.054152999 0.48046899 -12.407227 7
0.045249999 0.44946301 -12.466797 7
0.046967 0.41613799 -12.456055 7
0.050468002 0.38232401 -12.433594 7
0.059280001 0.34802201 -12.376953 7
-0.025832999 -1.215942 -12.292969 7
-0.014801 -1.2744139 -12.217773 7
-0.202805 -4.299561 -12.767578 7
-0.202888 -4.3328862 -12.757812 7
-0.19643401 -4.3544922 -12.708008 7
-0.19931 -4.393188 -12.713867 7
-0.198448 -4.4249272 -12.699219 7
-0.097617999 5.0888672 -11.791016 7
-0.097649001 5.0576172 -11.801758 7
-0.066109002 4.956543 -11.630859 7
-0.067993 4.929688 -11.65332 7
-0.077285998 4.9185791 -11.71875 7
-0.075461999 4.8831792 -11.71875 7
-0.080115996 4.8621831 -11.757812 7
-0.082915999 4.8366699 -11.786133 7
-0.095963001 4.8327641 -11.873047 7
-0.101547 4.8128662 -11.916992 7
0.044434 0.302246 -11.923828 7
0.06205 0.268433 -11.814453 7
0.061958 0.20581099 -11.81543 7
0.050719999 0.144043 -11.884766 7
0.046013001 0.113037 -11.914062 7
0.057121001 0.080932997 -11.844727 7
0.057076 0.049805 -11.845703 7
0.059806999 0.018188 -11.828125 7
0.032111999 -0.041992001 -11.224609 7
0.033043001 -0.072021 -11.219727 7
0.049286 -0.101929 -11.233398 7
0.052161999 -0.131714 -11.21582 7
0.045288 -0.162109 -11.255859 7
0.040344 -0.19238301 -11.283203 7
0.040252998 -0.252563 -11.282227 7
0.046036001 -0.31164601 -11.24707 7
-0.0049129999 -0.991943 -11.506836 7
-0.001213 -1.112061 -11.472656 7
-0.004189 -1.144043 -11.488281 7
-0.011345 -1.331055 -11.509766 7
-0.199554 -4.1757808 -12.019531 7
-0.20062301 -4.209229 -12.014648 7
-0.20462 -4.2479248 -12.025391 7
-0.208611 -4.2866211 -12.037109 7
-0.210655 -4.322021 -12.038086 7
-0.205833 -4.3449712 -12 7
-0.202957 -4.3710942 -11.973633 7
-0.202049 -4.401123 -11.958008 7
-0.207092 -4.4735112 -11.963867 7
0.021400001 -0.329956 -10.819336 7
0.026458999 -0.35791001 -10.789062 7
0.033562001 -0.38549799 -10.748047 7
0.033523999 -0.41418499 -10.74707 7
0.031424999 -0.44335899 -10.757812 7
0.022179 -0.47424299 -10.807617 7
0.014999 -0.50463903 -10.847656 7
0.018028 -0.533081 -10.829102 7
0.022049 -0.56079102 -10.804688 7
0.024033001 -0.58911097 -10.791992 7
0.026031001 -0.617432 -10.779297 7
-0.20138501 -4.1733398 -11.369141 7
-0.205551 -4.2106929 -11.380859 7
-0.21688101 -4.2608638 -11.431641 7
-0.217987 -4.2932129 -11.426758 7
-0.22215299 -4.3309331 -11.438477 7
-0.215057 -4.3483891 -11.389648 7
-0.212044 -4.3729248 -11.363281 7
-0.21109 -4.4012451 -11.34668 7
-0.212181 -4.4333501 -11.342773 7
-0.20715301 -4.453979 -11.304688 7
0.01725 -0.50708002 -10.241211 7
0.013947 -0.56310999 -10.255859 7
0.012833 -0.59094203 -10.260742 7
0.025597 -0.64221197 -10.188477 7
0.023422001 -0.67040998 -10.199219 7
0.020157 -0.69885302 -10.213867 7
0.013481 -0.83862299 -10.238281 7
-0.0038989999 -0.98400903 -10.319336 7
-0.011467 -1.015137 -10.357422 7
-0.011513 -1.0430911 -10.355469 7
-0.014771 -1.072266 -10.370117 7
-0.015900001 -1.100708 -10.373047 7
-0.0041430001 -1.122681 -10.307617 7
-0.004189 -1.150146 -10.303711 7
-0.007462 -1.179688 -10.318359 7
-0.0064320001 -1.2069089 -10.30957 7
-0.020431999 -1.24231 -10.381836 7
-0.030136 -1.275757 -10.430664 7
0.01162 -0.64453101 -9.7548828 7
0.010445 -0.671143 -9.7587891 7
0.0036849999 -0.69982898 -9.7919922 7
0.0036539999 -0.72644001 -9.7900391 7
0.000252 -0.75402802 -9.8056641 7
0.0024339999 -0.77978498 -9.7929688 7
0.0079800002 -0.80407703 -9.7607422 7
0.012413 -0.828857 -9.7363281 7
0.011238 -0.855591 -9.7402344 7
0.0089570004 -0.88269001 -9.7490234 7
-0.0078659998 -0.91626 -9.8330078 7
-0.010147 -0.94384801 -9.8417969 7
-0.0079570003 -0.96935999 -9.828125 7
-0.001289 -0.99291998 -9.7919922 7
-0.00022099999 -1.018921 -9.7832031 7
0.001984 -1.044189 -9.7695312 7
-0.0058980002 -1.074463 -9.8066406 7
-0.019378999 -1.107788 -9.8740234 7
-0.014946 -1.13208 -9.8476562 7
-0.01165 -1.1569819 -9.8271484 7
-0.012802 -1.184204 -9.8310547 7
-0.015091 -1.2119139 -9.8388672 7
-0.016257999 -1.239136 -9.8417969 7
-0.031982001 -1.27478 -9.9189453 7
-0.030906999 -1.300903 -9.9111328 7
-0.022003001 -1.3223881 -9.8623047 7
-0.026520001 -1.351685 -9.8818359 7
-0.026566001 -1.37854 -9.8789062 7
-0.025497001 -1.404297 -9.8701172 7
-0.034561001 -1.463501 -9.9082031 7
-0.31791699 -6.0882568 -9.8544922 7
-0.316879 -6.111938 -9.8349609 7
-0.31245399 -6.127563 -9.7998047 7
-0.31364399 -6.1569819 -9.7900391 7
-0.31483501 -6.1861572 -9.78125 7
-0.31491101 -6.212646 -9.7666016 7
-0.318367 -6.247437 -9.7666016 7
-0.324074 -6.2879639 -9.7763672 7
-0.33539599 -6.3426509 -9.8115234 7
-0.33547199 -6.3693848 -9.796875 7
0.0027310001 -0.97326702 -9.2861328 7
-0.0066760001 -1.002686 -9.3291016 7
-0.01722 -1.0330811 -9.3779297 7
-0.020775 -1.060059 -9.3925781 7
-0.016144 -1.083374 -9.3662109 7
-0.013855 -1.107666 -9.3525391 7
-0.01506 -1.1337889 -9.3564453 7
-0.015137 -1.18457 -9.3505859 7
-0.014038 -1.2093509 -9.3417969 7
-0.026923999 -1.242065 -9.4023438 7
-0.032806002 -1.270996 -9.4287109 7
-0.32404301 -6.1160889 -9.2363281 7
-0.314812 -6.143311 -9.1669922 7
-0.32074001 -6.1827388 -9.1777344 7
-0.323174 -6.2137451 -9.1728516 7
-0.32558399 -6.2446289 -9.1679688 7
-0.33035299 -6.2811279 -9.1728516 7
-0.33873001 -6.351685 -9.1767578 7
-0.088492997 0.661865 12.305664 7
-0.099205002 0.69091803 12.355469 7
-0.087227002 0.713135 12.296875 7
-0.085975997 0.73840302 12.289062 7
-0.088340998 0.76501501 12.298828 7
-0.088271998 0.79089397 12.296875 7
-0.087021001 0.81616199 12.289062 7
-0.086998001 0.841919 12.287109 7
-0.086944997 0.86767602 12.285156 7
-0.086906001 0.89343297 12.283203 7
-0.089249 0.920044 12.291992 7
-0.089211002 0.94580102 12.290039 7
-0.077347003 4.7853999 -8.5761719 7
-0.07621 4.7592769 -8.5810547 7
-0.01326 -0.96350098 -8.9101562 7
-0.016945001 -0.98925799 -8.9248047 7
-0.014565 -1.012695 -8.9111328 7
-0.006081 -1.0330811 -8.8681641 7
-0.011002 -1.059814 -8.8886719 7
-0.009819 -1.083374 -8.8808594 7
-0.0098649999 -1.107788 -8.8789062 7
-0.034240998 -1.144775 -8.9902344 7
-0.019676 -1.161377 -8.9179688 7
-0.013672 -1.182495 -8.8857422 7
-0.025870999 -1.213623 -8.9394531 7
-0.017379999 -1.233398 -8.8974609 7
-0.019866999 -1.258911 -8.9052734 7
-0.32312801 -6.143188 -8.6132812 7
-0.317085 -6.151855 -8.5742188 7
-0.313492 -6.1665039 -8.5449219 7
-0.32456201 -6.2172852 -8.5742188 7
-0.32219699 -6.2348628 -8.5498047 7
-0.32838401 -6.27356 -8.5585938 7
-0.33332801 -6.3093262 -8.5634766 7
-0.34320799 -6.3575439 -8.5859385 7
-0.34328499 -6.3812261 -8.5703115 7
-0.082305998 4.799438 -8.0742188 7
-0.084747002 4.7818599 -8.0957031 7
-0.077460997 4.744019 -8.0761719 7
-0.085991003 4.716187 -8.1347656 7
-0.090851001 4.7036128 -8.1660156 7
-0.100578 4.7006841 -8.21875 7
-0.098190002 4.6500239 -8.2294922 7
-0.079948001 4.5899658 -8.1640615 7
-0.076309003 4.5596919 -8.1601562 7
-0.100647 4.5625 -8.2841797 7
-0.006393 -0.96325701 -8.4121094 7
-0.0064389999 -0.98657203 -8.4101562 7
-0.011604 -1.035522 -8.4287109 7
-0.011688 -1.082031 -8.4228516 7
-0.006668 -1.102661 -8.3964844 7
-0.0054779998 -1.148193 -8.3857422 7
-0.0067670001 -1.172119 -8.3896484 7
-0.0068279998 -1.19519 -8.3867188 7
-0.010681 -1.220703 -8.4003906 7
-0.020950001 -1.272827 -8.4404297 7
-0.21467599 -4.4542241 -8.3896484 7
-0.31972501 -6.1268311 -7.9794922 7
-0.31602499 -6.1618652 -7.9355469 7
-0.31993899 -6.1933589 -7.9345698 7
-0.32389101 -6.2469478 -7.9199219 7
-0.33290899 -6.2912598 -7.9375 7
-0.34327701 -6.3614502 -7.9462891 7
-0.29967499 -5.098145 11.045898 7
-0.29445601 -5.0418701 11.049805 7
-0.294449 -5.019043 11.061523 7
-0.29186201 -4.9908452 11.063477 7
-0.29184699 -4.967896 11.075195 7
-0.30093399 -4.940186 11.134766 7
-0.298309 -4.9118652 11.135742 7
-0.29699701 -4.8632808 11.154297 7
-0.29307601 -4.8327641 11.149414 7
-0.076453999 -1.7401119 11.194336 7
-0.068588004 4.7902832 -7.469727 7
-0.071144 4.7744141 -7.4902339 7
-0.072417997 4.7558589 -7.5068359 7
-0.073692001 4.7373052 -7.523438 7
-0.068611003 4.7054439 -7.5136719 7
-0.073692001 4.6947021 -7.545898 7
-0.080063 4.6864009 -7.5810552 7
-0.088950999 4.6833501 -7.6279302 7
-0.092758 4.6694341 -7.655273 7
-0.091499001 4.6452641 -7.6601558 7
-0.085158996 4.6108398 -7.6464839 7
-0.078812003 4.5762939 -7.6318359 7
-0.081367001 4.559814 -7.6523442 7
-0.076286003 4.5280762 -7.6425781 7
-0.078850001 4.5115972 -7.664062 7
-0.076316997 4.4848628 -7.664062 7
-0.106117 -1.872437 10.893555 7
-0.112854 -1.8555911 10.925781 7
-0.106071 -1.827515 10.902344 7
-0.101868 -1.689575 10.911133 7
-0.169846 4.1624761 10.491211 7
-0.157692 4.1624761 10.43457 7
-0.148155 4.1882319 10.37793 7
-0.14271501 4.1998291 10.347656 7
-0.145309 4.2468262 10.337891 7
-0.14524101 4.2680659 10.328125 7
-0.141159 4.2818599 10.303711 7
-0.13974801 4.3001709 10.288086 7
-0.13965601 4.342041 10.267578 7
-0.16513801 4.4111328 10.354492 7
-0.163673 4.4508061 10.328125 7
-0.166306 4.4770508 10.328125 7
-0.31271401 -5.1159668 10.108398 7
-0.30425999 -5.0782471 10.09082 7
-0.307091 -5.063354 10.113281 7
-0.30567199 -5.0397949 10.120117 7
-0.30425301 -5.0163569 10.126953 7
-0.30004099 -4.9871831 10.124023 7
-0.302856 -4.972168 10.145508 7
-0.30143699 -4.9486079 10.152344 7
-0.304245 -4.9333501 10.173828 7
-0.304245 -4.9125981 10.185547 7
-0.31128699 -4.9056401 10.222656 7
-0.30987501 -4.8820801 10.229492 7
-0.30142999 -4.844727 10.210938 7
-0.30001801 -4.8209229 10.217773 7
-0.088813998 -1.9100339 10.40918 7
-0.088806003 -1.888672 10.414062 7
-0.091582999 -1.869751 10.428711 7
-0.10141 -1.8562011 10.473633 7
-0.092941001 -1.828247 10.443359 7
-0.088707 -1.803345 10.431641 7
-0.077437997 -1.7730711 10.390625 7
-0.076012 -1.7507319 10.389648 7
-0.074577004 -1.728516 10.387695 7
-0.070343003 -1.703979 10.375977 7
-0.082970001 -1.692139 10.429688 7
-0.082953997 -1.670776 10.433594 7
-0.074478 -1.643311 10.404297 7
-0.078674003 -1.625 10.424805 7
-0.066886999 0.96337903 10.491211 7
-0.061225999 0.98229998 10.46582 7
-0.064011 1.005127 10.475586 7
-0.066765003 1.02771 10.484375 7
-0.066734001 1.049316 10.482422 7
-0.073715001 1.073975 10.506836 7
-0.080681004 1.099121 10.532227 7
-0.072219998 1.116455 10.496094 7
-0.072196998 1.137939 10.494141 7
-0.072159 1.159546 10.491211 7
-0.080527999 1.185425 10.521484 7
-0.080504999 1.2069089 10.519531 7
-0.084656 1.230713 10.532227 7
-0.086029001 1.253052 10.535156 7
-0.080375999 1.271606 10.509766 7
-0.168686 7.0300288 -5.2675781 7
-0.171425 7.0222168 -5.2919922 7
-0.17140999 7.006104 -5.3085942 7
-0.16176599 6.9614258 -5.296875 7
-0.161751 6.9455571 -5.3144531 7
-0.161736 6.9294429 -5.3310552 7
-0.16585501 6.925415 -5.359375 7
-0.161713 6.8970952 -5.3632808 7
-0.165848 6.8929439 -5.390625 7
-0.164459 6.8728032 -5.4023442 7
-0.168556 6.8684082 -5.4316411 7
-0.15892 6.8242192 -5.4199219 7
-0.158913 6.8078609 -5.4355469 7
-0.158905 6.7915039 -5.4511719 7
-0.157509 6.7709961 -5.4638672 7
-0.157501 6.7546391 -5.4794922 7
-0.15612 6.7342529 -5.4912109 7
-0.16023301 6.7296138 -5.5195308 7
-0.31081399 -5.0975342 9.6689453 7
-0.30645001 -5.0689702 9.6669922 7
-0.30351999 -5.043457 9.6679688 7
-0.304977 -5.026855 9.6855469 7
-0.30790699 -5.013062 9.7080078 7
-0.30352801 -4.9844971 9.7050781 7
-0.300598 -4.9589839 9.7070312 7
-0.30352801 -4.9450679 9.7294922 7
-0.30645001 -4.9311519 9.7509766 7
-0.30645001 -4.911377 9.7626953 7
-0.30498499 -4.8887939 9.7695312 7
-0.304977 -4.868896 9.7802734 7
-0.30351999 -4.8461909 9.7861328 7
-0.299133 -4.8179932 9.7832031 7
-0.30351299 -4.806519 9.8095703 7
-0.087654002 -1.898682 10.054688 7
-0.08326 -1.874512 10.042969 7
-0.086143002 -1.856689 10.057617 7
-0.097786002 -1.845459 10.107422 7
-0.091934003 -1.820312 10.088867 7
-0.091911003 -1.799683 10.092773 7
-0.08168 -1.77124 10.058594 7
-0.077293001 -1.747314 10.046875 7
-0.075813003 -1.72583 10.044922 7
-0.072867997 -1.703003 10.037109 7
-0.072844997 -1.6826169 10.041016 7
-0.083030999 -1.669678 10.084961 7
-0.075722001 -1.6437989 10.060547 7
-0.077156 -1.62439 10.070312 7
-0.062134001 0.96643102 10.12793 7
-0.060653999 0.98657203 10.120117 7
-0.060616001 1.006958 10.118164 7
-0.060577001 1.027588 10.115234 7
-0.066359997 1.051025 10.135742 7
-0.069228999 1.072998 10.144531 7
-0.073555 1.095825 10.158203 7
-0.067695998 1.113647 10.133789 7
-0.063300997 1.132202 10.114258 7
-0.069084004 1.155762 10.134766 7
-0.063216999 1.173462 10.109375 7
-0.067566 1.196167 10.124023 7
-0.074776001 1.220825 10.147461 7
-0.067482002 1.2375489 10.118164 7
-0.071792997 1.26062 10.129883 7
-0.239151 -4.4814448 -6.6630859 7
-0.231758 -4.4864502 -6.625977 7
-0.231819 -4.5054932 -6.6152339 7
-0.231865 -4.5244141 -6.6044922 7
-0.239365 -4.5574951 -6.6201172 7
-0.231987 -4.5623779 -6.5830078 7
-0.235008 -4.586792 -6.5820308 7
-0.241028 -4.617065 -6.5917969 7
-0.25151101 -4.6558838 -6.6152339 7
-0.24263 -4.6577148 -6.5751948 7
-0.25014499 -4.6907959 -6.5878911 7
-0.25167799 -4.712646 -6.5820308 7
-0.26216099 -4.751709 -6.6044922 7
-0.26222199 -4.7706299 -6.59375 7
-0.25632501 -4.7780762 -6.561523 7
-0.30784601 -5.0991211 9.2089844 7
-0.303307 -5.0712891 9.2060547 7
-0.30937201 -5.065186 9.2373047 7
-0.29877499 -5.025269 9.2158203 7
-0.29877499 -5.0065918 9.2275391 7
-0.307861 -5.0062261 9.2685547 7
-0.306335 -4.9846191 9.2753906 7
-0.29423499 -4.941895 9.2490234 7
-0.30028501 -4.9353032 9.2792969 7
-0.29726401 -4.910645 9.2822266 7
-0.31238601 -4.921875 9.3417969 7
-0.307854 -4.894165 9.3388672 7
-0.291199 -4.842896 9.2978516 7
-0.30481699 -4.8508301 9.3525391 7
-0.30179599 -4.8259282 9.3544922 7
-0.093093999 -1.908203 9.7207031 7
-0.090065002 -1.885986 9.7138672 7
-0.085510001 -1.8625489 9.7021484 7
-0.090026997 -1.846558 9.7226562 7
-0.088500999 -1.825562 9.7216797 7
-0.096023999 -1.812012 9.7539062 7
-0.097511001 -1.793457 9.7626953 7
-0.079352997 -1.759644 9.7011719 7
-0.085387997 -1.744507 9.7275391 7
-0.082328998 -1.7225339 9.7207031 7
-0.073234998 -1.6962889 9.6914062 7
-0.073204003 -1.676636 9.6953115 7
-0.077744 -1.6600339 9.7167969 7
-0.091330998 -1.650269 9.7705078 7
-0.076201998 -1.619507 9.7197266 7
-0.066765003 0.97082502 9.8027344 7
-0.065223999 0.99011201 9.7949219 7
-0.057631999 1.006714 9.7646484 7
-0.057601999 1.0263669 9.7626953 7
-0.05909 1.046875 9.765625 7
-0.074150003 1.07373 9.8193359 7
-0.075622998 1.09436 9.8222656 7
-0.065017998 1.109009 9.78125 7
-0.075539 1.134277 9.8154297 7
-0.072486997 1.152588 9.8027344 7
-0.063408002 1.167725 9.7675781 7
-0.066359997 1.189087 9.7744141 7
-0.063323997 1.207153 9.7617188 7
-0.079887003 1.2362061 9.8193359 7
-0.069274999 1.250244 9.7763672 7
-0.069237001 1.269897 9.7734385 7
-0.237045 -4.4807129 -6.2695308 7
-0.23555 -4.4960942 -6.2548828 7
-0.237152 -4.5169678 -6.2480469 7
-0.235718 -4.550293 -6.2226558 7
-0.23275 -4.5803218 -6.1904302 7
-0.232803 -4.5983891 -6.179688 7
-0.232841 -4.616333 -6.1689448 7
-0.245232 -4.6578369 -6.1962891 7
-0.24996901 -4.7027588 -6.1894531 7
-0.25155601 -4.7235112 -6.1835942 7
-0.25316599 -4.7443848 -6.1767578 7
-0.25011399 -4.7564702 -6.15625 7
-0.257889 -4.7893071 -6.1669922 7
-0.29847699 -5.0600591 8.8007812 7
-0.30473301 -5.0551758 8.8310547 7
-0.29220599 -5.012207 8.8056641 7
-0.296913 -4.9865718 8.84375 7
-0.29690599 -4.9689941 8.8554688 7
-0.29377699 -4.9449458 8.8574219 7
-0.29222101 -4.9064941 8.8769531 7
-0.30160499 -4.907227 8.9169922 7
-0.306297 -4.8986821 8.9423828 7
-0.30474901 -4.8599849 8.9609385 7
-0.29846999 -4.8299561 8.953125 7
-0.29848501 -4.8120122 8.9658203 7
-0.081321999 -1.906738 9.3710938 7
-0.089111 -1.87561 9.4072266 7
-0.085960001 -1.854004 9.4003906 7
-0.084389001 -1.83374 9.3994141 7
-0.089019999 -1.799805 9.4248047 7
-0.071792997 -1.767212 9.3681641 7
-0.062401 -1.741089 9.3388672 7
-0.071754001 -1.7105711 9.3808594 7
-0.071732 -1.691772 9.3847656 7
-0.074836999 -1.675293 9.3994141 7
-0.071663 -1.63501 9.3964844 7
-0.074776001 -1.61853 9.4111328 7
-0.060470998 0.97216803 9.4814453 7
-0.057319999 0.98999 9.4677734 7
-0.054145999 1.00769 9.4550781 7
-0.058768999 1.047974 9.4667969 7
-0.055603001 1.06543 9.453125 7
-0.057151999 1.085205 9.4570312 7
-0.064865001 1.127441 9.4775391 7
-0.058600999 1.143311 9.4550781 7
-0.063262999 1.164673 9.4677734 7
-0.072548002 1.207886 9.4960938 7
-0.064696997 1.222778 9.4658203 7
-0.067786999 1.243408 9.4726562 7
-0.23376501 -4.486938 -5.8408198 7
-0.229012 -4.4951172 -5.8164058 7
-0.232254 -4.5179439 -5.8154302 7
-0.235512 -4.5410161 -5.8144531 7
-0.233955 -4.5551758 -5.7988281 7
-0.23881499 -4.5812988 -5.8027339 7
-0.23565701 -4.5922852 -5.782227 7
-0.232529 -4.6031489 -5.7607422 7
-0.238976 -4.6323242 -5.7695308 7
-0.240623 -4.6523442 -5.7636719 7
-0.25186899 -4.690918 -5.7851558 7
-0.25831601 -4.7200928 -5.7929692 7
-0.25197601 -4.724731 -5.7617192 7
-0.25524101 -4.7479248 -5.7607422 7
-0.25849199 -4.7711182 -5.7587891 7
-0.26014701 -4.7911382 -5.7519531 7
-0.336357 -6.0936279 -5.0283198 7
-0.33961499 -6.1164551 -5.0224609 7
-0.34287301 -6.1394038 -5.016602 7
-0.34294099 -6.154541 -5.0019531 7
-0.34459701 -6.1738281 -4.9912109 7
-0.34948701 -6.2006841 -4.9882808 7
-0.35596499 -6.2314448 -4.9902339 7
-0.34800699 -6.2268071 -4.954102 7
-0.34005001 -6.222168 -4.9189448 7
-0.33850101 -6.2330322 -4.9003911 7
-0.335365 -6.2399902 -4.8769531 7
-0.32900199 -6.2388921 -4.8466802 7
-0.32907099 -6.2536621 -4.8320308 7
-0.33873701 -6.29248 -4.8408198 7
-0.338783 -6.3071289 -4.8261719 7
-0.337257 -6.317749 -4.8066411 7
-0.30526 -5.110229 8.3662109 7
-0.30525199 -5.0936279 8.3789062 7
-0.29716501 -5.0605469 8.3681641 7
-0.293915 -5.037231 8.3710938 7
-0.289047 -5.0109859 8.3681641 7
-0.289047 -4.9946289 8.3798828 7
-0.290672 -4.9813228 8.3974609 7
-0.289047 -4.9614258 8.4042969 7
-0.29393801 -4.9544678 8.4296885 7
-0.28907001 -4.9281011 8.4287109 7
-0.290703 -4.9146729 8.4443359 7
-0.289078 -4.894897 8.4511719 7
-0.293953 -4.8876948 8.4775391 7
-0.29396099 -4.8709722 8.4892578 7
-0.300446 -4.8669429 8.5195312 7
-0.293953 -4.8372798 8.5126953 7
-0.28746 -4.8079829 8.5048828 7
-0.075317003 -1.89978 9.0224609 7
-0.076935001 -1.883057 9.0322266 7
-0.073654003 -1.862305 9.0253906 7
-0.073654003 -1.844238 9.0302734 7
-0.073631003 -1.8262939 9.0341797 7
-0.078483999 -1.812134 9.0556641 7
-0.078460999 -1.794067 9.0595703 7
-0.073578 -1.772217 9.0478516 7
-0.062194999 -1.7451169 9.0126953 7
-0.063812003 -1.728516 9.0224609 7
-0.062180001 -1.709229 9.0214844 7
-0.058913998 -1.688599 9.0146484 7
-0.057280999 -1.669312 9.0136719 7
-0.057266001 -1.651245 9.0175781 7
-0.063727997 -1.638306 9.0439453 7
-0.071823001 -1.625977 9.0751953 7
-0.063698001 -1.602051 9.0517578 7
-0.053863999 0.96838403 9.140625 7
-0.052207999 0.98596197 9.1328115 7
-0.047309998 1.002075 9.1132812 7
-0.048904002 1.02124 9.1171885 7
-0.042389002 1.036255 9.0927734 7
-0.045593001 1.05603 9.1015615 7
-0.048804998 1.075806 9.1103516 7
-0.042289998 1.09082 9.0849609 7
-0.047127001 1.11145 9.0996094 7
-0.053566001 1.132812 9.1191406 7
-0.056754999 1.15271 9.1269531 7
-0.056731999 1.171021 9.1240234 7
-0.056694001 1.189209 9.1210938 7
-0.059891 1.2093509 9.1289062 7
-0.063102998 1.229248 9.1376953 7
-0.069541998 1.2512209 9.1572266 7
-0.063049003 1.265869 9.1328115 7
-0.24534599 -4.4820561 -5.5019531 7
-0.24704701 -4.5013428 -5.4960942 7
-0.243782 -4.5114751 -5.476562 7
-0.243828 -4.52771 -5.4658198 7
-0.23890699 -4.5345459 -5.4414058 7
-0.23896 -4.5506592 -5.429688 7
-0.24234 -4.5731201 -5.4277339 7
-0.23741101 -4.5799561 -5.4023442 7
-0.24084499 -4.6182861 -5.389648 7
-0.235909 -4.6247559 -5.3652339 7
-0.237625 -4.644043 -5.359375 7
-0.24929 -4.682373 -5.3798828 7
-0.254311 -4.7078862 -5.382812 7
-0.26597601 -4.746582 -5.405273 7
-0.25942999 -4.765625 -5.3642578 7
-0.262817 -4.788208 -5.3613281 7
-0.357353 -6.2626948 -4.4707031 7
-0.35407999 -6.268311 -4.4462891 7
-0.345833 -6.2615972 -4.4130859 7
-0.34587899 -6.275269 -4.398438 7
-0.344284 -6.28479 -4.3789058 7
-0.33934799 -6.2858891 -4.3525391 7
-0.332764 -6.282959 -4.3222661 7
-0.332809 -6.2965088 -4.3085942 7
-0.33952299 -6.3269038 -4.3076172 7
-0.34124801 -6.3444819 -4.296875 7
-0.337982 -6.3496089 -4.2744141 7
-0.33472401 -6.3544922 -4.250977 7
-0.336456 -6.3720698 -4.2392578 7
-0.29289201 -5.078979 7.9257808 7
-0.299629 -5.0617681 7.967773 7
-0.29459399 -5.0360112 7.9667969 7
-0.28618601 -5.003418 7.9560552 7
-0.279457 -4.9742432 7.9501948 7
-0.28282899 -4.9498291 7.983398 7
-0.284531 -4.9376221 7.999023 7
-0.279488 -4.8963618 8.0087891 7
-0.284531 -4.8907471 8.0341797 7
-0.29464 -4.89502 8.0732422 7
-0.28789499 -4.8658452 8.0654297 7
-0.28118899 -4.821167 8.0712891 7
-0.28118101 -4.8052979 8.0820312 7
-0.076697998 -1.915161 8.7148438 7
-0.074988998 -1.896484 8.7138672 7
-0.069931 -1.875 8.7021484 7
-0.069908001 -1.840454 8.7109385 7
-0.069885001 -1.8232419 8.7148438 7
-0.078270003 -1.795166 8.7519531 7
-0.079925999 -1.779053 8.7607422 7
-0.079917997 -1.761719 8.765625 7
-0.056343 -1.7261961 8.6923828 7
-0.061370999 -1.695312 8.7167969 7
-0.061356001 -1.677979 8.7216797 7
-0.059624001 -1.642212 8.7236328 7
-0.073067002 -1.634521 8.7714844 7
-0.066338003 -1.612305 8.7539062 7
-0.052878998 0.98413098 8.8369141 7
-0.047805998 0.99963403 8.8173828 7
-0.044380002 1.032959 8.8017578 7
-0.046027999 1.051392 8.8056641 7
-0.047676001 1.06958 8.8085938 7
-0.049323998 1.087891 8.8115234 7
-0.057631999 1.127075 8.8330078 7
-0.057594001 1.144653 8.8300781 7
-0.06089 1.181519 8.8359385 7
-0.070929997 1.204468 8.8662109 7
-0.064185999 1.218506 8.8417969 7
-0.064156003 1.2362061 8.8388672 7
-0.067443997 1.273315 8.84375 7
-0.086387999 4.7806401 -4.6025391 7
-0.076491997 4.7454829 -4.5869141 7
-0.066574 4.7103271 -4.5712891 7
-0.071502998 4.7064209 -4.5966802 7
-0.074867003 4.698853 -4.6162109 7
-0.073211998 4.6811519 -4.6220698 7
-0.069900997 4.659668 -4.625 7
-0.071556002 4.6488042 -4.639648 7
-0.076499999 4.6445308 -4.664062 7
-0.074851997 4.6265869 -4.670898 7
-0.068253003 4.5983891 -4.6630859 7
-0.073188998 4.5939941 -4.6875 7
-0.084739998 4.6029048 -4.7304692 7
-0.094658002 4.6082759 -4.7675781 7
-0.092987001 4.5900879 -4.7744141 7
-0.086387999 4.5621338 -4.7675781 7
-0.088036001 4.535645 -4.7929692 7
-0.079787999 4.504395 -4.78125 7
-0.247986 -4.489502 -5.1357422 7
-0.246323 -4.501709 -5.1201172 7
-0.24636801 -4.5170898 -5.109375 7
-0.241264 -4.5229492 -5.0849609 7
-0.237885 -4.5318599 -5.0644531 7
-0.23793 -4.5471191 -5.0537109 7
-0.237984 -4.5623779 -5.0429692 7
-0.24146301 -4.584106 -5.0419922 7
-0.23979899 -4.5960689 -5.0263672 7
-0.23984499 -4.6112061 -5.014648 7
-0.23989899 -4.6263428 -5.0039058 7
-0.239952 -4.641602 -4.9931641 7
-0.250328 -4.67627 -5.007812 7
-0.25379899 -4.6981201 -5.0058589 7
-0.257294 -4.7199712 -5.0039058 7
-0.25907099 -4.7384028 -4.9970698 7
-0.26083401 -4.7568359 -4.9902339 7
-0.25916299 -4.7685552 -4.9746089 7
-0.264366 -4.7938228 -4.976562 7
-0.287285 -4.8656011 7.6835942 7
-0.28206599 -4.825562 7.6933589 7
-0.27858001 -4.8039551 7.695312 7
-0.082764 -1.916016 8.4453115 7
-0.070579998 -1.889038 8.4130859 7
-0.072304003 -1.873901 8.4228516 7
-0.067061998 -1.8531491 8.4111328 7
-0.067047 -1.836548 8.4150391 7
-0.067047 -1.8199461 8.4199219 7
-0.072235003 -1.807373 8.4404297 7
-0.077454001 -1.794922 8.4609385 7
-0.075699002 -1.776855 8.4599609 7
-0.072205 -1.757568 8.453125 7
-0.066940002 -1.736938 8.4404297 7
-0.056488 -1.71228 8.4121094 7
-0.058235001 -1.696777 8.4228516 7
-0.054740999 -1.6776119 8.4160156 7
-0.059928998 -1.664917 8.4355469 7
-0.054710001 -1.644531 8.4238281 7
-0.052948002 -1.626587 8.4228516 7
-0.059898 -1.614868 8.4482422 7
-0.063369997 -1.600708 8.4628906 7
-0.056541 0.96643102 8.5722656 7
-0.051254001 0.99804699 8.5507812 7
-0.046021 1.012573 8.5322266 7
-0.045998 1.029297 8.5302734 7
-0.044243 1.045532 8.5224609 7
-0.047690999 1.063965 8.5322266 7
-0.044174001 1.079102 8.5175781 7
-0.045883 1.096802 8.5205078 7
-0.047584999 1.1142581 8.5224609 7
-0.056228999 1.135498 8.5478516 7
-0.061409 1.155151 8.5615234 7
-0.064865001 1.17395 8.5703115 7
-0.056129001 1.1862791 8.5390615 7
-0.047424 1.198364 8.5097656 7
-0.056030001 1.236694 8.53125 7
-0.06295 1.25769 8.5507812 7
-0.057709001 1.271484 8.5302734 7
-0.14193 4.1791992 7.6787109 7
-0.133232 4.1783452 7.6474609 7
-0.134911 4.196167 7.641602 7
-0.13488001 4.210815 7.6318359 7
-0.134811 4.2254639 7.6210942 7
-0.13304099 4.236938 7.6074219 7
-0.13472 4.2547612 7.601562 7
-0.12947799 4.2600098 7.577148 7
-0.138092 4.2905269 7.5898442 7
-0.14150199 4.311523 7.5888672 7
-0.13799299 4.3197021 7.5683589 7
-0.13448299 4.3276372 7.5507808 7
-0.13096599 4.3356929 7.53125 7
-0.124008 4.3371582 7.5019531 7
-0.118759 4.3417969 7.4785161 7
-0.118706 4.3560791 7.467773 7
-0.123863 4.380249 7.4716802 7
-0.12381 4.3945308 7.460938 7
-0.132431 4.425293 7.4736328 7
-0.137573 4.449585 7.4755859 7
-0.14272299 4.4737549 7.4785161 7
-0.088890001 4.7841802 -4.235352 7
-0.073486 4.7246089 -4.219727 7
-0.070052996 4.7042241 -4.2226558 7
-0.075172 4.6877441 -4.2587891 7
-0.071739003 4.6534419 -4.2714839 7
-0.070091002 4.636353 -4.2773442 7
-0.075195 4.6196289 -4.3125 7
-0.082024001 4.619751 -4.3408198 7
-0.099128999 4.6269531 -4.40625 7
-0.097411998 4.5958252 -4.4238281 7
-0.093987003 4.574707 -4.4257808 7
-0.087135002 4.5332031 -4.429688 7
-0.088829003 4.508667 -4.4560552 7
-0.087119997 4.4912109 -4.4619141 7
-0.28952801 -5.0866699 7.1386719 7
-0.30033901 -5.0952148 7.1757808 7
-0.30036199 -5.0814209 7.188477 7
-0.30037701 -5.067749 7.2011719 7
-0.291374 -5.0357671 7.1914058 7
-0.287781 -5.014648 7.195312 7
-0.28597999 -4.997437 7.202148 7
-0.287788 -4.9871831 7.21875 7
-0.28241 -4.962769 7.217773 7
-0.282433 -4.9489751 7.2304692 7
-0.28242499 -4.9351811 7.2412109 7
-0.282433 -4.9212651 7.2529302 7
-0.28962699 -4.9216309 7.28125 7
-0.28604901 -4.9006348 7.2851558 7
-0.28964201 -4.8937988 7.3056641 7
-0.286064 -4.8726811 7.3085942 7
-0.29865301 -4.8835449 7.3505859 7
-0.28607199 -4.830688 7.342773 7
-0.087439999 -1.915161 8.1894531 7
-0.078406997 -1.891479 8.1669922 7
-0.078414999 -1.875488 8.171875 7
-0.081978001 -1.8625489 8.1865234 7
-0.071175002 -1.837769 8.1591797 7
-0.076568998 -1.82605 8.1796885 7
-0.076545998 -1.810059 8.1845703 7
-0.081940003 -1.7980959 8.2050781 7
-0.078316003 -1.779175 8.1982422 7
-0.074699 -1.760498 8.1914062 7
-0.060309999 -1.733276 8.1542969 7
-0.069289997 -1.724121 8.1845703 7
-0.062073 -1.702759 8.1669922 7
-0.069266997 -1.692017 8.1933594 7
-0.065651 -1.67334 8.1865234 7
-0.063835002 -1.656006 8.1845703 7
-0.060219001 -1.637329 8.1777344 7
-0.069199003 -1.627686 8.2080078 7
-0.078185998 -1.618042 8.2392578 7
-0.047882002 0.960693 8.2851562 7
-0.056830999 0.98095697 8.3105469 7
-0.044243 0.99182099 8.2705078 7
-0.049582999 1.010376 8.2832031 7
-0.054939002 1.029053 8.2978516 7
-0.060302999 1.047852 8.3115234 7
-0.054878 1.061523 8.2919922 7
-0.049454 1.075439 8.2734385 7
-0.054816999 1.094116 8.2880859 7
-0.054786999 1.110352 8.2851562 7
-0.051169999 1.124878 8.2714844 7
-0.058311 1.144775 8.2900391 7
-0.056496002 1.1600339 8.2822266 7
-0.058265999 1.17749 8.2851562 7
-0.054634001 1.191528 8.2714844 7
-0.054604001 1.207886 8.2685547 7
-0.056366 1.22522 8.2714844 7
-0.056327999 1.241455 8.2675781 7
-0.058104999 1.258667 8.2705078 7
-0.065254003 1.278809 8.2900391 7
-0.132713 4.1685791 7.3251948 7
-0.13087501 4.1790771 7.3105469 7
-0.139771 4.209229 7.3232422 7
-0.14510299 4.2330322 7.327148 7
-0.150429 4.2567139 7.3300781 7
-0.155754 4.2805181 7.3339839 7
-0.14317299 4.271606 7.2929692 7
-0.13956501 4.2789311 7.273438 7
-0.132355 4.279541 7.2460942 7
-0.126938 4.2832031 7.2226558 7
-0.1269 4.2969971 7.2128911 7
-0.126854 4.310791 7.202148 7
-0.128593 4.3277588 7.1972661 7
-0.128555 4.3414311 7.186523 7
-0.124924 4.3483891 7.1669922 7
-0.128456 4.3685298 7.1650391 7
-0.124832 4.3753662 7.1464839 7
-0.126587 4.392334 7.140625 7
-0.122955 4.3990479 7.1210942 7
-0.126488 4.4194341 7.1201172 7
-0.13182101 4.4431152 7.1220698 7
-0.129967 4.453125 7.1064448 7
-0.092978999 4.7849121 -3.8925779 7
-0.089438997 4.764648 -3.8955081 7
-0.084122002 4.7408452 -3.894531 7
-0.075263999 4.7099609 -3.8847661 7
-0.078781001 4.6916499 -3.9160161 7
-0.080536 4.6827388 -3.9316411 7
-0.080527999 4.6568599 -3.954102 7
-0.078766003 4.6403809 -3.9599609 7
-0.078818999 4.627563 -3.969727 7
-0.082336001 4.6091309 -4 7
-0.085854001 4.603271 -4.0205078 7
-0.092933998 4.6047359 -4.047852 7
-0.105309 4.603271 -4.0996089 7
-0.096450999 4.5723882 -4.0888672 7
-0.094687998 4.5556641 -4.0957031 7
-0.076987997 4.4941411 -4.0732422 7
-0.084053002 4.4949951 -4.101562 7
-0.12974 0.72861803 12.22135 7
-0.106507 -1.755087 11.050616 7
-0.324218 -5.023479 10.898773 7
-0.101557 -1.8570009 10.332242 7
-0.052742999 1.054878 10.104496 7
-0.36520699 -4.9455109 9.7286968 7
-0.13181899 -1.871729 9.5294981 7
-0.127608 -1.63135 9.5701895 7
-0.082975999 1.1578881 9.370822 7
-0.30320799 -4.9424171 8.4635258 7
-0.31923199 -4.82026 8.7310371 7
-0.116191 -1.916901 8.9792023 7
-0.087769002 -1.6474971 8.8749495 7
-0.052985001 1.035203 8.8084869 7
-0.068371996 1.25966 8.8622456 7
-0.160248 4.418581 7.6772642 7
-0.28005201 -4.845788 7.6984439 7
-0.062673002 -1.672179 8.3520002 7
-0.038934 1.131404 8.3736992 7
-0.13939901 4.302352 7.0178709 7
-0.12674899 4.3967571 6.7554388 7
-0.24465699 -4.9043112 6.5916228 7
-0.258504 -4.8539972 6.8288832 7
-0.074822001 -1.765782 8.085413 7
-0.024145 1.040081 8.0257587 7
-0.027663 1.212085 8.001297 7
-0.102753 -1.78365 7.7033529 7
-0.091150999 -1.6043071 7.7173872 7
-0.25601301 -4.5019598 5.4968042 7
-0.089869998 -1.804516 7.3860078 7
-0.079962999 -1.6410691 7.412518 7
-0.075107999 -1.811253 7.0889521 7
-0.065971002 -1.661208 7.1222911 7
-0.057581 -1.831856 6.7887478 7
-0.066393003 -1.704451 6.9105768 7
-0.076564997 -4.3511038 -12.119342 7
-0.0024049999 -1.064832 -8.5158043 7
-0.22069301 -4.4129939 -9.7741385 7
-0.015169 -1.4961571 -7.216013 7
0.023343001 -1.430374 -5.8030849 7
0.025826 -1.390471 -4.9559588 7
-0.04267 -1.707817 11.141445 7
-0.33744499 -5.1051888 11.197672 7
-0.025488 -1.347025 -4.0592542 7
-0.33067599 -5.0953541 10.423124 7
-0.100529 -1.6406879 10.403448 7
-0.29969999 -5.001863 9.6213512 7
-0.073468 -1.851631 9.6932735 7
-0.27739799 -4.928319 8.956665 7
-0.053812001 -1.7842751 9.1785698 7
-0.32904699 -4.8609838 8.3842697 7
-0.092834003 -1.722675 8.7171078 7
-0.304351 -4.9641352 7.6900482 7
-0.092615001 -1.8971421 8.3707047 7
-0.054019999 -1.66058 8.239254 7
-0.28113201 -4.8674221 7.23106 7
-0.061292 -1.827906 7.9702911 7
-0.048537999 -1.62413 7.961556 7
-0.28138 -4.9803748 6.7121701 7
-0.27087101 -4.8067002 6.8522978 7
-0.045030002 -1.776258 7.6724591 7
-0.329907 -5.0338759 6.2032728 7
-0.307228 -4.8443251 6.3199248 7
-0.09409 -1.914246 7.4252472 7
-0.086251996 -1.735414 7.4434652 7
-0.293901 -4.8714142 5.8410678 7
-0.076390997 -1.861468 7.1815381 7
-0.070087999 -1.6938519 7.203424 7
-0.276263 -4.7640939 5.5459528 7
-0.278117 -4.6733098 5.707809 7
-0.052053001 -1.807804 6.9331379 7
-0.045867 -1.650656 6.9530401 7
-0.038564 -1.7661411 6.7408042 7
-0.032446999 -1.617099 6.7591872 7
-0.0065120002 4.7570448 -8.1299696 7
-0.165878 0.93955803 12.218613 7
-0.101486 1.252102 10.427999 7
-0.068637997 1.228196 9.7461739 7
-0.108821 1.206771 9.1990461 7
-0.082038 0.96044397 8.7709923 7
-0.085478999 1.1909 8.7449961 7
-0.162815 4.2835798 7.4512649 7
-0.061808001 0.96319902 8.3750601 7
-0.066799998 1.177436 8.3608255 7
-0.16136099 4.267087 7.0875721 7
-0.151602 4.3786278 6.8965869 7
-0.045671999 0.965509 8.0375328 7
-0.052551001 1.165965 8.0350361 7
0.046489999 0.82055098 -13.186613 7
-0.05345 -0.53661603 -10.451199 7
-0.033859 -0.89198703 -10.082456 7
-0.064535998 -1.346058 -10.603642 7
-0.305628 -4.2889781 -14.58135 7
-0.1427 4.845191 -11.303832 7
-0.034713998 -1.067744 -8.6482925 7
-0.271819 -4.3677802 -11.687216 7
-0.013624 -1.403219 -7.2732062 7
-0.205256 -4.4883509 -9.0123062 7
-0.002297 -1.425915 -6.3588471 7
-0.043163002 -1.4395 -5.6562362 7
-0.242662 -4.5603542 -6.2607059 7
-0.073572002 4.682416 -3.881613 7
-0.086934999 4.6459188 -4.1278639 7
-0.033041999 -1.45488 -5.1214991 7
-0.234782 -4.5048108 -5.4172211 7
-0.33519 -6.2325592 -4.9597039 7
-0.022291999 -1.457422 -4.664557 7
-0.003359 -1.293244 -4.268496 7
-0.016486 -1.4663399 -4.3050752 7
-0.031892002 -1.310972 -3.9699919 7
-0.043443002 -1.464682 -3.9833291 7
