# .PCD v0.7 - Point Cloud Data file format
VERSION 0.7
FIELDS x y z intensity
SIZE 4 4 4 4
TYPE F F F F
COUNT 1 1 1 1
WIDTH 552
HEIGHT 1
VIEWPOINT 0 0 0 1 0 0 0
POINTS 552
DATA ascii
1.175842 45.351562 -16.980469 7
1.065613 43.482422 -17.07605 7
1.0687259 43.319336 -17.127686 7
1.070801 43.201172 -17.197266 7
1.076538 42.936523 -17.203125 7
1.0784301 42.821289 -17.273682 7
1.0823359 42.632812 -17.310791 7
1.063599 38.982422 -14.475464 7
1.066162 38.857422 -14.531616 7
0.99475098 36.592773 -14.419189 7
0.99432403 36.571289 -14.512695 7
0.99822998 36.415039 -14.546875 7
1.000977 36.297852 -14.596924 7
1.000488 36.274414 -14.689941 7
0.92248499 34.230469 -14.552979 7
0.924133 34.150391 -14.613647 7
0.91619903 34.097656 -14.684082 7
0.91918898 33.979492 -14.726318 7
0.92163098 33.87793 -14.775879 7
0.92346197 33.791016 -14.832886 7
0.92291301 33.767578 -14.920288 7
-0.083801001 -4.4238281 55.254517 7
-0.072571002 -4.2763672 55.002441 7
-0.10553 -4.210938 55.800049 7
0.84295702 32.048828 -14.751465 7
0.84625202 31.931641 -14.786987 7
0.85046399 31.793945 -14.811523 7
0.85534698 31.641602 -14.827271 7
0.85540801 31.601562 -14.901733 7
-0.088684 -4.0712891 50.883423 7
0.76831102 30.105469 -14.745605 7
0.77270502 29.935547 -14.83667 7
0.77179003 29.916016 -14.918579 7
0.77789301 29.749023 -14.918213 7
-0.64446998 -1.374023 -59.620117 7
-0.62634301 -1.5107419 -59.21875 7
-0.18328901 -7.3027339 48.068359 7
-0.093262002 -3.9404299 46.769531 7
0.58605999 29.113281 -18.08667 7
0.59167498 28.963867 -18.086182 7
-0.54089397 1.751953 -57.460815 7
-0.71594203 -1.445312 -59.150269 7
-0.66943401 -1.5625 -58.175903 7
0.64343297 26.416016 -15.088379 7
0.64630097 26.327148 -15.119263 7
0.64837599 26.25293 -15.159302 7
0.64526403 26.267578 -15.255859 7
0.506042 27.797852 -18.054199 7
0.51702899 27.571289 -17.990967 7
0.51330602 27.585938 -18.10022 7
0.52142298 27.40625 -18.069702 7
0.52050799 27.373047 -18.144531 7
0.51794398 27.369141 -18.23999 7
-0.57653803 1.6162111 -56.289673 7
-0.63891602 -1.920898 -52.286987 7
-0.16424599 -6.9423828 40.849365 7
0.58081102 24.563477 -15.087769 7
0.58300799 24.489258 -15.122559 7
0.584961 24.420898 -15.160522 7
0.58654797 24.357422 -15.201416 7
0.58593798 24.327148 -15.265503 7
0.586914 24.272461 -15.312744 7
0.58911097 24.199219 -15.346558 7
-0.56353801 1.375977 -48.646118 7
0.52301002 22.956055 -15.128296 7
0.528198 22.806641 -15.18457 7
0.52923602 22.75293 -15.227905 7
-0.55041498 1.157227 -44.597046 7
-0.55261201 1.048828 -44.634399 7
-0.66485602 -2.3886721 -44.304688 7
0.52984601 21.959961 -12.210571 7
0.52874798 21.941406 -12.271606 7
0.52954102 21.898438 -12.316895 7
0.53515601 21.791992 -12.321411 7
0.53710902 21.734375 -12.356934 7
0.54113799 21.647461 -12.373413 7
0.543823 21.580078 -12.401978 7
0.54455602 21.537109 -12.446533 7
0.548706 21.450195 -12.461914 7
0.45861799 21.177734 -15.260132 7
0.463074 21.082031 -15.266113 7
0.46234101 21.051758 -15.323242 7
0.466492 20.961914 -15.332153 7
-0.58917201 4.844727 -41.236206 7
-0.58093297 0.86718798 -41.282959 7
-0.15734901 -6.5400391 32.862427 7
-0.171326 -6.5039058 33.066895 7
-0.18139599 -6.4580078 33.219727 7
0.47991899 20.790039 -12.232788 7
0.47674599 20.796875 -12.307739 7
0.47637901 20.768555 -12.359985 7
0.47760001 20.720703 -12.39917 7
0.47997999 20.65918 -12.428101 7
0.48443601 20.572266 -12.440552 7
0.490417 20.466797 -12.439331 7
0.492798 20.404297 -12.467773 7
0.40295401 19.836914 -15.366577 7
0.408142 19.739258 -15.363647 7
0.40856901 19.694336 -15.406494 7
0.40893599 19.649414 -15.44873 7
0.41412401 19.551758 -15.445068 7
0.409363 19.523438 -15.583496 7
-0.60497999 0.77832001 -40.457642 7
-0.044495001 -2.8662109 29.755005 7
0.34960899 18.207031 -15.374634 7
0.34960899 18.166016 -15.417236 7
0.348694 18.133789 -15.468018 7
0.351257 18.068359 -15.486694 7
0.352173 18.018555 -15.521118 7
0.35430899 17.957031 -15.543335 7
0.351257 17.946289 -15.613892 7
0.35345501 17.883789 -15.635864 7
0.39587399 17.65625 -12.580688 7
0.398193 17.599609 -12.60376 7
0.40051299 17.543945 -12.626831 7
0.400024 17.514648 -12.671997 7
0.40325901 17.448242 -12.687256 7
0.40142801 17.432617 -12.743042 7
0.295959 16.621094 -15.578979 7
0.298767 16.555664 -15.592773 7
0.29736301 16.527344 -15.644409 7
-0.039062001 -2.851562 26.088989 7
-0.036743 -2.7314451 26.079102 7
-0.034118999 -2.670898 26.056885 7
-0.040771 -2.6201169 26.13855 7
-0.040160999 -2.561523 26.13916 7
0.34484899 16.308594 -12.619751 7
0.346802 16.256836 -12.642822 7
0.35278299 16.170898 -12.634766 7
0.35376 16.12793 -12.664917 7
0.35424799 16.089844 -12.699097 7
0.35620099 16.039062 -12.721558 7
0.355225 16.014648 -12.766968 7
0.35675001 15.966797 -12.792969 7
0.240051 15.015625 -15.635498 7
0.23803701 14.989258 -15.688232 7
0.239014 14.941406 -15.714844 7
0.23803701 14.908203 -15.758667 7
0.239014 14.859375 -15.785034 7
0.237 14.833008 -15.837769 7
0.23205601 14.829102 -15.916992 7
-0.047180001 -2.8457029 24.603271 7
-0.040894002 -2.7841799 24.546509 7
-0.045898002 -2.735352 24.605225 7
-0.058594 -2.695312 24.744995 7
-0.044555999 -2.624023 24.606689 7
-0.047240999 -2.5732419 24.641968 7
0.300598 15.004883 -12.644897 7
0.302185 14.958008 -12.668213 7
0.30584699 14.893555 -12.674927 7
0.30847201 14.838867 -12.689819 7
0.30853301 14.805664 -12.724731 7
0.310608 14.753906 -12.743408 7
0.31329301 14.700195 -12.757568 7
0.31378201 14.661133 -12.787964 7
0.182739 13.550781 -15.688721 7
0.18219 13.513672 -15.72522 7
0.182739 13.46875 -15.752319 7
-1.816833 -33.625977 -21.644653 7
-1.802307 -33.556641 -21.479858 7
-1.811829 -33.686523 -21.452271 7
-1.825317 -33.851562 -21.447021 7
-1.8399661 -34.027344 -21.447632 7
-1.848877 -34.15332 -21.415283 7
-1.868713 -34.37207 -21.443481 7
-1.8798831 -34.517578 -21.422729 7
-1.5068361 -33.385742 -15.496704 7
-1.515259 -33.499023 -15.453979 7
-1.52417 -33.616211 -15.41333 7
-1.541199 -33.806641 -15.408447 7
-1.555847 -33.976562 -15.392334 7
-1.572937 -34.168945 -15.385742 7
-1.588745 -34.349609 -15.373291 7
-1.605225 -34.535156 -15.362671 7
-0.051392 -2.8798831 23.183105 7
-0.04834 -2.824219 23.161011 7
-0.045837 -2.769531 23.144775 7
-0.038086001 -2.7080081 23.076294 7
-0.044555999 -2.6650391 23.146606 7
-0.055176001 -2.6269529 23.256958 7
0.25585899 13.740234 -12.675171 7
0.258118 13.69043 -12.690674 7
0.257507 13.660156 -12.727051 7
0.26263401 13.589844 -12.721069 7
0.263733 13.547852 -12.744507 7
0.26428199 13.509766 -12.772217 7
0.266541 13.459961 -12.786743 7
0.131897 12.03125 -15.691772 7
0.13128699 11.993164 -15.724731 7
0.13299599 11.943359 -15.738647 7
0.13299599 11.901367 -15.766724 7
0.132935 11.861328 -15.794556 7
0.131226 11.830078 -15.836792 7
0.133423 11.774414 -15.845337 7
0.129456 11.755859 -15.906738 7
0.126038 11.733398 -15.963379 7
-1.69519 -29.580078 -21.233032 7
-1.700317 -29.670898 -21.190918 7
-1.709167 -29.788086 -21.169678 7
-1.401062 -28.24707 -18.176392 7
-1.385498 -28.166992 -18.02356 7
-1.3894041 -28.242188 -17.976685 7
-1.398865 -28.360352 -17.958374 7
-1.408875 -28.482422 -17.943359 7
-1.365845 -29.499023 -15.339966 7
-1.36676 -29.542969 -15.272949 7
-1.37677 -29.663086 -15.248169 7
-1.388062 -29.792969 -15.228638 7
-1.402405 -29.950195 -15.222412 7
-1.411194 -30.060547 -15.19043 7
-1.417603 -30.150391 -15.147095 7
-1.431946 -30.306641 -15.139282 7
-1.4462889 -30.462891 -15.130981 7
-1.455078 -30.574219 -15.097046 7
0.207764 12.501953 -12.809937 7
0.208984 12.460938 -12.8302 7
0.211365 12.411133 -12.841919 7
0.21435501 12.358398 -12.848755 7
0.21435501 12.323242 -12.87793 7
0.216736 12.273438 -12.88916 7
0.220337 12.216797 -12.891235 7
-1.327209 -22.714844 -20.906982 7
-1.335144 -22.817383 -20.901611 7
-1.341858 -22.911133 -20.887817 7
-1.358215 -23.068359 -20.934326 7
-1.36615 -23.171875 -20.927734 7
-1.376709 -23.291016 -20.93689 7
-1.38147 -23.373047 -20.909424 7
-1.38562 -23.451172 -20.878052 7
-1.3922729 -23.545898 -20.862061 7
-1.221069 -24.108398 -17.703491 7
-1.230347 -24.217773 -17.696411 7
-1.195557 -25.588867 -15.035767 7
-1.201599 -25.671875 -15.00293 7
-1.212891 -25.793945 -14.994751 7
-1.218994 -25.876953 -14.961426 7
-1.233459 -26.022461 -14.967651 7
-1.242798 -26.130859 -14.948853 7
-1.24823 -26.208984 -14.911255 7
-1.259521 -26.332031 -14.900757 7
-1.272766 -26.469727 -14.898926 7
-0.046997 -2.547852 20.688965 7
-0.054931998 -2.511719 20.764404 7
-0.048827998 -2.4589839 20.718506 7
-0.044799998 -2.4091799 20.689941 7
-0.050719999 -2.3701169 20.747681 7
0.16369601 11.291992 -12.810791 7
0.164307 11.254883 -12.832886 7
0.16687 11.206055 -12.840698 7
0.170044 11.154297 -12.844116 7
0.170044 11.120117 -12.870117 7
0.173218 11.068359 -12.873169 7
0.17382801 11.029297 -12.894531 7
0.171875 11.004883 -12.934326 7
0.17511 10.953125 -12.936768 7
0.17382801 10.926758 -12.971802 7
0.17248499 10.898438 -13.006836 7
-1.195557 -18.742188 -20.762817 7
-1.1862791 -18.742188 -20.656372 7
-1.198059 -18.857422 -20.68689 7
-1.206421 -18.955078 -20.694824 7
-1.207275 -19.010742 -20.653931 7
-1.215149 -19.15625 -20.611572 7
-1.224915 -19.262695 -20.627197 7
-1.2346801 -19.368164 -20.642334 7
-1.2457891 -19.482422 -20.665649 7
-1.250061 -19.555664 -20.645386 7
-1.257751 -19.650391 -20.646484 7
-1.256104 -19.743164 -20.540039 7
-1.0461431 -20.163086 -17.505615 7
-1.048645 -20.264648 -17.421753 7
-1.061096 -20.385742 -17.444336 7
-1.094788 -22.780273 -14.734009 7
-1.103943 -22.880859 -14.723145 7
-1.110962 -22.96582 -14.702148 7
-1.117371 -23.047852 -14.677246 7
-1.12854 -23.162109 -14.675293 7
-1.137695 -23.260742 -14.662964 7
-0.052551001 -2.5517581 19.695679 7
-0.065857001 -2.523438 19.811157 7
-0.067870997 -2.438477 19.840454 7
-0.050841998 -2.3769529 19.708008 7
-0.051514 -2.3349609 19.719604 7
-0.060608 -2.300781 19.800171 7
-0.063354 -2.2597661 19.828979 7
-0.89502001 -16.539062 -17.266113 7
-0.90094 -16.614258 -17.261353 7
-0.90295398 -18.970703 -14.708984 7
-0.90887499 -19.043945 -14.693726 7
-0.91705298 -19.129883 -14.689331 7
-0.91723597 -19.167969 -14.643921 7
-0.92614698 -19.259766 -14.6427 7
-0.93646199 -19.360352 -14.64856 7
-0.94604498 -19.456055 -14.650391 7
-0.95202601 -19.529297 -14.633301 7
-0.95880097 -19.607422 -14.619873 7
-0.96057099 -19.691406 -14.533691 7
-0.97314501 -19.805664 -14.548584 7
-0.97778302 -19.864258 -14.522583 7
-0.98248303 -19.96582 -14.449585 7
-0.99285901 -20.067383 -14.452393 7
-0.99450701 -20.114258 -14.411743 7
-1.234802 -24.066406 -11.611938 7
-1.245911 -24.174805 -11.595703 7
-1.2614141 -24.313477 -11.595337 7
-0.061156999 -2.5400391 18.731201 7
-0.051392 -2.488281 18.662598 7
-0.055847 -2.453125 18.703247 7
-0.063231997 -2.4199221 18.766602 7
-0.064636 -2.3798831 18.784058 7
-0.054931998 -2.329102 18.714966 7
-0.059326001 -2.292969 18.755127 7
-0.063721001 -2.2558589 18.795288 7
-0.79888898 -16.347656 -14.470215 7
-0.80517602 -16.418945 -14.463379 7
-0.80682403 -16.463867 -14.432373 7
-0.81237799 -16.53125 -14.421143 7
-0.81561297 -16.584961 -14.397827 7
-0.81805402 -16.634766 -14.370117 7
-0.82360798 -16.701172 -14.358398 7
-0.830688 -16.775391 -14.354126 7
-0.836182 -16.842773 -14.342041 7
-0.84320098 -16.917969 -14.337158 7
-1.113281 -21.391602 -11.519653 7
-1.122681 -21.480469 -11.504395 7
-1.129028 -21.550781 -11.477051 7
-1.137695 -21.636719 -11.458252 7
-1.1463619 -21.72168 -11.439087 7
-0.170166 -5.7324219 17.75293 7
-0.16699199 -5.686523 17.744751 7
-0.172424 -5.6611328 17.796631 7
-0.181885 -5.6445308 17.876099 7
-0.184204 -5.5722661 17.919434 7
-0.172363 -5.5058589 17.850342 7
-0.169128 -5.4589839 17.841431 7
-0.066344999 -2.527344 17.831543 7
-0.066284001 -2.488281 17.837524 7
-0.063842997 -2.4472661 17.826416 7
-0.061462 -2.40625 17.815186 7
-0.064514004 -2.371094 17.843872 7
-0.070739999 -2.3388669 17.89563 7
-0.071471997 -2.300781 17.906982 7
-0.062804997 -2.2529299 17.849365 7
-0.068236999 -2.219727 17.895142 7
-0.068176001 -2.1806641 17.900391 7
-0.99420202 -18.885742 -11.404419 7
-1.0016479 -18.958984 -11.38855 7
-1.009155 -19.03125 -11.372314 7
-1.01825 -19.115234 -11.362305 7
-0.172913 -5.7597661 16.775391 7
-0.158691 -5.688477 16.696899 7
-0.15033001 -5.632812 16.656128 7
-0.146973 -5.5888672 16.647949 7
-0.153625 -5.5683589 16.704712 7
-0.163574 -5.5556641 16.783569 7
-0.164368 -5.5205078 16.802246 7
-0.155212 -5.4638672 16.755493 7
-0.044495001 -2.222656 16.825684 7
-0.049438 -2.191406 16.865479 7
-0.052673001 -2.157227 16.893799 7
-0.060120001 -2.128906 16.950806 7
-0.060059 -2.0908201 16.955933 7
-0.923401 -17.008789 -11.292114 7
-0.939026 -17.152344 -11.272705 7
-0.951294 -17.276367 -11.238525 7
-1.0411381 -19.016602 -9.5543213 7
-1.05426 -19.142578 -9.5065918 7
-0.046204001 -2.1435549 15.35022 7
-0.035889 -2.234375 13.960205 7
-0.036865 -2.2060549 13.971191 7
-0.037842002 -2.1777339 13.9823 7
-0.038818002 -2.148438 13.993408 7
-0.044799998 -2.125 14.032715 7
-0.041747998 -2.0917971 14.020874 7
-0.036681999 -2.0576169 13.997437 7
-0.037659001 -2.0283201 14.008179 7
-0.038573999 -2 14.018677 7
-0.041565001 -1.972656 14.040771 7
-0.048583999 -1.9482419 14.085449 7
-0.042296998 -2.2001951 13.440674 7
-0.043334998 -2.1738279 13.45166 7
-0.042236 -2.1435549 13.451172 7
-0.052673001 -2.125 13.513306 7
-0.047363002 -2.0917971 13.490112 7
-0.043152001 -2.0595701 13.472534 7
-0.039978001 -2.027344 13.460449 7
-0.044128001 -2.003906 13.488281 7
-0.045166001 -1.976562 13.498779 7
-0.039184999 -2.2275391 12.825806 7
-0.034729 -2.195312 12.808716 7
-0.032531999 -2.1660161 12.802856 7
-0.035828002 -2.1435549 12.824829 7
-0.035767 -2.1162109 12.8302 7
-0.042358 -2.0957029 12.869263 7
-0.036804002 -2.063477 12.846069 7
-0.041198999 -2.0410161 12.873779 7
-0.033447001 -2.0058589 12.839111 7
-0.034485001 -1.980469 12.849609 7
-0.035521999 -1.954102 12.860229 7
-0.036621001 -1.9287111 12.870728 7
-0.44982901 -9.0957031 10.891479 7
-0.44751 -9.0654297 10.905029 7
-0.44531199 -9.0351562 10.918457 7
-0.44415301 -9.0087891 10.935791 7
-0.44073501 -8.9746094 10.944824 7
-0.042052999 -2.2392581 12.339844 7
-0.039673001 -2.210938 12.333984 7
-0.038513001 -2.1845701 12.33374 7
-0.033875 -2.155273 12.316528 7
-0.036194 -2.132812 12.333252 7
-0.037292 -2.1064451 12.343872 7
-0.038391002 -2.082031 12.354858 7
-0.039551001 -2.0576169 12.365356 7
-0.044066999 -2.035156 12.393188 7
-0.042908002 -2.0087891 12.392456 7
-0.039429002 -1.9794919 12.380493 7
-0.038208 -1.952148 12.379517 7
-0.038208 -1.9267581 12.384399 7
-0.035278 -2.110352 11.837158 7
-0.169312 -5.4042969 10.749878 7
-0.16302501 -5.367188 10.737915 7
-0.164307 -5.3486328 10.755737 7
-0.160583 -5.3173828 10.75354 7
-0.164307 -5.3037109 10.781372 7
-0.159302 -5.2705078 10.774048 7
-0.159302 -5.2480469 10.786743 7
-0.169312 -5.249023 10.839233 7
-0.171753 -5.2314448 10.861938 7
-0.165527 -5.1962891 10.849365 7
-0.16302501 -5.1679692 10.851807 7
-0.16937301 -5.4375 10.169922 7
-0.164124 -5.405273 10.163574 7
-0.166687 -5.389648 10.186157 7
-0.153687 -5.3183589 10.163208 7
-0.14721701 -5.2832031 10.151611 7
-0.14325 -5.2529302 10.149536 7
-0.144592 -5.235352 10.166992 7
-0.14978001 -5.2060552 10.21167 7
-0.15240499 -5.1904302 10.234009 7
-0.171021 -5.422852 9.7008057 7
-0.17645299 -5.3964839 9.7457275 7
-0.171082 -5.3642578 9.7397461 7
-0.169678 -5.3222661 9.760376 7
-0.15618899 -5.2714839 9.7250977 7
-0.154846 -5.2480469 9.7329102 7
-0.158875 -5.2382808 9.7602539 7
-0.15753201 -5.195312 9.7802734 7
-0.161621 -5.1845698 9.807251 7
-0.161621 -5.164062 9.8197021 7
-0.172424 -5.1679692 9.8708496 7
-0.16973899 -5.141602 9.8735352 7
-0.040771 -2.125 10.564697 7
-0.043396 -2.1064451 10.581055 7
-0.039306998 -2.0800779 10.569458 7
-0.037964001 -2.0576169 10.56897 7
-0.037903 -2.0361331 10.573975 7
-0.040587999 -2.016602 10.59021 7
-0.037903 -1.9931639 10.583862 7
-0.039184999 -1.97168 10.59436 7
-0.045959 -1.957031 10.627075 7
-0.047240999 -1.93457 10.637451 7
-0.147461 -5.1298828 9.2915039 7
-0.154541 -5.125977 9.3276367 7
-0.025757 -1.9169919 9.1722412 7
-0.02417 -1.8974611 9.1715088 7
-0.02417 -1.87793 9.1761475 7
-0.035094999 -1.869141 9.2192383 7
-0.031920999 -1.8486331 9.2127686 7
-0.028809 -1.828125 9.206543 7
-0.022522001 -1.8037111 9.1888428 7
-0.019347999 -1.783203 9.1824951 7
-0.025635 -1.7705081 9.2086182 7
-0.023987001 -1.75 9.2075195 7
-0.025513001 -1.732422 9.2174072 7
-0.025513001 -1.7138669 9.2216797 7
-0.031738002 -1.701172 9.2479248 7
-0.034851 -1.68457 9.2631836 7
-0.037964001 -1.668945 9.2781982 7
-0.031677 -1.6455081 9.260376 7
-0.035156 -1.601562 8.9620361 7
-0.018616 -1.910156 8.2349854 7
-0.018555 -1.892578 8.2397461 7
-0.016785 -1.875977 8.2390137 7
-0.015076 -1.858398 8.2381592 7
-0.020264 -1.845703 8.2590332 7
-0.030701 -1.839844 8.2960215 7
-0.030701 -1.822266 8.300415 7
-0.027161 -1.8037111 8.2941895 7
-0.023621 -1.78418 8.2878418 7
-0.023621 -1.768555 8.2921143 7
-0.021850999 -1.750977 8.2911377 7
-0.021850999 -1.734375 8.2955322 7
-0.021850999 -1.71875 8.2996826 7
-0.018371999 -1.699219 8.2930908 7
-0.025269 -1.688477 8.3189697 7
-0.028198 -1.896484 8.0072021 7
-0.028198 -1.8798831 8.0119629 7
-0.028137 -1.8642581 8.0164785 7
-0.028137 -1.8486331 8.0211182 7
-0.029967999 -1.8349611 8.0310059 7
-0.037108999 -1.825195 8.0570068 7
-0.024475001 -1.798828 8.0238037 7
-0.026306 -1.785156 8.0338135 7
-0.024475001 -1.767578 8.0327148 7
-0.020812999 -1.749023 8.0262451 7
-0.024475001 -1.737305 8.0413818 7
-0.024413999 -1.72168 8.0457764 7
-0.033386 -1.712891 8.0767822 7
-0.031555001 -1.695312 8.0758057 7
-0.027953999 -1.6767581 8.0690918 7
-0.031555001 -1.664062 8.0841064 7
-0.037781 -1.65332 8.1099854 7
-0.032349002 -1.6337889 8.0979004 7
-0.028748 -1.615234 8.0910645 7
-0.032349002 -1.601562 8.1057129 7
-0.019121001 -2.098016 12.803076 7
-0.14848299 -5.2119422 9.7895947 7
-0.061597001 -1.869127 9.009655 7
-0.069316998 -1.6758471 9.130518 7
-0.026071999 -1.8885961 8.0227757 7
-0.025379 -1.717682 8.0903959 7
-0.006453 -1.875047 7.6046982 7
-0.034933001 -1.873614 7.2692981 7
-0.036184002 -1.7388901 7.3472381 7
-0.037393 -1.600969 7.4196138 7
-0.015822999 -1.600992 7.0869818 7
0.047936 -0.313512 4.1349678 7
0.027565001 -0.318075 4.1571889 7
0.045469999 -0.29435301 3.9757619 7
0.068104997 -0.28721601 3.9910729 7
0.050776999 -0.29060999 4.006031 7
0.052195001 -0.29247099 4.0214558 7
0.055762 -0.28453201 4.037744 7
0.051628001 -0.287343 4.0555902 7
0.057978 -0.284408 4.0706491 7
0.034506999 -0.285658 4.0884652 7
0.045935001 -0.27890399 4.1028061 7
0.057328001 -0.271478 4.1165142 7
0.044231001 -0.265331 4.1327438 7
0.055326998 -0.25676399 4.145216 7
-0.089299001 -2.452899 19.499352 7
-0.020035001 -2.172466 16.341084 7
-0.43724701 -9.1490803 10.350566 7
-0.13751701 -5.302453 10.966713 7
-0.025835 -2.10462 11.60677 7
-0.0062660002 -1.995198 10.772635 7
-0.20213801 -5.1650009 10.035595 7
-0.028696001 -1.845121 8.06497 7
-0.037951 -1.6506931 8.1615677 7
-0.003274 -1.745625 7.4919238 7
-0.027758 -1.859278 7.1668458 7
-0.025041001 -1.694592 7.2022161 7
