# .PCD v0.7 - Point Cloud Data file format
VERSION 0.7
FIELDS x y z intensity
SIZE 4 4 4 4
TYPE F F F F
COUNT 1 1 1 1
WIDTH 430
HEIGHT 1
VIEWPOINT 0 0 0 1 0 0 0
POINTS 430
DATA ascii
1.045776 31.636719 -17.338257 7
1.047913 31.537109 -17.379639 7
1.049194 31.461914 -17.436035 7
-0.044312 -5.6914058 53.983032 7
-0.059021 -5.6035161 54.345459 7
0.88598597 28.004883 -17.305908 7
0.886536 27.950195 -17.365356 7
0.88781703 27.881836 -17.414917 7
0.89086902 27.773438 -17.437622 7
0.89392102 27.665039 -17.459839 7
0.89428699 27.616211 -17.521729 7
0.89648402 27.526367 -17.556885 7
0.070068002 -2.3505859 47.369507 7
0.810242 26.431641 -17.3479 7
0.81573498 26.241211 -17.400635 7
0.81707799 26.173828 -17.445435 7
0.81768799 26.118164 -17.500122 7
0.81951898 26.040039 -17.537476 7
0.821899 25.952148 -17.567627 7
-0.068908997 -5.5683589 45.961914 7
-0.099365003 -5.5371089 46.578857 7
0.73919702 24.804688 -17.280029 7
0.73907501 24.764648 -17.342041 7
0.73864698 24.728516 -17.407593 7
0.74011201 24.660156 -17.44812 7
0.742432 24.578125 -17.477417 7
0.74578899 24.477539 -17.492188 7
0.74945098 24.37207 -17.503052 7
0.74444598 24.415039 -17.629395 7
-0.90936297 -3.7099609 -60.281006 7
0.74115002 23.737305 -14.495605 7
0.74572802 23.625977 -14.502197 7
0.74939001 23.530273 -14.518188 7
0.75097698 23.467773 -14.557007 7
0.75372303 23.385742 -14.582275 7
0.75762898 23.285156 -14.594238 7
0.76068097 23.199219 -14.615356 7
0.68450898 22.967773 -17.555542 7
-0.82000703 -3.8105471 -53.296631 7
0.62670898 20.759766 -14.426514 7
0.62786901 20.707031 -14.464722 7
0.62664801 20.688477 -14.527832 7
0.62738001 20.640625 -14.569458 7
0.63098103 20.556641 -14.581909 7
0.63317901 20.490234 -14.608643 7
-0.69549602 3.5888669 -47.779907 7
-0.69641101 3.472656 -47.805542 7
-0.70550501 -0.586914 -44.001099 7
-0.87585402 -3.851562 -45.86731 7
-0.85607898 -3.9375 -45.549316 7
-0.82409698 -4.0048828 -45.0448 7
0.037475999 -2.0449221 32.734985 7
0.047607001 -1.887695 32.598877 7
0.563232 19.196289 -14.572632 7
0.56488001 19.140625 -14.602661 7
0.56909198 19.053711 -14.606079 7
0.57110602 18.993164 -14.63208 7
0.57385302 18.922852 -14.650024 7
-0.70953399 3.3027339 -43.879883 7
0.045593001 -1.9130861 30.701782 7
-0.68988001 3.467773 -40.550903 7
-0.70752001 3.3886721 -40.820923 7
-0.716187 3.297852 -40.956909 7
-0.70550501 -0.602539 -37.792603 7
-0.80633497 -4.108398 -38.562988 7
-0.108276 -5.2626948 30.158936 7
-0.112366 -5.2050781 30.223267 7
0.033020001 -1.7880861 28.81958 7
0.469421 16.227539 -14.775146 7
0.46820101 16.201172 -14.825684 7
0.462219 16.21875 -14.922241 7
0.46142599 16.1875 -14.96875 7
0.40509 15.348633 -14.626465 7
0.407471 15.290039 -14.641357 7
0.408508 15.244141 -14.668945 7
0.40960699 15.197266 -14.696167 7
0.41198701 15.138672 -14.710571 7
0.41302499 15.092773 -14.737427 7
0.41442901 15.041016 -14.760254 7
0.28576699 14.208984 -17.606323 7
0.284058 14.176758 -17.658569 7
0.28784201 14.104492 -17.654175 7
0.289307 14.046875 -17.67334 7
0.28021199 14.071289 -17.800903 7
0.27612299 14.055664 -17.876587 7
0.35882601 13.75 -14.702271 7
0.35888699 13.710938 -14.734619 7
0.360962 13.65625 -14.748901 7
0.36206099 13.610352 -14.771973 7
0.36065701 13.583008 -14.817505 7
0.36328101 13.526367 -14.826904 7
0.36328101 13.487305 -14.858765 7
0.36035201 13.469727 -14.917603 7
0.222473 12.586914 -17.612183 7
0.22106899 12.550781 -17.656738 7
0.22021499 12.510742 -17.695801 7
0.29748499 12.792969 -14.546509 7
0.29553199 12.769531 -14.594971 7
0.293396 12.745117 -14.643433 7
0.294067 12.703125 -14.668701 7
0.29736301 12.642578 -14.671021 7
0.29956099 12.589844 -14.682007 7
0.30023199 12.547852 -14.707153 7
0.30023199 12.508789 -14.736572 7
0.30145299 12.463867 -14.756714 7
0.301514 12.424805 -14.785889 7
0.30004901 12.396484 -14.829224 7
0.30114701 12.350586 -14.848877 7
0.30120799 12.310547 -14.87793 7
0.29864499 12.289062 -14.930176 7
0.29663101 12.263672 -14.977783 7
0.154419 11.099609 -17.642578 7
0.156128 11.045898 -17.653442 7
0.156128 11 -17.679321 7
0.15307599 10.97168 -17.735596 7
0.152649 10.928711 -17.766479 7
0.149536 10.899414 -17.82251 7
-0.113708 -5.1513672 23.335449 7
0.028137 -1.875977 22.491821 7
0.022278 -1.831055 22.554565 7
0.021729 -1.782227 22.564575 7
0.02887 -1.7255861 22.499512 7
0.023621 -1.6806639 22.555786 7
0.0177 -1.634766 22.61792 7
0.24884 11.200195 -14.725708 7
0.24890099 11.162109 -14.751953 7
0.25128201 11.110352 -14.758911 7
0.25024399 11.078125 -14.794434 7
0.250305 11.039062 -14.820679 7
0.249817 11.001953 -14.851318 7
0.248169 10.973633 -14.891846 7
0.24597199 10.946289 -14.937012 7
0.243774 10.919922 -14.982178 7
0.242737 10.887695 -15.017578 7
0.017578 -1.919922 21.367554 7
0.011292 -1.878906 21.430054 7
0.0056759999 -1.835938 21.486938 7
0.0069579999 -1.7880861 21.479736 7
0.01709 -1.731445 21.391235 7
0.0083010001 -1.6923831 21.476807 7
0.0039059999 -1.6474611 21.521606 7
0.180664 10.21875 -14.738892 7
0.18194599 10.173828 -14.753174 7
0.185059 10.120117 -14.752075 7
0.185791 10.078125 -14.770996 7
0.190063 10.018555 -14.759644 7
0.19323701 9.9248047 -14.781616 7
0.192139 9.8925781 -14.815186 7
0.191589 9.8574219 -14.843262 7
0.19531199 9.7998047 -14.836182 7
0.197144 9.7519531 -14.844238 7
0.191223 9.7421885 -14.917358 7
0.19000199 9.7089844 -14.950073 7
0.187805 9.6425781 -15.015869 7
-1.779297 -26.643555 -21.550659 7
-1.7886961 -26.758789 -21.540283 7
-1.798767 -26.879883 -21.533081 7
-1.808167 -26.996094 -21.521729 7
-1.814941 -27.09375 -21.494873 7
-1.8288569 -27.242188 -21.509033 7
-1.8323359 -27.318359 -21.462769 7
-1.840454 -27.425781 -21.442383 7
-1.845215 -27.509766 -21.402954 7
-1.535522 -28.175781 -15.52771 7
-1.550842 -28.330078 -15.528931 7
-1.560913 -28.445312 -15.505981 7
-1.586975 -28.720703 -15.485107 7
-1.605713 -28.94043 -15.430054 7
0.016235 -1.8955081 20.196655 7
0.015625 -1.851562 20.207031 7
0.010315 -1.811523 20.257812 7
0.0070190001 -1.769531 20.291382 7
0.015747 -1.717773 20.220337 7
0.01178 -1.6767581 20.259277 7
0.0051270002 -1.637695 20.321289 7
-1.356323 -24.386719 -15.471313 7
-1.3703001 -24.521484 -15.479004 7
-1.3690799 -24.551758 -15.414062 7
-1.385986 -24.707031 -15.434204 7
-1.397217 -24.823242 -15.427246 7
-1.402222 -24.896484 -15.390991 7
-1.40863 -24.980469 -15.36084 7
-1.41925 -25.09082 -15.349609 7
-1.431213 -25.212891 -15.34436 7
0.016113 -1.880859 19.186523 7
0.0042110002 -1.8056639 19.293701 7
0.0056759999 -1.761719 19.286743 7
0.0071410001 -1.71875 19.279419 7
0.0036619999 -1.679688 19.312622 7
0.002991 -1.637695 19.322388 7
-1.128723 -20.198242 -15.378052 7
-1.1398931 -20.305664 -15.385376 7
-1.143738 -20.367188 -15.355225 7
-1.151917 -20.456055 -15.347168 7
-1.158691 -20.536133 -15.331177 7
-1.165466 -20.615234 -15.315308 7
-1.165588 -20.654297 -15.265991 7
-1.170898 -20.725586 -15.242432 7
-0.000244 -1.908203 18.321167 7
0.010925 -1.859375 18.239136 7
0.0057979999 -1.8232419 18.284058 7
0.001343 -1.787109 18.323364 7
-0.0045170002 -1.751953 18.373901 7
0.0065919999 -1.703125 18.291382 7
0.0051879999 -1.664062 18.307251 7
0.0044559999 -1.625 18.317139 7
-0.0090330001 -1.890625 17.478882 7
-0.0034789999 -1.810547 17.447754 7
-0.011353 -1.779297 17.51001 7
-0.013672 -1.704102 17.535645 7
-0.0065310001 -1.6611331 17.488159 7
-0.0079960003 -1.624023 17.503784 7
-0.127869 -5.0800781 16.702637 7
-0.126221 -5.0410161 16.703735 7
-0.12866201 -5.0097661 16.732422 7
-0.138611 -4.9941411 16.810547 7
-0.144409 -4.9707031 16.861084 7
-0.137756 -4.9199219 16.828857 7
-0.12866201 -4.8652339 16.779907 7
-0.125305 -4.8212891 16.769287 7
-0.0045779999 -1.892578 16.576294 7
-0.002075 -1.855469 16.563599 7
-0.002014 -1.818359 16.568115 7
-0.002808 -1.78418 16.578247 7
-0.0077510001 -1.751953 16.61731 7
-0.0077510001 -1.716797 16.621582 7
-0.001038 -1.674805 16.579712 7
-0.0043950002 -1.642578 16.606812 7
-0.0043330002 -1.605469 16.610962 7
-0.131348 -5.0820308 15.898438 7
-0.12866201 -5.0410161 15.894287 7
-0.13043199 -5.0107422 15.917236 7
-0.13830601 -4.9931641 15.978516 7
-0.132019 -4.8417969 15.987427 7
-0.129456 -4.8027339 15.982544 7
-0.011658 -1.910156 15.873047 7
-0.011658 -1.875977 15.87793 7
-0.0072019999 -1.837891 15.85376 7
-0.0037229999 -1.800781 15.835205 7
-0.0072019999 -1.769531 15.862793 7
-0.011597 -1.7392581 15.89563 7
-0.016785 -1.708984 15.934448 7
-0.011475 -1.670898 15.904297 7
-0.0071410001 -1.6337889 15.879395 7
-0.010559 -1.6005861 15.906494 7
-0.0045170002 -1.907227 15.108521 7
-0.0044559999 -1.875 15.113159 7
0.000122 -1.837891 15.089111 7
0.002869 -1.8037111 15.076416 7
-0.001709 -1.775391 15.109741 7
-0.00073199999 -1.742188 15.108154 7
-0.012573 -1.71875 15.187012 7
-0.0079960003 -1.6826169 15.162598 7
0.002075 -1.642578 15.103638 7
-0.002502 -1.6142581 15.13623 7
0.00054899999 -1.90918 14.439209 7
-0.0051879999 -1.8837889 14.478271 7
-0.003235 -1.820312 14.47583 7
0.0054319999 -1.782227 14.428711 7
0.0045779999 -1.751953 14.439087 7
0.0074459999 -1.71875 14.426025 7
-0.000244 -1.6943361 14.476074 7
0.00079299998 -1.6630861 14.474487 7
-0.000183 -1.6318361 14.484375 7
0.0051270002 -1.8994139 13.769165 7
0.001099 -1.874023 13.796753 7
6.0999999e-05 -1.84668 13.807007 7
0.001099 -1.816406 13.805786 7
0.0062259999 -1.782227 13.781738 7
0.0072630001 -1.751953 13.780396 7
0.0052490002 -1.724609 13.796143 7
0.0052490002 -1.695312 13.800293 7
-0.00079299998 -1.670898 13.838745 7
0.002319 -1.637695 13.825684 7
0.0053099999 -1.606445 13.812744 7
-0.011719 -1.581055 10.548828 7
-0.0090330001 -1.558594 10.541626 7
-0.0090330001 -1.5361331 10.545532 7
-0.0089720003 -1.514648 10.549072 7
-0.0089720003 -1.4931639 10.552856 7
-0.0062259999 -1.4482419 10.54895 7
-0.168823 -5.101562 9.4093018 7
-0.167419 -5.0800781 9.4168701 7
-0.1604 -5.046875 9.4050293 7
-0.164673 -5.0361328 9.4315186 7
-0.157593 -5.0029302 9.4196777 7
-0.154724 -4.9775391 9.421875 7
-0.14068601 -4.9277339 9.385376 7
-0.14208999 -4.9121089 9.4022217 7
-0.143555 -4.8964839 9.4187012 7
-0.144897 -4.8808589 9.4354248 7
-0.14208999 -4.8544922 9.4373779 7
-0.14636201 -4.8457031 9.4638672 7
-0.151978 -4.8369141 9.494751 7
-0.153381 -4.8212891 9.5114746 7
-0.166077 -5.1044922 8.9713135 7
-0.169006 -5.092773 8.9931641 7
-0.166077 -5.0693359 8.9958496 7
-0.166077 -5.0507808 9.0078115 7
-0.167603 -5.0361328 9.0247803 7
-0.161743 -5.0048828 9.0179443 7
-0.15734901 -4.9775391 9.015625 7
-0.150024 -4.9433589 9.0037842 7
-0.14563 -4.9160161 9.0014648 7
-0.14569101 -4.898438 9.0134277 7
-0.14569101 -4.8808589 9.0250244 7
-0.147156 -4.8662109 9.0415039 7
-0.150085 -4.8535161 9.0628662 7
-0.150085 -4.835938 9.0744629 7
-0.15734901 -4.8320308 9.1101074 7
-0.158813 -4.8173828 9.126709 7
-0.16333 -5.1054692 8.5203857 7
-0.160339 -5.0810552 8.5233154 7
-0.16339099 -5.070312 8.5446777 7
-0.172424 -5.0732422 8.5847168 7
-0.16644301 -5.0429692 8.5782471 7
-0.157288 -5.0068359 8.5627441 7
-0.166382 -5.0097661 8.6026611 7
-0.152771 -4.9628911 8.5726318 7
-0.14672901 -4.9335942 8.565918 7
-0.142212 -4.907227 8.5638428 7
-0.14068601 -4.8857422 8.5709229 7
-0.14520299 -4.8789058 8.5968018 7
-0.13916001 -4.8486328 8.5897217 7
-0.143677 -4.8417969 8.6153564 7
-0.154358 -4.8466802 8.6601562 7
-0.16491701 -4.851562 8.7047119 7
-0.15582301 -4.8144531 8.6878662 7
-0.16333 -5.1191411 8.1313477 7
-0.16333 -5.1044922 8.1436768 7
-0.15863 -5.078125 8.142334 7
-0.157104 -5.0419922 8.1622314 7
-0.15863 -5.0292969 8.1789551 7
-0.157043 -5.0097661 8.1864014 7
-0.144592 -4.952148 8.1739502 7
-0.13677999 -4.9189448 8.1630859 7
-0.138367 -4.90625 8.1794434 7
-0.136719 -4.8710942 8.1983643 7
-0.139893 -4.860352 8.2193604 7
-0.143005 -4.8505859 8.2401123 7
-0.14929201 -4.8320308 8.2819824 7
-0.15240499 -4.8056641 8.314209 7
-0.168091 -5.1113281 7.7365718 7
-0.160034 -5.0800781 7.7269292 7
-0.15838601 -5.061523 7.7348628 7
-0.160034 -5.0507808 7.7514648 7
-0.163269 -5.0410161 7.7723389 7
-0.160034 -5.0185552 7.7753911 7
-0.156738 -4.9980469 7.7789311 7
-0.156799 -4.9824219 7.790771 7
-0.147034 -4.9462891 7.776123 7
-0.147034 -4.9316411 7.7879639 7
-0.137329 -4.8955078 7.7731929 7
-0.138916 -4.8837891 7.7893071 7
-0.13726801 -4.8652339 7.7965088 7
-0.137329 -4.8505859 7.808228 7
-0.142212 -4.844727 7.833374 7
-0.142151 -4.8300781 7.8449712 7
-0.15356401 -4.8378911 7.8883061 7
-0.153625 -4.8232422 7.9000239 7
-0.153625 -4.8076172 7.911499 7
-0.167358 -5.1162109 7.3210449 7
-0.157288 -5.0800781 7.3077388 7
-0.160706 -5.0595698 7.3405762 7
-0.160706 -5.045898 7.3527832 7
-0.160706 -5.016602 7.3769531 7
-0.16406199 -5.0097661 7.3977051 7
-0.164124 -4.9960942 7.409668 7
-0.147278 -4.945312 7.37854 7
-0.142212 -4.905273 7.3890381 7
-0.13214099 -4.8710942 7.3748779 7
-0.138855 -4.8564448 7.4156489 7
-0.14056399 -4.8457031 7.4317632 7
-0.142212 -4.8349609 7.4477539 7
-0.140503 -4.8164058 7.4549561 7
-0.152283 -4.8125 7.5091548 7
-0.16253699 -4.9716802 7.044189 7
-0.16253699 -4.9443359 7.067749 7
-0.162598 -4.9306641 7.079834 7
-0.16253699 -4.9179692 7.0915532 7
-0.162598 -4.9042969 7.103394 7
-0.159119 -4.8837891 7.1069341 7
-0.159058 -4.8554692 7.130249 7
-0.15564001 -4.8212891 7.144897 7
-0.15564001 -4.8085942 7.1566162 7
-0.066169001 -1.837093 16.973005 7
-0.030694 -1.454506 10.414799 7
-0.13925099 -4.8635788 9.0806007 7
-0.209194 -5.0952821 8.0561056 7
-0.194527 -4.8313951 8.1874847 7
-0.188225 -5.0753102 7.0984879 7
-0.170577 -4.8320918 7.2352862 7
0.012312 -1.488683 7.6577101 7
-0.020504 -1.388523 7.4155798 7
0.067244999 -0.30985999 4.100831 7
0.05246 -0.31469399 4.1181159 7
0.068709999 -0.303352 4.132863 7
0.058750998 -0.303078 4.1530781 7
0.072919004 -0.28463599 3.96244 7
0.059122998 -0.29593 3.9754441 7
0.073251002 -0.28483599 3.9917271 7
0.064381003 -0.29283699 4.008924 7
0.057418998 -0.29047301 4.024899 7
0.074484996 -0.283876 4.0380049 7
0.056814998 -0.28500399 4.055707 7
0.084379002 -0.27258199 4.0677638 7
0.066496998 -0.27194899 4.084713 7
0.045908999 -0.27847099 4.1057272 7
0.073216997 -0.26464999 4.115345 7
0.054859001 -0.260957 4.1317101 7
0.071373999 -0.25026101 4.143312 7
0.071597002 -0.245589 4.1562648 7
-0.152127 -5.0141191 16.787329 7
-0.073560998 -1.8551 14.079814 7
-0.183469 -5.0060821 9.3371029 7
-0.139368 -4.8255572 8.5612087 7
-0.14927401 -5.0153651 7.9391918 7
-0.18158001 -4.9017329 7.35006 7
0.030758001 -1.50721 7.3967481 7
0.018331001 -1.3380001 7.48562 7
-0.132192 -4.5488391 0.335251 7
-0.136841 -4.6710062 0.48352301 7
-0.17325801 -4.7429109 1.104015 7
-0.148682 -4.5168672 1.233345 7
-0.1496 -4.5922132 1.3852071 7
-0.159951 -4.6918011 1.525423 7
-0.162303 -4.7600222 1.681596 7
-0.138741 -4.5412512 1.772519 7
-0.15407901 -4.6415629 1.906486 7
0.304784 14.303346 -14.727742 7
