# .PCD v0.7 - Point Cloud Data file format
VERSION 0.7
FIELDS x y z intensity
SIZE 4 4 4 4
TYPE F F F F
COUNT 1 1 1 1
WIDTH 503
HEIGHT 1
VIEWPOINT 0 0 0 1 0 0 0
POINTS 503
DATA ascii
0.063477002 -4.8388672 51.670044 7
0.033569001 -4.7851558 52.392273 7
-0.025269 -4.749023 45.309326 7
0.71807897 26.306641 -18.885498 7
0.72210699 26.189453 -18.893372 7
-0.87646502 -1.40625 -60.406006 7
0.65521199 24.498047 -19.099182 7
-0.861938 -1.28125 -54.7901 7
-0.87310803 -1.418945 -54.991333 7
0.58209199 22.697266 -18.910095 7
0.583435 22.631836 -18.947937 7
0.58441198 22.569336 -18.989441 7
0.513062 21.207031 -18.77948 7
0.51275599 21.163086 -18.833496 7
0.51513702 21.084961 -18.854797 7
-0.833435 -1.4111331 -45.812134 7
0.52783197 20.102539 -15.886414 7
0.53039598 20.03125 -15.90686 7
0.53192103 19.97168 -15.938721 7
0.53454602 19.899414 -15.958618 7
0.53539997 19.849609 -15.997742 7
-0.80059803 2.7792971 -45.90625 7
-0.805969 2.671875 -45.994446 7
-0.84314001 -1.214844 -42.906677 7
-0.790649 2.7988279 -42.591858 7
-0.81396502 2.7158201 -42.942322 7
-0.80487102 -1.203125 -39.374634 7
-0.045471001 -4.7324219 29.49353 7
0.41326901 17.229492 -15.927979 7
0.41705301 17.150391 -15.930908 7
0.418823 17.092773 -15.954529 7
0.42138699 17.027344 -15.969727 7
0.42272899 16.973633 -15.997192 7
-0.77929699 2.7685549 -39.078064 7
-0.794312 2.6855471 -39.28833 7
-0.79070997 2.585938 -39.242004 7
0.106567 -1.563477 26.27948 7
0.097838998 -1.509766 26.388 7
0.101379 -1.4482419 26.351013 7
0.098449998 -1.391602 26.389404 7
0.093689002 -1.335938 26.451233 7
0.096740998 -1.5732419 24.700378 7
0.085876003 -1.5263669 24.826538 7
0.100525 -1.4599611 24.667236 7
0.096436001 -1.408203 24.717407 7
0.089722 -1.358398 24.79657 7
0.29815701 14.392578 -15.861572 7
0.30004901 14.335938 -15.877258 7
0.30108601 14.286133 -15.9021 7
0.30401599 14.222656 -15.908264 7
0.306519 14.163086 -15.91925 7
0.307495 14.114258 -15.943359 7
0.16595501 13.087891 -18.776611 7
0.16644301 13.036133 -18.802368 7
0.164001 13.00293 -18.857788 7
0.166016 12.942383 -18.868652 7
0.082457997 -1.5361331 23.382629 7
0.081909001 -1.485352 23.392334 7
0.085326999 -1.4306639 23.361023 7
0.081482001 -1.3818361 23.405396 7
0.073181003 -1.3349611 23.496033 7
0.240784 13.107422 -15.755371 7
0.237183 13.09082 -15.818909 7
0.23876999 13.038086 -15.835632 7
0.24084499 12.983398 -15.847656 7
0.241943 12.93457 -15.868835 7
0.24615499 12.823242 -15.891846 7
0.24511699 12.789062 -15.93158 7
0.245667 12.744141 -15.956787 7
0.247803 12.689453 -15.967896 7
0.248291 12.643555 -15.99292 7
-0.078125 -4.7216802 23.10968 7
-0.076355003 -4.6660161 23.103943 7
0.075195 -1.59375 22.088013 7
0.075805999 -1.543945 22.085938 7
0.071777001 -1.49707 22.130554 7
0.069397002 -1.450195 22.15741 7
0.076599002 -1.3955081 22.09137 7
0.074219003 -1.3486331 22.11792 7
0.066650003 -1.304688 22.196838 7
0.18450899 11.506836 -15.854736 7
0.18554699 11.458984 -15.871887 7
0.186707 11.411133 -15.889221 7
0.190613 11.34668 -15.881653 7
0.19171099 11.298828 -15.898499 7
0.19171099 11.256836 -15.925049 7
0.19281 11.209961 -15.941772 7
0.044066999 -1.4775389 21.194946 7
0.052368 -1.378906 21.126709 7
0.047424 -1.3349611 21.176575 7
0.046142999 -1.289062 21.191406 7
0.122314 10.206055 -15.876526 7
0.125183 10.149414 -15.875 7
0.126404 10.101562 -15.888794 7
0.125854 10.063477 -15.917603 7
0.128784 10.007812 -15.915955 7
0.132263 9.9492188 -15.908936 7
-1.80249 -27.048828 -22.079529 7
-1.807922 -27.138672 -22.045471 7
-1.8496701 -27.693359 -21.957092 7
-1.85321 -27.770508 -21.90979 7
0.057677999 -1.5556639 19.894836 7
0.053771999 -1.513672 19.93335 7
0.047118999 -1.4755861 19.995117 7
0.055847 -1.425781 19.923401 7
0.057921998 -1.3798831 19.909363 7
0.052673001 -1.339844 19.95929 7
0.044617001 -1.300781 20.032166 7
-1.410339 -25.010742 -15.945068 7
-1.416016 -25.088867 -15.912109 7
-1.140503 -20.188477 -15.993591 7
-1.1500241 -20.287109 -15.994385 7
-1.158936 -20.380859 -15.991272 7
-1.161194 -20.433594 -15.953918 7
-1.170837 -20.532227 -15.953857 7
-1.171753 -20.578125 -15.90863 7
-1.177673 -20.655273 -15.889343 7
-1.187317 -20.753906 -15.888306 7
0.044006001 -1.595703 18.032166 7
0.043274 -1.558594 18.041992 7
0.042541999 -1.519531 18.051575 7
0.034423999 -1.486328 18.118958 7
0.041870002 -1.441406 18.064697 7
0.044922002 -1.3994139 18.045105 7
0.04126 -1.362305 18.077515 7
0.039062001 -1.325195 18.098267 7
0.035339002 -1.287109 18.130432 7
0.034912001 -1.592773 17.207703 7
0.028748 -1.523438 17.261902 7
0.020142 -1.4912111 17.329041 7
0.027222 -1.4482419 17.280762 7
0.030456999 -1.37207 17.264404 7
0.025024001 -1.337891 17.308472 7
0.021911999 -1.3017581 17.334961 7
0.034851 -1.578125 16.355652 7
0.030762 -1.545898 16.388367 7
0.02832 -1.512695 16.409607 7
0.020812999 -1.481445 16.465149 7
0.026733 -1.4423831 16.428467 7
0.031738002 -1.40332 16.397278 7
0.027649 -1.3701169 16.429749 7
0.025146 -1.335938 16.450378 7
0.021911999 -1.302734 16.476868 7
0.025269 -1.576172 15.686279 7
0.022705 -1.542969 15.707275 7
0.019226 -1.512695 15.734436 7
0.017517 -1.480469 15.749512 7
0.016663 -1.4462889 15.758972 7
0.026306 -1.405273 15.699097 7
0.020264 -1.375977 15.74292 7
0.022887999 -1.34082 15.729004 7
0.015137 -1.3125 15.784363 7
-0.108093 -4.8886719 15.031006 7
-0.098876998 -4.835938 14.988281 7
-0.096129999 -4.7988281 14.983459 7
0.020264 -1.56543 15.012085 7
0.016602 -1.5361331 15.039001 7
0.013916 -1.505859 15.06012 7
0.0047610002 -1.478516 15.121216 7
0.0093379999 -1.4443361 15.09613 7
0.017578 -1.407227 15.048096 7
0.01123 -1.37793 15.091675 7
0.011353 -1.345703 15.095215 7
0.0048830002 -1.318359 15.138794 7
0.0067750001 -1.28418 15.130493 7
0.026306 -1.582031 14.343323 7
0.038818002 -1.542969 14.272888 7
0.033080999 -1.515625 14.310974 7
0.025451999 -1.4912111 14.360779 7
0.014954 -1.467773 14.427368 7
0.024597 -1.4306639 14.373779 7
0.038086001 -1.391602 14.296875 7
0.036132999 -1.362305 14.31189 7
0.025635 -1.337891 14.378235 7
0.027649 -1.3056639 14.370239 7
0.013245 -1.283203 14.459595 7
0.029846 -1.589844 13.685181 7
0.035828002 -1.556641 13.654785 7
0.032898001 -1.529297 13.675781 7
0.029846 -1.50293 13.696777 7
0.023925999 -1.4775389 13.734863 7
0.026916999 -1.4462889 13.721252 7
0.026001001 -1.418945 13.730652 7
0.030029001 -1.386719 13.711182 7
0.028015001 -1.359375 13.726257 7
0.028076001 -1.330078 13.729553 7
0.024048001 -1.3017581 13.755798 7
0.025085 -1.580078 13.171265 7
0.020873999 -1.554688 13.197937 7
0.021973001 -1.5263669 13.196106 7
0.019897001 -1.5 13.211243 7
0.013611 -1.476562 13.249207 7
0.015747 -1.447266 13.241516 7
0.020996001 -1.4150389 13.216492 7
0.020996001 -1.387695 13.220032 7
0.018921001 -1.361328 13.235046 7
0.015807999 -1.3349611 13.255432 7
0.01062 -1.310547 13.287354 7
0.013733 -1.28125 13.273315 7
0.027283 -1.581055 12.590088 7
0.026123 -1.5556639 12.599731 7
0.026184 -1.529297 12.603577 7
0.023987001 -1.5048831 12.618652 7
0.021850999 -1.480469 12.633911 7
0.021850999 -1.453125 12.637451 7
0.016418001 -1.4306639 12.669739 7
0.029541001 -1.396484 12.604675 7
0.027404999 -1.3701169 12.61969 7
0.02417 -1.34668 12.640198 7
0.025269 -1.3193361 12.637878 7
0.019774999 -1.295898 12.669556 7
0.020020001 -1.496094 12.160095 7
0.020081 -1.470703 12.163879 7
0.018921001 -1.4443361 12.173157 7
0.017821999 -1.419922 12.182251 7
0.020142 -1.393555 12.1745 7
0.023621 -1.3662111 12.160828 7
0.023621 -1.341797 12.164368 7
0.023621 -1.314453 12.167603 7
0.020203 -1.2919919 12.188049 7
0.024048001 -1.548828 11.662415 7
0.019226 -1.52832 11.689026 7
0.012146 -1.484375 11.73053 7
0.015686 -1.4580081 11.717407 7
0.013306 -1.435547 11.732361 7
0.019347999 -1.382812 11.710876 7
0.02417 -1.331055 11.695068 7
0.013489 -1.289062 11.752808 7
0.014954 -1.5869139 11.274414 7
0.025024001 -1.5556639 11.233032 7
0.015015 -1.5400389 11.282166 7
0.02124 -1.512695 11.257629 7
0.020020001 -1.490234 11.26709 7
0.018798999 -1.466797 11.276428 7
0.017578 -1.445312 11.285706 7
0.010132 -1.4267581 11.323242 7
0.017639 -1.3974611 11.292847 7
0.017639 -1.375 11.296326 7
0.0089720003 -1.356445 11.339478 7
0.020203 -1.326172 11.291809 7
0.018982001 -1.302734 11.300781 7
0.010254 -1.2861331 11.343628 7
0.030579001 -1.5712889 10.758301 7
0.030579001 -1.527344 10.765686 7
0.03064 -1.5048831 10.769592 7
0.021545 -1.46582 10.816467 7
0.021606 -1.4443361 10.820129 7
0.02417 -1.419922 10.812439 7
0.028137 -1.394531 10.799194 7
0.030701 -1.349609 10.794556 7
0.030701 -1.328125 10.798096 7
0.024292 -1.287109 10.832764 7
0.0078119999 -1.587891 10.470337 7
0.015930001 -1.561523 10.440491 7
0.011902 -1.542969 10.461365 7
0.011902 -1.521484 10.465149 7
0.014648 -1.499023 10.457825 7
0.010559 -1.4794919 10.478271 7
0.002502 -1.4638669 10.515686 7
0.0078739999 -1.439453 10.496887 7
0.0092770001 -1.4169919 10.494812 7
0.016052 -1.390625 10.470093 7
0.013306 -1.371094 10.484863 7
0.012085 -1.3505861 10.493835 7
0.012024 -1.329102 10.497131 7
0.0093379999 -1.30957 10.511841 7
0.0053099999 -1.291016 10.531921 7
0.015747 -1.599609 10.049927 7
0.018555 -1.577148 10.042786 7
0.018555 -1.556641 10.04657 7
0.024231 -1.532227 10.028137 7
0.022826999 -1.512695 10.037659 7
0.024292 -1.490234 10.035645 7
0.013 -1.4794919 10.084167 7
0.013062 -1.4580081 10.087891 7
0.017273 -1.43457 10.074646 7
0.017333999 -1.414062 10.078064 7
0.014526 -1.396484 10.093079 7
0.020203 -1.371094 10.073914 7
0.018738 -1.351562 10.083069 7
0.014587 -1.333984 10.103088 7
0.017395001 -1.311523 10.095459 7
0.013245 -1.293945 10.115417 7
0.013245 -1.599609 9.7279053 7
0.017578 -1.578125 9.7151489 7
0.016174 -1.560547 9.7247314 7
0.016174 -1.5400389 9.7283936 7
0.016174 -1.5205081 9.7323608 7
0.022034001 -1.49707 9.7137451 7
0.016235 -1.480469 9.7396851 7
0.014709 -1.4619139 9.7491465 7
0.013367 -1.443359 9.7581787 7
0.014832 -1.422852 9.7562256 7
0.014832 -1.40332 9.7597656 7
0.016295999 -1.382812 9.7576294 7
0.016295999 -1.362305 9.7611084 7
0.013367 -1.344727 9.7758179 7
0.014893 -1.3232419 9.7733765 7
0.011963 -1.3056639 9.7878418 7
0.0090939999 -1.2880861 9.8023682 7
0.016357001 -1.5732419 9.3814697 7
0.017821999 -1.5537111 9.3798218 7
0.0072630001 -1.542969 9.4227285 7
0.010254 -1.521484 9.4152832 7
0.014832 -1.499023 9.4024658 7
0.0057979999 -1.485352 9.4393921 7
0.001282 -1.470703 9.460022 7
0.0073239999 -1.447266 9.4412231 7
0.011841 -1.425781 9.4283447 7
0.013428 -1.405273 9.4261475 7
0.0043950002 -1.391602 9.4631348 7
0.014954 -1.367188 9.4274902 7
0.010437 -1.3505861 9.4477539 7
0.0043950002 -1.3349611 9.4733276 7
0.0059199999 -1.31543 9.4711914 7
0.010498 -1.292969 9.4575195 7
-0.124451 -4.789062 8.2140503 7
-0.12597699 -4.7753911 8.2302246 7
-0.127563 -4.7460942 8.2578115 7
-0.12915 -4.7158198 8.2851562 7
0.0095210001 -1.59668 9.1165161 7
0.012634 -1.576172 9.1094971 7
0.023621 -1.550781 9.0745239 7
0.015807999 -1.537109 9.1060791 7
0.012695 -1.521484 9.1209106 7
0.014282 -1.501953 9.1190796 7
0.015869001 -1.482422 9.1172485 7
0.014343 -1.46582 9.1264038 7
0.001831 -1.456055 9.1745605 7
0.0096439999 -1.4326169 9.1502686 7
0.0096439999 -1.414062 9.1539307 7
0.017456001 -1.390625 9.1297607 7
0.023743 -1.369141 9.1109619 7
0.014404 -1.356445 9.147644 7
0.015991 -1.3369139 9.1455078 7
0.014465 -1.3193361 9.1543579 7
0.011292 -1.3037111 9.1690063 7
0.012878 -1.28418 9.1665649 7
-0.13110401 -4.7998052 7.830811 7
-0.124634 -4.7714839 7.8242798 7
-0.121399 -4.75 7.8267822 7
-0.12628201 -4.7451172 7.851624 7
-0.124634 -4.7255859 7.8586431 7
-0.12957799 -4.7207031 7.883606 7
-0.134399 -4.7148442 7.9085078 7
-0.131165 -4.6933589 7.9108281 7
-0.12799101 -4.671875 7.9130249 7
-0.136108 -4.671875 7.947021 7
-0.124756 -4.6337891 7.92627 7
-0.124756 -4.6181641 7.9373169 7
-0.124756 -4.6025391 7.9484859 7
-0.121521 -4.5810552 7.950439 7
-0.124756 -4.5712891 7.9705811 7
-0.121521 -4.5498052 7.97229 7
-0.121582 -4.5341802 7.983398 7
-0.121582 -4.5185552 7.9942632 7
-0.121582 -4.5029302 8.005127 7
0.018982001 -1.579102 8.7722778 7
0.014038 -1.566406 8.7928467 7
0.015747 -1.546875 8.7911987 7
0.010864 -1.532227 8.8114624 7
0.015807999 -1.511719 8.7987061 7
0.012512 -1.496094 8.8135986 7
0.0092770001 -1.481445 8.8284302 7
0.012573 -1.460938 8.8209839 7
0.014221 -1.4423831 8.8192139 7
0.010986 -1.427734 8.8336792 7
0.01416 -1.40918 8.826355 7
0.015869001 -1.389648 8.8240356 7
0.010986 -1.375 8.8442993 7
0.012634 -1.356445 8.8422241 7
0.012634 -1.339844 8.8455811 7
0.014282 -1.320312 8.8433838 7
0.0077510001 -1.3076169 8.8687744 7
0.0078119999 -1.2900389 8.8720703 7
-0.118896 -4.78125 7.402832 7
-0.122314 -4.7744141 7.4232788 7
-0.120605 -4.7558589 7.4304199 7
-0.115601 -4.7314448 7.4285278 7
-0.122314 -4.7167969 7.4691162 7
-0.125732 -4.7089839 7.4892578 7
-0.13244601 -4.6933589 7.529541 7
-0.130798 -4.6757808 7.5365601 7
-0.127441 -4.6542969 7.5388789 7
-0.117371 -4.6201172 7.5231318 7
-0.124146 -4.6035161 7.563293 7
-0.117432 -4.5761719 7.556458 7
-0.114014 -4.5400391 7.5692139 7
-0.124146 -4.5449219 7.6074219 7
-0.12750199 -4.5361328 7.627563 7
-0.115723 -4.4980469 7.6065059 7
0.0093379999 -1.59375 8.5041504 7
0.012756 -1.5732419 8.4972534 7
0.016113 -1.554688 8.4900513 7
0.017821999 -1.5361331 8.4884644 7
0.012756 -1.523438 8.5088501 7
0.012756 -1.5068361 8.5125732 7
0.017821999 -1.486328 8.4998169 7
0.012817 -1.472656 8.5199575 7
0.0044559999 -1.460938 8.5509644 7
0.0043950002 -1.4443361 8.5547485 7
0.0094600003 -1.425781 8.5418091 7
0.012878 -1.405273 8.5344238 7
0.012878 -1.389648 8.5379639 7
0.0095210001 -1.374023 8.5524292 7
0.014587 -1.3544919 8.5391846 7
0.014587 -1.3369139 8.5426636 7
0.012878 -1.322266 8.5515747 7
0.014648 -1.3037111 8.5493164 7
0.0095830001 -1.289062 8.5690308 7
0.014893 -1.594727 8.2113037 7
0.016602 -1.577148 8.2096558 7
0.016602 -1.560547 8.213623 7
0.021850999 -1.5419919 8.2011719 7
0.020142 -1.5263669 8.2104492 7
0.018371999 -1.511719 8.2196655 7
0.016724 -1.496094 8.2288818 7
0.014893 -1.481445 8.2379761 7
0.0062870001 -1.47168 8.269165 7
0.0097660003 -1.452148 8.2616577 7
0.0097660003 -1.436523 8.2653198 7
0.0098270001 -1.420898 8.2689819 7
0.020203 -1.3974611 8.2396851 7
0.018555 -1.3818361 8.2486572 7
0.018494001 -1.3662111 8.2520142 7
0.018494001 -1.3505861 8.2554321 7
0.018616 -1.3330081 8.2588501 7
0.018555 -1.3173831 8.262085 7
0.013306 -1.3056639 8.2820435 7
0.002869 -1.294922 8.3181152 7
-0.127014 -4.7792969 6.7180181 7
0.00079299998 -1.59375 7.9998169 7
0.002625 -1.577148 7.9983521 7
0.0080570001 -1.5576169 7.9860229 7
0.0043950002 -1.544922 8.0007935 7
0.0062870001 -1.527344 7.999146 7
0.0062259999 -1.512695 8.0028687 7
0.0044559999 -1.498047 8.012207 7
0.0045170002 -1.481445 8.015625 7
-0.00091599999 -1.470703 8.0358276 7
-0.00091599999 -1.455078 8.0394897 7
-0.0080570001 -1.443359 8.0649414 7
0.0098879999 -1.416016 8.0139771 7
0.002747 -1.40625 8.0394287 7
0.002686 -1.389648 8.0427856 7
0.002747 -1.374023 8.0462646 7
0.00097699999 -1.359375 8.0551758 7
0.0045779999 -1.341797 8.0476074 7
0.0045779999 -1.325195 8.0510254 7
0.00097699999 -1.3125 8.0653687 7
-0.0043950002 -1.299805 8.0848999 7
-0.0043330002 -1.283203 8.0882568 7
-0.044190001 -1.388389 16.641588 7
0.0068290001 -1.508288 13.921917 7
-0.015943 -1.3578089 10.985302 7
-0.0051879999 -1.467315 10.176043 7
0.024358001 -1.505612 9.3497429 7
0.012196 -1.305375 9.5016356 7
0.029793 -1.574784 8.8258343 7
0.032657001 -1.366827 8.8625889 7
-0.159263 -4.6825891 7.9766822 7
-0.0077 -1.432098 8.3940239 7
-0.144722 -4.6477351 6.522222 7
0.0080840001 -1.4736741 7.9637289 7
0.0080070002 -1.308135 8.0193253 7
0.025916999 -1.495893 7.570889 7
0.022849999 -1.3527679 7.6438851 7
-0.006426 -1.532716 7.276813 7
-0.0064139999 -1.3955671 7.3353548 7
0.0025839999 -1.433193 7.0682359 7
0.013342 -1.284575 7.075316 7
-0.055567 -1.509295 13.991406 7
-0.015854999 -1.44241 12.555063 7
0.011523 -1.3923481 11.481066 7
0.033054002 -1.352635 10.629169 7
-0.023313001 -1.5966491 9.8914223 7
-0.023773 -1.31955 9.9540997 7
0.002758 -1.543296 9.2874336 7
-0.0079709999 -1.294047 9.4061184 7
-0.109624 -4.785028 7.861351 7
-0.097193003 -4.5117779 8.0171566 7
0.018599 -1.50165 8.8170719 7
0.026341001 -1.468629 8.4452829 7
-0.154649 -4.690701 7.3803439 7
-0.14723399 -4.5005188 7.5145869 7
-0.014749 -1.436281 8.0928612 7
-0.12730899 -4.664989 6.4349899 7
-0.124034 -4.5243931 6.5822001 7
0.007396 -1.591516 7.7048082 7
0.010754 -1.404317 7.7286139 7
-0.175156 -4.573534 -0.297342 7
-0.17240401 -4.6965628 -0.124557 7
-0.132239 -4.7441931 5.9884348 7
-0.105986 -4.5461602 6.0786762 7
0.023915 -1.55398 7.417078 7
0.026986999 -1.378861 7.4395161 7
-0.156792 -4.709496 0.39297 7
-0.140512 -4.5964341 0.71202099 7
-0.146356 -4.707818 0.85911298 7
-0.168126 -4.8668561 0.97946 7
-0.0030169999 -1.518777 7.15411 7
-0.0044869999 -1.356115 7.192327 7
-0.211463 -4.9262848 1.159434 7
