# .PCD v0.7 - Point Cloud Data file format
VERSION 0.7
FIELDS x y z intensity
SIZE 4 4 4 4
TYPE F F F F
COUNT 1 1 1 1
WIDTH 546
HEIGHT 1
VIEWPOINT 0 0 0 1 0 0 0
POINTS 546
DATA ascii
0.056763001 -4.5957031 51.687134 7
-0.954651 -1.6875 -62.448608 7
-0.91107202 -1.8125 -61.561707 7
0.031920999 -4.6308589 37.776672 7
0.023743 -4.5625 37.926941 7
0.137695 -1.237305 31.321289 7
-0.861633 2.6503911 -46.378235 7
-0.86871302 -1.396484 -43.516907 7
-0.85833699 -1.6025389 -43.357483 7
0.113586 -1.37793 29.807556 7
0.42132601 19.484375 -16.451416 7
0.42547601 19.410156 -16.471741 7
0.42779499 19.297852 -16.539307 7
-0.82177699 -1.427734 -39.158386 7
0.36425799 17.731445 -16.466553 7
0.36712599 17.65918 -16.479065 7
0.37011701 17.588867 -16.491333 7
0.370911 17.537109 -16.524475 7
0.37390101 17.466797 -16.536316 7
0.374329 17.419922 -16.573181 7
0.31085199 16.276367 -16.455383 7
0.189392 15.019531 -19.44165 7
0.25579801 14.473633 -16.507629 7
0.25628701 14.427734 -16.537048 7
0.25860599 14.366211 -16.548218 7
0.259583 14.316406 -16.572754 7
0.26196301 14.253906 -16.583435 7
0.26238999 14.208008 -16.612305 7
0.193909 13.213867 -16.365417 7
0.194885 13.165039 -16.387146 7
0.197449 13.105469 -16.394348 7
0.198975 13.051758 -16.411072 7
0.20202599 12.988281 -16.41333 7
0.20043901 12.955078 -16.458191 7
0.201416 12.905273 -16.479065 7
0.205017 12.838867 -16.476196 7
0.20184299 12.817383 -16.534912 7
-1.865906 -37.092773 -16.297302 7
-1.882751 -37.287109 -16.28125 7
-1.904846 -37.52832 -16.286621 7
-1.9119869 -37.634766 -16.226868 7
-1.9271851 -37.813477 -16.200989 7
-1.944092 -38.008789 -16.181763 7
-1.952942 -38.128906 -16.127747 7
-0.044495001 -4.7949219 22.716797 7
-0.036132999 -4.7275391 22.648804 7
-0.043212999 -4.6904302 22.728333 7
-0.053344999 -4.6621089 22.836365 7
-0.050292999 -4.6054692 22.819092 7
-0.034790002 -4.523438 22.682007 7
0.086304002 -1.580078 21.942627 7
0.094665997 -1.525391 21.865295 7
0.092956997 -1.4775389 21.886353 7
0.088806003 -1.433594 21.930603 7
0.084167004 -1.386719 21.980713 7
0.091370001 -1.333984 21.914429 7
0.089599997 -1.287109 21.935181 7
0.14123499 11.490234 -16.412354 7
0.143372 11.435547 -16.419678 7
0.14605699 11.375977 -16.421753 7
0.14605699 11.333984 -16.448547 7
0.14483599 11.295898 -16.485046 7
0.14257801 11.266602 -16.531372 7
0.14361601 11.216797 -16.547974 7
-1.867981 -30.796875 -22.433044 7
-1.882751 -30.964844 -22.444702 7
-1.905396 -31.191406 -22.50177 7
-1.911072 -31.290039 -22.459106 7
-1.9100339 -31.336914 -22.377686 7
-1.924194 -31.5 -22.383606 7
-1.942017 -31.691406 -22.40979 7
-1.9549561 -31.844727 -22.40741 7
-1.965454 -31.980469 -22.390625 7
-0.075317003 -4.6298828 21.765137 7
-1.545288 -23.788086 -22.572693 7
-1.561523 -23.948242 -22.618774 7
-1.548157 -23.917969 -22.475769 7
-1.562439 -24.064453 -22.50885 7
-1.564514 -24.132812 -22.463806 7
-1.573059 -24.243164 -22.459167 7
-1.580933 -24.349609 -22.450195 7
-1.595825 -24.500977 -22.485413 7
-1.601807 -24.595703 -22.463623 7
-1.604553 -24.667969 -22.421082 7
-1.608521 -24.75 -22.386536 7
-1.397278 -26.905273 -16.452942 7
-1.408447 -27.030273 -16.443054 7
-1.4151 -27.121094 -16.410522 7
-1.423645 -27.225586 -16.387268 7
-1.428345 -27.302734 -16.344543 7
-1.440125 -27.431641 -16.336182 7
0.067505002 -1.5888669 19.774841 7
0.071594 -1.5419919 19.744019 7
0.072265998 -1.498047 19.741943 7
0.068359002 -1.457031 19.780457 7
0.059691999 -1.418945 19.859497 7
0.067749001 -1.371094 19.793335 7
0.072509997 -1.325195 19.756042 7
0.067870997 -1.28418 19.800049 7
-1.419983 -19.75 -22.343262 7
-1.420105 -19.805664 -22.296265 7
-1.4406739 -19.973633 -22.382385 7
-1.437317 -20.010742 -22.312561 7
-1.43335 -20.043945 -22.238403 7
-1.4573359 -20.231445 -22.345093 7
-1.458801 -20.294922 -22.305725 7
-1.467041 -20.396484 -22.31012 7
-1.238708 -23.163086 -16.382812 7
-1.245728 -23.251953 -16.362671 7
-1.258972 -23.423828 -16.318359 7
-1.257141 -23.452148 -16.252136 7
-1.2819819 -23.702148 -16.265015 7
-1.294434 -23.828125 -16.270569 7
-1.294556 -23.870117 -16.213989 7
-0.98327601 -18.290039 -16.466248 7
-0.98626697 -18.348633 -16.438843 7
-0.99285901 -18.427734 -16.431335 7
-0.99731398 -18.495117 -16.411438 7
-1.004639 -18.579102 -16.407532 7
-1.01416 -18.675781 -16.415039 7
-1.019348 -18.74707 -16.398315 7
-1.0253299 -18.864258 -16.340942 7
-1.033386 -18.952148 -16.339355 7
-1.041443 -19.042969 -16.337463 7
-1.050964 -19.139648 -16.343262 7
-1.06189 -19.245117 -16.356567 7
-1.072144 -19.347656 -16.365417 7
-1.076721 -19.456055 -16.296509 7
0.052002002 -1.587891 17.945251 7
0.051270001 -1.548828 17.954895 7
0.056519002 -1.5068361 17.918274 7
0.057312001 -1.466797 17.916199 7
0.05658 -1.4287111 17.925537 7
0.049194001 -1.393555 17.986877 7
0.050719999 -1.3525389 17.978882 7
0.058228001 -1.30957 17.924194 7
0.039000999 -1.585938 17.155579 7
0.042969 -1.545898 17.130554 7
0.048523001 -1.5048831 17.094116 7
0.046204001 -1.46875 17.115051 7
0.043884002 -1.43457 17.136047 7
0.035216998 -1.40332 17.203064 7
0.043152001 -1.360352 17.148865 7
0.045593001 -1.3212889 17.134766 7
0.044799998 -1.285156 17.143799 7
0.038513001 -1.5732419 16.309265 7
0.036072001 -1.539062 16.330444 7
0.046021 -1.496094 16.264893 7
0.041931 -1.4638669 16.297485 7
0.037842002 -1.4326169 16.330017 7
0.032837 -1.3994139 16.368347 7
0.038757 -1.360352 16.331238 7
0.042908002 -1.322266 16.305786 7
0.039611999 -1.2900389 16.332153 7
-0.082396999 -4.773438 15.6604 7
-0.081542999 -4.7373052 15.666321 7
-0.078064002 -4.6972661 15.655762 7
-0.079773001 -4.6660161 15.677979 7
0.033202998 -1.263672 15.648865 7
-0.092407003 -4.7861328 14.944702 7
-0.080444001 -4.7285161 14.885193 7
-0.083191 -4.703125 14.913147 7
-0.092345998 -4.6894531 14.978882 7
-0.098755002 -4.6699219 15.028503 7
-0.097900003 -4.6367192 15.034302 7
-0.095154002 -4.5996089 15.029053 7
-0.087769002 -4.5517578 14.996216 7
-0.083191 -4.5107422 14.979675 7
0.020020001 -1.59668 14.990723 7
0.020081 -1.563477 14.994629 7
0.021973001 -1.530273 14.986938 7
0.028380999 -1.494141 14.9505 7
0.028441999 -1.460938 14.954285 7
0.02478 -1.431641 14.980774 7
0.016602 -1.405273 15.036255 7
0.025757 -1.367188 14.982056 7
0.025818 -1.335938 14.985535 7
0.025818 -1.302734 14.98877 7
0.039000999 -1.5693361 14.251709 7
0.02179 -1.552734 14.358765 7
0.038086001 -1.509766 14.265198 7
0.030456999 -1.484375 14.314636 7
0.020935001 -1.4599611 14.375793 7
0.031493999 -1.422852 14.316162 7
0.032531999 -1.391602 14.314026 7
0.031555001 -1.362305 14.323242 7
0.034485001 -1.329102 14.309448 7
0.031615999 -1.300781 14.329834 7
0.038208 -1.581055 13.62207 7
0.038208 -1.552734 13.626099 7
0.042296998 -1.5205081 13.606995 7
0.041320998 -1.492188 13.616455 7
0.041320998 -1.4638669 13.620178 7
0.037354 -1.4375 13.646606 7
0.033325002 -1.4111331 13.673218 7
0.033325002 -1.382812 13.676697 7
0.040465999 -1.3486331 13.640015 7
0.035399999 -1.3232419 13.672119 7
0.035461001 -1.293945 13.675354 7
0.02771 -1.575195 13.142334 7
0.02771 -1.547852 13.146301 7
0.034058001 -1.514648 13.115845 7
0.033080999 -1.487305 13.125244 7
0.029906999 -1.462891 13.146057 7
0.031005999 -1.43457 13.144165 7
0.023682 -1.4111331 13.187561 7
0.026854999 -1.380859 13.173889 7
0.034240998 -1.3486331 13.137329 7
0.030029001 -1.324219 13.163635 7
0.026916999 -1.297852 13.18396 7
0.03125 -1.577148 12.555603 7
0.029053001 -1.552734 12.570923 7
0.03241 -1.523438 12.557556 7
0.034667999 -1.496094 12.549988 7
0.033569001 -1.470703 12.559448 7
0.032471001 -1.445312 12.568909 7
0.028076001 -1.421875 12.595276 7
0.029175 -1.394531 12.593079 7
0.029236 -1.367188 12.596619 7
0.031493999 -1.339844 12.588501 7
0.031493999 -1.313477 12.591858 7
0.032593001 -1.2861331 12.589294 7
0.025574001 -1.564453 12.108582 7
0.034790002 -1.5087889 12.070923 7
0.032531999 -1.458984 12.089722 7
0.030273 -1.43457 12.104614 7
0.022278 -1.4150389 12.148132 7
0.030334 -1.359375 12.115173 7
0.032653999 -1.306641 12.110535 7
0.030396 -1.257812 12.128479 7
0.020324999 -1.5986331 11.660034 7
0.025085 -1.570312 11.641296 7
0.022705 -1.548828 11.656616 7
0.028748 -1.519531 11.631958 7
0.027588001 -1.496094 11.641479 7
0.025146 -1.474609 11.656555 7
0.025208 -1.449219 11.660217 7
0.020385999 -1.429688 11.686523 7
0.020385999 -1.40625 11.690186 7
0.024048001 -1.378906 11.676392 7
0.027649 -1.3525389 11.663025 7
0.025269 -1.330078 11.677612 7
0.02533 -1.304688 11.68103 7
0.022949001 -1.28125 11.695496 7
0.025574001 -1.595703 10.765137 7
0.026916999 -1.572266 10.763489 7
0.030762 -1.547852 10.750549 7
0.034729 -1.5224611 10.737549 7
0.038635001 -1.49707 10.724182 7
0.036072001 -1.4775389 10.73938 7
0.034790002 -1.456055 10.748535 7
0.034790002 -1.43457 10.752197 7
0.027039001 -1.417969 10.789612 7
0.02832 -1.394531 10.787598 7
0.028380999 -1.37207 10.790955 7
0.033569001 -1.34668 10.771729 7
0.034912001 -1.3232419 10.769348 7
0.034912001 -1.3017581 10.772766 7
0.012268 -1.5849611 10.4422 7
0.019043 -1.5576169 10.41803 7
0.020385999 -1.5361331 10.416199 7
0.017761 -1.515625 10.431152 7
0.019104 -1.4931639 10.429321 7
0.017761 -1.4736331 10.438721 7
0.019165 -1.451172 10.436707 7
0.01239 -1.43457 10.468445 7
0.015076 -1.412109 10.460754 7
0.01239 -1.391602 10.475647 7
0.017821999 -1.367188 10.456482 7
0.017883001 -1.344727 10.459839 7
0.016541 -1.302734 10.472229 7
0.016541 -1.282227 10.475403 7
0.021973001 -1.592773 10.016052 7
0.0177 -1.576172 10.036682 7
0.019165 -1.554688 10.035034 7
0.028991999 -1.527344 9.9996338 7
0.030396 -1.505859 9.9978638 7
0.033264 -1.483398 9.9903564 7
0.030456999 -1.464844 10.005432 7
0.029053001 -1.445312 10.014465 7
0.019226 -1.431641 10.057373 7
0.017821999 -1.412109 10.066589 7
0.022095 -1.388672 10.053223 7
0.026306 -1.367188 10.039856 7
0.030517999 -1.34375 10.02655 7
0.030517999 -1.324219 10.029785 7
0.029114 -1.304688 10.038818 7
0.024963001 -1.285156 10.058777 7
0.02124 -1.592773 9.6885986 7
0.013916 -1.580078 9.7203369 7
0.016845999 -1.5576169 9.7131958 7
0.022705 -1.53418 9.6946411 7
0.02417 -1.512695 9.6928711 7
0.025635 -1.492188 9.690918 7
0.025696 -1.47168 9.6947632 7
0.025696 -1.453125 9.6983643 7
0.025696 -1.433594 9.7020874 7
0.017029 -1.419922 9.7391357 7
0.021361999 -1.3974611 9.7258911 7
0.021361999 -1.376953 9.7293091 7
0.021423001 -1.357422 9.7327881 7
0.018494001 -1.339844 9.7473145 7
0.024352999 -1.316406 9.7283936 7
0.024413999 -1.296875 9.7315674 7
0.012573 -1.592773 9.3826294 7
0.015625 -1.572266 9.3756714 7
0.014099 -1.554688 9.3850098 7
0.01416 -1.5361331 9.3889771 7
0.021729 -1.511719 9.3649902 7
0.020203 -1.494141 9.3742065 7
0.011169 -1.481445 9.4112549 7
0.012634 -1.4619139 9.4094849 7
0.018738 -1.4375 9.3907471 7
0.014221 -1.422852 9.4110718 7
0.015747 -1.402344 9.4089966 7
0.012756 -1.384766 9.4237671 7
0.017273 -1.363281 9.4104004 7
0.021850999 -1.341797 9.3970337 7
0.014282 -1.328125 9.4282837 7
0.014282 -1.308594 9.4315796 7
0.017273 -1.2880861 9.423645 7
-0.47515899 -8.6240234 -3.188354 7
-0.472168 -8.6259766 -3.1625371 7
-0.467529 -8.6210938 -3.1342161 7
-0.112427 -4.7988281 8.1572876 7
-0.110901 -4.7792969 8.1641846 7
-0.107788 -4.7568359 8.1664429 7
-0.110901 -4.7470698 8.1871948 7
-0.107788 -4.7246089 8.1894531 7
-0.104675 -4.7011719 8.1913452 7
-0.104736 -4.686523 8.2026978 7
-0.112549 -4.686523 8.2373047 7
-0.115662 -4.6757808 8.2578735 7
-0.117249 -4.6630859 8.2737427 7
-0.118835 -4.6494141 8.2896729 7
-0.114197 -4.624023 8.2868042 7
-0.10791 -4.594727 8.2791138 7
-0.10791 -4.578125 8.2902832 7
-0.106384 -4.5585942 8.2966309 7
-0.103271 -4.5361328 8.2981567 7
-0.103271 -4.5029302 8.3198242 7
0.016845999 -1.589844 9.0831299 7
0.019958001 -1.5693361 9.0759888 7
0.013672 -1.5556639 9.1019897 7
0.024658 -1.529297 9.0671387 7
0.021545 -1.513672 9.0820312 7
0.021545 -1.4951169 9.0857544 7
0.023132 -1.476562 9.0839233 7
0.023193 -1.4580081 9.0875854 7
0.021606 -1.44043 9.0968018 7
0.010681 -1.429688 9.1391602 7
0.016907001 -1.407227 9.1206055 7
0.013855 -1.390625 9.1351929 7
0.016968001 -1.371094 9.1276255 7
0.020142 -1.3505861 9.119873 7
0.018616 -1.314453 9.132019 7
0.018616 -1.296875 9.135376 7
0.015442 -1.28125 9.1498413 7
0.018494001 -1.595703 8.7625122 7
0.011963 -1.583984 8.7885742 7
0.015259 -1.564453 8.7813721 7
0.021729 -1.5419919 8.7634277 7
0.025024001 -1.521484 8.7561646 7
0.01532 -1.5107419 8.7929688 7
0.01532 -1.494141 8.7966919 7
0.01532 -1.476562 8.800415 7
0.016968001 -1.4580081 8.7984619 7
0.016968001 -1.441406 8.8023071 7
0.012085 -1.4267581 8.8222046 7
0.015381 -1.40625 8.8149414 7
0.010498 -1.392578 8.8348999 7
0.015381 -1.37207 8.8217163 7
0.026794 -1.34668 8.786377 7
0.018616 -1.3349611 8.8175659 7
0.015442 -1.3193361 8.8319092 7
0.017029 -1.300781 8.8297729 7
0.015442 -1.28418 8.8384399 7
0.014038 -1.587891 8.4819946 7
0.014038 -1.5712889 8.4859009 7
0.014038 -1.5537111 8.4898682 7
0.015686 -1.5361331 8.4882812 7
0.01239 -1.521484 8.5030518 7
0.019104 -1.500977 8.4849243 7
0.017456001 -1.485352 8.4941406 7
0.014099 -1.470703 8.508728 7
0.017456001 -1.451172 8.5015259 7
0.0090330001 -1.441406 8.5325317 7
0.00238 -1.4287111 8.5582275 7
0.0073850001 -1.408203 8.545105 7
-0.0043950002 -1.398438 8.5872192 7
0.020873999 -1.365234 8.5080566 7
0.017578 -1.333984 8.5258179 7
0.01416 -1.3193361 8.5401611 7
0.015930001 -1.28418 8.5413208 7
-0.44738799 -8.5107422 0.97357202 7
-0.447449 -8.5107422 0.99371302 7
-0.444031 -8.5 1.014587 7
-0.44409201 -8.5009766 1.034851 7
-0.44757101 -8.5126953 1.054871 7
-0.44769299 -8.5146484 1.075195 7
-0.44769299 -8.5146484 1.095764 7
-0.44427499 -8.5029297 1.116272 7
-0.444397 -8.5039062 1.136658 7
-0.44610599 -8.5097656 1.156799 7
-0.43579099 -8.4775391 1.1777951 7
-0.43762201 -8.4824219 1.198059 7
-0.44110101 -8.4941406 1.21814 7
-0.44464099 -8.5058594 1.238281 7
-0.441223 -8.4941406 1.258911 7
-0.441284 -8.4951172 1.279053 7
-0.437866 -8.4833984 1.299438 7
-0.43798801 -8.4833984 1.3197629 7
-0.436279 -8.4775391 1.3399661 7
-0.43457001 -8.4716797 1.3601069 7
-0.43981901 -8.4882812 1.3807369 7
-0.43988001 -8.4892578 1.4009399 7
-0.43994099 -8.4892578 1.421387 7
-0.443481 -8.5 1.441833 7
-0.44177201 -8.4941406 1.462036 7
-0.44360399 -8.5 1.4825439 7
-0.447083 -8.5097656 1.502991 7
-0.44018599 -8.4873047 1.522827 7
-0.436829 -8.4755859 1.542908 7
-0.43170199 -8.4580078 1.562622 7
-0.43347201 -8.4638672 1.583069 7
0.016357001 -1.576172 8.2037354 7
0.014587 -1.561523 8.2133789 7
0.018127 -1.5263669 8.210144 7
0.021606 -1.5087889 8.203125 7
0.019897001 -1.4775389 8.2156372 7
0.023375999 -1.458984 8.2086792 7
0.023375999 -1.4423831 8.2120972 7
0.0076899999 -1.4375 8.2651978 7
0.013 -1.400391 8.2557373 7
0.01123 -1.384766 8.2648315 7
0.023437999 -1.345703 8.2330933 7
0.01825 -1.332031 8.2529297 7
0.016541 -1.316406 8.2617188 7
0.01825 -1.300781 8.2597046 7
-0.122314 -4.7998052 6.684937 7
-0.120544 -4.7841802 6.6924438 7
-0.113342 -4.7558589 6.6873779 7
-0.115173 -4.7470698 6.7029419 7
0.0042110002 -1.59082 7.9833369 7
0.002441 -1.575195 7.9927979 7
0.002441 -1.55957 7.996521 7
0.0042719999 -1.527344 7.9987178 7
0.0042719999 -1.511719 8.0026255 7
0.0042719999 -1.496094 8.0064087 7
0.0079349997 -1.4619139 8.0028076 7
0.00067099999 -1.452148 8.0283813 7
-0.0046999999 -1.439453 8.0482788 7
0.002563 -1.40332 8.0335083 7
0.0079349997 -1.3837889 8.0206909 7
0.0061650001 -1.371094 8.0297852 7
0.0043330002 -1.34082 8.0419922 7
0.0043330002 -1.325195 8.0453491 7
0.002563 -1.311523 8.0540771 7
0.00079299998 -1.280273 8.0661011 7
-0.063623004 -1.289755 16.987595 7
-0.141188 -4.6839881 15.370754 7
-0.015724 -1.451178 14.261723 7
0.047341 -1.482289 12.062849 7
-0.017015999 -1.577842 10.953445 7
-0.014342 -1.282122 10.982314 7
0.0081540002 -1.375994 10.072313 7
0.026988 -1.444132 9.3431768 7
0.042583 -1.4949 8.748414 7
-0.0089509999 -1.29493 8.7974453 7
0.001089 -1.54864 8.295599 7
-0.00081300002 -1.372687 8.365057 7
-0.113561 -4.6800971 6.0578642 7
-0.11359 -4.5808549 6.2466202 7
0.011769 -1.587909 7.8972688 7
0.011659 -1.424924 7.9576101 7
-0.117428 -4.7572212 4.9947672 7
0.032733999 -1.4437571 7.549438 7
0.025660999 -1.309387 7.6420088 7
0.0045989999 -1.474885 7.2408991 7
0.0035059999 -1.341535 7.3023639 7
0.078551002 -0.31426299 4.0782499 7
0.070265003 -0.31448799 4.1148801 7
0.068157002 -0.29449901 3.958895 7
0.085709997 -0.28917 3.971101 7
0.052127 -0.31220999 4.131278 7
0.063229002 -0.30276 4.1461682 7
0.079455003 -0.28885701 3.987556 7
0.067584001 -0.29076901 4.0061831 7
0.074375004 -0.28964201 4.0189972 7
0.057023 -0.29194301 4.037096 7
0.074188001 -0.284767 4.049922 7
0.077748999 -0.27561501 4.0648499 7
0.068170004 -0.27920401 4.0823588 7
0.087545 -0.261935 4.0924649 7
0.050939001 -0.27478701 4.114109 7
0.073039003 -0.26226601 4.1264 7
0.062867999 -0.26197201 4.1439419 7
0.081919998 -0.243365 4.1497469 7
0.090829998 -1.511604 17.04299 7
0.086626001 -1.442445 15.159872 7
0.022306999 -1.369541 13.210607 7
0.053778 -1.32311 11.925863 7
0.069149002 -1.289822 11.00906 7
0.082838997 -1.552258 10.18966 7
0.031033 -1.5004719 9.5460653 7
0.046705998 -1.460079 9.0286169 7
-0.46143901 -8.5310478 1.0052069 7
-0.46413699 -8.6121674 1.324177 7
-0.113086 -4.5152221 8.1287346 7
0.046418998 -1.431651 8.6675682 7
-0.191055 -5.0284338 -1.6830961 7
-0.157618 -4.6968269 -1.276986 7
0.0093879998 -1.398095 8.2514896 7
0.025912 -1.5636539 7.8639312 7
0.029461 -1.369791 7.8864059 7
-0.18808199 -4.5714598 -0.76991701 7
-0.191098 -4.731297 -0.61182201 7
-0.118257 -4.727953 6.2890692 7
-0.126807 -4.6313882 6.4732351 7
0.044004001 -1.525668 7.546895 7
0.044771001 -1.3459589 7.5794559 7
-0.180325 -4.6231828 -0.27227101 7
-0.17621399 -4.7405982 -0.093783997 7
-0.118372 -4.7772732 5.8340278 7
-0.109952 -4.6425319 5.9726858 7
-0.104203 -4.511929 6.1120949 7
0.051831 -1.4964941 7.3044829 7
0.054795001 -1.3261189 7.3246632 7
-0.148426 -4.4850988 0.13448299 7
-0.157343 -4.6285992 0.269391 7
-0.15372799 -4.7261829 0.44173101 7
-0.129862 -4.4897032 0.61975098 7
-0.161173 -4.8823709 5.1911259 7
0.023064001 -1.466133 7.0587401 7
0.025746001 -1.306061 7.077847 7
-0.142187 -4.7346859 4.9247231 7
-0.128713 -4.6194568 5.0587192 7
-0.16827001 -4.9723568 3.8892081 7
-0.159677 -4.911303 4.048687 7
-0.110599 -4.487988 4.8131981 7
-0.134661 -4.837358 -1.7291369 7
-0.120258 -4.7714381 -1.519518 7
-0.112256 -4.7826471 -1.119055 7
-0.103784 -4.7382951 -0.92077899 7
-0.100958 -4.7324638 -0.72189802 7
-0.098849997 -4.7242651 -0.52231199 7
