# .PCD v0.7 - Point Cloud Data file format
VERSION 0.7
FIELDS x y z intensity
SIZE 4 4 4 4
TYPE F F F F
COUNT 1 1 1 1
WIDTH 368
HEIGHT 1
VIEWPOINT 0 0 0 1 0 0 0
POINTS 368
DATA ascii
0.23016401 -1.146484 58.291504 7
0.096496999 -4.5244141 50.877014 7
0.066405997 -4.4707031 51.604431 7
-0.87286401 -1.919922 -64.880981 7
0.039917 -4.5380859 37.711853 7
-0.83441198 2.4326169 -45.278748 7
-0.84643602 2.3310549 -45.470947 7
0.109558 -1.1826169 29.939697 7
-0.78125 -1.625977 -38.281067 7
-0.777771 -1.719727 -38.230042 7
-0.77002001 -1.80957 -38.120728 7
-0.0098270001 -4.78125 28.980591 7
0.011292 -4.6699219 28.727417 7
0.0049439999 -4.6191411 28.819153 7
-0.012329 -4.5908198 29.049194 7
-0.022766 -4.547852 29.192627 7
-0.77685499 -1.519531 -36.705627 7
0.13146999 14.274414 -19.905457 7
0.132874 14.213867 -19.924561 7
0.12915 14.1875 -19.996826 7
0.125488 14.162109 -20.069275 7
0.125488 14.110352 -20.102356 7
0.20611601 13.726562 -17.001282 7
0.206604 13.679688 -17.028809 7
0.20666499 13.635742 -17.061096 7
0.209656 13.570312 -17.064758 7
0.211182 13.516602 -17.082581 7
0.20971701 13.482422 -17.12854 7
0.065246999 12.144531 -19.987732 7
0.064758003 12.09668 -20.021301 7
0.062804997 12.056641 -20.07019 7
0.059813999 12.021484 -20.12915 7
-1.716553 -37.69043 -17.487915 7
-1.753052 -38.084961 -17.571411 7
-1.783142 -38.416992 -17.622437 7
-1.756531 -38.200195 -17.403137 7
-1.750916 -38.186523 -17.284241 7
-1.787292 -38.621094 -17.269287 7
-1.8156739 -39.21582 -16.646179 7
-1.830078 -39.395508 -16.615784 7
-1.848816 -39.619141 -16.603638 7
-1.86438 -39.810547 -16.576477 7
0.081969999 -1.328125 23.396729 7
0.14190701 12.463867 -16.88678 7
0.142456 12.416992 -16.911316 7
0.144592 12.360352 -16.921143 7
0.147278 12.299805 -16.925964 7
0.148376 12.248047 -16.945007 7
0.149414 12.198242 -16.964111 7
-1.748047 -31.944336 -22.862488 7
-0.035034001 -4.6767578 22.653809 7
-0.038513001 -4.6337891 22.699097 7
0.079773001 -1.587891 22.029358 7
0.082824998 -1.537109 22.004333 7
0.085876003 -1.485352 21.979065 7
0.091309004 -1.43457 21.930481 7
0.086060002 -1.388672 21.986389 7
0.07666 -1.345703 22.082703 7
0.085022002 -1.2919919 22.0047 7
0.085693002 -1.242188 22.002075 7
0.081665002 -1.1962889 22.045959 7
0.086608998 10.864258 -16.877502 7
0.088317998 10.811523 -16.887878 7
0.091247998 10.708984 -16.913513 7
0.092345998 10.65918 -16.928528 7
0.095764004 10.59668 -16.922913 7
0.096375003 10.549805 -16.942688 7
0.097534001 10.5 -16.957336 7
-1.781128 -27.416016 -25.204712 7
-1.618225 -27.311523 -22.938049 7
-1.625122 -27.416016 -22.915527 7
-1.631714 -27.575195 -22.823242 7
-1.647827 -27.745117 -22.856934 7
-1.656616 -27.863281 -22.84436 7
-1.666626 -27.991211 -22.838745 7
-1.673584 -28.097656 -22.813904 7
-1.682922 -28.220703 -22.803711 7
-1.6923831 -28.344727 -22.792908 7
-0.070923001 -4.7695308 21.696716 7
-0.056334998 -4.6914058 21.57782 7
-0.056274001 -4.6425781 21.588928 7
-0.069458 -4.5742192 21.730286 7
-0.059264999 -4.5058589 21.650574 7
0.058288999 -1.55957 21.048035 7
0.058350001 -1.512695 21.051819 7
0.065917999 -1.4619139 20.985901 7
0.061707001 -1.37207 21.033508 7
0.056152001 -1.328125 21.089355 7
-1.318176 -20.564453 -22.878601 7
-1.337708 -20.735352 -22.962158 7
-1.421265 -21.570312 -23.222595 7
-1.193787 -24.411133 -16.813965 7
-1.199219 -24.491211 -16.783508 7
-1.207275 -24.59082 -16.766541 7
-1.219788 -24.723633 -16.773132 7
-1.230408 -24.841797 -16.768982 7
-1.22998 -24.879883 -16.706543 7
-1.243835 -25.020508 -16.718506 7
-1.2557369 -25.148438 -16.719971 7
-1.260498 -25.223633 -16.683716 7
0.064392 -1.417969 19.835938 7
-1.052368 -20.831055 -16.758606 7
-1.064209 -20.947266 -16.773865 7
-1.066467 -21.003906 -16.735168 7
-1.075562 -21.104492 -16.734131 7
-0.86871302 -16.6875 -16.800415 7
-0.87536597 -16.766602 -16.798889 7
-0.87982202 -16.833008 -16.784485 7
-0.889404 -16.925781 -16.799194 7
0.028564001 -1.470703 15.668518 7
0.03125 -1.43457 15.654724 7
-0.092772998 -4.7861328 14.937378 7
-0.083557002 -4.7363281 14.89447 7
-0.073242001 -4.6806641 14.846436 7
-0.078674003 -4.6611328 14.89032 7
-0.085083 -4.641602 14.939941 7
-0.089661002 -4.6191411 14.978394 7
-0.092345998 -4.592773 15.005981 7
-0.089661002 -4.5556641 15.000488 7
-0.082213998 -4.5097661 14.967712 7
0.017456001 -1.599609 15.013367 7
0.021179 -1.564453 14.994202 7
0.026733 -1.52832 14.963684 7
0.023071 -1.5 14.990417 7
0.028625 -1.462891 14.959656 7
0.023193 -1.435547 14.997803 7
0.02417 -1.402344 14.995605 7
0.017821999 -1.373047 15.039246 7
0.02063 -1.3388669 15.025452 7
0.021545 -1.306641 15.023132 7
0.024352999 -1.273438 15.009033 7
-0.074524 -4.742188 14.143677 7
-0.073546998 -4.7099609 14.149536 7
-0.073546998 -4.6806641 14.16095 7
-0.077331997 -4.6582031 14.193787 7
-0.084045 -4.640625 14.243103 7
-0.092651002 -4.6279302 14.303101 7
-0.098389 -4.609375 14.346863 7
-0.091674998 -4.5654302 14.319885 7
-0.078125 -4.5068359 14.254517 7
0.014709 -1.49707 14.417847 7
0.018677 -1.402344 14.405762 7
0.014954 -1.374023 14.43219 7
0.014038 -1.313477 14.444824 7
0.015015 -1.282227 14.442444 7
-0.096129999 -4.7871089 13.549988 7
-0.075989 -4.7167969 13.453918 7
-0.075928003 -4.686523 13.465332 7
-0.073913999 -4.655273 13.465759 7
-0.076903999 -4.6318359 13.493225 7
-0.073913999 -4.5976558 13.48822 7
-0.070862003 -4.5644531 13.483093 7
-0.063721001 -4.5205078 13.456238 7
-0.060729999 -4.4863281 13.450928 7
0.029175 -1.5888669 13.679016 7
0.028198 -1.560547 13.688782 7
0.028259 -1.532227 13.692688 7
0.025269 -1.5048831 13.713623 7
0.031372 -1.470703 13.6828 7
0.029418999 -1.443359 13.697937 7
0.029479999 -1.4150389 13.701599 7
0.023437999 -1.389648 13.739563 7
0.021484001 -1.362305 13.754395 7
0.025574001 -1.329102 13.734863 7
0.028625 -1.298828 13.720825 7
0.028687 -1.269531 13.724243 7
0.023682 -1.2431639 13.756042 7
0.029846 -1.580078 12.566772 7
0.028809 -1.5537111 12.576294 7
0.024413999 -1.530273 12.602966 7
0.032166 -1.499023 12.567078 7
0.02887 -1.4736331 12.587708 7
0.028930999 -1.420898 12.595032 7
0.03009 -1.394531 12.592651 7
0.022461001 -1.373047 12.636108 7
0.028015001 -1.342773 12.611023 7
0.028015001 -1.31543 12.614319 7
0.028076001 -1.289062 12.617737 7
0.022217 -1.3662111 12.160645 7
0.021118 -1.339844 12.169617 7
0.025818 -1.261719 12.156738 7
0.023193 -1.597656 11.648315 7
0.018433001 -1.577148 11.674866 7
0.018433001 -1.5537111 11.678833 7
0.020873999 -1.527344 11.671448 7
0.025696 -1.5 11.652466 7
0.026916999 -1.474609 11.650574 7
0.024597 -1.451172 11.665466 7
0.023437999 -1.427734 11.674866 7
0.025818 -1.402344 11.666992 7
0.018738 -1.382812 11.70459 7
0.018738 -1.359375 11.707947 7
0.016357001 -1.335938 11.722778 7
0.028380999 -1.3037111 11.669189 7
0.024840999 -1.282227 11.689636 7
0.018005 -1.59668 10.03241 7
0.018005 -1.578125 10.036316 7
0.020873999 -1.554688 10.029053 7
0.018066 -1.5361331 10.044189 7
0.022338999 -1.512695 10.031128 7
0.027953999 -1.4892581 10.012512 7
0.029418999 -1.467773 10.010559 7
0.033629999 -1.4443361 9.9975586 7
0.025269 -1.429688 10.034668 7
0.026733 -1.408203 10.032715 7
0.019653 -1.392578 10.064148 7
0.021118 -1.371094 10.062073 7
0.021179 -1.3505861 10.06543 7
0.021179 -1.330078 10.068787 7
0.026794 -1.306641 10.049622 7
0.026854999 -1.2861331 10.052979 7
0.021667 -1.592773 9.6882935 7
0.021729 -1.554688 9.696228 7
0.027588001 -1.5107419 9.6814585 7
0.029114 -1.470703 9.6833496 7
0.024840999 -1.43457 9.7076416 7
0.021911999 -1.4169919 9.7223511 7
0.023375999 -1.396484 9.7203369 7
0.020569 -1.359375 9.7382812 7
0.02063 -1.3193361 9.7451172 7
0.018738 -1.589844 9.3599854 7
0.014282 -1.574219 9.3806152 7
0.0097660003 -1.558594 9.401123 7
0.0067750001 -1.541016 9.4161987 7
0.012817 -1.518555 9.3978271 7
0.015869001 -1.49707 9.3905029 7
0.012878 -1.480469 9.4051514 7
0.023499001 -1.455078 9.3699951 7
0.020447001 -1.4375 9.3846436 7
0.017517 -1.419922 9.3994141 7
0.011475 -1.405273 9.4252319 7
0.013 -1.3857419 9.4234009 7
0.014526 -1.365234 9.4210815 7
0.0070190001 -1.351562 9.4522715 7
0.011597 -1.330078 9.4390259 7
0.019165 -1.306641 9.4146118 7
0.017639 -1.289062 9.4232788 7
-0.110229 -4.7880859 7.3452759 7
-0.101868 -4.7568359 7.335022 7
-0.110229 -4.7597661 7.3682861 7
-0.101868 -4.7285161 7.3579712 7
-0.095092997 -4.7001948 7.351685 7
-0.100159 -4.6962891 7.3762212 7
-0.100159 -4.6816411 7.3875728 7
-0.100159 -4.6679692 7.3988652 7
-0.103577 -4.6601558 7.4188838 7
-0.110291 -4.6611328 7.447937 7
-0.120422 -4.6669922 7.4859619 7
-0.110352 -4.632812 7.4703979 7
-0.103577 -4.6035161 7.4637451 7
-0.110352 -4.6035161 7.4927368 7
-0.103638 -4.5751948 7.4859009 7
-0.100281 -4.5537109 7.487793 7
-0.096923999 -4.5332031 7.4898682 7
-0.103638 -4.532227 7.5187988 7
-0.106995 -4.523438 7.5388179 7
-0.103638 -4.5029302 7.5404658 7
0.015747 -1.5869139 8.4760132 7
0.010742 -1.574219 8.4963379 7
0.0073850001 -1.55957 8.5113525 7
0.0073850001 -1.542969 8.5151367 7
0.019226 -1.517578 8.4806519 7
0.017517 -1.501953 8.4897461 7
0.019226 -1.484375 8.4880981 7
0.024292 -1.464844 8.4752808 7
0.020935001 -1.450195 8.4899292 7
0.020996001 -1.4326169 8.4936523 7
0.010925 -1.422852 8.5301514 7
0.0075679999 -1.408203 8.5446777 7
0.012634 -1.387695 8.5316772 7
0.012695 -1.371094 8.5350952 7
0.011047 -1.355469 8.5440674 7
0.022826999 -1.331055 8.5088501 7
0.016052 -1.3193361 8.5342407 7
0.019470001 -1.299805 8.5264893 7
0.012756 -1.2880861 8.5519409 7
-0.105042 -4.7753911 6.9673462 7
-0.103333 -4.757812 6.9745479 7
-0.105042 -4.749023 6.990356 7
-0.098082997 -4.7216802 6.9846802 7
-0.098082997 -4.7080078 6.9959111 7
-0.101624 -4.702148 7.0160518 7
-0.103333 -4.6914058 7.0314941 7
-0.105103 -4.6826172 7.0473628 7
-0.112061 -4.6835942 7.0758061 7
-0.119019 -4.6835942 7.1043701 7
-0.113831 -4.6591802 7.1026611 7
-0.113831 -4.6455078 7.113708 7
-0.115601 -4.6357422 7.129395 7
-0.112122 -4.617188 7.131897 7
-0.108643 -4.5957031 7.1342158 7
-0.112183 -4.5898442 7.1541138 7
-0.110413 -4.5722661 7.1608281 7
-0.110413 -4.5585942 7.171814 7
-0.108704 -4.5400391 7.1783452 7
-0.103455 -4.5175781 7.176147 7
-0.103455 -4.5029302 7.1869512 7
-0.103455 -4.4892578 7.1977539 7
-0.112 -4.7832031 6.6381841 7
-0.113831 -4.7744141 6.6539311 7
-0.110229 -4.7539058 6.657043 7
-0.112061 -4.7451172 6.672729 7
-0.112061 -4.7324219 6.6841431 7
-0.112061 -4.719727 6.6954961 7
-0.112061 -4.7070308 6.7068481 7
-0.113892 -4.6992192 6.7224121 7
-0.110229 -4.6777339 6.7252202 7
-0.121094 -4.6875 6.7617798 7
-0.117493 -4.6679692 6.764709 7
-0.124695 -4.6699219 6.7927861 7
-0.119324 -4.6464839 6.7915039 7
-0.112122 -4.6181641 6.785583 7
-0.108521 -4.5986328 6.7883301 7
-0.115784 -4.6005859 6.8164058 7
-0.103149 -4.5625 6.797668 7
-0.097778 -4.5400391 6.7957759 7
-0.10498 -4.5410161 6.8239141 7
-0.10498 -4.5283198 6.8348389 7
-0.108582 -4.5224609 6.8543091 7
-0.110413 -4.5126948 6.8695068 7
-0.114014 -4.5068359 6.8890381 7
-0.070702001 -4.6173978 14.289566 7
0.0089299995 -1.2970819 13.91787 7
0.0075309998 -1.566427 10.035088 7
0.0098740002 -1.309444 10.070149 7
0.023944 -1.39487 9.3812714 7
-0.128828 -4.6987681 6.9410062 7
-0.13855299 -4.6169848 7.1640191 7
0.0060279998 -1.314149 8.3356686 7
-0.089666001 -4.691977 5.6682529 7
-0.092331998 -4.6241221 5.8647022 7
-0.087710001 -4.5059681 6.0398922 7
0.041609 -1.532611 7.4582758 7
0.037531 -1.39658 7.5380731 7
0.016705001 -1.547194 7.139842 7
0.020107999 -1.408553 7.1832981 7
0.013414 -1.28839 7.2687001 7
0.060258999 -1.380113 17.573795 7
0.068411 -1.324522 15.444537 7
-0.187453 -4.6004262 14.125281 7
-0.018975001 -1.276096 13.669024 7
0.012434 -1.443086 9.6843777 7
-0.126057 -4.6365962 -1.108687 7
-0.113757 -4.7567649 -0.88771498 7
-0.163855 -4.6369781 7.4965019 7
-0.0095419995 -1.352244 8.3591728 7
-0.138108 -4.6775379 6.8770561 7
-0.145676 -4.5537629 7.0621881 7
-0.159463 -4.631093 -0.50754899 7
-0.15843999 -4.7671809 -0.33545199 7
-0.121833 -4.7094011 6.339334 7
-0.13162699 -4.614625 6.526886 7
0.026334999 -1.489635 7.6380558 7
-0.137199 -4.6454892 0.059751 7
-0.109939 -4.7225332 5.854115 7
-0.1039 -4.482141 6.1491032 7
0.043570001 -1.45816 7.349669 7
0.042704999 -1.286978 7.3853712 7
-0.154256 -4.5958228 5.9974341 7
-0.140734 -4.623322 5.5111599 7
-0.140486 -4.5038018 5.7006922 7
0.0098130004 -1.5921021 7.0847182 7
0.015314 -1.429739 7.0977888 7
-0.051515002 -1.365289 -5.7546391 7
-0.047802001 -1.549576 -5.6715732 7
-0.095849998 -4.6221619 -1.265462 7
-0.099986002 -4.7117939 -0.87261599 7
-0.099235997 -4.72119 -0.67304802 7
