# .PCD v0.7 - Point Cloud Data file format
VERSION 0.7
FIELDS x y z intensity
SIZE 4 4 4 4
TYPE F F F F
COUNT 1 1 1 1
WIDTH 411
HEIGHT 1
VIEWPOINT 0 0 0 1 0 0 0
POINTS 411
DATA ascii
-0.002258 -4.429688 58.824402 7
0.096313 -1.12207 51.275635 7
0.063660003 -1.155273 43.883667 7
-0.77252197 -1.867188 -60.77356 7
-0.094177 -4.4560552 43.534851 7
-0.12988301 -4.4248052 44.208374 7
-0.74670398 -1.6806639 -54.626892 7
-0.834656 -5.1152339 -55.868347 7
-0.73779303 -1.78418 -50.039917 7
-0.888794 -5.0830078 -47.690552 7
0.059631001 -1.289062 32.547058 7
-0.699341 2.4892581 -42.421204 7
-0.69732702 2.3837891 -42.397644 7
-0.71398902 2.2919919 -42.659729 7
-0.73046899 -1.62207 -42.436523 7
-0.743958 -1.738281 -42.69519 7
-0.712524 -1.8212889 -42.211975 7
-0.67657501 -1.643555 -36.363892 7
-0.68829298 -1.7412111 -36.517029 7
-0.84686297 -4.9980469 -40.215698 7
-0.81005901 -5.139648 -39.739075 7
0.054138001 -1.191406 28.647156 7
0.044188999 -1.132812 28.778442 7
-0.098389 -4.7324219 28.321899 7
-0.082641996 -4.6367192 28.149292 7
-0.083068997 -4.5742192 28.166138 7
-0.098572001 -4.5419922 28.361267 7
-0.113525 -4.5068359 28.550537 7
0.032593001 -1.313477 27.212585 7
0.041443001 -1.24707 27.110779 7
0.039733998 -1.125977 27.139832 7
0.30395499 13.151367 -17.507263 7
0.30535901 13.09668 -17.523743 7
0.306274 13.043945 -17.544739 7
0.056274001 -1.208984 25.190369 7
0.050048999 -1.15625 25.263428 7
0.23223899 11.823242 -17.455383 7
0.235779 11.757812 -17.448425 7
0.23583999 11.711914 -17.475952 7
0.23736601 11.657227 -17.488464 7
0.237427 11.612305 -17.516052 7
0.23992901 11.550781 -17.518127 7
0.239502 11.508789 -17.550354 7
0.241577 11.451172 -17.557251 7
0.243591 11.394531 -17.564331 7
-1.972412 -39.041992 -18.642395 7
-1.939697 -38.77832 -18.391174 7
-1.973267 -39.135742 -18.456604 7
0.17401101 10.236328 -17.41571 7
0.171875 10.202148 -17.46051 7
0.17730699 10.129883 -17.4328 7
0.17572001 10.092773 -17.472168 7
0.17626999 10.044922 -17.490601 7
0.17626999 9.9990234 -17.513977 7
0.17797901 9.9462891 -17.522156 7
0.046386998 -1.4150389 22.387573 7
-1.882751 -27.412109 -25.605042 7
-1.717834 -27.319336 -23.317017 7
-1.71875 -27.393555 -23.268616 7
-1.7271121 -27.507812 -23.253662 7
-1.739319 -27.649414 -23.26178 7
-1.750854 -27.786133 -23.265137 7
-1.761169 -27.913086 -23.260559 7
-1.769653 -28.02832 -23.243958 7
-1.778748 -28.148438 -23.230713 7
-1.7859499 -28.254883 -23.205566 7
-1.801208 -28.418945 -23.229675 7
-0.13897701 -4.7119141 22.331482 7
-0.123718 -4.632812 22.206482 7
-0.124268 -4.5839839 22.223206 7
-0.13488799 -4.5556641 22.330933 7
-0.12915 -4.4941411 22.290527 7
0.020873999 -1.2548831 21.438538 7
0.022826999 -1.207031 21.424377 7
-1.379517 -20.191406 -23.28064 7
-1.3831789 -20.267578 -23.255066 7
-1.3953249 -20.392578 -23.287292 7
-1.401672 -20.485352 -23.278992 7
-1.410522 -20.59082 -23.287903 7
-1.422058 -20.712891 -23.314575 7
-1.4256589 -20.790039 -23.287292 7
-1.312744 -24.740234 -17.166504 7
-1.322327 -24.848633 -17.156128 7
-1.331238 -24.953125 -17.141724 7
-0.14691199 -4.773438 21.073853 7
-0.134766 -4.702148 20.983398 7
-0.121948 -4.6298828 20.887329 7
-0.121887 -4.5839839 20.898499 7
-0.128479 -4.5507808 20.965942 7
-0.141846 -4.53125 21.090393 7
-0.124329 -4.6962891 13.740417 7
-0.119202 -4.65625 13.724854 7
-0.122192 -4.6337891 13.752197 7
-0.010132 -1.5888669 13.911987 7
-0.0070799999 -1.5576169 13.898682 7
-0.011963 -1.501953 13.934814 7
-0.0048830002 -1.467773 13.898804 7
-0.0048219999 -1.4375 13.902283 7
-0.0047610002 -1.408203 13.905945 7
-0.016724 -1.356445 13.981567 7
-0.01062 -1.3232419 13.950623 7
-0.124756 -4.742188 13.108276 7
-0.11731 -4.7011719 13.082275 7
-0.119385 -4.6767578 13.104248 7
-0.118286 -4.6464839 13.110168 7
-0.0095830001 -1.264648 13.402466 7
-0.012634 -1.238281 13.422729 7
-0.0043950002 -1.578125 12.741211 7
-0.001038 -1.548828 12.728027 7
0.003174 -1.519531 12.720825 7
-6.0999999e-05 -1.4951169 12.74176 7
0.0054930001 -1.4638669 12.716797 7
0.003296 -1.439453 12.731995 7
6.0999999e-05 -1.414062 12.752563 7
0.000122 -1.387695 12.756165 7
0.000183 -1.360352 12.759521 7
-0.003113 -1.335938 12.780212 7
-0.0041499999 -1.30957 12.789246 7
0.001221 -1.558594 12.243225 7
-0.001038 -1.5087889 12.262329 7
0.002502 -1.455078 12.252686 7
0.002625 -1.40332 12.259766 7
-0.0042110002 -1.357422 12.300964 7
0.0062259999 -1.298828 12.256348 7
-0.010315 -1.5986331 11.804993 7
-0.010254 -1.574219 11.80896 7
-0.010193 -1.548828 11.812866 7
-0.013794 -1.527344 11.833679 7
-0.010132 -1.500977 11.820557 7
-0.00048799999 -1.46875 11.77887 7
-0.0051879999 -1.447266 11.805237 7
-0.0051879999 -1.422852 11.808716 7
-0.0051270002 -1.398438 11.812317 7
-0.011108 -1.376953 11.844177 7
-0.011047 -1.3525389 11.847656 7
-0.0097660003 -1.326172 11.845154 7
-0.001404 -1.297852 11.808838 7
-0.0061039999 -1.275391 11.834839 7
-0.0061039999 -1.25 11.838013 7
-0.0048219999 -1.2255861 11.83551 7
0.0045779999 -1.59375 11.319153 7
-0.00036599999 -1.574219 11.345886 7
0.0059199999 -1.545898 11.321411 7
0.00097699999 -1.525391 11.3479 7
0.0047610002 -1.499023 11.334717 7
-0.000183 -1.478516 11.360962 7
0.0085450001 -1.450195 11.325134 7
-0.000122 -1.431641 11.368347 7
0.0048830002 -1.405273 11.349365 7
0.002441 -1.3837889 11.364075 7
-0.0037229999 -1.3642581 11.395996 7
0.0050050002 -1.3349611 11.359497 7
-0.0086059999 -1.3193361 11.425293 7
0.002625 -1.289062 11.377686 7
0.003052 -1.589844 10.864136 7
-0.00079299998 -1.548828 10.889038 7
-0.00073199999 -1.5263669 10.892761 7
0.00060999999 -1.50293 10.890991 7
0.010193 -1.4736331 10.861206 7
0.011536 -1.4287111 10.862671 7
0.011597 -1.405273 10.866516 7
0.0038449999 -1.367188 10.907288 7
0.0064699999 -1.341797 10.899292 7
0.0052490002 -1.3212889 10.908325 7
0.013123 -1.292969 10.877625 7
-0.010559 -1.494141 10.562073 7
-0.0089720003 -1.363281 10.578064 7
-0.0089109996 -1.341797 10.58136 7
-0.010193 -1.320312 10.590393 7
-0.0061039999 -1.295898 10.57666 7
-0.0040279999 -1.592773 10.119873 7
-0.002625 -1.5712889 10.118347 7
-0.0053710002 -1.552734 10.13324 7
-0.0081789996 -1.535156 10.14856 7
-0.0067139999 -1.512695 10.146606 7
-0.0038449999 -1.490234 10.139282 7
0.0046390002 -1.4638669 10.109314 7
0.0046390002 -1.4423831 10.112915 7
0.0046999999 -1.421875 10.116577 7
0.0047610002 -1.402344 10.120117 7
0.00054899999 -1.3837889 10.140381 7
-0.0036009999 -1.365234 10.160767 7
-0.0036009999 -1.344727 10.164124 7
-0.0077510001 -1.326172 10.184265 7
-0.002136 -1.302734 10.165222 7
0.00067099999 -1.589844 9.7758179 7
0.00067099999 -1.5693361 9.7798462 7
0.00073199999 -1.549805 9.7836914 7
-0.00067099999 -1.53125 9.7932129 7
-0.00067099999 -1.511719 9.796875 7
-0.00060999999 -1.4912111 9.8007202 7
0.0037839999 -1.46875 9.7876587 7
0.0052490002 -1.4482419 9.7857666 7
0.0067750001 -1.4267581 9.7838135 7
0.0039059999 -1.40918 9.7984619 7
0.0054319999 -1.388672 9.7964478 7
-0.001831 -1.374023 9.8278198 7
-0.001831 -1.353516 9.8313599 7
-0.00177 -1.3330081 9.8345947 7
0.00116 -1.3125 9.8268433 7
0.0055539999 -1.289062 9.8131714 7
-0.0064090001 -1.5888669 9.4524536 7
-0.0093989996 -1.5712889 9.4674683 7
-0.010864 -1.5537111 9.4768677 7
-0.010864 -1.53418 9.4807739 7
-0.0092770001 -1.513672 9.4789429 7
0.002869 -1.487305 9.4382935 7
-0.001648 -1.470703 9.4586792 7
-0.010681 -1.4580081 9.4957886 7
-0.0061039999 -1.435547 9.482666 7
-0.003113 -1.4150389 9.4752197 7
-0.01062 -1.402344 9.5065918 7
-0.012085 -1.3837889 9.515686 7
-0.002991 -1.358398 9.4855957 7
-0.001465 -1.337891 9.4834595 7
-0.0059199999 -1.322266 9.5036621 7
-0.0043950002 -1.3017581 9.5013428 7
-0.002869 -1.282227 9.4990845 7
0.00091599999 -1.583984 9.1477051 7
-0.0037229999 -1.5693361 9.1682129 7
-0.002136 -1.53125 9.1703491 7
-0.00048799999 -1.511719 9.1687012 7
0.010437 -1.485352 9.133667 7
0.0042719999 -1.453125 9.163147 7
0.00116 -1.4375 9.1780396 7
0.002747 -1.417969 9.1759644 7
-0.001892 -1.384766 9.199707 7
-0.00177 -1.347656 9.2067261 7
0.0076290001 -1.304688 9.1799316 7
0.002991 -1.2900389 9.1999512 7
-0.012695 -1.5849611 8.8743286 7
-0.001282 -1.5576169 8.8397827 7
-0.0077510001 -1.544922 8.8655396 7
-0.0044559999 -1.525391 8.8585815 7
0.0050659999 -1.50293 8.835083 7
0.0067139999 -1.484375 8.833313 7
0.0035399999 -1.466797 8.8480825 7
0.001953 -1.451172 8.8571777 7
-0.001282 -1.435547 8.8718872 7
0.00036599999 -1.416016 8.8699341 7
-0.001221 -1.400391 8.8789673 7
-0.002808 -1.3837889 8.8880615 7
-0.0043950002 -1.367188 8.8969116 7
-0.001099 -1.347656 8.8893433 7
0.0037229999 -1.327148 8.8760376 7
0.0054319999 -1.3076169 8.8739014 7
0.002197 -1.2919919 8.8883667 7
-0.0069579999 -1.585938 8.5507812 7
-0.0051879999 -1.568359 8.5493164 7
-0.0051879999 -1.53418 8.5570068 7
-0.00177 -1.515625 8.5499268 7
0.0066530001 -1.476562 8.5297241 7
-0.001709 -1.464844 8.5609741 7
-0.001648 -1.447266 8.5646973 7
0.0067750001 -1.425781 8.5408936 7
-0.011658 -1.404297 8.6085215 7
-0.0083010001 -1.384766 8.6011353 7
-0.0048830002 -1.3486331 8.5967407 7
-0.0048219999 -1.331055 8.6003418 7
0.000244 -1.310547 8.5870361 7
0.0070190001 -1.291016 8.5684204 7
-0.14398199 -4.766602 7.1208501 7
-0.142212 -4.75 7.1278691 7
-0.138733 -4.7294922 7.1307979 7
-0.13519301 -4.7089839 7.1334839 7
-0.13696299 -4.6982422 7.1491699 7
-0.13519301 -4.6816411 7.1561279 7
-0.13519301 -4.6679692 7.167419 7
-0.14038099 -4.664062 7.191833 7
-0.14563 -4.6611328 7.216125 7
-0.14386 -4.6435552 7.223083 7
-0.14032 -4.6220698 7.2253418 7
-0.14379901 -4.6152339 7.2452998 7
-0.13677999 -4.5869141 7.23877 7
-0.140259 -4.5810552 7.258606 7
-0.14032 -4.5683589 7.2697139 7
-0.13501 -4.5429692 7.2675781 7
-0.13501 -4.5292969 7.278625 7
-0.13501 -4.515625 7.2893682 7
-0.136719 -4.5039058 7.3048711 7
-0.136719 -4.4902339 7.3155522 7
-0.0035399999 -1.59082 8.2629395 7
-0.0069579999 -1.577148 8.27771 7
-0.0034179999 -1.5576169 8.270874 7
-0.0086669996 -1.545898 8.2910156 7
-0.0034179999 -1.5263669 8.2785645 7
-0.0068359999 -1.511719 8.2930908 7
0.001831 -1.490234 8.2697754 7
0.0053710002 -1.47168 8.2624512 7
0.000183 -1.458984 8.2827148 7
-0.001526 -1.443359 8.2915039 7
0.001953 -1.425781 8.2843628 7
0.002014 -1.408203 8.2878418 7
0.00030499999 -1.394531 8.296875 7
-0.003174 -1.3798831 8.3112793 7
-0.0066530001 -1.365234 8.3256836 7
-0.003113 -1.347656 8.3182373 7
-0.0065310001 -1.332031 8.3325806 7
0.00042699999 -1.3125 8.3139648 7
0.0039670002 -1.293945 8.3060913 7
-0.15564001 -4.7880859 6.7975459 7
-0.150269 -4.764648 6.7964482 7
-0.146606 -4.7451172 6.7997441 7
-0.14483599 -4.7285161 6.8068848 7
-0.141174 -4.7080078 6.809937 7
-0.146606 -4.7060552 6.8338008 7
-0.14654499 -4.6933589 6.8452759 7
-0.15014599 -4.686523 6.8649292 7
-0.14654499 -4.6679692 6.8678589 7
-0.14654499 -4.6533198 6.8789668 7
-0.159119 -4.6660161 6.920166 7
-0.16449 -4.6630859 6.9441528 7
-0.153687 -4.6279302 6.929688 7
-0.155457 -4.6191411 6.94519 7
-0.15185501 -4.5976558 6.9476318 7
-0.142822 -4.5673828 6.9373169 7
-0.150085 -4.5693359 6.9654541 7
-0.139221 -4.5361328 6.9508061 7
-0.132019 -4.507812 6.944397 7
-0.146423 -4.523438 6.9898682 7
-0.13555899 -4.4892578 6.974731 7
-0.00177 -1.594727 7.9985962 7
-0.0089720003 -1.5849611 8.0244141 7
-0.0089720003 -1.5693361 8.0282593 7
-0.012512 -1.556641 8.0430908 7
-0.0053099999 -1.535156 8.0252085 7
-0.001648 -1.516602 8.0181274 7
-0.012451 -1.509766 8.0545044 7
-0.0052490002 -1.488281 8.036499 7
-0.0070190001 -1.474609 8.0457153 7
-0.0069579999 -1.4580081 8.0492554 7
-0.0068970001 -1.4423831 8.0529165 7
-0.010498 -1.429688 8.0675049 7
-0.012268 -1.4150389 8.0765381 7
-0.015807999 -1.400391 8.0910034 7
-0.015807999 -1.384766 8.0944214 7
-0.017578 -1.3701169 8.1033936 7
-0.012146 -1.3505861 8.0903931 7
-0.015686 -1.3369139 8.1046753 7
-0.010315 -1.318359 8.0916748 7
-0.013916 -1.304688 8.105957 7
-0.003052 -1.282227 8.0762939 7
0.029931 -1.349622 12.306862 7
-0.013939 -1.426405 10.952255 7
0.001534 -1.516722 10.102552 7
0.021139 -1.568792 9.3603315 7
0.018812999 -1.34918 9.4356632 7
-0.014231 -1.4048541 8.8065462 7
-0.146263 -4.659996 7.192842 7
0.00059299998 -1.460085 8.3283577 7
-0.121051 -4.7711272 5.9795208 7
-0.117402 -4.653482 6.1627359 7
-0.12656499 -4.6016231 6.3759198 7
0.005591 -1.520318 7.9631271 7
0.010234 -1.345336 7.9932799 7
0.023250001 -1.539062 7.569849 7
0.024202 -1.387651 7.623014 7
-0.154524 -4.6606498 5.0262232 7
-0.14994401 -4.5798178 5.2114978 7
-0.145345 -4.4919248 5.3917742 7
-0.0060149999 -1.290593 7.373775 7
0.081238002 -0.288293 3.961236 7
0.055617999 -0.309755 4.1341891 7
0.045940001 -0.309239 4.154767 7
0.048896 -0.30163601 3.977072 7
0.071742997 -0.293284 3.989588 7
0.059875999 -0.294949 4.0084839 7
0.058430001 -0.29000801 4.024972 7
0.070572004 -0.28568399 4.0378022 7
0.05314 -0.286661 4.055624 7
0.070308 -0.27884999 4.0706358 7
0.066156 -0.27987999 4.0853338 7
0.074960999 -0.266711 4.0985332 7
0.070490003 -0.26582199 4.1155448 7
0.049896002 -0.27066499 4.134203 7
0.063745998 -0.25335199 4.144217 7
-0.014146 -1.5379339 12.514142 7
0.017278999 -1.475036 11.411675 7
0.0060740001 -1.134601 11.584639 7
-0.0095929997 -1.384124 9.8454952 7
0.0065139998 -1.353229 9.3037186 7
0.020501999 -1.5582581 8.7932491 7
0.024978001 -1.325442 8.8149385 7
0.043099999 -1.301029 8.3847828 7
-0.020300001 -1.516434 8.3831272 7
-0.136324 -4.6354842 6.9115362 7
-0.13641299 -4.4868779 7.0697279 7
0.001958 -1.478802 8.0013885 7
-0.116216 -4.6597438 6.3634129 7
-0.122055 -4.5510941 6.5375519 7
0.016109999 -1.4484921 7.6947341 7
0.024525 -1.596763 7.4043722 7
0.02885 -1.421638 7.422996 7
-0.157377 -4.713141 5.8479762 7
-0.158628 -4.6095991 6.0080528 7
-0.159787 -4.7524271 5.4311762 7
-0.15248001 -4.6378241 5.5737782 7
-0.13912199 -4.4995618 5.6977 7
-0.143784 -4.7049232 5.0055861 7
-0.141085 -4.6216292 5.1559138 7
-0.132093 -4.5129919 5.2910671 7
-0.15603 -4.9912829 3.259763 7
-0.158953 -4.994009 3.42717 7
-0.162535 -4.937634 3.968503 7
-0.15381899 -4.8732948 4.1257839 7
-0.150693 -4.7753162 4.4434552 7
-0.148219 -4.714344 4.5978069 7
-0.14404599 -4.6421151 4.7471042 7
-0.12841401 -4.5113511 4.9131808 7
-0.17314699 -4.6124058 4.2268739 7
-0.16364899 -4.5389662 4.3680291 7
