# .PCD v0.7 - Point Cloud Data file format
VERSION 0.7
FIELDS x y z intensity
SIZE 4 4 4 4
TYPE F F F F
COUNT 1 1 1 1
WIDTH 191
HEIGHT 1
VIEWPOINT 0 0 0 1 0 0 0
POINTS 191
DATA ascii
3.6790161 2.092773 -55.222168 7
-0.177551 -4.1962891 57.456787 7
-0.58471698 -2 -59.678772 7
-0.233337 -4.4023442 49.48822 7
-0.222351 -4.2695308 49.283264 7
-0.256165 -4.2148442 49.969238 7
-0.593018 -1.802734 -55.64093 7
-0.57293701 2.089844 -55.180542 7
-0.55779999 -1.7431639 -49.988953 7
-0.198486 -4.3789058 41.839844 7
-0.223389 -4.328125 42.274536 7
-0.74408001 -5.1816411 -49.018738 7
-0.71179199 -5.2402339 -48.453735 7
-0.57330298 -1.689453 -42.337952 7
-0.560669 -1.78418 -42.135132 7
-0.574341 -1.896484 -42.34668 7
-0.212891 -4.4716802 34.013672 7
-0.226013 -4.4189448 34.203918 7
-0.237427 -4.3613281 34.370789 7
0.42394999 12.905273 -19.137817 7
0.425659 12.844727 -19.148315 7
0.426025 12.791992 -19.173706 7
0.427185 12.733398 -19.18866 7
-0.040038999 -1.2275389 28.058594 7
0.34582499 11.788086 -19.039307 7
0.347534 11.727539 -19.04657 7
0.347534 11.679688 -19.07428 7
0.353699 11.588867 -19.030334 7
0.35003701 11.5625 -19.098328 7
0.35394299 11.488281 -19.079529 7
0.35260001 11.448242 -19.121887 7
0.35888699 11.359375 -19.077148 7
0.35107401 11.357422 -19.19104 7
-0.178101 -4.5058589 27.377197 7
-0.033202998 -1.261719 26.169189 7
-0.044066999 -1.208984 26.294678 7
-0.029358 -1.141602 26.134521 7
-0.037659001 -1.0888669 26.230713 7
-0.043701001 -1.02832 26.303467 7
-0.038391002 -0.96679699 26.247681 7
-0.032653999 -1.342773 24.599487 7
-0.032593001 -1.2880861 24.602783 7
-0.028503001 -1.175781 24.568237 7
-0.032349002 -1.124023 24.612061 7
-1.910767 -36.384766 -18.981079 7
-1.9196171 -36.508789 -18.936768 7
-1.946228 -36.791016 -18.979187 7
-1.978088 -37.121094 -19.045471 7
-1.978943 -37.174805 -18.960083 7
-1.99353 -37.349609 -18.941101 7
-0.025024001 -1.2587889 23.092896 7
-0.032104 -1.2119139 23.165833 7
-0.020752 -1.154297 23.058289 7
-0.02063 -1.1025389 23.061096 7
-0.028259 -1.0556639 23.139648 7
-0.027649 -1.00293 23.136353 7
-1.763916 -27.642578 -24.8573 7
-1.766479 -27.720703 -24.807617 7
-1.777588 -27.858398 -24.813171 7
-1.782043 -27.950195 -24.774536 7
-1.788879 -28.058594 -24.751709 7
-1.799927 -28.197266 -24.755981 7
-1.812256 -28.344727 -24.767517 7
-1.820374 -28.462891 -24.751099 7
-1.687378 -31.230469 -18.728149 7
-1.718628 -31.619141 -18.659973 7
-1.778259 -32.330078 -18.575073 7
-1.79187 -32.485352 -18.56488 7
-0.210388 -4.6533198 19.455811 7
-0.198364 -4.5888672 19.376953 7
-0.201294 -4.5507808 19.410461 7
-0.21026599 -4.5253911 19.489197 7
-0.046142999 -1.271484 16.950867 7
-0.039429002 -1.230469 16.907898 7
-0.039368 -1.193359 16.910889 7
-0.041016001 -1.158203 16.925537 7
-0.043517999 -1.123047 16.945679 7
-0.192322 -4.7714839 12.857971 7
-0.191284 -4.7431641 12.864319 7
-0.18792699 -4.7089839 12.85968 7
-0.17797901 -4.6611328 12.82312 7
-0.173645 -4.625977 12.812927 7
-0.173584 -4.5986328 12.824158 7
-0.175781 -4.5761719 12.845886 7
-0.18573 -4.5693359 12.904968 7
-0.181335 -4.532227 12.894531 7
-0.175781 -4.4951172 12.878845 7
-0.191467 -4.7998052 12.271362 7
-0.193726 -4.7792969 12.293396 7
-0.191467 -4.7480469 12.294495 7
-0.188049 -4.7158198 12.290039 7
-0.176514 -4.6669922 12.248779 7
-0.175354 -4.639648 12.2547 7
-0.173035 -4.608398 12.255188 7
-0.17541499 -4.5878911 12.276917 7
-0.18457 -4.5800781 12.330322 7
-0.18914799 -4.5625 12.362488 7
-0.18457 -4.5283198 12.352478 7
-0.18225101 -4.4970698 12.352661 7
-0.18896499 -4.7880859 11.704102 7
-0.184204 -4.7548828 11.694824 7
-0.177063 -4.7158198 11.674927 7
-0.16626 -4.6699219 11.639404 7
-0.161438 -4.6357422 11.629761 7
-0.161438 -4.6113281 11.640869 7
-0.168579 -4.601562 11.683594 7
-0.174622 -4.5888672 11.720703 7
-0.18176299 -4.578125 11.763367 7
-0.184204 -4.5585942 11.784668 7
-0.179382 -4.5244141 11.774719 7
-0.171021 -4.483398 11.748901 7
-0.049865998 -1.579102 12.011047 7
-0.052184999 -1.554688 12.026367 7
-0.049805 -1.52832 12.018799 7
-0.053406 -1.505859 12.039673 7
-0.058104999 -1.483398 12.066223 7
-0.049683001 -1.427734 12.033691 7
-0.041320998 -1.3974611 11.997437 7
-0.047240999 -1.376953 12.029602 7
-0.054443002 -1.331055 12.070679 7
-0.050781 -1.302734 12.056824 7
-0.027465999 -1.592773 11.009033 7
-0.027465999 -1.5693361 11.012817 7
-0.027404999 -1.546875 11.017029 7
-0.028687 -1.525391 11.026611 7
-0.028625 -1.4794919 11.033936 7
-0.023314999 -1.4306639 11.018494 7
-0.016845999 -1.40332 10.99408 7
-0.019409001 -1.359375 11.01239 7
-0.029785 -1.320312 11.064209 7
-0.031005999 -1.297852 11.073364 7
-0.028625 -1.5888669 9.2564697 7
-0.025513001 -1.5673831 9.2493896 7
-0.028564001 -1.550781 9.2642212 7
-0.027039001 -1.53125 9.2626343 7
-0.025390999 -1.4931639 9.2646484 7
-0.022278 -1.454102 9.2610474 7
-0.019043 -1.4326169 9.253479 7
-0.023743 -1.417969 9.2738037 7
-0.022095 -1.34375 8.9646606 7
-0.022034001 -1.325195 8.9680786 7
-0.022034001 -1.3076169 8.9714966 7
-0.021973001 -1.2900389 8.9746094 7
-0.499634 -8.6386719 0.347473 7
-0.49798599 -8.6357422 0.36889601 7
-0.50299102 -8.5898438 2.5670171 7
-0.50134301 -8.5810547 2.586731 7
-0.50488299 -8.5898438 2.609009 7
-0.50494403 -8.5859385 2.629333 7
-0.50323498 -8.578125 2.6491089 7
-0.50158697 -8.5693359 2.6689451 7
-0.50335699 -8.5712891 2.690186 7
-0.50695801 -8.578125 2.7124629 7
-0.50006098 -8.5537109 2.729614 7
-0.49487299 -8.5341797 2.7472529 7
-0.50189197 -8.5517578 2.771301 7
-0.50201398 -8.5488281 2.791748 7
-0.49853501 -8.5341797 2.810364 7
-0.50384498 -8.546875 2.833801 7
-0.054986998 -1.380342 9.1092625 7
-0.14157499 -4.7941642 5.3727698 7
-0.129719 -4.6555419 5.547163 7
-0.13916001 -4.630528 5.7558541 7
0.053513002 -0.307042 3.946991 7
0.072961003 -0.29327199 3.9628291 7
0.046721 -0.31626499 4.1251879 7
0.058024 -0.306995 4.1403909 7
0.063922003 -0.29962501 4.1555381 7
0.061650999 -0.29562601 3.9789231 7
0.074054003 -0.29292399 3.99296 7
0.067493998 -0.29191199 4.012289 7
0.058754001 -0.29823801 4.0270691 7
0.073013 -0.28479201 4.040915 7
0.063909002 -0.28976899 4.0586991 7
0.067504004 -0.28000799 4.073575 7
0.068662003 -0.27849501 4.088192 7
0.056088999 -0.27406299 4.1051621 7
0.078258 -0.26191601 4.1177201 7
0.052301001 -0.268877 4.1367822 7
0.071486004 -0.249354 4.1459141 7
-0.194208 -4.5057149 20.167778 7
-0.64457297 -8.5038385 16.734758 7
-0.051541999 -1.396137 13.979875 7
-0.175482 -4.7238731 11.721251 7
-0.50797498 -8.5504332 2.5628569 7
-0.182309 -4.6841869 5.7142539 7
-0.176346 -4.5635538 5.8562069 7
-0.166044 -4.6614299 5.2764192 7
-0.167907 -4.5819969 5.4335308 7
-0.15874501 -4.6410069 4.8824921 7
-0.165719 -4.5929332 5.0455742 7
