# .PCD v0.7 - Point Cloud Data file format
VERSION 0.7
FIELDS x y z intensity
SIZE 4 4 4 4
TYPE F F F F
COUNT 1 1 1 1
WIDTH 456
HEIGHT 1
VIEWPOINT 0 0 0 1 0 0 0
POINTS 456
DATA ascii
-0.135132 -1.638672 -67.584534 7
-0.135132 -1.8017581 -67.580139 7
-0.61065698 -4.4335942 74.791992 7
-0.209778 -1.5673831 -65.002747 7
-0.21917699 -1.731445 -65.244263 7
-0.271301 -1.549805 -57.937927 7
-0.25457799 -1.8173831 -57.526062 7
-0.35968 -5.0849609 -59.859375 7
-0.47265601 -4.4589839 54.334534 7
-0.49865699 -4.375977 54.863892 7
-0.466003 -4.9482422 -52.091187 7
-0.42804 -5.000977 -51.316467 7
-0.289368 2.480469 -48.716125 7
-0.325317 2.3964839 -49.445984 7
-0.297791 2.4931641 -45.791809 7
-0.32727101 -1.5244139 -41.567261 7
-0.46301299 -5.016602 -43.610474 7
-0.39978001 -4.5126948 38.96405 7
-0.41888401 -4.4570308 39.25354 7
-0.179138 -1.1767581 31.624146 7
-0.32482901 -4.782227 25.573792 7
-0.314087 -4.7050781 25.482605 7
-0.29327399 -4.609375 25.293579 7
-0.299133 -4.5644531 25.361877 7
-0.30920401 -4.5244141 25.470215 7
-0.144531 -1.37793 24.266174 7
-0.14862099 -1.325195 24.310486 7
-0.147949 -1.217773 24.310974 7
-0.147827 -1.1630861 24.314087 7
-0.68292201 -15.06543 -21.841125 7
-0.68292201 -15.119141 -21.805359 7
-0.68548602 -15.1875 -21.788513 7
-0.721802 -15.761719 -21.815308 7
-0.72308302 -15.822266 -21.787292 7
-0.72802699 -15.90332 -21.787598 7
-0.73474097 -15.994141 -21.802429 7
-0.73724401 -16.0625 -21.783203 7
-0.74035603 -16.133789 -21.768677 7
-0.743469 -16.204102 -21.753967 7
-0.74841303 -16.285156 -21.753174 7
-0.75335699 -16.367188 -21.752197 7
-0.75647002 -16.438477 -21.736694 7
-0.76141399 -16.519531 -21.735413 7
-0.76391602 -16.587891 -21.714844 7
-0.77008098 -16.675781 -21.722229 7
-0.77380401 -16.751953 -21.710571 7
-0.77935803 -16.836914 -21.712952 7
-0.784302 -16.918945 -21.710144 7
-0.79284698 -17.021484 -21.735291 7
-0.79174799 -17.069336 -21.685242 7
-0.79852301 -17.162109 -21.69574 7
-0.79797399 -17.212891 -21.650208 7
-0.80835003 -17.327148 -21.687927 7
-0.81512499 -17.419922 -21.697571 7
-0.821289 -17.508789 -21.702332 7
-0.81707799 -17.539062 -21.628235 7
-0.829346 -17.663086 -21.67865 7
-0.83306903 -17.739258 -21.66394 7
-0.83923298 -17.829102 -21.667542 7
-0.84539801 -17.918945 -21.670898 7
-0.84545898 -17.973633 -21.628174 7
-0.85229498 -18.068359 -21.635315 7
-0.85412598 -18.132812 -21.606018 7
-0.86273199 -18.238281 -21.626526 7
-0.864685 -18.302734 -21.596497 7
-0.87329102 -18.408203 -21.616272 7
-0.880005 -18.50293 -21.622192 7
-0.88433802 -18.583008 -21.60968 7
-0.88867199 -18.662109 -21.596802 7
-0.89422601 -18.749023 -21.592712 7
-0.90222198 -18.851562 -21.606384 7
-0.90173298 -18.902344 -21.556946 7
-0.91216999 -19.019531 -21.587708 7
-0.92449999 -19.149414 -21.631653 7
-0.92877197 -19.229492 -21.617188 7
-0.93377697 -19.314453 -21.606812 7
-0.940552 -19.40918 -21.609619 7
-0.94610602 -19.498047 -21.603027 7
-0.94921899 -19.571289 -21.578613 7
-0.96264601 -19.708008 -21.628967 7
-0.96337903 -19.765625 -21.586365 7
-0.96899402 -19.854492 -21.578918 7
-0.97570801 -19.950195 -21.57959 7
-0.98248303 -20.047852 -21.580078 7
-0.98870802 -20.139648 -21.575928 7
-0.99304199 -20.220703 -21.558533 7
-0.99737501 -20.301758 -21.54071 7
-1.004761 -20.402344 -21.544189 7
-0.30450401 -4.6845698 23.960815 7
-0.29632601 -4.6152339 23.897766 7
-0.30316201 -4.5751948 23.971619 7
-0.15051299 -1.25 23.016846 7
-0.13848899 -1.333984 20.545349 7
-1.08728 -19.226562 -16.598572 7
-1.094604 -19.310547 -16.592346 7
-1.102722 -19.400391 -16.589355 7
-1.109314 -19.481445 -16.578369 7
-1.116577 -19.566406 -16.571228 7
-1.122498 -19.643555 -16.555664 7
-1.1292109 -19.724609 -16.543701 7
-1.15863 -20.107422 -16.461182 7
-0.12902801 -1.591797 18.422974 7
-0.127441 -1.549805 18.415283 7
-0.125854 -1.509766 18.407715 7
-0.11792 -1.4638669 18.353699 7
-0.117126 -1.422852 18.351501 7
-0.122559 -1.386719 18.395569 7
-0.123352 -1.306641 18.408142 7
-0.27337599 -4.6748052 17.913635 7
-0.27172899 -4.632812 17.913818 7
-0.116577 -1.574219 17.418457 7
-0.114075 -1.535156 17.405029 7
-0.116516 -1.5 17.42627 7
-0.107361 -1.454102 17.366516 7
-0.110657 -1.418945 17.393005 7
-0.113098 -1.382812 17.41394 7
-0.121399 -1.3505861 17.475159 7
-0.111389 -1.3056639 17.409302 7
-0.29577601 -4.7851558 17.166016 7
-0.27923599 -4.7167969 17.072327 7
-0.26959199 -4.6611328 17.022705 7
-0.27484101 -4.6337891 17.067139 7
-0.27832001 -4.6035161 17.100647 7
-0.280945 -4.5722661 17.128418 7
-0.27917501 -4.53125 17.128296 7
-0.112732 -1.422852 16.625 7
-0.11261 -1.27832 16.638672 7
-0.27996799 -4.7373052 16.232239 7
-0.26989701 -4.6474609 16.194397 7
-0.27533001 -4.6220698 16.238525 7
-0.28631601 -4.6064448 16.315918 7
-0.276306 -4.5185552 16.277344 7
-0.119324 -1.597656 15.894531 7
-0.122986 -1.56543 15.921509 7
-0.11377 -1.5263669 15.868042 7
-0.116455 -1.492188 15.888977 7
-0.117432 -1.4599611 15.898621 7
-0.111877 -1.422852 15.867676 7
-0.11554 -1.389648 15.894165 7
-0.121887 -1.359375 15.937927 7
-0.120056 -1.324219 15.930054 7
-0.112671 -1.2861331 15.887146 7
-0.105347 -1.59668 14.465393 7
-0.100281 -1.5625 14.440796 7
-0.104309 -1.53418 14.46759 7
-0.105286 -1.503906 14.477173 7
-0.102234 -1.470703 14.463684 7
-0.095215 -1.436523 14.427307 7
-0.098205999 -1.40625 14.447876 7
-0.099120997 -1.375977 14.457275 7
-0.107117 -1.3505861 14.506592 7
-0.105103 -1.318359 14.498535 7
-0.102051 -1.285156 14.484619 7
-0.106628 -1.5869139 13.898682 7
-0.106567 -1.556641 13.90271 7
-0.102356 -1.525391 13.883789 7
-0.105469 -1.49707 13.904663 7
-0.098082997 -1.462891 13.868286 7
-0.099120997 -1.433594 13.877502 7
-0.101196 -1.40625 13.8927 7
-0.105408 -1.37793 13.919067 7
-0.103271 -1.3486331 13.911133 7
-0.102234 -1.3173831 13.908752 7
-0.095886 -1.285156 13.877625 7
-0.095275998 -1.587891 13.235229 7
-0.093079001 -1.558594 13.227722 7
-0.093018003 -1.530273 13.231689 7
-0.096313 -1.5048831 13.252686 7
-0.090759002 -1.472656 13.227844 7
-0.085266002 -1.441406 13.203003 7
-0.09082 -1.417969 13.235291 7
-0.090759002 -1.389648 13.238831 7
-0.094054997 -1.3642581 13.25946 7
-0.093993999 -1.3349611 13.262817 7
-0.092956997 -1.306641 13.260498 7
-0.44073501 -8.5693359 -8.3001099 7
-0.43957499 -8.5878906 -8.2752085 7
-0.44549599 -8.6298828 -8.2758179 7
-0.080932997 -1.263672 11.77002 7
-0.084656 -1.2412111 11.790161 7
-0.089661002 -1.219727 11.81604 7
-0.089661002 -1.170898 11.822327 7
-0.09082 -1.121094 11.833801 7
-0.235901 -4.7773442 10.419556 7
-0.223755 -4.733398 10.385803 7
-0.215698 -4.695312 10.366821 7
-0.214294 -4.671875 10.373169 7
-0.217041 -4.655273 10.39447 7
-0.218384 -4.6376948 10.410889 7
-0.22241201 -4.6220698 10.437256 7
-0.229187 -4.6142578 10.473877 7
-0.22656199 -4.5878911 10.474792 7
-0.22113 -4.5556641 10.465393 7
-0.21710201 -4.5263672 10.461182 7
-0.217041 -4.5048828 10.472168 7
-0.218445 -4.4863281 10.487976 7
-0.23052999 -4.796875 9.9035034 7
-0.22070301 -4.757812 9.8804932 7
-0.210876 -4.717773 9.8571777 7
-0.206604 -4.6894531 9.8535767 7
-0.20526101 -4.6669922 9.8599854 7
-0.2052 -4.625977 9.8822021 7
-0.216492 -4.6279302 9.9336548 7
-0.224915 -4.6230469 9.9747915 7
-0.215149 -4.5839839 9.9508057 7
-0.212341 -4.5585942 9.9518433 7
-0.209534 -4.5332031 9.9528809 7
-0.212402 -4.5175781 9.9737549 7
-0.097046003 -1.597656 10.513794 7
-0.089965999 -1.5712889 10.489746 7
-0.084351003 -1.545898 10.471436 7
-0.087158002 -1.5263669 10.486511 7
-0.081482001 -1.5 10.467651 7
-0.080077998 -1.4775389 10.465881 7
-0.077271 -1.455078 10.458435 7
-0.077271 -1.433594 10.461914 7
-0.077209003 -1.412109 10.465576 7
-0.077209003 -1.390625 10.469177 7
-0.087035999 -1.374023 10.511902 7
-0.085631996 -1.351562 10.509705 7
-0.084167004 -1.330078 10.50769 7
-0.078552 -1.3056639 10.488403 7
-0.078552 -1.28418 10.491638 7
-0.1427 -4.679688 -6.7124629 7
-0.139893 -4.6933589 -6.6911621 7
-0.132751 -4.6982422 -6.6555791 7
-0.134216 -4.71875 -6.6490479 7
-0.13848899 -4.7451172 -6.6521001 7
-0.13281199 -4.7539058 -6.6212769 7
-0.141479 -4.789062 -6.638855 7
-0.21283001 -4.773438 9.4161377 7
-0.21283001 -4.7548828 9.4277344 7
-0.202637 -4.7148442 9.4050293 7
-0.198303 -4.6875 9.4016113 7
-0.19683801 -4.6650391 9.40802 7
-0.198303 -4.6494141 9.4241943 7
-0.201233 -4.6357422 9.4452515 7
-0.20562699 -4.625977 9.4711914 7
-0.210022 -4.6142578 9.4970703 7
-0.212891 -4.601562 9.5181274 7
-0.207092 -4.570312 9.5095205 7
-0.20715301 -4.5517578 9.5205078 7
-0.199829 -4.5175781 9.5068359 7
-0.201294 -4.5019531 9.5227661 7
-0.080383003 -1.5869139 10.101624 7
-0.081848003 -1.568359 10.111267 7
-0.081786998 -1.546875 10.115173 7
-0.081786998 -1.527344 10.119019 7
-0.080321997 -1.5048831 10.11731 7
-0.075928003 -1.481445 10.104248 7
-0.071594 -1.4580081 10.091125 7
-0.072998002 -1.438477 10.100464 7
-0.075866997 -1.419922 10.115356 7
-0.075866997 -1.398438 10.118652 7
-0.074401997 -1.37793 10.116638 7
-0.084595002 -1.363281 10.159302 7
-0.078735001 -1.339844 10.140381 7
-0.080261 -1.320312 10.149353 7
-0.077271 -1.296875 10.141418 7
-0.12915 -4.4882808 -6.3530879 7
-0.141113 -4.5292969 -6.381104 7
-0.13519301 -4.5351558 -6.350708 7
-0.13519301 -4.5537109 -6.3397222 7
-0.13073701 -4.561523 -6.3140869 7
-0.138245 -4.5957031 -6.327148 7
-0.14862099 -4.6337891 -6.3499761 7
-0.15014599 -4.6533198 -6.3435669 7
-0.150208 -4.672852 -6.3321528 7
-0.15618899 -4.702148 -6.3400879 7
-0.148743 -4.7050781 -6.304688 7
-0.138367 -4.7011719 -6.2597051 7
-0.133911 -4.7099609 -6.2340088 7
-0.138367 -4.7363281 -6.237 7
-0.147339 -4.773438 -6.2540889 7
-0.14447001 -4.7841802 -6.2330928 7
-0.208801 -4.78125 8.9625244 7
-0.193848 -4.679688 8.9603271 7
-0.190735 -4.655273 8.961853 7
-0.19531199 -4.6455078 8.9874878 7
-0.198364 -4.6347661 9.008606 7
-0.21350101 -4.6455078 9.0681763 7
-0.21051 -4.6201172 9.069519 7
-0.202942 -4.5878911 9.0565186 7
-0.20751999 -4.578125 9.0820923 7
-0.21051 -4.5654302 9.1030273 7
-0.193909 -4.516602 9.0603638 7
-0.19696 -4.5029302 9.0810547 7
-0.19396999 -4.4804692 9.0822144 7
-0.085326999 -1.5888669 9.7652588 7
-0.079285003 -1.56543 9.7470703 7
-0.086852998 -1.550781 9.7788696 7
-0.079285003 -1.525391 9.7549438 7
-0.083801001 -1.5087889 9.7753906 7
-0.086792 -1.490234 9.7902832 7
-0.083801001 -1.46875 9.782959 7
-0.073181003 -1.443359 9.7476196 7
-0.074707001 -1.423828 9.7566528 7
-0.079163 -1.40625 9.7771606 7
-0.085266002 -1.390625 9.8030396 7
-0.086669996 -1.371094 9.8118896 7
-0.076172002 -1.344727 9.7763672 7
-0.091247998 -1.3349611 9.8356934 7
-0.085205004 -1.311523 9.8165894 7
-0.077637002 -1.287109 9.7919312 7
-0.12915 -4.4824219 -5.976501 7
-0.119934 -4.4804692 -5.9368901 7
-0.13073701 -4.5185552 -5.9595342 7
-0.13073701 -4.5361328 -5.9486079 7
-0.12768599 -4.546875 -5.9281621 7
-0.133911 -4.5761719 -5.9360962 7
-0.140076 -4.6044922 -5.9439702 7
-0.135498 -4.6123052 -5.9187622 7
-0.140137 -4.639648 -5.9216309 7
-0.149353 -4.6738281 -5.9387212 7
-0.15100101 -4.6943359 -5.9321289 7
-0.13867199 -4.686523 -5.8831792 7
-0.137146 -4.7001948 -5.867126 7
-0.132507 -4.7070308 -5.8415532 7
-0.137207 -4.733398 -5.8442988 7
-0.135681 -4.7470698 -5.828064 7
-0.141846 -4.7773442 -5.8353271 7
0.243591 3.21875 -4.137939 7
0.030029001 3.199219 -4.9647222 7
0.020203 3.1972661 -5.0023189 7
0.025085 3.1748049 -4.9945068 7
0.023375999 3.144531 -5.0140991 7
0.023375999 3.1298831 -5.0213618 7
0.021729 3.0996089 -5.040894 7
0.021729 3.0839839 -5.0479741 7
0.023314999 3.0654299 -5.0497441 7
0.023375999 3.0498049 -5.0568242 7
-0.13916001 -4.5888672 -4.7932129 7
-0.142639 -4.610352 -4.7910771 7
-0.142639 -4.624023 -4.7798462 7
-0.144409 -4.6425781 -4.7729492 7
-0.147888 -4.6630859 -4.7705688 7
-0.147949 -4.6777339 -4.7591548 7
-0.147888 -4.6914058 -4.7481079 7
-0.139404 -4.6894531 -4.7146611 7
-0.13763399 -4.7001948 -4.698853 7
-0.142883 -4.7236328 -4.700623 7
-0.142883 -4.7373052 -4.689209 7
-0.141174 -4.749023 -4.6734619 7
-0.14636201 -4.7724609 -4.6750488 7
-0.151489 -4.796875 -4.6765752 7
-0.49475101 -8.6269531 2.103821 7
-0.49475101 -8.625 2.124573 7
-0.50006098 -8.6386719 2.167542 7
-0.493164 -8.6132812 2.186096 7
-0.49670401 -8.6201172 2.228699 7
-0.49334699 -8.6044922 2.2684331 7
-0.49859601 -8.6191406 2.291199 7
-0.49871799 -8.6152344 2.332458 7
-0.49871799 -8.6123047 2.3530271 7
-0.498779 -8.6064453 2.3942261 7
-0.49371299 -8.5820312 2.454102 7
-0.493835 -8.5771484 2.4951169 7
-0.50238001 -8.5976562 2.5189819 7
-0.500732 -8.5859385 2.5596311 7
-0.49566701 -8.5595703 2.6186521 7
-0.49572799 -8.5537109 2.6594241 7
-0.49585 -8.5507812 2.680115 7
-0.50109899 -8.5566406 2.744385 7
-0.50128198 -8.5498047 2.7853999 7
-0.494385 -8.5205078 2.8222661 7
-0.48919699 -8.5009766 2.8399661 7
-0.49450701 -8.5097656 2.883728 7
-0.494629 -8.4980469 2.944885 7
-0.48950201 -8.4726562 2.982178 7
-0.48962399 -8.4697266 3.002686 7
-0.49493399 -8.4785156 3.0466919 7
-0.489685 -8.4580078 3.0636599 7
-0.48980701 -8.4492188 3.104187 7
-0.491638 -8.4462891 3.1456299 7
-0.48992899 -8.4365234 3.1647949 7
-0.056763001 -1.5986331 8.4464111 7
-0.056763001 -1.581055 8.4504395 7
-0.056823999 -1.56543 8.4544067 7
-0.055054002 -1.546875 8.4528809 7
-0.061951 -1.53418 8.4785767 7
-0.056763001 -1.515625 8.4661865 7
-0.061951 -1.500977 8.4863281 7
-0.048035 -1.474609 8.446228 7
-0.049683001 -1.4599611 8.4553223 7
-0.051514 -1.4443361 8.4644775 7
-0.049683001 -1.4267581 8.4626455 7
-0.051514 -1.4111331 8.4718628 7
-0.051453002 -1.394531 8.4753418 7
-0.067139 -1.386719 8.5281372 7
-0.058350001 -1.3642581 8.5042114 7
-0.058410998 -1.347656 8.5077515 7
-0.067016996 -1.335938 8.5385742 7
-0.058350001 -1.313477 8.5142822 7
-0.05658 -1.295898 8.512146 7
0.032653999 3.1943359 -4.6468511 7
0.030884 3.1826169 -4.6593628 7
0.029175 3.1699221 -4.6717529 7
0.032531999 3.1494141 -4.6689448 7
0.032593001 3.1357419 -4.676147 7
0.022338999 3.1347661 -4.713562 7
0.022399999 3.1191411 -4.7206421 7
0.018982001 3.108398 -4.737915 7
0.022338999 3.0888669 -4.7348628 7
0.022338999 3.074219 -4.742188 7
0.018921001 3.0625 -4.7592158 7
0.018859999 3.047852 -4.7662349 7
0.022278 3.0283201 -4.763 7
0.022278 3.0126951 -4.770081 7
0.022278 2.9980471 -4.7770391 7
0.029053001 2.9736331 -4.7634888 7
0.022217 2.967773 -4.790771 7
0.025635 2.9472661 -4.787292 7
0.025635 2.9316411 -4.7939448 7
0.018798999 2.925781 -4.8210449 7
0.022156 2.905273 -4.817627 7
0.022156 2.890625 -4.8242192 7
-0.130127 -4.4863281 -4.4848018 7
-0.135498 -4.5097661 -4.4871221 7
-0.140747 -4.5341802 -4.4892578 7
0.012634 3.078125 -4.4838872 7
0.019592 3.0244141 -4.4849238 7
0.021361999 2.992188 -4.4934692 7
0.028380999 2.967773 -4.4803472 7
0.019592 2.964844 -4.5123901 7
0.026672 2.941406 -4.4989009 7
0.026611 2.925781 -4.5056152 7
0.017821999 2.9238279 -4.5375371 7
0.014282 2.9130859 -4.5544429 7
0.026550001 2.882812 -4.5256348 7
-0.224512 -1.236382 19.77582 7
-0.28905401 -4.6564279 17.661835 7
-0.112006 -1.40593 15.682978 7
-0.104444 -1.282215 11.894196 7
-0.19142599 -4.620121 9.8282242 7
-0.064121 -1.516137 10.099651 7
-0.030686 -1.502221 7.9163642 7
-0.031822 -1.340593 7.9790349 7
-0.075883999 -1.26126 19.760094 7
-0.056322999 -1.220861 17.161682 7
-0.66711903 -8.4987507 15.205854 7
-0.085403003 -1.574736 13.179194 7
-0.135713 -4.6742768 -5.8982258 7
-0.044546001 -1.503967 11.936678 7
-0.243636 -4.5562048 10.130735 7
-0.076752 -1.335112 10.308559 7
-0.21839701 -4.7490072 9.2159309 7
-0.063736998 -1.309249 9.7542362 7
-0.47533 -8.381031 2.5001619 7
-0.47206199 -8.376894 2.8117919 7
-0.47760499 -8.4058399 3.1209979 7
-0.019009 -1.415977 7.866436 7
-0.17219099 -4.8929129 3.2999091 7
-0.173334 -4.8879938 3.4629121 7
0.079999 2.9589009 -4.5666981 7
0.026258999 3.1284781 -4.6588368 7
0.022577999 2.9876299 -4.7976551 7
