# .PCD v0.7 - Point Cloud Data file format
VERSION 0.7
FIELDS x y z intensity
SIZE 4 4 4 4
TYPE F F F F
COUNT 1 1 1 1
WIDTH 1335
HEIGHT 1
VIEWPOINT 0 0 0 1 0 0 0
POINTS 1335
DATA ascii
0.26206201 -1.47876 -72.010742 7
0.19567899 -1.522583 -66.219727 7
0.220375 -1.661743 -65.368164 7
0.19512901 -1.8430181 -66.211914 7
0.15879101 5.4710689 -67.205078 7
0.20179699 5.19519 -65.753906 7
0.164612 5.1296391 -67.021484 7
0.096023999 -1.7244869 -61.880859 7
0.166649 -1.810791 -59.728516 7
0.211594 -1.911865 -58.355469 7
0.15609001 -2.1109619 -60.024414 7
0.16995201 5.140625 -59.40332 7
0.25064799 4.7956538 -56.972656 7
0.19664 4.7868652 -58.611328 7
0.12294 4.8161621 -60.844727 7
0.049171001 -1.847168 -56.336914 7
0.1119 -1.925415 -54.630859 7
0.159279 -2.010864 -53.339844 7
0.200188 -2.097168 -52.224609 7
0.146477 -2.284302 -53.663086 7
0.218742 4.9827881 -51.544922 7
0.18685199 4.9354248 -52.413086 7
0.239426 4.6809082 -51.001953 7
0.194351 4.6617432 -52.225586 7
0.158989 4.614624 -53.1875 7
0.092995003 -2.123291 -49.800781 7
0.157043 -2.175781 -48.224609 7
0.102348 -2.3548579 -49.550781 7
0.198578 4.9056401 -47.005859 7
0.15028401 4.9068599 -48.193359 7
0.212395 4.6427002 -46.685547 7
0.180779 4.6008301 -47.463867 7
0.151794 4.5491939 -48.180664 7
0.092505999 4.5605469 -49.635742 7
0.2379 1.190918 -46.416016 7
0.0073930002 -2.1096189 -46.699219 7
0.066634998 -2.163208 -45.379883 7
0.107513 -2.239136 -44.681641 7
0.161865 -2.286865 -43.46875 7
0.081038997 -2.4884031 -45.249023 7
0.130898 -2.537231 -44.132812 7
-0.76431298 -0.62109399 60.489258 7
-0.75624102 -0.479736 60.332031 7
-0.716034 -0.33557099 59.532227 7
-0.714661 -0.197632 59.509766 7
0.18599699 4.791748 -42.745117 7
0.144905 4.7830811 -43.664062 7
0.126122 4.71875 -44.089844 7
0.180161 4.4892578 -42.900391 7
0.153221 4.4428711 -43.505859 7
0.114716 4.4182129 -44.365234 7
0.010284 -2.265991 -43.072266 7
0.051810998 -2.325928 -42.213867 7
0.084480003 -2.3918459 -41.537109 7
0.111725 -2.460938 -40.970703 7
0.056945998 -2.6287839 -42.079102 7
0.083922997 -2.697021 -41.518555 7
0.108604 -2.7655029 -41.004883 7
0.128998 -2.8374021 -40.577148 7
-0.683617 -0.182495 54.792969 7
-0.63799298 0.069458 53.952148 7
0.13839699 4.721313 -40.238281 7
0.115211 4.6746831 -40.719727 7
0.082038999 4.647583 -41.40625 7
0.14406601 4.4116211 -40.147461 7
0.119743 4.3641362 -40.65332 7
0.088829003 4.3278809 -41.291016 7
0.20395701 0.91674799 -39.261719 7
0.195824 0.82385302 -39.427734 7
0.023262 -2.7216799 -38.866211 7
0.034667999 -2.8017581 -38.641602 7
0.064415 -2.949707 -38.069336 7
0.076453999 -3.025635 -37.834961 7
-0.61177802 -2.9937739 49.129883 7
-0.62462598 -2.894043 49.358398 7
0.096992001 4.8548579 -37.303711 7
0.075576998 4.7183838 -37.72168 7
0.062668003 4.6534419 -37.970703 7
0.080367997 4.521729 -37.650391 7
0.158867 0.94543499 -36.335938 7
0.177109 0.75927699 -35.994141 7
0.19712099 0.48767099 -35.619141 7
0.015358 -2.8725591 -35.854492 7
0.013161 -2.9637451 -35.883789 7
0.034370001 -3.0219729 -35.508789 7
0.045074001 -3.0936279 -35.31543 7
0.041512001 -3.1856689 -35.367188 7
-0.53965801 -2.912842 44.573242 7
-0.55940998 -2.831177 44.894531 7
-0.57141101 -2.7402339 45.09375 7
-0.49159199 0.056763001 43.947266 7
-0.48468 0.25781199 43.841797 7
0.076026998 4.86731 -34.62207 7
0.033188 4.7910161 -35.375 7
-0.002083 4.7806401 -35.990234 7
-0.022141 4.7344971 -36.342773 7
0.045120001 4.5031738 -35.200195 7
0.17366 1.359375 -33.155273 7
0.16735099 1.19873 -33.266602 7
0.136375 1.133423 -33.799805 7
0.13597099 0.54772902 -33.808594 7
0.17770401 0.45324701 -33.263672 7
0.14843 0.37634301 -33.766602 7
0.17572799 0.28918499 -33.294922 7
0.158188 0.125854 -33.59375 7
0.169075 -0.033691 -30.335938 7
-0.022484001 -3.0896001 -33.303711 7
-0.014854 -3.160645 -33.173828 7
-0.0024339999 -3.223877 -32.96875 7
0.010384 -3.2857671 -32.757812 7
0.015053 -3.3591311 -32.673828 7
-0.018082 -3.492065 -33.182617 7
-0.44633499 -2.7771001 39.852539 7
-0.47970599 -2.7203369 40.348633 7
-0.48197901 -2.6303711 40.389648 7
-0.512169 -2.566772 40.838867 7
-0.43252599 0.234375 39.8125 7
0.072792001 4.9393311 -31.597656 7
0.060180999 4.8898931 -31.805664 7
0.037955999 4.861084 -32.164062 7
0.017197 4.8275151 -32.499023 7
-0.0046689999 4.7945561 -32.851562 7
-0.022469001 4.7510991 -33.140625 7
0.141739 1.418945 -30.767578 7
0.166054 1.3262939 -30.385742 7
0.108147 1.208984 -31.301758 7
0.126564 0.27343801 -31.014648 7
0.152367 0.19409201 -30.604492 7
0.167061 0.117188 -30.371094 7
0.13807701 0.042358 -30.827148 7
0.121552 -0.034302 -29.09668 7
0.132103 -0.105957 -28.939453 7
0.144913 -0.24804699 -28.745117 7
-0.051093999 -3.2332759 -31.402344 7
-0.037903 -3.3682859 -31.188477 7
-0.016655 -3.412231 -30.866211 7
-0.41747299 0.38793901 37.230469 7
0.079917997 4.963623 -29.259766 7
0.060897999 4.9346919 -29.546875 7
0.044631999 4.8981929 -29.796875 7
0.025993001 4.8658452 -30.078125 7
-0.010101 4.7947998 -30.626953 7
0.142784 1.539185 -28.623047 7
0.149033 1.463379 -28.533203 7
0.144585 1.395264 -28.599609 7
0.119545 1.340088 -28.97168 7
0.107124 -0.096923999 -26.864258 7
0.124161 -0.16284201 -26.630859 7
0.106422 -0.298462 -26.868164 7
0.140045 -0.42578101 -26.404297 7
-0.074547 -3.3852539 -29.224609 7
-0.065269001 -3.4433589 -29.088867 7
-0.055114999 -3.499512 -28.942383 7
-0.040268 -3.547363 -28.729492 7
-0.042975999 -3.622925 -28.755859 7
0.067870997 5.0244141 -27.053711 7
0.065673999 4.961792 -27.09375 7
0.048103001 4.9345698 -27.34082 7
0.036522001 4.8924561 -27.507812 7
0.016395999 4.8686519 -27.791016 7
-0.0084229996 4.854248 -28.135742 7
0.125397 1.5693361 -26.611328 7
0.148827 1.4855959 -26.293945 7
0.129959 1.432983 -26.554688 7
0.111481 1.378662 -26.807617 7
0.13375901 1.297485 -26.496094 7
0.114151 -0.342163 -25.020508 7
0.126846 -0.40222201 -24.855469 7
0.091484003 -0.47229001 -25.302734 7
0.10833 -0.53125 -25.086914 7
0.12149 -0.59008801 -24.915039 7
-0.086838 -3.583374 -27.283203 7
-0.071350001 -3.6262209 -27.077148 7
-0.058639999 -3.672852 -26.907227 7
-0.046371002 -3.719116 -26.742188 7
-0.058449 -3.80603 -26.883789 7
0.037108999 5.0142822 -25.494141 7
0.035698 4.9534912 -25.523438 7
0.022368999 4.9195561 -25.700195 7
0.0095370002 4.8839111 -25.873047 7
-0.014305 4.8717041 -26.183594 7
-0.024871999 4.829102 -26.327148 7
0.124435 1.52832 -24.742188 7
0.109695 1.476562 -24.931641 7
0.120544 1.344727 -24.941406 7
0.114716 -0.37560999 -23.12207 7
0.098357998 -0.43701199 -23.313477 7
0.113518 -0.491943 -23.131836 7
0.113319 -0.608154 -23.128906 7
0.102264 -0.728149 -23.253906 7
0.110565 -0.78320301 -23.15332 7
0.093200997 -0.84851098 -23.355469 7
-0.060318001 -3.5992429 -24.878906 7
-0.072288997 -3.6807859 -25.008789 7
-0.077353999 -3.7514651 -25.057617 7
-0.064636 -3.7923579 -24.898438 7
-0.056862 -3.841187 -24.797852 7
-0.050055999 -3.891113 -24.707031 7
-0.067489997 -3.9836431 -24.899414 7
0.018265 5.1147461 -23.702148 7
0.013733 5.0053711 -23.777344 7
0.005814 4.963623 -23.880859 7
-0.02578 4.9133301 -24.270508 7
-0.024367999 4.848999 -24.264648 7
0.119881 1.8269041 -22.896484 7
0.110939 1.776855 -23.005859 7
0.120674 1.65271 -22.897461 7
0.094391003 1.556641 -23.213867 7
0.091559999 -0.68298298 -21.736328 7
0.092528999 -0.737427 -21.723633 7
0.067626998 -0.80151403 -21.996094 7
0.081772 -0.85119599 -21.835938 7
0.088538997 -0.90332001 -21.757812 7
-0.093231 -3.8205571 -23.428711 7
-0.086479001 -3.8677981 -23.344727 7
-0.077072002 -3.9099121 -23.232422 7
-0.074005 -3.962769 -23.1875 7
-0.076782003 -4.0256348 -23.207031 7
-0.007057 5.1126709 -22.24707 7
0.0097580003 5.0175781 -22.076172 7
-0.005562 4.996582 -22.253906 7
-0.014046 4.9594731 -22.356445 7
-0.034102999 4.9475098 -22.585938 7
-0.044167001 4.9124761 -22.705078 7
0.094779998 1.890503 -21.544922 7
0.099463999 1.831787 -21.49707 7
0.092551999 1.783203 -21.578125 7
0.105141 1.71814 -21.442383 7
0.096642002 1.6706541 -21.539062 7
0.084449999 1.625366 -21.677734 7
0.080490001 -0.64209002 -20.355469 7
0.065177999 -0.69860798 -20.510742 7
0.069587998 -0.74890101 -20.461914 7
0.077950001 -0.797607 -20.373047 7
0.082374997 -0.84716803 -20.324219 7
0.05748 -0.909302 -20.578125 7
0.067528002 -0.95678699 -20.47168 7
0.074211001 -1.005249 -20.399414 7
-0.091370001 -3.8443601 -21.758789 7
-0.099968001 -3.9136961 -21.835938 7
-0.088790998 -3.9490969 -21.710938 7
-0.083809003 -3.9949951 -21.650391 7
-0.078262001 -4.0393071 -21.583984 7
-0.083480999 -4.1030269 -21.625 7
0.0045389999 5.069458 -20.523438 7
-0.00057199999 5.0289311 -20.586914 7
-0.0073699998 4.992065 -20.666016 7
-0.015282 4.957397 -20.757812 7
-0.023766 4.9234619 -20.855469 7
-0.044089999 4.9152832 -21.071289 7
-0.048606999 4.87146 -21.128906 7
0.091751002 1.873047 -20.083984 7
0.071983002 1.839111 -20.291992 7
0.098403998 1.765137 -20.022461 7
0.088767998 1.7219239 -20.125977 7
0.079124004 1.678467 -20.228516 7
0.079056002 1.626953 -20.231445 7
-0.115692 -3.911011 -20.548828 7
-0.12542 -3.9794919 -20.631836 7
-0.119514 -4.0213618 -20.56543 7
-0.110008 -4.0562739 -20.462891 7
-0.107101 -4.1026611 -20.425781 7
-0.10421 -4.1488042 -20.386719 7
-0.020500001 5.116333 -19.365234 7
-0.018745 5.0626221 -19.360352 7
-0.028937999 5.036377 -19.46875 7
-0.034370001 4.9989009 -19.532227 7
-0.046394002 4.975708 -19.657227 7
-0.061386 4.9588618 -19.810547 7
-0.069214001 4.925293 -19.895508 7
-0.042908002 4.817749 -19.658203 7
0.046135001 1.897095 -19.213867 7
0.075447001 1.822632 -18.933594 7
0.068213999 1.780396 -19.007812 7
0.062171999 1.736694 -19.070312 7
0.051933002 1.696045 -19.173828 7
0.069251999 1.6337889 -19.007812 7
0.047874 -0.98938 -18.063477 7
0.030540001 -1.044067 -18.21875 7
0.032379001 -1.089355 -18.198242 7
0.036132999 -1.1337889 -18.161133 7
0.041793998 -1.17688 -18.106445 7
0.030861 -1.22937 -18.202148 7
-0.13690899 -4.047852 -19.324219 7
-0.135094 -4.0933838 -19.296875 7
-0.119926 -4.1636958 -19.140625 7
-0.114265 -4.2019038 -19.080078 7
-0.11438 -4.2502441 -19.070312 7
-0.057128999 5.1160889 -18.349609 7
-0.060355999 5.076416 -18.389648 7
-0.061661001 5.032104 -18.413086 7
-0.062964998 4.9876709 -18.436523 7
-0.068741001 4.9532471 -18.499023 7
-0.064948998 4.8973389 -18.476562 7
-0.048401002 4.8143311 -18.34082 7
0.056198001 1.9094239 -17.841797 7
0.038277 1.879272 -18.009766 7
0.069504 1.806396 -17.729492 7
0.061165001 1.767822 -17.80957 7
0.056641001 1.725708 -17.854492 7
0.059128001 1.677979 -17.833984 7
0.058456 1.632568 -17.844727 7
0.02581 -0.987427 -17.162109 7
0.027763 -1.030273 -17.142578 7
0.0046919999 -1.085693 -17.336914 7
0.019478001 -1.122314 -17.207031 7
0.017310999 -1.211548 -17.219727 7
0.023314999 -1.252197 -17.165039 7
0.041083999 1.903198 -16.880859 7
0.046448 1.854858 -16.838867 7
0.049095001 1.8093261 -16.820312 7
0.042305 1.77124 -16.882812 7
0.049683001 1.722046 -16.822266 7
0.051651001 1.6767581 -16.80957 7
0.05497 1.630981 -16.78418 7
0.024094 -0.97289997 -16.113281 7
0.024017001 -1.0144041 -16.111328 7
0.021072 -1.057251 -16.130859 7
0.003792 -1.1075439 -16.267578 7
0.013054 -1.144531 -16.19043 7
0.012978 -1.186035 -16.1875 7
0.017921001 -1.2249759 -16.144531 7
0.001343 -1.276001 -16.273438 7
-0.149261 -4.1895752 -17.020508 7
-0.145035 -4.2253418 -16.976562 7
-0.144417 -4.2677002 -16.960938 7
-0.14955901 -4.320312 -16.991211 7
-0.16259 -4.387939 -17.081055 7
-0.16558801 -4.4371338 -17.092773 7
-0.037627999 5.092041 -15.857422 7
-0.034798 5.0444341 -15.847656 7
-0.034095999 5.0018311 -15.854492 7
-0.036285002 4.9654541 -15.881836 7
-0.044181999 4.941772 -15.955078 7
0.062546 1.654053 -15.670898 7
0.012711 -0.96325701 -15.231445 7
0.006569 -1.005371 -15.275391 7
0.017875999 -1.0394289 -15.186523 7
0.016288999 -1.0793459 -15.195312 7
0.0078809997 -1.123047 -15.256836 7
-0.0066149998 -1.1700439 -15.363281 7
0.002411 -1.20459 -15.291016 7
0.0031049999 -1.2437741 -15.283203 7
-0.172653 -4.2050781 -16.12793 7
-0.166656 -4.2357178 -16.073242 7
-0.162964 -4.269897 -16.03418 7
-0.16154499 -4.3085942 -16.012695 7
-0.16011 -4.3470459 -15.991211 7
-0.17009699 -4.4066162 -16.053711 7
-0.180824 -4.4680181 -16.12207 7
-0.046073999 5.023315 -14.90332 7
-0.050629001 4.9946289 -14.948242 7
-0.053672999 4.962646 -14.982422 7
-0.061264001 4.9399409 -15.049805 7
-0.080215 4.9025879 -15.211914 7
-0.082503997 4.8679199 -15.240234 7
-0.073455997 4.80896 -15.18457 7
0.039168999 1.580078 -14.897461 7
0.033080999 1.545532 -14.947266 7
0.039848 1.501953 -14.899414 7
0.047378998 1.4580081 -14.844727 7
0.057181999 1.41272 -14.772461 7
0.040428001 1.346069 -14.907227 7
0.043411002 1.30542 -14.887695 7
0.0087740002 -0.98584002 -14.336914 7
0.020729 -1.017578 -14.24707 7
0.023041001 -1.053345 -14.225586 7
0.025397999 -1.089111 -14.207031 7
0.0084920004 -1.1348881 -14.326172 7
0.002022 -1.175415 -14.369141 7
0.0099560004 -1.208374 -14.30957 7
0.009087 -1.245972 -14.3125 7
-0.178001 -4.1776118 -15.149414 7
-0.17247 -4.2067871 -15.099609 7
-0.17095201 -4.2427979 -15.078125 7
-0.169441 -4.2789311 -15.056641 7
-0.16632099 -4.3117681 -15.024414 7
-0.165604 -4.3493652 -15.008789 7
-0.176155 -4.4075928 -15.070312 7
-0.18508901 -4.4632568 -15.121094 7
0.040054001 1.271729 -14.006836 7
0.044822998 1.2325439 -13.974609 7
0.056007002 1.189453 -13.896484 7
0.060759999 1.1505131 -13.864258 7
0.065528996 1.111572 -13.832031 7
0.060669001 1.077759 -13.870117 7
0.049759001 1.046875 -13.946289 7
0.055312999 1.007568 -13.908203 7
0.066490002 0.966187 -13.830078 7
0.017723 -0.96728498 -13.478516 7
0.0075229998 -1.007202 -13.545898 7
0.018417001 -1.037109 -13.466797 7
0.017509 -1.072754 -13.470703 7
0.018288 -1.1075439 -13.461914 7
0.003883 -1.150391 -13.558594 7
-0.001228 -1.188477 -13.59082 7
0.0037459999 -1.221069 -13.552734 7
0.0020069999 -1.25769 -13.561523 7
-0.18788899 -4.2062988 -14.319336 7
-0.180374 -4.22998 -14.258789 7
-0.17878 -4.2640381 -14.237305 7
-0.179695 -4.3024902 -14.233398 7
-0.17977899 -4.339478 -14.222656 7
-0.178169 -4.373291 -14.202148 7
-0.186729 -4.426147 -14.24707 7
-0.189354 -4.467896 -14.25293 7
0.048163999 0.925659 -13.182617 7
0.048126001 0.89086902 -13.18457 7
0.060738001 0.85095203 -13.100586 7
0.059859999 0.81677198 -13.108398 7
0.067382999 0.779419 -13.057617 7
0.068199001 0.74475098 -13.054688 7
0.058867998 0.71337903 -13.119141 7
0.056313001 0.679443 -13.138672 7
0.062171999 0.64306599 -13.099609 7
0.067192003 0.60717797 -13.066406 7
0.072182 0.57116699 -13.033203 7
0.073836997 0.53637701 -13.023438 7
0.0093609998 -0.98925799 -12.782227 7
-0.0030980001 -1.028809 -12.862305 7
0.011848 -1.088501 -12.757812 7
-0.0024639999 -1.16333 -12.844727 7
-0.011459 -1.2355959 -12.897461 7
-0.00089999998 -1.263184 -12.823242 7
-0.18338799 -4.1636958 -13.456055 7
-0.19148301 -4.2128911 -13.496094 7
-0.190681 -4.24646 -13.479492 7
-0.189873 -4.2800288 -13.464844 7
-0.18729401 -4.3105469 -13.4375 7
-0.184723 -4.3405762 -13.410156 7
-0.185776 -4.4124761 -13.395508 7
-0.194756 -4.4641109 -13.44043 7
-0.078025997 5.072144 -12.433594 7
-0.052368 4.9820561 -12.287109 7
-0.052398998 4.9494629 -12.298828 7
-0.050643999 4.880249 -12.311523 7
-0.052444 4.85144 -12.333984 7
-0.05954 4.8339839 -12.388672 7
0.051598001 0.61377001 -12.436523 7
0.047127001 0.58215302 -12.466797 7
0.053245999 0.51452601 -12.428711 7
0.058533002 0.48046899 -12.395508 7
0.062919997 0.44653299 -12.367188 7
0.068213999 0.41284201 -12.334961 7
0.069945998 0.37951699 -12.324219 7
0.063683003 0.34802201 -12.364258 7
0.058327001 0.315918 -12.400391 7
0.061790001 0.24975599 -12.37793 7
0.067055002 0.216309 -12.344727 7
0.069687001 0.183228 -12.327148 7
0.073196001 0.150391 -12.303711 7
0.065154999 0.118286 -12.357422 7
0.058929 0.085570998 -12.398438 7
0.055321001 0.052733999 -12.420898 7
-0.008537 -1.207153 -12.195312 7
-0.018813999 -1.244995 -12.256836 7
-0.004005 -1.2687989 -12.161133 7
-0.18315899 -4.1986079 -12.679688 7
-0.19908901 -4.2602539 -12.763672 7
-0.20197301 -4.2987061 -12.769531 7
-0.199265 -4.3273931 -12.742188 7
-0.19001 -4.3436279 -12.676758 7
-0.19008601 -4.3768311 -12.666992 7
-0.185516 -4.4014888 -12.62793 7
-0.175354 -4.4155269 -12.555664 7
-0.18756101 -4.471313 -12.618164 7
-0.084999003 5.09729 -11.719727 7
-0.094283998 5.086792 -11.785156 7
-0.080375999 5.0245361 -11.71582 7
-0.052559 4.9318848 -11.56543 7
-0.059044 4.9151611 -11.615234 7
-0.061859 4.8901372 -11.642578 7
-0.064658999 4.8651118 -11.670898 7
-0.065590002 4.835938 -11.6875 7
-0.071167 4.8166499 -11.731445 7
-0.086975001 4.8188481 -11.835938 7
-0.089759998 4.7932129 -11.863281 7
-0.086989999 4.7557368 -11.858398 7
0.063575998 0.14331099 -11.816406 7
0.065375999 0.111938 -11.805664 7
0.069962002 0.080565996 -11.776367 7
0.066207998 0.049438 -11.799805 7
0.044128001 -0.102417 -11.275391 7
0.040169001 -0.13281199 -11.297852 7
0.041083999 -0.16271999 -11.291992 7
0.050811999 -0.191772 -11.232422 7
0.055473 -0.310669 -11.201172 7
0.0083689997 -0.98669398 -11.438477 7
0.0044100001 -1.018677 -11.458984 7
0.0033720001 -1.049683 -11.461914 7
0.0023419999 -1.080688 -11.46582 7
0.01107 -1.106567 -11.410156 7
0.0080800001 -1.138428 -11.425781 7
0.0060879998 -1.169922 -11.43457 7
-0.002785 -1.205078 -11.482422 7
-0.0087130005 -1.238892 -11.514648 7
-0.003883 -1.266602 -11.482422 7
-0.00099900004 -1.295166 -11.462891 7
-0.0049669999 -1.328125 -11.482422 7
-0.0040589999 -1.358032 -11.473633 7
-0.187988 -4.1877441 -11.949219 7
-0.19198599 -4.22644 -11.960938 7
-0.19598401 -4.2648931 -11.973633 7
-0.200958 -4.3054199 -11.990234 7
-0.19809 -4.3319092 -11.963867 7
-0.19229101 -4.3526611 -11.920898 7
-0.19139101 -4.3823242 -11.904297 7
-0.192451 -4.4156489 -11.900391 7
-0.19351199 -4.448853 -11.894531 7
0.037292 -0.32763699 -10.740234 7
0.033165 -0.357178 -10.762695 7
0.030998001 -0.415039 -10.771484 7
0.026862999 -0.444702 -10.793945 7
0.035004001 -0.471802 -10.74707 7
0.039032001 -0.499634 -10.72168 7
0.036888 -0.557495 -10.732422 7
0.024574 -0.58960003 -10.798828 7
0.0031659999 -1.1187741 -10.876953 7
0.0051569999 -1.146729 -10.862305 7
0.003059 -1.1767581 -10.871094 7
-0.19548 -4.1940918 -11.333984 7
-0.202812 -4.2669678 -11.352539 7
-0.207993 -4.306396 -11.370117 7
-0.204063 -4.359375 -11.327148 7
-0.19901299 -4.380127 -11.290039 7
-0.20121001 -4.4438481 -11.280273 7
-0.20130201 -4.473877 -11.268555 7
0.017494 -0.64538598 -10.242188 7
0.018517001 -0.67236298 -10.234375 7
0.027054001 -0.69714397 -10.1875 7
0.032349002 -0.72277802 -10.15625 7
0.031227 -0.75048798 -10.15918 7
0.026885999 -0.779419 -10.180664 7
0.016113 -0.81079102 -10.236328 7
0.012848 -0.83972198 -10.251953 7
0.01387 -0.86669898 -10.243164 7
0.017029 -0.89294398 -10.224609 7
0.016983001 -0.92040998 -10.222656 7
0.018005 -0.94738799 -10.213867 7
-0.113457 0.64526403 13.430664 7
-0.095810004 0.66857898 13.337891 7
-0.093558997 0.69616699 13.324219 7
-0.094619997 0.72460902 13.329102 7
-0.095688 0.75329602 13.333008 7
-0.095627002 0.78149402 13.331055 7
-0.094489999 0.80932599 13.323242 7
-0.094429001 0.837524 13.321289 7
-0.094383001 0.86572301 13.319336 7
-0.095435999 0.89428699 13.323242 7
-0.098678999 0.92395002 13.337891 7
-0.097526997 0.95178199 13.330078 7
0.001282 -0.96582001 -9.7900391 7
-0.0065990002 -0.99585003 -9.8271484 7
-0.001045 -1.019775 -9.796875 7
0.0067369998 -1.042603 -9.7548828 7
0.0066829999 -1.06897 -9.7509766 7
0.0055160001 -1.095947 -9.7548828 7
-0.002357 -1.1262209 -9.7919922 7
0.00095399999 -1.151001 -9.7724609 7
-0.000237 -1.177979 -9.7753906 7
-0.0025180001 -1.205566 -9.7832031 7
-0.005936 -1.234131 -9.7978516 7
-0.018288 -1.2677 -9.8574219 7
0.001823 -0.974365 -9.2988281 7
0.005295 -0.99792498 -9.2792969 7
0.007584 -1.022217 -9.265625 7
0.0098649999 -1.046265 -9.2509766 7
-0.0041959998 -1.078369 -9.3173828 7
-0.018271999 -1.11084 -9.3837891 7
-0.015976001 -1.13501 -9.3691406 7
-0.0066829999 -1.15564 -9.3203115 7
-0.0043950002 -1.179688 -9.3066406 7
-0.0079570003 -1.2069089 -9.3212891 7
-0.0068279998 -1.231689 -9.3125 7
-0.012726 -1.260376 -9.3378906 7
-0.31889299 -6.104126 -9.21875 7
-0.31896201 -6.1291499 -9.2041016 7
-0.31081399 -6.1340332 -9.1552734 7
-0.30973101 -6.1561279 -9.1347656 7
-0.31098899 -6.1838379 -9.1230469 7
-0.31342301 -6.2146001 -9.1201172 7
-0.31701699 -6.2484131 -9.1201172 7
-0.318275 -6.2762451 -9.1103516 7
-0.32070899 -6.3068848 -9.1044922 7
-0.32900199 -6.3526611 -9.1240234 7
-0.33377799 -6.3892822 -9.1289062 7
-0.102974 0.64123499 12.380859 7
-0.10173 0.66687 12.374023 7
-0.110054 0.69543499 12.412109 7
-0.094489999 0.71655297 12.336914 7
-0.093239002 0.741943 12.329102 7
-0.093216002 0.76770002 12.327148 7
-0.090782002 0.79284698 12.314453 7
-0.096694998 0.82092297 12.339844 7
-0.093079001 0.84521502 12.320312 7
-0.093024999 0.87109399 12.318359 7
-0.090599 0.89611799 12.306641 7
-0.092941001 0.92297399 12.314453 7
-0.092896 0.94872999 12.3125 7
-0.067374997 4.7919922 -8.5273438 7
-0.070868999 4.7755132 -8.5556641 7
-0.068542004 4.7469478 -8.5566406 7
-0.067374997 4.7207031 -8.5625 7
-0.070877001 4.7042241 -8.5898438 7
-0.076720998 4.692627 -8.6259766 7
0.0075229998 -0.97900403 -8.8173828 7
-0.012001 -1.012085 -8.90625 7
-0.005959 -1.033691 -8.8759766 7
-0.0047840001 -1.057251 -8.8681641 7
-0.0023960001 -1.080444 -8.8544922 7
-8e-06 -1.1036381 -8.8408203 7
-0.0037229999 -1.129639 -8.8535156 7
-0.0086359996 -1.156372 -8.8740234 7
-0.0098949997 -1.181396 -8.8769531 7
-0.0099560004 -1.205688 -8.8730469 7
-0.01487 -1.232788 -8.8935547 7
-0.012489 -1.255493 -8.8789062 7
0.001312 -0.960693 -8.3847656 7
0.015266 -0.977539 -8.3203115 7
0.01136 -1.025391 -8.3330078 7
0.0074999998 -1.050171 -8.3476562 7
-0.006538 -1.080078 -8.4072266 7
-0.0065990002 -1.103394 -8.4042969 7
0.002266 -1.121948 -8.3613281 7
0.0022130001 -1.144897 -8.3583984 7
0.00091599999 -1.1687011 -8.3623047 7
0.00086199999 -1.191772 -8.3583984 7
-0.001724 -1.216187 -8.3671885 7
-0.0030439999 -1.2401119 -8.3701172 7
-0.0043720002 -1.264038 -8.3730469 7
-0.20378099 -4.4346919 -8.3505859 7
-0.205139 -4.460083 -8.3427734 7
-0.30355099 -5.109375 11.066406 7
-0.30093399 -5.0812988 11.068359 7
-0.297043 -5.050293 11.06543 7
-0.29701999 -5.0273442 11.077148 7
-0.295708 -5.0019531 11.083984 7
-0.29441801 -4.97644 11.09082 7
-0.297005 -4.9586182 11.112305 7
-0.30351299 -4.9484859 11.150391 7
-0.29828599 -4.9151611 11.140625 7
-0.296974 -4.8895259 11.147461 7
-0.296974 -4.8664551 11.15918 7
-0.29695901 -4.8432622 11.170898 7
-0.29045901 -4.8076172 11.157227 7
-0.096100003 -1.8968509 11.257812 7
-0.106468 -1.88208 11.306641 7
-0.10125 -1.85437 11.289062 7
-0.097336002 -1.827881 11.277344 7
-0.088202998 -1.797119 11.242188 7
-0.085564002 -1.771973 11.235352 7
-0.086852998 -1.749634 11.244141 7
-0.082932003 -1.723511 11.232422 7
-0.094604 -1.708984 11.287109 7
-0.090674996 -1.682739 11.274414 7
-0.088036001 -1.6574709 11.266602 7
-0.085418999 -1.632202 11.258789 7
-0.086692996 -1.609741 11.268555 7
-0.065673999 4.7875981 -7.4638672 7
-0.060585 4.7557368 -7.4550781 7
-0.061866999 4.7371831 -7.4707031 7
-0.060593002 4.7132568 -7.4775391 7
-0.060600001 4.6921391 -7.4882808 7
-0.063141003 4.676147 -7.5097661 7
-0.065681003 4.6601558 -7.530273 7
-0.079643004 4.6677251 -7.5976558 7
-0.085975997 4.6590581 -7.6347661 7
-0.083449997 4.6323242 -7.6357422 7
-0.073317997 4.59021 -7.6044922 7
-0.073317997 4.5687261 -7.6152339 7
-0.070785999 4.5419922 -7.6152339 7
-0.073317997 4.5255132 -7.6357422 7
-0.066978 4.491333 -7.6220698 7
-0.0091319997 -1.192871 -7.999023 7
-0.0078579998 -1.214233 -7.9912109 7
-0.010582 -1.260254 -7.9960942 7
-0.31755799 -5.0875239 10.651367 7
-0.31485 -5.059937 10.65332 7
-0.31619999 -5.040771 10.669922 7
-0.318901 -5.024292 10.692383 7
-0.31753501 -4.9996338 10.699219 7
-0.31888601 -4.9803472 10.71582 7
-0.31887099 -4.958252 10.727539 7
-0.32563001 -4.9493408 10.765625 7
-0.32292199 -4.9219971 10.766602 7
-0.31480399 -4.8839111 10.74707 7
-0.30939499 -4.8513179 10.738281 7
-0.30937999 -4.8292241 10.75 7
-0.313438 -4.8146968 10.777344 7
-0.096611001 -1.776855 10.876953 7
-0.093856998 -1.72998 10.874023 7
-0.170128 4.1655269 10.495117 7
-0.16201 4.1726069 10.455078 7
-0.15523501 4.1821289 10.420898 7
-0.14978801 4.193604 10.389648 7
-0.148376 4.2125239 10.374023 7
-0.149681 4.2362061 10.370117 7
-0.149628 4.2573242 10.359375 7
-0.152252 4.2834468 10.359375 7
-0.145477 4.2921138 10.324219 7
-0.145409 4.3132319 10.313477 7
-0.146698 4.336792 10.307617 7
-0.154724 4.3729248 10.329102 7
-0.170784 4.4243159 10.378906 7
-0.170738 4.4455571 10.368164 7
-0.170692 4.4667969 10.358398 7
-0.31000501 -5.0931401 10.115234 7
-0.308617 -5.069458 10.123047 7
-0.30860099 -5.0489502 10.134766 7
-0.30719799 -5.025269 10.142578 7
-0.310013 -5.0102539 10.164062 7
-0.30859399 -4.9866939 10.170898 7
-0.30999801 -4.96875 10.1875 7
-0.30998999 -4.947998 10.199219 7
-0.31279799 -4.9327388 10.220703 7
-0.309975 -4.90625 10.222656 7
-0.30857801 -4.8825679 10.228516 7
-0.309975 -4.864502 10.246094 7
-0.30996701 -4.8435059 10.256836 7
-0.311371 -4.8251948 10.274414 7
-0.097382002 -1.918945 10.447266 7
-0.091728002 -1.892944 10.430664 7
-0.097328 -1.876099 10.456055 7
-0.101524 -1.858032 10.477539 7
-0.101501 -1.836548 10.482422 7
-0.091651998 -1.807373 10.448242 7
-0.08461 -1.780273 10.424805 7
-0.081772 -1.7568361 10.417969 7
-0.080338001 -1.734619 10.416016 7
-0.078902997 -1.712158 10.415039 7
-0.091522001 -1.700195 10.46875 7
-0.085883997 -1.674438 10.451172 7
-0.083068997 -1.650879 10.443359 7
-0.083038002 -1.629639 10.447266 7
-0.083007999 -1.6081541 10.451172 7
-0.13740499 4.182373 9.8886719 7
-0.138763 4.2049561 9.8847656 7
-0.13871799 4.2249761 9.875 7
-0.13866401 4.2449951 9.8652344 7
-0.141426 4.2701421 9.8652344 7
-0.135773 4.2799072 9.8349609 7
-0.132912 4.2945561 9.8144531 7
-0.13425399 4.3170171 9.8095703 7
-0.141197 4.3500981 9.8242188 7
-0.16072799 4.4066162 9.8837891 7
-0.164864 4.4346919 9.8886719 7
-0.164803 4.4547119 9.8779297 7
-0.166161 4.477417 9.8730469 7
-0.31972501 -5.118896 9.7021484 7
-0.315346 -5.090332 9.7011719 7
-0.31098899 -5.0617681 9.6982422 7
-0.30805999 -5.0362549 9.7011719 7
-0.31244701 -5.025269 9.7275391 7
-0.30950901 -4.9996338 9.7294922 7
-0.306595 -4.9742432 9.7324219 7
-0.309517 -4.9602051 9.7539062 7
-0.31387299 -4.9490972 9.7792969 7
-0.312408 -4.9263921 9.7861328 7
-0.315346 -4.912354 9.8085938 7
-0.31095901 -4.8839111 9.8046885 7
-0.315323 -4.872437 9.8310547 7
-0.30950201 -4.841064 9.8232422 7
-0.30658001 -4.8155522 9.8251953 7
-0.093650997 -1.905273 10.082031 7
-0.090714 -1.882324 10.075195 7
-0.092139997 -1.863037 10.084961 7
-0.102325 -1.850708 10.12793 7
-0.099372998 -1.828003 10.121094 7
-0.092093997 -1.801392 10.098633 7
-0.087692 -1.7774661 10.086914 7
-0.081832998 -1.752441 10.068359 7
-0.080375999 -1.730713 10.067383 7
-0.077422999 -1.7080081 10.060547 7
-0.080329999 -1.689697 10.075195 7
-0.089042999 -1.675537 10.111328 7
-0.075905003 -1.64563 10.066406 7
-0.081717998 -1.629272 10.092773 7
-0.080223002 -1.6075439 10.09082 7
-0.321747 -5.112061 9.2675781 7
-0.30509201 -5.0595698 9.2275391 7
-0.30508399 -5.0410161 9.2392578 7
-0.299034 -5.010376 9.2333984 7
-0.30962399 -5.012939 9.2773438 7
-0.306595 -4.9884028 9.2802734 7
-0.303574 -4.963501 9.2832031 7
-0.306602 -4.9509282 9.3046885 7
-0.309616 -4.9381099 9.3242188 7
-0.30810499 -4.9163818 9.3320312 7
-0.30658701 -4.8947749 9.3388672 7
-0.29901901 -4.861084 9.3261719 7
-0.31112701 -4.8659668 9.3759766 7
-0.297508 -4.8206792 9.3447266 7
-0.29901901 -4.80481 9.3603516 7
-0.309616 -4.8062739 9.40625 7
-0.100922 -1.916382 9.7529297 7
-0.096367002 -1.892944 9.7412109 7
-0.091805004 -1.869385 9.7285156 7
-0.099342003 -1.855835 9.7607422 7
-0.103859 -1.839844 9.78125 7
-0.094765 -1.812622 9.7529297 7
-0.090218 -1.789185 9.7412109 7
-0.079620004 -1.761353 9.7070312 7
-0.088684 -1.748657 9.7451172 7
-0.078064002 -1.720825 9.7099609 7
-0.075026996 -1.698853 9.703125 7
-0.087096997 -1.68811 9.7509766 7
-0.093124002 -1.672974 9.7773438 7
-0.079490997 -1.643311 9.7314453 7
-0.074928001 -1.620239 9.71875 7
-0.30658001 -5.09729 8.8164062 7
-0.31283599 -5.0925288 8.8466797 7
-0.29875201 -5.0461431 8.8173828 7
-0.30032301 -5.0318599 8.8339844 7
-0.29875901 -5.0109859 8.8408203 7
-0.29562399 -4.987061 8.84375 7
-0.298767 -4.975708 8.8652344 7
-0.30033901 -4.9611821 8.8818359 7
-0.29875901 -4.940186 8.8886719 7
-0.297203 -4.9194341 8.8955078 7
-0.300331 -4.907959 8.9160156 7
-0.30188799 -4.893188 8.9326172 7
-0.30501601 -4.8814702 8.953125 7
-0.308144 -4.8696289 8.9736328 7
-0.30502301 -4.8457031 8.9765615 7
-0.306602 -4.830688 8.9931641 7
-0.30034599 -4.8006592 8.9873047 7
-0.086296 -1.912598 9.3925781 7
-0.084732004 -1.8924561 9.3916016 7
-0.089386001 -1.877563 9.4121094 7
-0.092505999 -1.860962 9.4277344 7
-0.090903997 -1.84082 9.4257812 7
-0.095588997 -1.825439 9.4472656 7
-0.104965 -1.813843 9.4853516 7
-0.090857998 -1.783936 9.4394531 7
-0.076774999 -1.753906 9.3945312 7
-0.075195 -1.733765 9.3925781 7
-0.078299999 -1.717163 9.4082031 7
-0.082961999 -1.701782 9.4277344 7
-0.078270003 -1.6793211 9.4160156 7
-0.086060002 -1.6661381 9.4472656 7
-0.084464997 -1.645874 9.4453115 7
-0.076637 -1.621338 9.4228516 7
-0.075057998 -1.601318 9.4208984 7
-0.065636002 0.975586 9.5029297 7
-0.068709999 0.99609399 9.5117188 7
-0.062461998 1.012573 9.4882812 7
-0.062415998 1.031738 9.4853516 7
-0.057693001 1.048584 9.4658203 7
-0.059218999 1.0682369 9.4697266 7
-0.065421999 1.090454 9.4892578 7
-0.068520002 1.111084 9.4980469 7
-0.070037998 1.130981 9.5009766 7
-0.071571 1.151123 9.5039062 7
-0.065292001 1.16687 9.4785156 7
-0.069939002 1.188354 9.4931641 7
-0.073021002 1.209229 9.5009766 7
-0.072975002 1.228394 9.4980469 7
-0.076080002 1.249146 9.5068359 7
-0.072913997 1.266602 9.4921885 7
-0.305641 -5.1138921 8.3701172 7
-0.30725899 -5.084229 8.3994141 7
-0.29752299 -5.03125 8.3955078 7
-0.29589799 -4.994873 8.4150391 7
-0.292656 -4.9715581 8.4179688 7
-0.294296 -4.958374 8.4345703 7
-0.29105401 -4.918457 8.4492188 7
-0.297562 -4.8979492 8.4902344 7
-0.299187 -4.8675542 8.5185547 7
-0.30079699 -4.8537598 8.5341797 7
-0.297562 -4.830688 8.5371094 7
-0.085418999 -1.909912 9.0595703 7
-0.075653002 -1.8656009 9.0361328 7
-0.077262998 -1.848755 9.0458984 7
-0.078873001 -1.832031 9.0556641 7
-0.086952001 -1.802246 9.0927734 7
-0.062569 -1.746948 9.0195312 7
-0.065788001 -1.713379 9.0390615 7
-0.062531002 -1.692749 9.0322266 7
-0.062514998 -1.674683 9.0361328 7
-0.072205 -1.645874 9.0761719 7
-0.072189003 -1.627686 9.0800781 7
-0.073792003 -1.6105959 9.0898438 7
-0.056030001 0.97033697 9.1513672 7
-0.049484 1.00415 9.1240234 7
-0.049408 1.0406491 9.1191406 7
-0.052574001 1.078491 9.125 7
-0.054161001 1.097656 9.1289062 7
-0.059013002 1.11853 9.1435547 7
-0.062187001 1.156616 9.1503906 7
-0.068581 1.196777 9.1660156 7
-0.063660003 1.2305911 9.1445312 7
-0.071716003 1.25354 9.1689453 7
-0.066826001 1.269165 9.1494141 7
-0.080490001 4.7814941 -4.96875 7
-0.067740999 4.7393799 -4.9443359 7
-0.059776001 4.70752 -4.9335942 7
-0.061356001 4.6956792 -4.9492192 7
-0.06295 4.6838379 -4.9638672 7
-0.059753001 4.646606 -4.9775391 7
-0.059760999 4.6313481 -4.9882808 7
-0.059753001 4.600708 -5.0097661 7
-0.074042998 4.6147461 -5.0625 7
-0.085175 4.6218262 -5.1054692 7
-0.082001001 4.584229 -5.1181641 7
-0.30345899 -5.1037598 7.9560552 7
-0.29841599 -5.0778809 7.9550781 7
-0.301781 -5.0693359 7.9755859 7
-0.29338801 -5.036499 7.9658198 7
-0.29003099 -5.0140381 7.969727 7
-0.28330201 -4.9847412 7.9638672 7
-0.284973 -4.9728999 7.9794922 7
-0.29171801 -4.9708252 8.0087891 7
-0.28836101 -4.9483638 8.0126953 7
-0.28331 -4.9226069 8.0107422 7
-0.28836799 -4.9168701 8.0361328 7
-0.283333 -4.8911128 8.0341797 7
-0.284996 -4.8789058 8.0507812 7
-0.28836101 -4.869751 8.0703115 7
-0.29510501 -4.867188 8.0996094 7
-0.29342699 -4.8478999 8.1064453 7
-0.296783 -4.838623 8.1279297 7
-0.29005399 -4.8096919 8.1201172 7
-0.078795999 -1.9013669 8.7285156 7
-0.075438999 -1.881104 8.7226562 7
-0.075409003 -1.86377 8.7265615 7
-0.078758001 -1.849243 8.7431641 7
-0.077072002 -1.830444 8.7421885 7
-0.072006002 -1.809082 8.7294922 7
-0.083740003 -1.801025 8.7714844 7
-0.082053997 -1.782227 8.7705078 7
-0.082030997 -1.764771 8.7744141 7
-0.063538 -1.7331541 8.7207031 7
-0.061836001 -1.7146 8.71875 7
-0.068535 -1.7023931 8.7431641 7
-0.068542004 -1.685059 8.7480469 7
-0.061797999 -1.6624759 8.7314453 7
-0.061774999 -1.645142 8.7353516 7
-0.068497002 -1.632812 8.7597656 7
-0.071831003 -1.617798 8.7753906 7
-0.071814999 -1.60022 8.7792969 7
-0.058533002 0.969971 8.8603516 7
-0.061859 0.98901403 8.8691406 7
-0.056800999 1.004395 8.8505859 7
-0.051727001 1.019897 8.8310547 7
-0.04834 1.035645 8.8173828 7
-0.049988002 1.053955 8.8203115 7
-0.049957 1.071533 8.8173828 7
-0.053268 1.090698 8.8271484 7
-0.048232999 1.105835 8.8085938 7
-0.058272999 1.128296 8.8398438 7
-0.063254997 1.14856 8.8535156 7
-0.054855 1.161865 8.8232422 7
-0.061523002 1.182983 8.8427734 7
-0.061492998 1.200562 8.8398438 7
-0.069847003 1.222412 8.8642578 7
-0.069808997 1.240234 8.8613281 7
-0.071465001 1.2587889 8.8642578 7
-0.073096998 1.277344 8.8662109 7
-0.083770998 4.791748 -4.585938 7
-0.075499997 4.7600098 -4.5751948 7
-0.067244999 4.728394 -4.5644531 7
-0.060637999 4.7001948 -4.5576172 7
-0.065582 4.696167 -4.5830078 7
-0.070525996 4.6921391 -4.6064448 7
-0.072166003 4.6812739 -4.6220698 7
-0.062263001 4.6463618 -4.6054692 7
-0.063896 4.6352539 -4.6230469 7
-0.065544002 4.6242681 -4.6376948 7
-0.068824999 4.6165771 -4.6582031 7
-0.065521002 4.5952148 -4.6601558 7
-0.070479997 4.5909419 -4.6826172 7
-0.080383003 4.596436 -4.7207031 7
-0.090278998 4.6018071 -4.7587891 7
-0.086975001 4.5802002 -4.7607422 7
-0.083655998 4.5588379 -4.7626948 7
-0.080352999 4.5374761 -4.764648 7
-0.080360003 4.5227051 -4.7744141 7
-0.077033997 4.5013428 -4.7763672 7
-0.080338001 4.493042 -4.795898 7
-0.086929001 4.491333 -4.8242192 7
-0.29118299 -5.111084 7.5048828 7
-0.308624 -5.1179199 7.5732422 7
-0.28947401 -5.0640869 7.5380859 7
-0.29820299 -5.0675049 7.5722661 7
-0.29296899 -5.0421138 7.5712891 7
-0.29124501 -5.0240479 7.579102 7
-0.28776601 -5.0023189 7.5810552 7
-0.286026 -4.9842529 7.5898442 7
-0.282547 -4.9625239 7.592773 7
-0.28255501 -4.947876 7.6054692 7
-0.28256199 -4.933228 7.6162109 7
-0.28257 -4.918335 7.6279302 7
-0.279091 -4.8968511 7.6308589 7
-0.28083 -4.885498 7.6474609 7
-0.28431699 -4.877686 7.6660161 7
-0.29477701 -4.8833008 7.7050781 7
-0.28433999 -4.8477778 7.6904302 7
-0.286057 -4.8364258 7.7050781 7
-0.27909899 -4.8078609 7.7001948 7
-0.081542999 -1.916626 8.4462891 7
-0.078041002 -1.896973 8.4394531 7
-0.076286003 -1.878906 8.4384766 7
-0.074532002 -1.86084 8.4375 7
-0.072777003 -1.842651 8.4365234 7
-0.072761998 -1.826172 8.4404297 7
-0.076224998 -1.812378 8.4550781 7
-0.07621 -1.795532 8.4609385 7
-0.07621 -1.778809 8.4658203 7
-0.084908001 -1.768921 8.4970703 7
-0.069228999 -1.7401119 8.4521484 7
-0.063988 -1.71936 8.4404297 7
-0.065711997 -1.703979 8.4492188 7
-0.062210001 -1.684814 8.4433594 7
-0.060454998 -1.666748 8.4423828 7
-0.062180001 -1.651489 8.4511719 7
-0.063904002 -1.635986 8.4589844 7
-0.065628 -1.620483 8.4697266 7
-0.065598004 -1.603882 8.4726562 7
-0.057220001 0.967529 8.578125 7
-0.055458002 0.98376501 8.5703115 7
-0.044991001 0.99609399 8.5341797 7
-0.046707001 1.013672 8.5380859 7
-0.046668999 1.0305181 8.5351562 7
-0.04837 1.04834 8.5380859 7
-0.04834 1.065186 8.5351562 7
-0.050048999 1.082886 8.5390615 7
-0.051750001 1.1005861 8.5419922 7
-0.056938 1.119873 8.5566406 7
-0.055160999 1.135986 8.5478516 7
-0.067284003 1.15918 8.5839844 7
-0.055091999 1.1698 8.5419922 7
-0.058540002 1.1887209 8.5507812 7
-0.060233999 1.2062989 8.5527344 7
-0.054993 1.220337 8.5341797 7
-0.056701999 1.238281 8.5371094 7
-0.060157999 1.256958 8.5449219 7
-0.056641001 1.271973 8.5302734 7
-0.082817003 4.773438 -4.2226558 7
-0.074271999 4.7419429 -4.2128911 7
-0.069114998 4.7176509 -4.210938 7
-0.067405999 4.700562 -4.2167969 7
-0.067397997 4.6872559 -4.2285161 7
-0.070800997 4.6809082 -4.2480469 7
-0.067382999 4.6601558 -4.25 7
-0.067374997 4.646606 -4.2617192 7
-0.072479002 4.6435552 -4.2871089 7
-0.069061004 4.6229248 -4.289062 7
-0.070770003 4.6126709 -4.3037109 7
-0.070754997 4.5991211 -4.3144531 7
-0.079300001 4.6026611 -4.3476558 7
-0.08783 4.6063228 -4.3808589 7
-0.086104997 4.5891109 -4.3867192 7
-0.089538999 4.5821528 -4.40625 7
-0.079285003 4.5476069 -4.389648 7
-0.080971003 4.5368652 -4.405273 7
-0.077545002 4.5162349 -4.407227 7
-0.079246998 4.5056152 -4.422852 7
-0.077522002 4.4882808 -4.4287109 7
-0.29914099 -5.0958252 7.1748052 7
-0.29914901 -5.0820308 7.186523 7
-0.29556999 -5.0609131 7.1914058 7
-0.30097201 -5.0583501 7.2158198 7
-0.29739401 -5.037231 7.219727 7
-0.295609 -5.0197749 7.2275391 7
-0.293816 -5.0024409 7.235352 7
-0.28842199 -4.9777832 7.234375 7
-0.29380801 -4.974731 7.2587891 7
-0.293823 -4.9606929 7.2705078 7
-0.28842899 -4.9360352 7.2695308 7
-0.28664401 -4.9187012 7.2773442 7
-0.288452 -4.9083252 7.2929692 7
-0.288452 -4.8944092 7.304688 7
-0.293854 -4.8909912 7.328125 7
-0.29386899 -4.8769531 7.3408198 7
-0.302872 -4.8806152 7.374023 7
-0.29387701 -4.8487549 7.3632808 7
-0.28307301 -4.8135991 7.3496089 7
-0.082603 -1.912842 8.1787109 7
-0.075401001 -1.890625 8.1621094 7
-0.080788001 -1.87915 8.1826172 7
-0.077179 -1.8601069 8.1767578 7
-0.077170998 -1.844238 8.1816406 7
-0.078956999 -1.829468 8.1914062 7
-0.071739003 -1.807739 8.1738281 7
-0.080711 -1.798828 8.2050781 7
-0.080704004 -1.782715 8.2099609 7
-0.078873001 -1.765137 8.2080078 7
-0.060883 -1.735229 8.1582031 7
-0.075255997 -1.730225 8.2060547 7
-0.071648002 -1.711426 8.1992188 7
-0.066223003 -1.6912839 8.1865234 7
-0.066207998 -1.675171 8.1904297 7
-0.068001002 -1.660522 8.2001953 7
-0.066184998 -1.643066 8.1982422 7
-0.071571 -1.630859 8.21875 7
-0.078750998 -1.619995 8.2441406 7
-0.075142004 -1.601074 8.2373047 7
-0.055801 0.96521002 8.3125 7
-0.048576001 0.97827101 8.2880859 7
-0.059326001 0.99939001 8.3193359 7
-0.059296001 1.015625 8.3164062 7
-0.055672001 1.030396 8.3027344 7
-0.052048001 1.044922 8.2890615 7
-0.053817999 1.062134 8.2919922 7
-0.057372998 1.0802 8.3007812 7
-0.055550002 1.095459 8.2929688 7
-0.057303999 1.112671 8.2958984 7
-0.053695999 1.127197 8.2822266 7
-0.057259001 1.145386 8.2910156 7
-0.059029002 1.1624759 8.2939453 7
-0.060791001 1.17981 8.296875 7
-0.055374 1.193115 8.2783203 7
-0.053551 1.208374 8.2695312 7
-0.064285003 1.2305911 8.2998047 7
-0.048096001 1.237915 8.2470703 7
-0.064223997 1.263184 8.2939453 7
-0.13988499 4.1812739 7.34375 7
-0.14520299 4.2049561 7.3476558 7
-0.141579 4.2125239 7.328125 7
-0.15049 4.2427979 7.3417969 7
-0.136131 4.2305908 7.2949219 7
-0.14681999 4.2641602 7.3125 7
-0.143196 4.2714839 7.2929692 7
-0.135986 4.2720952 7.264648 7
-0.134148 4.2825928 7.25 7
-0.128731 4.286499 7.2255859 7
-0.130493 4.3035889 7.2207031 7
-0.126862 4.3106689 7.2011719 7
-0.128609 4.3277588 7.195312 7
-0.130348 4.344727 7.1894531 7
-0.130302 4.3582759 7.179688 7
-0.128464 4.3685298 7.1650391 7
-0.126617 4.3786621 7.1503911 7
-0.124794 4.388916 7.1357422 7
-0.131897 4.4160161 7.1425781 7
-0.137215 4.4396968 7.1445308 7
-0.12645 4.4328609 7.108398 7
-0.090332001 4.7939448 -3.8769529 7
-0.083244003 4.766479 -3.871094 7
-0.077918999 4.7426758 -3.8701169 7
-0.076126002 4.7260742 -3.8779299 7
-0.070839003 4.7025151 -3.875 7
-0.072571002 4.693604 -3.8925779 7
-0.074332997 4.6844478 -3.907227 7
-0.077866003 4.6790771 -3.9267581 7
-0.077866003 4.6662598 -3.9375 7
-0.077849999 4.6534419 -3.949219 7
-0.076064996 4.6369629 -3.9560549 7
-0.074294999 4.6204829 -3.9619141 7
-0.072517 4.604126 -3.96875 7
-0.077820003 4.6021729 -3.992188 7
-0.076035 4.5854492 -3.999023 7
-0.083099 4.586792 -4.0263672 7
-0.098999001 4.605835 -4.0761719 7
-0.102539 4.5999761 -4.0957031 7
-0.081329003 4.544189 -4.0537109 7
-0.088386998 4.545166 -4.0820308 7
-0.088363998 4.5318599 -4.09375 7
-0.077758998 4.4976811 -4.078125 7
-0.081290998 4.4915771 -4.0976558 7
-0.086585999 4.4888921 -4.1201172 7
-0.130226 0.81463999 12.219421 7
-0.133063 -1.737608 11.300828 7
-0.32456401 -4.8757882 10.99771 7
-0.118653 -1.829574 10.485785 7
-0.140663 4.1966791 9.6502876 7
-0.077646002 -1.831444 9.6009426 7
-0.036479 1.005583 9.4862432 7
-0.050445002 1.256615 9.5474548 7
-0.36031699 -5.1052318 9.553441 7
-0.36735499 -4.8933878 9.7889671 7
-0.32284901 -4.9902711 8.6006041 7
-0.112864 -1.857161 8.9775047 7
-0.101234 -1.624362 8.9745388 7
-0.075897001 1.118567 8.9443293 7
-0.28770599 -5.0051341 7.577682 7
-0.29630399 -4.885396 7.8086638 7
-0.089474998 -1.8717951 8.4511127 7
-0.074194998 -1.6517479 8.4342337 7
-0.054453999 1.016047 8.4969463 7
-0.063413002 1.216309 8.5068741 7
-0.132208 4.197638 7.0773258 7
-0.131127 4.3250322 6.90206 7
-0.118064 4.380374 6.6827989 7
-0.232338 -4.924304 6.409194 7
-0.242247 -4.8621359 6.6347222 7
-0.082258999 -1.911093 8.0693989 7
-0.057950001 -1.685095 8.0136824 7
-0.040146999 1.106014 8.1039696 7
-0.266927 -4.7962899 5.6461649 7
-0.10521 -1.7504359 7.732336 7
-0.063403003 1.015407 7.7724471 7
-0.069691002 1.1805691 7.7600651 7
-0.091213003 -1.772239 7.4096861 7
-0.078960001 -1.603453 7.4244189 7
-0.047387 1.085603 7.4627528 7
-0.061113998 1.250934 7.4794259 7
-0.080248997 -1.7909909 7.127449 7
-0.069849998 -1.6370749 7.154603 7
-0.065738 -1.792829 6.855227 7
-0.057411999 -1.654235 6.8936338 7
0.109202 -1.2678241 -13.440021 7
0.005533 -1.1861269 -8.3870211 7
0.0096009998 -1.165074 -7.0413208 7
0.044107001 -1.4667 -4.7780619 7
-0.056919001 -1.71734 11.251572 7
-0.034497 -1.4263 -4.1081719 7
-0.33017001 -5.0226941 10.470697 7
-0.097061001 -1.63871 10.380454 7
-0.30926001 -4.9678679 9.7171926 7
-0.092184998 -1.8663321 9.8079491 7
-0.291989 -4.916244 9.0693703 7
-0.053817 -1.784278 9.1785994 7
-0.36111999 -5.1099029 8.372324 7
-0.33976001 -4.8406668 8.4707108 7
-0.081683002 -1.715417 8.660181 7
-0.31338799 -4.9471402 7.7657299 7
-0.080803998 -1.88753 8.314209 7
-0.056393001 -1.66204 8.2507286 7
-0.31430799 -5.0888491 7.2029309 7
-0.28557801 -4.8409152 7.2877951 7
-0.061299 -1.827911 7.970324 7
-0.049787 -1.624858 7.967289 7
-0.27118999 -4.9138489 6.7268801 7
-0.064562999 -1.790588 7.7569098 7
-0.23756801 -4.6607609 -0.236624 7
-0.33384299 -5.0159221 6.2554278 7
-0.30816701 -4.8160329 6.3634849 7
-0.093359001 -1.740154 7.471478 7
-0.026252 -1.4062589 -0.80258501 7
-0.045423999 -1.5834579 -0.843265 7
-0.27738699 -4.585063 0.108917 7
-0.27171499 -4.6853981 0.28411299 7
-0.29347 -4.8437672 5.8813648 7
-0.082333997 -1.866178 7.2037039 7
-0.067116 -1.691957 7.1922059 7
-0.014526 -1.384606 -0.58302498 7
-0.031184999 -1.551062 -0.61339599 7
-0.25357899 -4.5893712 0.60051399 7
-0.251724 -4.6814089 0.76352 7
-0.248145 -4.7613182 0.93256098 7
-0.28231299 -4.7585478 5.5971222 7
-0.27126801 -4.6285238 5.7332311 7
-0.062849 -1.8160011 6.971756 7
-0.048941001 -1.652532 6.9641628 7
-0.0074339998 -1.366286 -0.39790899 7
-0.022894001 -1.5242079 -0.423417 7
-0.237582 -4.497817 0.88713002 7
-0.238519 -4.5871849 1.03941 7
-0.23440699 -4.65522 1.203326 7
-0.235063 -4.730886 1.361418 7
-0.26006299 -4.5523019 5.4675679 7
-0.049766999 -1.7743011 6.7792888 7
-0.037206002 -1.619885 6.775722 7
0.005047 -1.347577 -0.207675 7
-0.012304 -1.498294 -0.239675 7
0.011537 -1.33216 -0.051771998 7
0.00039299999 -1.473318 -0.062176 7
-0.26377699 -4.5424118 1.455677 7
-0.25934699 -4.6647201 2.317312 7
-0.260625 -4.6988301 2.4718969 7
-0.27372399 -4.7980299 3.098819 7
-0.27309701 -4.7889471 3.4169259 7
-0.27530599 -4.78267 3.575907 7
-0.273745 -4.7589312 3.733268 7
-0.27017 -4.723156 3.888274 7
-0.27015901 -4.6919298 4.0435271 7
-0.245638 -4.501462 2.3584449 7
-0.248714 -4.5394011 2.5050089 7
-0.26492 -4.6386309 2.951685 7
-0.25994399 -4.6297698 3.105057 7
-0.26245201 -4.636693 3.2572501 7
-0.26484999 -4.6373162 3.409797 7
-0.267113 -4.631556 3.5624349 7
-0.253984 -4.5754781 3.709156 7
-0.250267 -4.5409241 3.856493 7
-0.25216699 -4.5166702 4.0053191 7
-0.033725999 4.6285639 -4.583653 7
-0.039698001 4.61307 -3.7656579 7
-0.150085 4.2842541 9.8008919 7
-0.080448002 1.019982 9.0812912 7
-0.099316001 1.266431 9.1330681 7
-0.061843 1.018379 8.6559277 7
-0.070692003 1.244905 8.6563568 7
-0.13772701 4.288177 7.2791839 7
-0.151305 4.4767938 7.163445 7
-0.042603999 1.017014 8.2717113 7
-0.054510001 1.228155 8.2897863 7
-0.14358599 4.28654 6.9497299 7
-0.128364 4.3754268 6.7425418 7
-0.0265 1.015819 7.940156 7
-0.030769 1.211706 7.9241772 7
-0.123029 4.2046952 6.5662742 7
-0.12131 4.3203349 6.4091821 7
-0.057264999 1.013178 7.633152 7
-0.066298999 1.197117 7.6403689 7
-0.042706002 1.0123301 7.3776412 7
-0.047272999 1.184913 7.368103 7
-0.043691002 -0.99953198 -15.80843 7
-0.025497001 5.005558 -14.82676 7
0.067414001 0.53957802 -12.592681 7
-0.050747 -0.63089699 -10.399309 7
-0.100476 -1.117874 -11.270412 7
-0.37590599 -4.2035012 -15.897477 7
-0.160946 4.8737659 -11.645053 7
-0.055289 -1.194128 -8.9492893 7
-0.254742 -4.379508 -11.410371 7
-0.096190996 4.6962671 -8.6324987 7
-0.234111 -4.4040241 -9.4606342 7
-0.27081999 -6.1778102 -9.1933184 7
-0.011894 -1.285089 -6.4991169 7
-0.046087999 -1.3023731 -5.7175941 7
-0.113806 4.6217809 -4.5398622 7
-0.121927 4.5107689 -4.7585349 7
-0.029998999 -1.318833 -5.1336489 7
-0.043040998 -1.527481 -5.1880379 7
-0.018921001 -1.334457 -4.677597 7
-0.029479001 -1.517225 -4.7029891 7
-0.0063649998 -1.33517 -4.2765412 7
-0.019455999 -1.5095659 -4.3109388 7
-0.036300998 -1.353137 -3.982584 7
-0.045042999 -1.499926 -3.9784031 7
-0.21613 -4.51999 -2.2274201 7
-0.21401601 -4.571579 -2.039191 7
-0.20963199 -4.650857 -1.655779 7
-0.02256 -1.3432111 -3.6828051 7
-0.034876999 -1.488427 -3.6928511 7
-0.018716 -1.57077 -0.939062 7
-0.012365 -1.493745 -0.94932401 7
-0.019741001 -1.510914 -0.88213998 7
-0.0030769999 -1.407231 -0.90055299 7
0.020021001 -1.329841 -0.85663599 7
-0.019376 -1.359112 -0.90864497 7
-0.0045659998 -1.3095829 -0.86059099 7
-0.013883 -1.2998019 -0.91910201 7
