# .PCD v0.7 - Point Cloud Data file format
VERSION 0.7
FIELDS x y z intensity
SIZE 4 4 4 4
TYPE F F F F
COUNT 1 1 1 1
WIDTH 371
HEIGHT 1
VIEWPOINT 0 0 0 1 0 0 0
POINTS 371
DATA ascii
-0.27825901 -4.4785161 72.80365 7
-0.152832 -1.0361331 69.435486 7
-0.479431 -1.6298831 -68.84668 7
-0.47882101 -1.796875 -68.824768 7
-0.54736298 -1.49707 -65.994629 7
-0.566284 -1.667969 -66.446777 7
-0.63745099 -4.9580078 -61.330139 7
-0.092651002 -1.34082 46.964294 7
-0.104919 -1.130859 47.221924 7
-0.52728301 2.5683589 -57.511414 7
-0.550354 2.4482419 -58.019653 7
-0.120728 -1.362305 44.29071 7
-0.57354701 2.507812 -55.64325 7
-0.70141602 -4.8974609 -52.501953 7
-0.54815698 -1.474609 -42.076172 7
-0.190369 -4.679688 31.348938 7
-0.18981899 -4.6064448 31.354431 7
-0.060608 -1.318359 30.093018 7
-0.22656199 -4.5878911 29.900269 7
-0.078064002 -1.308594 28.519409 7
-0.062866002 -1.535156 23.444458 7
-0.054443002 -1.4775389 23.366882 7
-0.055603001 -1.4267581 23.382263 7
-0.063231997 -1.378906 23.461487 7
-0.056090999 -1.324219 23.395081 7
-0.19958501 -4.735352 22.93689 7
-0.18689001 -4.6601558 22.834412 7
-0.190613 -4.6162109 22.879883 7
-0.20251501 -4.5878911 22.999084 7
-0.213135 -4.5566411 23.107117 7
-0.043701001 -1.581055 19.738037 7
-0.052062999 -1.543945 19.811462 7
-0.043517999 -1.494141 19.745728 7
-0.042785998 -1.451172 19.743835 7
-0.052611999 -1.412109 19.828308 7
-0.065917999 -1.37793 19.942078 7
-0.033447001 -1.314453 19.678833 7
-0.042541999 -1.277344 19.757568 7
-0.046631001 -1.578125 18.736633 7
-0.045044001 -1.535156 18.728821 7
-0.045715 -1.494141 18.738586 7
-0.038940001 -1.449219 18.690308 7
-0.040405001 -1.410156 18.705444 7
-0.044128001 -1.37207 18.737915 7
-0.046997 -1.332031 18.764587 7
-0.040282998 -1.2880861 18.715759 7
-0.060913 -1.3857419 17.935913 7
-0.060913 -1.347656 17.939575 7
-0.047058001 -1.597656 16.920959 7
-0.047851998 -1.5625 16.930725 7
-0.049438 -1.525391 16.946106 7
-0.044372998 -1.486328 16.915222 7
-0.042663999 -1.4482419 16.907471 7
-0.041809 -1.410156 16.905151 7
-0.047545999 -1.375977 16.94928 7
-0.046691999 -1.339844 16.94696 7
-0.039184999 -1.298828 16.898315 7
-0.05249 -1.59375 16.199829 7
-0.050659001 -1.556641 16.192261 7
-0.052368 -1.523438 16.207642 7
-0.048827998 -1.485352 16.188416 7
-0.045288 -1.4482419 16.168945 7
-0.046997 -1.4150389 16.184265 7
-0.046936002 -1.3798831 16.187744 7
-0.052124001 -1.3486331 16.225891 7
-0.046875 -1.30957 16.194458 7
-0.211182 -4.797852 15.729248 7
-0.196472 -4.735352 15.653015 7
-0.189087 -4.686523 15.620544 7
-0.191833 -4.6591802 15.648254 7
-0.200073 -4.641602 15.709167 7
-0.205566 -4.6181641 15.753418 7
-0.200928 -4.5751948 15.737 7
-0.191772 -4.5244141 15.692932 7
-0.052795 -1.582031 15.465942 7
-0.052733999 -1.548828 15.469788 7
-0.052673001 -1.515625 15.473816 7
-0.044372998 -1.476562 15.425781 7
-0.047118999 -1.445312 15.446716 7
-0.047058001 -1.412109 15.450317 7
-0.053406 -1.3818361 15.49408 7
-0.052429002 -1.347656 15.49176 7
-0.041443001 -1.30957 15.426086 7
-0.199524 -4.78125 14.935974 7
-0.18603501 -4.7226558 14.871216 7
-0.18988 -4.6982422 14.904541 7
-0.187866 -4.6621089 14.904785 7
-0.196472 -4.6464839 14.965271 7
-0.204163 -4.6289058 15.020142 7
-0.187805 -4.5332031 14.949219 7
-0.17816199 -4.483398 14.905457 7
-0.052002002 -1.585938 14.153198 7
-0.047913 -1.552734 14.134155 7
-0.049927 -1.523438 14.149475 7
-0.044861 -1.490234 14.124634 7
-0.043761998 -1.458984 14.122681 7
-0.044739 -1.4306639 14.132019 7
-0.047729 -1.402344 14.152832 7
-0.052673001 -1.375 14.184998 7
-0.052673001 -1.345703 14.188538 7
-0.048645001 -1.3125 14.169006 7
-0.048583999 -1.282227 14.172241 7
-0.50390601 -8.6289062 13.297729 7
-0.499695 -8.5878906 13.299683 7
-0.499695 -8.5585938 13.320068 7
-0.496521 -8.5214844 13.32666 7
-0.501831 -8.5097656 13.370667 7
-0.50494403 -8.4902344 13.405151 7
-0.50177002 -8.4511719 13.411194 7
-0.49755901 -8.4101562 13.412537 7
-0.49542201 -8.375 13.423279 7
-0.49224901 -8.3369141 13.42926 7
-0.054931998 -1.577148 13.609741 7
-0.051757999 -1.545898 13.596558 7
-0.053833 -1.517578 13.611816 7
-0.051697001 -1.488281 13.604248 7
-0.046386998 -1.455078 13.579285 7
-0.050537001 -1.4287111 13.605835 7
-0.051575001 -1.400391 13.615112 7
-0.057861 -1.375977 13.652893 7
-0.054625999 -1.344727 13.639221 7
-0.05249 -1.31543 13.631104 7
-0.047180001 -1.283203 13.605896 7
-0.50341803 -8.5136719 12.507507 7
-0.50341803 -8.4873047 12.528015 7
-0.50231898 -8.4580078 12.543762 7
-0.49566701 -8.4101562 12.536316 7
-0.501221 -8.4013672 12.579468 7
-0.49786401 -8.3642578 12.585876 7
-0.045837 -1.578125 12.969971 7
-0.048035 -1.5517581 12.984985 7
-0.045775998 -1.523438 12.9776 7
-0.045715 -1.496094 12.981384 7
-0.041320998 -1.46582 12.962463 7
-0.044555999 -1.439453 12.983093 7
-0.043396 -1.4111331 12.980896 7
-0.042296998 -1.3837889 12.978882 7
-0.048827998 -1.360352 13.016663 7
-0.046631001 -1.332031 13.008606 7
-0.044372998 -1.3037111 13.000488 7
-0.040771 -1.481445 12.466064 7
-0.500305 -8.5947266 10.903137 7
-0.499084 -8.5683594 10.919495 7
-0.49670401 -8.5380859 10.931458 7
-0.500305 -8.5273438 10.964783 7
-0.50146502 -8.5078115 10.98938 7
-0.49670401 -8.4472656 11.012939 7
-0.485901 -8.3681641 11.014587 7
-0.485962 -8.3447266 11.034485 7
-0.049561001 -1.599609 12.003723 7
-0.050719999 -1.576172 12.013489 7
-0.048278999 -1.548828 12.00592 7
-0.048278999 -1.5244139 12.009827 7
-0.043457001 -1.4951169 11.990967 7
-0.041016001 -1.46875 11.983398 7
-0.046936002 -1.447266 12.015381 7
-0.048096001 -1.422852 12.024658 7
-0.048096001 -1.398438 12.028137 7
-0.050415002 -1.375 12.043152 7
-0.050415002 -1.349609 12.046692 7
-0.043212999 -1.320312 12.015808 7
-0.045593001 -1.295898 12.030579 7
-0.035950001 -1.547852 11.514771 7
-0.157776 -4.500977 -8.2663574 7
-0.15789799 -4.523438 -8.2554321 7
-0.157959 -4.545898 -8.2445679 7
-0.160583 -4.5732422 -8.2437744 7
-0.16577099 -4.6054692 -8.2530518 7
-0.167114 -4.6298828 -8.2471924 7
-0.17230199 -4.6621089 -8.2564697 7
-0.168579 -4.6777339 -8.2297974 7
-0.162292 -4.686523 -8.1928101 7
-0.158508 -4.7011719 -8.1663208 7
-0.15856899 -4.7236328 -8.1547852 7
-0.15741 -4.7431641 -8.1381836 7
-0.168945 -4.789062 -8.1724854 7
-0.038635001 -1.59668 11.056274 7
-0.037292 -1.572266 11.054749 7
-0.034607001 -1.525391 11.051331 7
-0.03717 -1.503906 11.066345 7
-0.03064 -1.476562 11.041931 7
-0.03064 -1.454102 11.045776 7
-0.029297 -1.408203 11.046997 7
-0.035705999 -1.388672 11.078918 7
-0.036986999 -1.34375 11.091614 7
-0.034363002 -1.318359 11.083679 7
-0.029114 -1.293945 11.064392 7
-0.15393101 -4.4951172 -7.2996831 7
-0.156738 -4.5205078 -7.2987671 7
-0.15820301 -4.5439448 -7.2928472 7
-0.161072 -4.5693359 -7.2918091 7
-0.16113301 -4.5898442 -7.2807622 7
-0.165344 -4.617188 -7.284729 7
-0.173706 -4.6542969 -7.3032842 7
-0.168274 -4.6630859 -7.2720952 7
-0.164185 -4.6748052 -7.2457891 7
-0.158691 -4.6835942 -7.2147832 7
-0.15741 -4.7001948 -7.1983032 7
-0.161621 -4.7294922 -7.2017822 7
-0.163086 -4.7519531 -7.19519 7
-0.161743 -4.7685552 -7.1789551 7
-0.45373499 -8.4716797 -5.4341431 7
-0.45105001 -8.4785156 -5.4068599 7
-0.45251501 -8.4990234 -5.3900151 7
-0.46093801 -8.5410156 -5.3905029 7
-0.46105999 -8.5566406 -5.3699341 7
-0.456909 -8.5585938 -5.3389282 7
-0.461182 -8.5878906 -5.3287959 7
-0.458496 -8.5947266 -5.30127 7
-0.45855701 -8.609375 -5.2807622 7
-0.46283001 -8.6386719 -5.2703252 7
-0.037964001 -1.594727 10.265747 7
-0.042114001 -1.577148 10.286499 7
-0.037903 -1.5537111 10.273682 7
-0.040649001 -1.533203 10.288574 7
-0.043457001 -1.514648 10.303772 7
-0.036437999 -1.4892581 10.279602 7
-0.037781 -1.46875 10.288696 7
-0.039184999 -1.4482419 10.298035 7
-0.033507999 -1.423828 10.279297 7
-0.033507999 -1.40332 10.282898 7
-0.040527001 -1.386719 10.314514 7
-0.047485001 -1.3701169 10.346008 7
-0.041870002 -1.345703 10.327026 7
-0.039000999 -1.322266 10.319214 7
-0.040405001 -1.302734 10.328308 7
-0.041747998 -1.282227 10.337036 7
-0.15136699 -4.5107422 -6.85144 7
-0.152954 -4.5517578 -6.8345342 7
-0.155884 -4.5761719 -6.833252 7
-0.158875 -4.601562 -6.8319702 7
-0.16180401 -4.625977 -6.8305659 7
-0.167603 -4.655273 -6.839294 7
-0.159058 -4.657227 -6.7984009 7
-0.154846 -4.6679692 -6.7724609 7
-0.15771499 -4.6923828 -6.7709351 7
-0.15496799 -4.7050781 -6.7498779 7
-0.15789799 -4.7304692 -6.7481079 7
-0.15942401 -4.7529302 -6.7415771 7
-0.171021 -4.7939448 -6.7689209 7
-0.167542 -4.688477 -6.3951421 7
-0.161621 -4.6943359 -6.364624 7
-0.16027801 -4.7089839 -6.3484502 7
-0.16626 -4.7392578 -6.3563228 7
-0.164856 -4.7539058 -6.3400269 7
-0.170837 -4.7832031 -6.3475342 7
-0.172668 -4.7851558 8.7756958 7
-0.168152 -4.7587891 8.7729492 7
-0.162109 -4.7304692 8.7653809 7
-0.152954 -4.6933589 8.748291 7
-0.157471 -4.6855469 8.7739258 7
-0.157471 -4.6679692 8.7853394 7
-0.151428 -4.6376948 8.7773438 7
-0.15448 -4.6269531 8.7980347 7
-0.162048 -4.624023 8.833374 7
-0.166565 -4.6152339 8.8589478 7
-0.165039 -4.59375 8.8652954 7
-0.158997 -4.5644531 8.8569946 7
-0.165039 -4.5585942 8.8872681 7
-0.166504 -4.5439448 8.9033813 7
-0.154419 -4.5019531 8.8755493 7
-0.155884 -4.4873052 8.8911133 7
-0.15753201 -4.485352 -6.0940552 7
-0.159119 -4.5048828 -6.0878911 7
-0.164673 -4.7685552 8.3889771 7
-0.163086 -4.749023 8.395813 7
-0.15685999 -4.719727 8.3884888 7
-0.155212 -4.6826172 8.4064941 7
-0.15051299 -4.639648 8.414978 7
-0.15838601 -4.6220698 8.4609985 7
-0.17089801 -4.6298828 8.5101318 7
-0.166199 -4.6044922 8.5071411 7
-0.153625 -4.546875 8.491272 7
-0.15203901 -4.5087891 8.5084839 7
-0.166565 -4.7763672 7.9841919 7
-0.16168199 -4.750977 7.9819951 7
-0.16168199 -4.735352 7.9934082 7
-0.15515099 -4.7070308 7.9866328 7
-0.156799 -4.6933589 8.0025635 7
-0.15515099 -4.6748052 8.0092163 7
-0.151917 -4.6533198 8.0114136 7
-0.15515099 -4.6435552 8.0319214 7
-0.161621 -4.640625 8.0616465 7
-0.16973899 -4.640625 8.0958252 7
-0.160034 -4.6064448 8.0792847 7
-0.156799 -4.5839839 8.0811157 7
-0.159973 -4.5742192 8.1015615 7
-0.15515099 -4.5488281 8.0986328 7
-0.15838601 -4.539062 8.1188955 7
-0.15515099 -4.516602 8.1205444 7
-0.156738 -4.5039058 8.1362305 7
-0.153442 -4.4814448 8.1377563 7
-0.159119 -4.789062 7.548645 7
-0.152344 -4.7451172 7.5537109 7
-0.15069599 -4.7285161 7.5608521 7
-0.147339 -4.7060552 7.563416 7
-0.14056399 -4.6777339 7.5568848 7
-0.14398199 -4.655273 7.5883789 7
-0.14398199 -4.640625 7.599731 7
-0.154053 -4.6308589 7.6488652 7
-0.159119 -4.6269531 7.6739502 7
-0.155701 -4.6054692 7.676147 7
-0.148987 -4.5761719 7.6690669 7
-0.143921 -4.5371089 7.6774292 7
-0.152344 -4.539062 7.7111211 7
-0.148987 -4.5019531 7.7237549 7
-0.148987 -4.4873052 7.7348628 7
-0.143494 -4.7617192 7.136353 7
-0.139954 -4.7402339 7.1391602 7
-0.14172401 -4.7304692 7.1548462 7
-0.138245 -4.7099609 7.1577759 7
-0.138245 -4.6962891 7.16925 7
-0.136475 -4.6787109 7.17627 7
-0.136475 -4.6650391 7.1873169 7
-0.14001501 -4.6591802 7.20752 7
-0.14691199 -4.6582031 7.2362061 7
-0.14520299 -4.641602 7.2431641 7
-0.150452 -4.6376948 7.2675781 7
-0.150452 -4.6230469 7.2785029 7
-0.14520299 -4.5986328 7.2765498 7
-0.14520299 -4.5849609 7.2877202 7
-0.143433 -4.5664058 7.2944341 7
-0.14172401 -4.5507808 7.3010249 7
-0.14172401 -4.5361328 7.3119512 7
-0.139954 -4.5185552 7.318481 7
-0.14520299 -4.5136719 7.3427119 7
-0.14172401 -4.4931641 7.3447881 7
-0.150391 -4.4814448 7.388855 7
-0.091361001 -1.337289 17.463667 7
-0.029313 -1.282079 13.073441 7
-0.064290002 -1.373173 11.473194 7
-0.046921 -1.487301 10.557856 7
-0.205862 -4.7513542 8.3844013 7
-0.15242 -4.6216578 7.309566 7
-0.165647 -4.5413089 7.5459809 7
-0.01363 -1.5851099 7.779685 7
-0.011773 -1.423077 7.8296342 7
0.020465 -1.473394 16.043243 7
-0.30388001 -4.6007228 15.402444 7
-0.072419003 -1.403656 14.19734 7
-0.043832999 -1.354561 12.841688 7
-0.146557 -4.6898732 8.7286053 7
-0.136389 -4.638772 8.1909647 7
-0.198971 -4.7912049 7.5847659 7
-0.185564 -4.5747771 7.7006402 7
-0.155249 -4.6218529 7.0546999 7
-0.167283 -4.619627 -0.57506299 7
-0.177424 -4.7949119 -0.43855 7
-0.030347001 -1.5654809 7.8889809 7
-0.020779001 -1.36848 7.883585 7
-0.15231 -4.5362339 -0.187278 7
-0.15044899 -4.6577282 -0.019317999 7
-0.136952 -4.5639362 0.32278499 7
-0.138485 -4.6763768 0.47945401 7
-0.13896701 -4.5915089 0.715514 7
-0.13428 -4.6682978 0.88471502 7
-0.14112701 -4.7764349 1.0327801 7
-0.15636399 -4.5214462 1.1814311 7
-0.163243 -4.617579 1.323656 7
-0.152652 -4.6522799 1.49717 7
-0.00034999999 2.2551799 -3.562345 7
-0.014309 -1.470351 -7.270905 7
-0.00165 -1.47934 -6.33987 7
-0.17179 -4.5969138 -7.2663059 7
-0.150861 -4.718143 -6.9085989 7
-0.025442 2.52561 -3.752615 7
-0.131291 -4.5742021 -0.78369701 7
-0.137429 -4.631073 -0.53385502 7
-0.0060419999 2.4533999 -3.286875 7
-0.0107 2.375561 -3.4009089 7
-0.0068740002 2.252136 -3.470706 7
