# .PCD v0.7 - Point Cloud Data file format
VERSION 0.7
FIELDS x y z intensity
SIZE 4 4 4 4
TYPE F F F F
COUNT 1 1 1 1
WIDTH 440
HEIGHT 1
VIEWPOINT 0 0 0 1 0 0 0
POINTS 440
DATA ascii
-0.86871302 -4.7324219 -71.28009 7
-0.050964002 -4.6542969 49.84906 7
-0.74829102 -1.4951169 -64.873352 7
0.062316999 -1.449219 43.784546 7
0.036132999 -1.3642581 44.314148 7
-0.76928699 -1.331055 -57.851074 7
-0.76544201 -1.469727 -57.771484 7
-0.071410999 -4.6875 42.960388 7
0.03833 -1.456055 41.222839 7
-0.77142298 2.5888669 -57.868103 7
0.054138001 -1.414062 37.762634 7
-0.70898402 2.6875 -53.404358 7
-0.73577899 2.5810549 -53.918518 7
-0.71630901 -1.220703 -47.782776 7
-0.70520002 -1.331055 -47.592712 7
-0.70867902 -1.4482419 -47.647583 7
-0.81640601 -4.7363281 -49.247253 7
-0.70874 -1.435547 -43.642639 7
-0.107849 -4.624023 34.596558 7
0.045898002 -1.365234 32.68811 7
0.036377002 -1.391602 28.828064 7
-0.1203 -4.577148 28.595581 7
0.030151 -1.560547 25.424377 7
0.034912001 -1.500977 25.375916 7
0.031799 -1.445312 25.414551 7
0.026123 -1.393555 25.482239 7
0.032958999 -1.331055 25.409973 7
0.017212 -1.578125 24.044495 7
0.017761 -1.5244139 24.042542 7
0.02063 -1.46875 24.017212 7
0.011719 -1.420898 24.113953 7
0.017944001 -1.3642581 24.053406 7
0.019104 -1.30957 24.04541 7
0.017944001 -1.581055 22.636108 7
0.013855 -1.533203 22.680847 7
0.019286999 -1.4794919 22.632263 7
0.0073850001 -1.4375 22.752136 7
0.003357 -1.337891 22.799866 7
-0.002502 -1.291016 22.86145 7
-0.102295 -4.6914058 20.749084 7
-0.105652 -4.6523442 20.788513 7
0.022826999 -1.450195 19.190918 7
0.0090330001 -1.5712889 17.394775 7
0.020081 -1.525391 17.31781 7
0.013855 -1.492188 17.367859 7
0.014648 -1.454102 17.365967 7
0.0075679999 -1.419922 17.421448 7
0.01001 -1.3798831 17.407593 7
0.01709 -1.3388669 17.359131 7
0.013184 -1.3037111 17.391418 7
0.019347999 -1.5869139 16.457153 7
0.019409001 -1.5517581 16.46106 7
0.023560001 -1.513672 16.436096 7
0.026062001 -1.4755861 16.422302 7
0.021973001 -1.443359 16.454956 7
0.020324999 -1.40918 16.470215 7
0.019531 -1.374023 16.479553 7
0.022095 -1.335938 16.465637 7
0.020447001 -1.3017581 16.480286 7
0.024413999 -1.183594 14.399353 7
0.033142 -1.1162111 14.353516 7
0.028380999 -1.087891 14.38501 7
-0.135803 -4.749023 13.207092 7
-0.135803 -4.7207031 13.218506 7
-0.134766 -4.6904302 13.224487 7
-0.14001501 -4.671875 13.262573 7
-0.14636201 -4.657227 13.306091 7
-0.143188 -4.6220698 13.30127 7
-0.136902 -4.5810552 13.28009 7
-0.13055401 -4.5419922 13.258911 7
-0.126343 -4.5058589 13.248352 7
0.001892 -1.594727 13.294678 7
0.0039670002 -1.56543 13.287231 7
0.0040279999 -1.5380861 13.291077 7
0.0092770001 -1.5048831 13.266418 7
0.0040279999 -1.481445 13.298828 7
0.003052 -1.453125 13.308167 7
0.003052 -1.424805 13.311707 7
-0.002197 -1.400391 13.343994 7
-0.001099 -1.371094 13.341797 7
0.0062870001 -1.337891 13.305115 7
0.003113 -1.311523 13.325806 7
0.0042110002 -1.283203 13.323303 7
-0.189758 -4.5039058 -10.638794 7
-0.19409201 -4.5400391 -10.649353 7
-0.196228 -4.5722661 -10.649231 7
-0.205994 -4.6191411 -10.686401 7
-0.204956 -4.6455078 -10.669739 7
-0.203918 -4.670898 -10.653137 7
-0.193115 -4.6777339 -10.588257 7
-0.193115 -4.7050781 -10.577087 7
-0.19531199 -4.7373052 -10.576355 7
-0.199646 -4.7744141 -10.586121 7
-0.14416499 -4.78125 12.586182 7
-0.13537601 -4.7363281 12.555481 7
-0.130981 -4.702148 12.545715 7
-0.128784 -4.670898 12.546448 7
-0.130981 -4.648438 12.568237 7
-0.13537601 -4.6298828 12.600769 7
-0.134277 -4.601562 12.606689 7
-0.126587 -4.5595698 12.580505 7
-0.125488 -4.530273 12.586243 7
-0.121094 -4.4970698 12.575745 7
0.0064090001 -1.5693361 12.699219 7
0.0053099999 -1.543945 12.709045 7
0.00091599999 -1.5205081 12.735657 7
0.0097660003 -1.487305 12.693787 7
0.0076290001 -1.4619139 12.708984 7
0.0076290001 -1.435547 12.712585 7
0.0054319999 -1.410156 12.727722 7
0.003235 -1.384766 12.742676 7
0.0054930001 -1.356445 12.734619 7
0.0065919999 -1.329102 12.7323 7
0.0054930001 -1.302734 12.741455 7
-0.062438998 -1.234375 -10.232849 7
-0.060180999 -1.259766 -10.218079 7
-0.18243399 -4.4824219 -10.01416 7
-0.181335 -4.5068359 -9.9979248 7
-0.184753 -4.5400391 -10.002991 7
-0.190369 -4.577148 -10.018555 7
-0.197144 -4.6162109 -10.039429 7
-0.203979 -4.657227 -10.059875 7
-0.200562 -4.6757808 -10.032898 7
-0.19274899 -4.688477 -9.984436 7
-0.19049101 -4.7099609 -9.9624634 7
-0.19165 -4.7382808 -9.9562378 7
-0.19616701 -4.773438 -9.9658813 7
-0.13348401 -4.7314448 11.988892 7
-0.13348401 -4.6826172 12.011658 7
-0.139221 -4.6435552 12.060364 7
-0.138062 -4.5908198 12.077637 7
-0.128906 -4.5214839 12.057312 7
-0.0040279999 -1.5869139 12.266235 7
-0.002808 -1.535156 12.268311 7
0.0041499999 -1.4794919 12.241821 7
0.0041499999 -1.427734 12.249207 7
-0.002686 -1.380859 12.290344 7
0.003052 -1.325195 12.268738 7
-0.061584 -1.28418 -9.729248 7
-0.060364 -1.30957 -9.720459 7
-0.061584 -1.335938 -9.7226562 7
-0.056885 -1.358398 -9.6965332 7
-0.072205 -1.394531 -9.7670288 7
-0.072205 -1.419922 -9.7633667 7
-0.061646 -1.438477 -9.7087402 7
-0.061646 -1.464844 -9.7051392 7
-0.062804997 -1.4912111 -9.7070312 7
-0.052246001 -1.509766 -9.6520386 7
-0.063965 -1.542969 -9.7050171 7
-0.062866002 -1.568359 -9.6955566 7
-0.061646 -1.592773 -9.68573 7
-0.19512901 -4.7167969 -9.4177246 7
-0.19274899 -4.7363281 -9.395813 7
-0.194031 -4.764648 -9.3896484 7
-0.0080570001 -1.59668 11.808228 7
-0.0068359999 -1.5712889 11.806519 7
-0.0079960003 -1.547852 11.816162 7
-0.003235 -1.518555 11.797241 7
0.001587 -1.4912111 11.77832 7
-0.001953 -1.46875 11.799133 7
-0.003174 -1.4462889 11.808716 7
-0.0055539999 -1.423828 11.823792 7
-0.010315 -1.4013669 11.849854 7
-0.0090939999 -1.375977 11.847717 7
-0.0090939999 -1.351562 11.851318 7
0.001709 -1.3193361 11.803406 7
-0.0078119999 -1.300781 11.852295 7
-0.184875 -4.5976558 -8.8795776 7
-0.20202599 -4.6542969 -8.9414673 7
-0.198364 -4.670898 -8.9144897 7
-0.18981899 -4.6787109 -8.8668213 7
-0.187378 -4.6972661 -8.8449707 7
-0.182556 -4.7119141 -8.8128662 7
-0.197266 -4.764648 -8.8636475 7
-0.19976801 -4.7929692 -8.8623657 7
-0.046021 -1.28418 -8.7202148 7
-0.040894002 -1.304688 -8.6943359 7
-0.042174999 -1.328125 -8.6965332 7
-0.051146999 -1.357422 -8.7328491 7
-0.049805 -1.3798831 -8.7237549 7
-0.051146999 -1.404297 -8.725708 7
-0.042174999 -1.421875 -8.6826782 7
-0.042174999 -1.445312 -8.6791382 7
-0.043457001 -1.469727 -8.6810913 7
-0.039673001 -1.4912111 -8.6602783 7
-0.044799998 -1.517578 -8.6791382 7
-0.048645001 -1.543945 -8.6922607 7
-0.05249 -1.5693361 -8.7053223 7
-0.053771999 -1.59375 -8.7070312 7
-0.046204001 -1.277344 -8.312561 7
-0.046204001 -1.299805 -8.3093262 7
-0.046204001 -1.43457 -8.2883911 7
-0.046264999 -1.457031 -8.2849121 7
-0.047607001 -1.480469 -8.2868042 7
-0.054260001 -1.5068361 -8.3112793 7
-0.011963 -1.581055 10.555786 7
-0.0051270002 -1.5107419 10.53949 7
-0.0051270002 -1.46875 10.546936 7
0.00097699999 -1.589844 10.111938 7
-0.0060419999 -1.574219 10.14386 7
-0.001831 -1.549805 10.131042 7
-0.001831 -1.530273 10.134888 7
-0.00036599999 -1.507812 10.133057 7
0.0038449999 -1.484375 10.120178 7
0.0066530001 -1.462891 10.112671 7
0.0066530001 -1.441406 10.116333 7
0.0053099999 -1.421875 10.125305 7
-0.0045779999 -1.407227 10.168396 7
-0.0059810001 -1.387695 10.177551 7
-0.0059199999 -1.367188 10.180969 7
-0.00036599999 -1.342773 10.161987 7
0.0039059999 -1.320312 10.14856 7
0.0039059999 -1.299805 10.151794 7
-0.450073 -8.3378906 -4.9373779 7
-0.44726601 -8.34375 -4.9104609 7
-0.44872999 -8.3632812 -4.894104 7
-0.45306399 -8.390625 -4.8840332 7
-0.453125 -8.4052734 -4.8638921 7
-0.454651 -8.4248047 -4.8469238 7
-0.454651 -8.4384766 -4.8269038 7
-0.45904499 -8.4677734 -4.8164668 7
-0.463379 -8.4951172 -4.8059692 7
-0.46057099 -8.5 -4.7791138 7
-0.46350101 -8.5234385 -4.7651372 7
-0.46636999 -8.546875 -4.7514038 7
-0.47076401 -8.5751953 -4.74054 7
-0.46935999 -8.5839844 -4.7168579 7
-0.47235101 -8.6083984 -4.7025762 7
-0.469482 -8.6132812 -4.6755981 7
-0.469482 -8.6259766 -4.6549072 7
-0.46514899 -8.4570312 -4.1401982 7
-0.45922899 -8.4511719 -4.1078491 7
-0.465271 -8.4824219 -4.0996089 7
-0.46826199 -8.5039062 -4.0853271 7
-0.459351 -8.4882812 -4.046936 7
-0.46539301 -8.5205078 -4.0385742 7
-0.468445 -8.5419922 -4.0239258 7
-0.48193401 -8.5976562 -4.0302119 7
-0.46551499 -8.5576172 -3.9771121 7
-0.471558 -8.5888672 -3.968262 7
-0.477539 -8.6201172 -3.9594729 7
-0.47314501 -8.6298828 -3.9094241 7
-0.47021499 -8.6328115 -3.882812 7
-0.013062 -1.594727 9.4885254 7
-0.002502 -1.568359 9.4536133 7
-0.011597 -1.5556639 9.4908447 7
-0.0070190001 -1.533203 9.4781494 7
-0.0070190001 -1.513672 9.4819336 7
-0.002441 -1.4912111 9.4690552 7
0.0036009999 -1.46875 9.4504995 7
-0.0084840003 -1.4580081 9.4988403 7
-0.01001 -1.439453 9.5079956 7
-0.0054319999 -1.4169919 9.494873 7
-0.0084840003 -1.400391 9.5095205 7
-0.0084229996 -1.3818361 9.5131836 7
-0.017517 -1.367188 9.5501099 7
-0.013 -1.34668 9.5367432 7
-0.0068970001 -1.322266 9.5178833 7
-0.0098879999 -1.3056639 9.5322876 7
-0.011414 -1.287109 9.5412598 7
-0.44872999 -8.3486328 -3.4907229 7
-0.450317 -8.3642578 -3.473572 7
-0.450317 -8.3759766 -3.453491 7
-0.44885299 -8.3818359 -3.4306641 7
-0.44732699 -8.3876953 -3.4077761 7
-0.44738799 -8.3994141 -3.3876951 7
-0.450562 -8.4208984 -3.3729861 7
-0.45214799 -8.4365234 -3.355469 7
-0.45367399 -8.4521484 -3.3378301 7
-0.45373499 -8.4628906 -3.317688 7
-0.458435 -8.4882812 -3.3053589 7
-0.46624801 -8.5253906 -3.298279 7
-0.45855701 -8.5107422 -3.264648 7
-0.46008301 -8.5263672 -3.246887 7
-0.46478301 -8.5517578 -3.234314 7
-0.46795699 -8.5732422 -3.2189331 7
-0.002075 -1.585938 9.1624756 7
0.0041499999 -1.563477 9.1443481 7
-0.0036619999 -1.550781 9.1758423 7
0.002625 -1.509766 9.161499 7
0.0057370001 -1.4892581 9.1542358 7
-0.00048799999 -1.4755861 9.1800537 7
-0.002075 -1.439453 9.1928711 7
0.001099 -1.418945 9.1854858 7
-0.0067139999 -1.404297 9.2168579 7
-0.002014 -1.365234 9.2070923 7
-0.0035399999 -1.347656 9.2161865 7
0.0042719999 -1.325195 9.1917725 7
-0.001892 -1.291016 9.22052 7
-0.4375 -8.3486328 -2.559021 7
-0.44073501 -8.3681641 -2.543762 7
-0.435974 -8.3623047 -2.516479 7
-0.43762201 -8.3759766 -2.4988401 7
-0.44085699 -8.3945312 -2.4832759 7
-0.440918 -8.4033203 -2.4632571 7
-0.440979 -8.4130859 -2.4429929 7
-0.447449 -8.4414062 -2.431946 7
-0.44427499 -8.4404297 -2.407104 7
-0.445923 -8.4541016 -2.389282 7
-0.44757101 -8.4667969 -2.3712161 7
-0.444397 -8.4648438 -2.346375 7
-0.44927999 -8.4892578 -2.3326421 7
-0.45257601 -8.5097656 -2.3165281 7
-0.45422399 -8.5224609 -2.2984011 7
-0.454285 -8.5322266 -2.2780149 7
-0.45752001 -8.5507812 -2.26178 7
-0.45758101 -8.5585938 -2.241272 7
-0.0044559999 -1.59668 8.8522339 7
0.002075 -1.574219 8.8341064 7
0.002075 -1.556641 8.8379517 7
-0.00116 -1.5419919 8.8529663 7
0.0053710002 -1.518555 8.8347168 7
0.0069579999 -1.5 8.8331299 7
0.002136 -1.486328 8.8532705 7
0.0037229999 -1.467773 8.8516235 7
0.00054899999 -1.452148 8.8662109 7
0.0037229999 -1.4326169 8.8588867 7
0.002136 -1.4150389 8.867981 7
-0.0075679999 -1.405273 8.9046631 7
-0.0043330002 -1.384766 8.8972168 7
-0.001038 -1.365234 8.8895264 7
-0.0043330002 -1.349609 8.9042358 7
0.010315 -1.322266 8.8575439 7
0.0038449999 -1.308594 8.8831177 7
0.0038449999 -1.2919919 8.8864136 7
-0.0046390002 -1.585938 8.5535889 7
-0.0046390002 -1.5693361 8.5574341 7
-0.0097049996 -1.5400389 8.5817261 7
-0.0046390002 -1.518555 8.5692749 7
-0.00293 -1.500977 8.5675049 7
0.0071410001 -1.4775389 8.5383911 7
0.00042699999 -1.447266 8.567688 7
0.00048799999 -1.429688 8.5714111 7
-0.00293 -1.3994139 8.5892334 7
-0.018005 -1.391602 8.6426392 7
-0.0062259999 -1.367188 8.607605 7
-0.002869 -1.347656 8.5999146 7
0.00054899999 -1.311523 8.5957642 7
0.0039059999 -1.292969 8.5880127 7
-0.0065919999 -1.59375 8.2821035 7
-0.0065919999 -1.578125 8.2860718 7
-0.003052 -1.55957 8.2791138 7
-0.003052 -1.543945 8.28302 7
-0.003052 -1.5263669 8.2869873 7
-0.003052 -1.509766 8.2908936 7
0.0056759999 -1.488281 8.2672119 7
0.0091549996 -1.469727 8.2601318 7
0.0056759999 -1.456055 8.2746582 7
0.0056759999 -1.439453 8.2783813 7
0.0056759999 -1.423828 8.2818604 7
0.00048799999 -1.410156 8.3018188 7
-0.0099489996 -1.400391 8.3383789 7
-0.001282 -1.378906 8.3145752 7
-0.0099489996 -1.367188 8.3453369 7
-0.001221 -1.345703 8.3214111 7
-0.0064699999 -1.3330081 8.3411865 7
0.0040279999 -1.30957 8.3116465 7
0.002319 -1.293945 8.3204956 7
-0.019531 -1.592773 8.0654297 7
-0.010498 -1.5712889 8.0422363 7
-0.010498 -1.5556639 8.0460215 7
-0.003296 -1.53418 8.0282593 7
0.002136 -1.514648 8.0158081 7
-0.0086669996 -1.5068361 8.0521851 7
-0.0087280003 -1.492188 8.0560913 7
-0.010498 -1.476562 8.0651855 7
-0.010498 -1.460938 8.0688477 7
-0.010437 -1.4443361 8.0725708 7
-0.0068359999 -1.4267581 8.0653687 7
-0.014038 -1.416016 8.0907593 7
-0.019409001 -1.40332 8.1105957 7
-0.012207 -1.382812 8.0922852 7
-0.001465 -1.362305 8.0632324 7
-0.010437 -1.351562 8.0938721 7
-0.014038 -1.3369139 8.1082153 7
-0.0068359999 -1.3173831 8.0896606 7
-0.0086669996 -1.302734 8.0985107 7
-0.015807999 -1.291016 8.1235962 7
-0.015618 -1.2367491 14.285542 7
-0.11958 -4.6550918 13.31818 7
0.011068 -1.388248 12.542601 7
-0.024307 -1.308988 10.385162 7
-0.00058499997 -1.446317 9.5771685 7
0.023192 -1.283793 8.9578505 7
-0.030307001 -1.48799 8.9004412 7
-0.010375 -1.528968 8.3813391 7
-0.019436 -1.363145 8.4947071 7
-0.099714004 -4.6678128 5.881659 7
-0.109683 -4.63344 6.0956192 7
0.0043429998 -1.564278 7.9549379 7
0.0032240001 -1.4010119 8.020113 7
-0.089685 -4.5808511 5.0103889 7
-0.095971003 -4.561789 5.2075438 7
0.017981 -1.588547 7.5819378 7
0.020826999 -1.43239 7.6269989 7
0.015691999 -1.290705 7.7087178 7
-0.0086730001 -1.330512 7.3732748 7
-0.033367999 -1.251738 19.094477 7
0.0083640004 -1.2086231 16.29216 7
-0.183759 -4.673676 -9.1631479 7
-0.077628002 -1.175593 14.310737 7
0.035765 -1.472018 -6.680068 7
0.044282999 -1.421492 -5.6048288 7
-0.00082299998 -1.483507 11.565393 7
-0.44921601 -8.3740244 -4.7031202 7
-0.038575999 -1.394653 10.039007 7
-0.185554 -4.7538018 -3.0333581 7
-0.018006001 -1.361505 9.456481 7
-0.164452 -4.6724491 -2.351197 7
0.016147999 -1.560679 8.8184471 7
0.0077360002 -1.3308721 8.9155989 7
-0.15418699 -4.5727458 -1.84364 7
0.028119 -1.521562 8.4240475 7
0.024809999 -1.3064229 8.4852314 7
-0.004336 -1.4817261 8.032032 7
-0.017100999 -1.28513 8.1318588 7
-0.113735 -4.6515112 6.3563499 7
-0.12612399 -4.564126 6.5497208 7
0.013193 -1.449775 7.7082138 7
-0.116977 -4.7464318 5.8709798 7
-0.105799 -4.6013889 6.0011659 7
0.024172001 -1.596974 7.405911 7
0.020610999 -1.425077 7.4592242 7
-0.137555 -4.6796608 5.3884978 7
-0.14069 -4.6001778 5.5495119 7
-0.139204 -4.4998178 5.6978798 7
-0.107901 -4.669364 4.7582722 7
-0.114456 -4.6088018 4.959599 7
-0.12417 -4.5673161 5.1270571 7
-0.093695998 -4.5358949 4.532373 7
0.046643998 -1.3568209 13.505897 7
-0.083925001 -1.433694 -9.3599281 7
-0.068632998 -1.20172 -8.0308027 7
-0.046117 -1.429191 -7.7006831 7
-0.196871 -4.6938939 -8.8032808 7
-0.025571 -1.438781 -6.630445 7
-0.130156 -4.6540179 -3.1291289 7
-0.122801 -4.7041721 -2.921694 7
-0.100878 -4.523047 -1.8365279 7
-0.105072 -4.6112518 -1.653389 7
