# .PCD v0.7 - Point Cloud Data file format
VERSION 0.7
FIELDS x y z intensity
SIZE 4 4 4 4
TYPE F F F F
COUNT 1 1 1 1
WIDTH 527
HEIGHT 1
VIEWPOINT 0 0 0 1 0 0 0
POINTS 527
DATA ascii
0.044128001 -4.6191411 69.729431 7
-1.033752 -4.7998052 -63.227356 7
0.001526 -4.641602 41.641235 7
-0.038391002 -4.6289058 42.390381 7
0.114624 -1.226562 39.861877 7
-0.99352998 -4.7402339 -56.869934 7
-0.96002197 -4.8251948 -56.240906 7
0.118103 -1.4599611 36.695801 7
0.114502 -1.295898 36.767029 7
-0.83526599 2.6181641 -55.156372 7
-0.80810499 -1.3681639 -49.592773 7
-0.81561297 -1.492188 -49.711792 7
-0.012085 -4.6425781 35.907104 7
0.121765 -1.5087889 34.117432 7
-0.80889899 2.640625 -50.253113 7
0.092896 -1.412109 32.013367 7
0.081909001 -1.4287111 28.252869 7
0.084839001 -1.299805 28.224731 7
0.071533002 -1.5888669 24.966309 7
0.069518998 -1.4794919 24.997375 7
0.067016996 -1.425781 25.030212 7
0.068726003 -1.3125 25.019592 7
0.050781 -1.451172 23.70874 7
0.036986999 -1.369141 22.470398 7
0.035278 -1.3212889 22.491211 7
-0.088379003 -4.7998052 20.589539 7
-0.076293997 -4.7285161 20.499329 7
-0.074951001 -4.6806641 20.499512 7
-0.084899999 -4.65625 20.595642 7
-0.091553003 -4.624023 20.663269 7
-0.085510001 -4.5654302 20.623474 7
-0.077454001 -4.5048828 20.56665 7
0.044739 -1.5625 19.996399 7
0.041443001 -1.5224611 20.029114 7
0.050841998 -1.470703 19.951843 7
0.047545999 -1.429688 19.984558 7
0.032898001 -1.3955081 20.115784 7
0.049621999 -1.34082 19.974243 7
0.049011 -1.296875 19.983215 7
0.029418999 -1.5732419 19.127136 7
0.039306998 -1.5244139 19.049805 7
0.047118999 -1.4775389 18.989868 7
0.033752002 -1.445312 19.10376 7
0.036621001 -1.400391 19.084106 7
0.042296998 -1.355469 19.041077 7
0.046569999 -1.311523 19.009888 7
0.033507999 -1.5625 18.109192 7
0.040282998 -1.518555 18.060852 7
0.042541999 -1.4775389 18.047363 7
0.035889 -1.4423831 18.103149 7
0.029967999 -1.407227 18.153015 7
0.035950001 -1.3642581 18.110413 7
0.036743 -1.324219 18.107849 7
0.035278 -1.2861331 18.122864 7
0.028748 -1.594727 17.246155 7
0.032653999 -1.5556639 17.221313 7
0.037415002 -1.515625 17.190613 7
0.036743 -1.478516 17.200195 7
0.028930999 -1.408203 17.264893 7
0.036804002 -1.365234 17.210938 7
0.037659001 -1.2900389 17.21167 7
0.043334998 -1.570312 16.289673 7
0.045837 -1.533203 16.276123 7
0.047545999 -1.496094 16.268372 7
0.045104999 -1.4638669 16.289612 7
0.040100001 -1.431641 16.327759 7
0.043457001 -1.394531 16.30835 7
0.050170999 -1.3544919 16.265564 7
0.043579001 -1.3232419 16.315063 7
0.041931 -1.2900389 16.330078 7
0.030334 -1.587891 13.676758 7
0.028380999 -1.55957 13.692078 7
0.03241 -1.52832 13.673279 7
0.035461001 -1.498047 13.659729 7
0.035521999 -1.46875 13.663452 7
0.033507999 -1.44043 13.67865 7
0.032531999 -1.4111331 13.687927 7
0.031555001 -1.3837889 13.697327 7
0.030579001 -1.355469 13.706299 7
0.034667999 -1.3232419 13.686829 7
0.035705999 -1.292969 13.684448 7
-0.431458 -8.6269531 12.825806 7
-0.431519 -8.6005859 12.846558 7
-0.42620799 -8.5556641 12.843994 7
-0.424133 -8.5214844 12.855286 7
-0.42834499 -8.5087891 12.894165 7
-0.424133 -8.4667969 12.895874 7
-0.424133 -8.4404297 12.916382 7
-0.420959 -8.4023438 12.922546 7
-0.424133 -8.3847656 12.956604 7
-0.42199701 -8.3505859 12.967407 7
-0.424133 -8.3291016 12.996582 7
-0.122498 -4.7744141 13.108398 7
-0.115051 -4.7304692 13.08252 7
-0.117188 -4.7080078 13.104614 7
-0.107727 -4.5517578 13.112488 7
0.024658 -1.578125 13.168701 7
0.024658 -1.550781 13.172668 7
0.031005999 -1.517578 13.142212 7
0.025818 -1.494141 13.174561 7
0.02478 -1.466797 13.184021 7
0.024840999 -1.438477 13.187744 7
0.017456001 -1.416016 13.231506 7
0.023804 -1.3837889 13.200562 7
0.025939999 -1.355469 13.192871 7
0.024901999 -1.327148 13.201843 7
0.026001001 -1.297852 13.199402 7
-0.088379003 -1.472656 -10.877563 7
-0.087402001 -1.5 -10.868042 7
-0.21197499 -4.5048828 -10.743164 7
-0.218628 -4.5732422 -10.753723 7
-0.223022 -4.610352 -10.764221 7
-0.230652 -4.6533198 -10.790588 7
-0.22314499 -4.6660161 -10.741455 7
-0.218872 -4.6855469 -10.708679 7
-0.21899401 -4.7138672 -10.697388 7
-0.224426 -4.7529302 -10.712769 7
-0.42669699 -8.5859385 11.959534 7
-0.42449999 -8.5537109 11.971008 7
-0.421204 -8.5185547 11.978027 7
-0.41900599 -8.4863281 11.989502 7
-0.42010501 -8.4648438 12.014343 7
-0.41784701 -8.4316406 12.025513 7
-0.415649 -8.3994141 12.036621 7
-0.41455099 -8.3701172 12.052368 7
-0.41021699 -8.3310547 12.054321 7
-0.125 -4.7900391 12.461731 7
-0.119507 -4.7529302 12.447021 7
-0.117249 -4.7226558 12.447876 7
-0.111755 -4.6845698 12.432861 7
-0.113953 -4.6630859 12.454529 7
-0.109497 -4.5498052 12.478149 7
-0.107239 -4.5185552 12.478271 7
0.020264 -1.585938 12.621094 7
0.024658 -1.556641 12.602112 7
0.023621 -1.53125 12.611755 7
0.026916999 -1.501953 12.598389 7
0.02478 -1.476562 12.61377 7
0.022583 -1.452148 12.628723 7
0.023682 -1.424805 12.626831 7
0.021545 -1.3994139 12.641663 7
0.021545 -1.373047 12.645142 7
0.028198 -1.341797 12.614502 7
0.024901999 -1.3173831 12.634949 7
0.024963001 -1.291016 12.638306 7
-0.21130399 -4.4970698 -10.144348 7
-0.211365 -4.523438 -10.133301 7
-0.216003 -4.5595698 -10.14386 7
-0.22168 -4.5966802 -10.159363 7
-0.226257 -4.632812 -10.169373 7
-0.226318 -4.6591802 -10.158203 7
-0.221863 -4.6777339 -10.125732 7
-0.21521001 -4.6904302 -10.082581 7
-0.21417201 -4.7158198 -10.065735 7
-0.21868899 -4.750977 -10.075684 7
-0.222168 -4.7841802 -10.079834 7
-0.13262901 -4.7783198 11.954163 7
-0.123413 -4.734375 11.923889 7
-0.119995 -4.702148 11.919739 7
-0.118835 -4.6748052 11.925842 7
-0.118835 -4.6503911 11.936951 7
-0.126831 -4.641602 11.985046 7
-0.12799101 -4.6191411 12.001465 7
-0.119934 -4.577148 11.97583 7
-0.117615 -4.546875 11.976135 7
-0.111877 -4.5107422 11.960754 7
-0.109558 -4.4814448 11.961182 7
0.019714 -1.594727 12.142273 7
0.019774999 -1.518555 12.154114 7
0.027832 -1.488281 12.118164 7
0.024413999 -1.464844 12.138916 7
0.024413999 -1.439453 12.142578 7
0.023314999 -1.4150389 12.151794 7
-0.080017 -1.2900389 -9.8275146 7
-0.077698 -1.314453 -9.8126831 7
-0.076599002 -1.339844 -9.8036499 7
-0.084839001 -1.371094 -9.8400879 7
-0.083801001 -1.3974611 -9.8309326 7
-0.082641996 -1.421875 -9.8216553 7
-0.080321997 -1.4462889 -9.8065796 7
-0.080383003 -1.472656 -9.8029165 7
-0.075805999 -1.496094 -9.7764893 7
-0.084045 -1.527344 -9.812439 7
-0.086487003 -1.554688 -9.8199463 7
-0.083007999 -1.578125 -9.7988892 7
-0.21746799 -4.7470698 -9.4984741 7
-0.22345001 -4.7841802 -9.5131226 7
-0.431519 -8.4951172 10.568176 7
-0.438721 -8.4970703 10.613953 7
-0.438721 -8.4746094 10.634155 7
-0.43511999 -8.4404297 10.641846 7
-0.43395999 -8.4150391 10.657593 7
-0.43158001 -8.3857422 10.669373 7
-0.42675799 -8.3486328 10.672302 7
-0.13793901 -4.7792969 11.43512 7
-0.129517 -4.7382808 11.410461 7
-0.12713601 -4.7099609 11.411499 7
-0.123535 -4.6787109 11.407227 7
-0.127075 -4.6621089 11.434021 7
-0.135437 -4.655273 11.481812 7
-0.135437 -4.6318359 11.493042 7
-0.129456 -4.5957031 11.47821 7
-0.122253 -4.5576172 11.457886 7
-0.117432 -4.5244141 11.447998 7
-0.116272 -4.4980469 11.453796 7
0.0057370001 -1.587891 11.739807 7
0.0081179999 -1.560547 11.732483 7
0.022522001 -1.525391 11.668213 7
0.012939 -1.5087889 11.717407 7
0.021361999 -1.478516 11.681458 7
0.016602 -1.457031 11.707947 7
0.016602 -1.433594 11.711609 7
0.016663 -1.408203 11.715088 7
0.0095210001 -1.388672 11.752747 7
0.010742 -1.363281 11.75061 7
0.015503 -1.3369139 11.731384 7
0.019165 -1.30957 11.717712 7
0.014404 -1.2880861 11.74353 7
0.016113 -1.5830081 11.266541 7
0.011108 -1.563477 11.293213 7
0.017395001 -1.5361331 11.268799 7
0.013672 -1.514648 11.289551 7
0.016235 -1.490234 11.28186 7
0.013733 -1.46875 11.29718 7
0.01123 -1.4462889 11.312073 7
0.0087280003 -1.425781 11.327209 7
0.011292 -1.400391 11.319336 7
-0.0073850001 -1.388672 11.407837 7
0.0038449999 -1.358398 11.360474 7
0.016295999 -1.327148 11.307068 7
0.018798999 -1.3017581 11.299011 7
-0.491943 -8.5400391 -7.0324712 7
-0.491943 -8.5585938 -7.012146 7
-0.494629 -8.5869141 -6.9993901 7
-0.497253 -8.6142578 -6.9865718 7
-0.49731401 -8.6347656 -6.9660029 7
0.013489 -1.583984 10.828003 7
0.018738 -1.556641 10.809265 7
0.017456001 -1.535156 10.818848 7
0.016174 -1.513672 10.828369 7
0.025269 -1.485352 10.792786 7
0.026611 -1.4619139 10.790649 7
0.023987001 -1.4423831 10.805664 7
0.024048001 -1.419922 10.809326 7
0.022766 -1.398438 10.818665 7
0.014954 -1.3818361 10.856018 7
0.015015 -1.358398 10.859314 7
0.016357001 -1.335938 10.857056 7
0.022826999 -1.308594 10.832275 7
0.020264 -1.2880861 10.846924 7
-0.48687699 -8.4521484 -6.3814702 7
-0.489685 -8.4794922 -6.3687129 7
-0.492432 -8.5058594 -6.355835 7
-0.492493 -8.5244141 -6.3355098 7
-0.496582 -8.5546885 -6.326416 7
-0.499329 -8.5810547 -6.313354 7
-0.49939001 -8.5996094 -6.2927861 7
-0.50079298 -8.6210938 -6.2758789 7
-0.472839 -8.3271484 -5.7149658 7
-0.471558 -8.3388672 -5.6913452 7
-0.47161901 -8.3554688 -5.6712041 7
-0.470276 -8.3671885 -5.647583 7
-0.47454801 -8.3974609 -5.6383672 7
-0.47735599 -8.421875 -5.6254268 7
-0.47882101 -8.4433594 -5.6087041 7
-0.48583999 -8.4794922 -5.6063228 7
-0.485962 -8.4970703 -5.585938 7
-0.48602301 -8.5126953 -5.5656128 7
-0.48883101 -8.5371094 -5.5521851 7
-0.487488 -8.5488281 -5.5282588 7
-0.49175999 -8.5791016 -5.5183721 7
-0.49047899 -8.5908203 -5.4941411 7
-0.49469 -8.6201172 -5.4838262 7
0.0086669996 -1.583984 10.078186 7
0.0086669996 -1.564453 10.082031 7
0.011475 -1.5419919 10.074707 7
0.015747 -1.518555 10.061829 7
0.019958001 -1.4951169 10.048889 7
0.018616 -1.474609 10.058105 7
0.017212 -1.455078 10.067444 7
0.015807999 -1.435547 10.076782 7
0.011597 -1.418945 10.097168 7
0.011658 -1.3974611 10.10083 7
0.013062 -1.375977 10.098633 7
0.010254 -1.356445 10.11322 7
0.013123 -1.3349611 10.105591 7
0.018738 -1.310547 10.086426 7
0.020142 -1.289062 10.084106 7
-0.47699001 -8.34375 -5.0409551 7
-0.47271699 -8.3447266 -5.0106812 7
-0.475647 -8.3681641 -4.9975591 7
-0.47570801 -8.3837891 -4.977356 7
-0.47576901 -8.3974609 -4.9573359 7
-0.47723401 -8.4169922 -4.9404912 7
-0.48168901 -8.4453115 -4.9303589 7
-0.48608401 -8.4746094 -4.920166 7
-0.48468 -8.484375 -4.8964229 7
-0.48614499 -8.5029297 -4.879333 7
-0.48913601 -8.5273438 -4.86554 7
-0.49206501 -8.5498047 -4.8517461 7
-0.49212599 -8.5644531 -4.8311772 7
-0.49365199 -8.5830078 -4.8139038 7
-0.49078399 -8.5878906 -4.7868042 7
-0.490906 -8.6035156 -4.7661738 7
-0.49096701 -8.6171885 -4.7454219 7
-0.492493 -8.6367188 -4.7280269 7
0.014709 -1.597656 9.7194214 7
0.01178 -1.581055 9.7345581 7
0.014771 -1.558594 9.727356 7
0.011841 -1.541016 9.7423706 7
0.013367 -1.5205081 9.7407837 7
0.016235 -1.499023 9.7333984 7
0.019226 -1.476562 9.725769 7
0.017761 -1.458984 9.7352285 7
0.022156 -1.436523 9.7221069 7
0.014893 -1.420898 9.7536621 7
0.0061650001 -1.407227 9.7907104 7
0.014954 -1.380859 9.7607422 7
0.012024 -1.363281 9.7754517 7
0.012024 -1.34375 9.7788696 7
0.016418001 -1.3212889 9.765564 7
0.015015 -1.302734 9.774353 7
0.019347999 -1.280273 9.7609253 7
-0.47912601 -8.3242188 -4.3736572 7
-0.47766101 -8.3320312 -4.3505249 7
-0.48376501 -8.3642578 -4.3431401 7
-0.485291 -8.3828115 -4.3260498 7
-0.480896 -8.3818359 -4.2965698 7
-0.473389 -8.3710938 -4.2609859 7
-0.47345001 -8.3837891 -4.2409058 7
-0.47955301 -8.4160156 -4.2331538 7
-0.47210699 -8.4052734 -4.1974492 7
-0.47662401 -8.4316406 -4.186523 7
-0.48272699 -8.4638672 -4.1786499 7
-0.48425299 -8.4814453 -4.161377 7
-0.476807 -8.4697266 -4.125854 7
-0.478394 -8.4882812 -4.108521 7
-0.48291001 -8.5146484 -4.09729 7
-0.49047899 -8.5517578 -4.0917358 7
-0.49353001 -8.5732422 -4.077148 7
-0.48761001 -8.5673828 -4.0446172 7
-0.49365199 -8.5986328 -4.0358891 7
-0.49975601 -8.6308594 -4.0272832 7
-0.48925799 -8.609375 -3.9859011 7
0.0087890001 -1.5986331 9.4008789 7
0.0087890001 -1.579102 9.4049683 7
0.002747 -1.563477 9.4311523 7
-0.000244 -1.546875 9.4459839 7
0.011841 -1.519531 9.4054565 7
0.0073239999 -1.50293 9.4260254 7
0.0073850001 -1.484375 9.4298096 7
0.014954 -1.460938 9.4055786 7
0.010376 -1.445312 9.4260864 7
0.010376 -1.4267581 9.4297485 7
-0.000183 -1.414062 9.47229 7
0.0089109996 -1.389648 9.4425659 7
0.0089109996 -1.3701169 9.4459229 7
-0.003113 -1.359375 9.4939585 7
0.0074459999 -1.3330081 9.4584961 7
0.0090330001 -1.313477 9.4561768 7
0.0075070001 -1.294922 9.4649658 7
-0.4646 -8.3652344 -3.5046999 7
-0.47088599 -8.3945312 -3.495728 7
-0.46630901 -8.3925781 -3.4672239 7
-0.46789601 -8.4091797 -3.4498899 7
-0.469482 -8.4248047 -3.4325559 7
-0.468018 -8.4316406 -3.4094241 7
-0.47271699 -8.4560547 -3.3974609 7
-0.47125199 -8.4619141 -3.374512 7
-0.472839 -8.4785156 -3.356812 7
-0.475952 -8.4980469 -3.3418579 7
-0.4729 -8.4990234 -3.31604 7
-0.47143599 -8.5058594 -3.292969 7
-0.471497 -8.5166016 -3.272583 7
-0.471558 -8.5263672 -3.2522581 7
-0.474731 -8.5478516 -3.237 7
-0.474731 -8.5585938 -3.2164919 7
-0.45208699 -8.3691406 -2.5488279 7
-0.45373499 -8.3828115 -2.5311279 7
-0.45214799 -8.3876953 -2.508667 7
-0.45544401 -8.40625 -2.493103 7
-0.45874 -8.4257812 -2.4775391 7
-0.46362299 -8.4501953 -2.4641719 7
-0.46203601 -8.4541016 -2.4415891 7
-0.47021499 -8.4892578 -2.4324951 7
-0.46545401 -8.4833984 -2.405457 7
-0.470337 -8.5068359 -2.3917241 7
-0.47192401 -8.5195312 -2.3735349 7
-0.46881101 -8.5175781 -2.3486941 7
-0.47045901 -8.5322266 -2.3304441 7
-0.47210699 -8.5449219 -2.312134 7
-0.46893299 -8.5429688 -2.287292 7
-0.472229 -8.5625 -2.271301 7
-0.47552499 -8.5810547 -2.2550049 7
0.0061650001 -1.5888669 8.8132935 7
0.0078739999 -1.5517581 8.8156738 7
0.0062259999 -1.5361331 8.8251343 7
0.011108 -1.513672 8.8122559 7
0.011169 -1.4794919 8.8198853 7
0.0095830001 -1.445312 8.8327637 7
0.011169 -1.40918 8.8345337 7
0.0079960003 -1.393555 8.8491211 7
0.003113 -1.3798831 8.8692627 7
0.014526 -1.3369139 8.8372803 7
0.0096439999 -1.304688 8.8607788 7
0.002869 -1.59668 8.5216665 7
0.012939 -1.5732419 8.4929199 7
0.011292 -1.5576169 8.5021973 7
-0.00042699999 -1.548828 8.5446167 7
-0.00042699999 -1.532227 8.5484009 7
0.021423001 -1.5 8.480835 7
0.014709 -1.488281 8.5065308 7
0.014771 -1.470703 8.510376 7
0.016418001 -1.454102 8.508606 7
0.014771 -1.4375 8.5177002 7
0.014709 -1.421875 8.5213013 7
0.001282 -1.414062 8.5689697 7
-0.00036599999 -1.3974611 8.578064 7
0.0064090001 -1.375977 8.5596313 7
0.011414 -1.355469 8.5465088 7
0.011414 -1.3388669 8.5498047 7
0.018188 -1.3173831 8.53125 7
0.014893 -1.302734 8.5455933 7
0.014893 -1.2861331 8.5489502 7
0.0064699999 -1.5849611 8.2382202 7
0.015198 -1.561523 8.2150269 7
0.0065310001 -1.5517581 8.2460938 7
0.0065310001 -1.535156 8.25 7
0.015198 -1.513672 8.2265015 7
0.020447001 -1.494141 8.2141113 7
0.018738 -1.478516 8.2231445 7
0.016968001 -1.464844 8.232605 7
0.015259 -1.449219 8.2416382 7
0.015259 -1.433594 8.2452393 7
0.018738 -1.4150389 8.2379761 7
0.0048830002 -1.407227 8.2853394 7
0.013611 -1.3857419 8.2614136 7
0.0066530001 -1.373047 8.2867432 7
0.0066530001 -1.357422 8.2903442 7
0.015381 -1.3369139 8.2663574 7
0.011902 -1.3212889 8.2806396 7
0.018859999 -1.3017581 8.2620239 7
0.017151 -1.2861331 8.270813 7
-0.00060999999 -1.595703 8.0014648 7
-0.0042110002 -1.582031 8.0162354 7
-0.013184 -1.5732419 8.0473633 7
-0.00060999999 -1.547852 8.0133057 7
0.003052 -1.530273 8.0064087 7
0.0048219999 -1.513672 8.0047607 7
0.0048219999 -1.498047 8.008606 7
0.003052 -1.483398 8.0177002 7
0.003052 -1.467773 8.0213623 7
0.003113 -1.452148 8.0251455 7
0.001282 -1.438477 8.0342407 7
0.003113 -1.420898 8.0322876 7
-0.0058590001 -1.410156 8.0632324 7
-0.013062 -1.3994139 8.088562 7
-0.002258 -1.375977 8.0594482 7
0.001343 -1.358398 8.0519409 7
0.003174 -1.342773 8.0498657 7
-0.0039670002 -1.330078 8.0750732 7
-0.002197 -1.313477 8.072937 7
-0.002197 -1.297852 8.076416 7
-0.0039670002 -1.283203 8.085022 7
-0.026442001 -1.483435 16.324018 7
-0.161222 -4.7365122 11.272518 7
-0.019154999 -1.43699 11.003328 7
-0.47764599 -8.4335775 10.96109 7
0.000336 -1.519364 10.113058 7
0.022709001 -1.565104 9.3478966 7
0.01609 -1.354661 9.4574633 7
-0.016525 -1.409438 8.8220015 7
0.011491 -1.4369709 8.2609463 7
-0.098389 -4.63765 5.9260998 7
0.023924001 -1.479534 7.8586879 7
0.018087 -1.32977 7.947886 7
0.075800002 -0.29389399 3.9451051 7
0.066051997 -0.31970799 4.0918431 7
0.062166002 -0.31966501 4.1087809 7
0.069652997 -0.29484701 3.962254 7
0.077131003 -0.296031 3.978977 7
0.065049 -0.30724001 4.1236129 7
0.039914001 -0.31404001 4.1490059 7
0.077134997 -0.29231399 4.156795 7
0.060451001 -0.30012399 3.9944029 7
0.085314997 -0.283023 4.0109711 7
0.071483001 -0.29221401 4.027936 7
0.070096999 -0.28634501 4.0437789 7
0.084515996 -0.27251601 4.056334 7
0.059471 -0.28348699 4.0765929 7
0.073645003 -0.26829699 4.0901742 7
0.074759997 -0.26597801 4.104125 7
0.075648002 -0.262438 4.120676 7
0.068209998 -0.253979 4.135746 7
0.052621 -0.25511 4.153595 7
-0.0058900001 -1.48604 13.475397 7
-0.017433999 -1.497231 -7.2398472 7
-0.486577 -8.4673586 13.190597 7
-0.13486999 -4.751523 12.293021 7
0.031138999 -1.422693 12.11529 7
0.023306999 -1.430389 -5.8034272 7
-0.47815299 -8.609726 -6.2679391 7
-0.429023 -8.5346165 11.01743 7
-0.127812 -4.729578 11.270762 7
0.043327 -1.380272 11.210316 7
-0.479877 -8.6041527 -4.7815309 7
-0.50745201 -8.5911264 -2.4669421 7
-0.001808 -1.584384 9.7488184 7
0.003552 -1.311524 9.7712793 7
-0.160678 -4.67415 -2.8992441 7
0.039129999 -1.491461 8.6979542 7
-0.136655 -4.56569 -1.7217031 7
-0.13739 -4.754549 -1.547948 7
0.0036760001 -1.452552 8.2706699 7
0.018888 -1.4223599 7.9287648 7
-0.083614998 -4.501091 5.9826469 7
-0.137205 -4.6218491 5.8406882 7
-0.043024998 -1.4895951 -7.6498189 7
-0.024422999 -1.435406 -6.6176009 7
-0.013303 -1.452288 -5.8670502 7
-0.006118 -1.289739 -5.3387132 7
-0.046567999 -1.450752 -5.2423878 7
-0.131199 -4.6621909 -3.132596 7
-0.12791 -4.7451272 -2.9370749 7
-0.114901 -4.635335 -1.853448 7
-0.109534 -4.6600218 -1.609344 7
-0.103709 -4.6580119 -1.412876 7
