# .PCD v0.7 - Point Cloud Data file format
VERSION 0.7
FIELDS x y z intensity
SIZE 4 4 4 4
TYPE F F F F
COUNT 1 1 1 1
WIDTH 599
HEIGHT 1
VIEWPOINT 0 0 0 1 0 0 0
POINTS 599
DATA ascii
0.101074 -4.8310552 68.083557 7
0.20990001 -1.5830081 64.901367 7
0.067626998 -4.7568359 47.375305 7
0.042052999 -4.704102 47.945374 7
-0.936584 -1.105469 -63.006348 7
-0.95947301 -1.266602 -63.471191 7
-1.049011 -4.6064448 -65.096863 7
-1.03125 -4.601562 -58.889465 7
-1.002625 -4.702148 -58.341919 7
0.15448 -1.358398 36.138733 7
-0.87707502 2.7314451 -54.879761 7
-0.87085003 -1.160156 -51.664185 7
0.015076 -4.8330078 32.781616 7
0.003174 -4.7851558 32.966187 7
-0.015076 -4.75 33.24353 7
-0.052611999 -4.6757808 25.936951 7
0.072448999 -1.59668 22.120728 7
0.072571002 -1.49707 22.128601 7
0.071471997 -1.449219 22.143738 7
0.077514999 -1.347656 22.092712 7
0.065734997 -1.3056639 22.212402 7
0.058959998 -1.5986331 19.882385 7
0.059021 -1.556641 19.886536 7
0.057739001 -1.513672 19.901917 7
0.047118999 -1.476562 19.998413 7
0.046509001 -1.433594 20.007935 7
0.055907998 -1.382812 19.930359 7
0.047974002 -1.34375 20.003235 7
0.040649001 -1.304688 20.070618 7
-0.071898997 -4.7871089 18.306824 7
-0.062927 -4.7275391 18.251282 7
-0.073363997 -4.710938 18.340942 7
-0.080811001 -4.6855469 18.408203 7
-0.085205004 -4.6542969 18.453247 7
-0.078429997 -4.5996089 18.414062 7
-0.070251003 -4.5429692 18.363525 7
0.047058001 -1.595703 18.012695 7
0.050781 -1.5537111 17.987732 7
0.058350001 -1.509766 17.933777 7
0.052429002 -1.4736331 17.983643 7
0.047974002 -1.4375 18.022095 7
0.045837 -1.3994139 18.043091 7
0.057799999 -1.3525389 17.953979 7
0.053406 -1.316406 17.992188 7
-0.072021 -4.7597661 17.343628 7
-0.073608004 -4.7255859 17.366211 7
-0.079102002 -4.6982422 17.416687 7
-0.088500999 -4.6806641 17.494751 7
-0.086914003 -4.6386719 17.494812 7
-0.078185998 -4.5820308 17.444702 7
-0.074219003 -4.5361328 17.427856 7
-0.073363997 -4.4970698 17.433289 7
0.038268998 -1.59082 17.188477 7
0.043030001 -1.549805 17.157715 7
0.050964002 -1.5068361 17.103821 7
0.046264999 -1.4736331 17.142334 7
0.040833 -1.44043 17.186401 7
0.043274 -1.4013669 17.172668 7
0.047240999 -1.361328 17.147217 7
0.044983 -1.325195 17.167908 7
0.042603001 -1.2900389 17.188782 7
0.043945 -1.5712889 16.295288 7
0.052184999 -1.53125 16.241699 7
0.050597999 -1.49707 16.256958 7
0.046509001 -1.46582 16.289551 7
0.036559999 -1.4375 16.362305 7
0.042479999 -1.398438 16.325562 7
0.048278999 -1.358398 16.288574 7
0.043396 -1.326172 16.326599 7
0.043457001 -1.291016 16.330078 7
0.041076999 -1.5986331 15.582703 7
0.041138001 -1.564453 15.586731 7
0.050719999 -1.5244139 15.527283 7
0.049011 -1.492188 15.54248 7
0.047363002 -1.458984 15.557678 7
0.036072001 -1.4326169 15.636353 7
0.041320998 -1.3974611 15.605469 7
0.051024999 -1.356445 15.54541 7
0.045775998 -1.327148 15.583435 7
0.046691999 -1.292969 15.581055 7
0.040955 -1.583984 14.878479 7
0.053771999 -1.5419919 14.802063 7
0.046509001 -1.515625 14.851868 7
0.046569999 -1.484375 14.855713 7
0.043823 -1.454102 14.87677 7
0.045715 -1.421875 14.868774 7
0.051270001 -1.3857419 14.83783 7
0.050354 -1.3544919 14.847107 7
0.048583999 -1.324219 14.862 7
0.044066999 -1.293945 14.894165 7
0.060913 -1.5869139 14.137329 7
0.044677999 -1.5693361 14.238831 7
0.044739 -1.5380861 14.242737 7
0.057250999 -1.499023 14.172058 7
0.053467002 -1.47168 14.198608 7
0.050597999 -1.443359 14.219543 7
0.056396 -1.410156 14.188782 7
0.061278999 -1.375977 14.163574 7
0.049743999 -1.3525389 14.236023 7
0.055542 -1.3193361 14.204773 7
0.040282998 -1.297852 14.30011 7
-0.227173 -4.484375 -12.324158 7
-0.23407 -4.530273 -12.35144 7
-0.24292 -4.578125 -12.389709 7
-0.246887 -4.6181641 -12.400574 7
-0.241089 -4.639648 -12.356506 7
-0.233337 -4.65625 -12.301514 7
-0.23242199 -4.686523 -12.284912 7
-0.234375 -4.7216802 -12.284363 7
-0.246216 -4.7783198 -12.338135 7
0.046691999 -1.577148 13.590942 7
0.049743999 -1.546875 13.577942 7
0.046753 -1.5205081 13.598877 7
0.048767 -1.490234 13.591248 7
0.044799998 -1.4638669 13.617737 7
0.040833 -1.438477 13.644592 7
0.044861 -1.407227 13.625183 7
0.045959 -1.376953 13.622864 7
0.042969 -1.349609 13.643555 7
0.043030001 -1.3212889 13.646973 7
0.042052999 -1.292969 13.656006 7
-0.221497 -4.4873052 -11.61145 7
-0.226624 -4.5263672 -11.627747 7
-0.22876 -4.5605469 -11.627808 7
-0.244141 -4.6210942 -11.698059 7
-0.24322499 -4.6503911 -11.681274 7
-0.235107 -4.6650391 -11.626587 7
-0.23205601 -4.6894531 -11.598999 7
-0.228027 -4.710938 -11.566162 7
-0.227051 -4.7392578 -11.549438 7
-0.23938 -4.7939448 -11.602539 7
0.03241 -1.4638669 13.149841 7
0.029236 -1.438477 13.170593 7
0.031433001 -1.40918 13.162781 7
0.031433001 -1.380859 13.16626 7
0.038818002 -1.3486331 13.129761 7
0.031493999 -1.326172 13.173218 7
0.030456999 -1.298828 13.18219 7
0.042236 -1.597656 12.508972 7
0.041198999 -1.545898 12.522522 7
0.042296998 -1.519531 12.520508 7
0.043457001 -1.492188 12.518677 7
0.04126 -1.467773 12.533936 7
0.034729 -1.4462889 12.572021 7
0.040282998 -1.4150389 12.546997 7
0.044677999 -1.3857419 12.527649 7
0.041443001 -1.335938 12.551453 7
0.043701001 -1.3076169 12.54364 7
0.040405001 -1.283203 12.563904 7
-0.087279998 -1.3037111 -10.434631 7
-0.094054997 -1.362305 -10.462158 7
-0.079529002 -1.408203 -10.38092 7
-0.07959 -1.436523 -10.377136 7
-0.077393003 -1.460938 -10.362183 7
-0.097594999 -1.530273 -10.457214 7
-0.088744998 -1.579102 -10.40387 7
0.035828002 -1.585938 12.068787 7
0.033569001 -1.5625 12.084045 7
0.042785998 -1.530273 12.042297 7
0.041687001 -1.505859 12.051941 7
0.041687001 -1.481445 12.055847 7
0.03833 -1.4580081 12.076538 7
0.032593001 -1.436523 12.108643 7
0.034912001 -1.40918 12.100769 7
0.040709998 -1.380859 12.075867 7
0.041870002 -1.3544919 12.073669 7
0.040771 -1.330078 12.082825 7
0.038513001 -1.3056639 12.097534 7
0.037354 -1.28125 12.106567 7
-0.082520001 -1.2431639 -9.9152222 7
-0.083740003 -1.269531 -9.9176636 7
-0.079102002 -1.292969 -9.8916626 7
-0.087402001 -1.40332 -9.9178467 7
-0.085083 -1.4287111 -9.902832 7
-0.081603996 -1.452148 -9.882019 7
-0.082824998 -1.478516 -9.8840332 7
0.030579001 -1.594727 11.622559 7
0.028259 -1.572266 11.638 7
0.039062001 -1.539062 11.590759 7
0.035461001 -1.517578 11.611755 7
0.033142 -1.4951169 11.626831 7
0.035521999 -1.469727 11.619263 7
0.033142 -1.4482419 11.634277 7
0.029602 -1.425781 11.654785 7
0.033202998 -1.3994139 11.641418 7
0.029663 -1.376953 11.662048 7
0.038086001 -1.347656 11.625854 7
0.036926001 -1.324219 11.634705 7
0.034545999 -1.3017581 11.649536 7
-0.085449003 -1.293945 -9.4407959 7
-0.070862003 -1.310547 -9.3692627 7
-0.078185998 -1.3388669 -9.4001455 7
-0.072144002 -1.361328 -9.3681641 7
-0.078247003 -1.389648 -9.3930664 7
-0.079467997 -1.4150389 -9.3952637 7
-0.072205 -1.435547 -9.3575439 7
-0.075928003 -1.462891 -9.3709717 7
-0.074707001 -1.487305 -9.3615723 7
-0.072327003 -1.5107419 -9.3463755 7
-0.078429997 -1.5400389 -9.3707886 7
-0.069945998 -1.558594 -9.3274536 7
-0.078491002 -1.5888669 -9.3630981 7
0.031005999 -1.575195 11.20459 7
0.032288 -1.5048831 11.210632 7
0.034851 -1.4794919 11.203064 7
0.033629999 -1.456055 11.212524 7
0.026184 -1.438477 11.250061 7
0.033691 -1.4111331 11.219666 7
0.037475999 -1.3857419 11.206238 7
0.030029001 -1.367188 11.243774 7
0.032531999 -1.341797 11.235901 7
0.036316 -1.31543 11.222168 7
0.036316 -1.292969 11.225586 7
-0.061707001 -1.293945 -8.8532705 7
-0.073181003 -1.3232419 -8.9008789 7
-0.069458 -1.34668 -8.8804932 7
-0.069458 -1.3701169 -8.8770752 7
-0.061829001 -1.388672 -8.8395996 7
-0.058104999 -1.410156 -8.8188477 7
-0.058104999 -1.433594 -8.8154297 7
-0.058104999 -1.457031 -8.8118896 7
-0.063293003 -1.484375 -8.8306274 7
-0.072144002 -1.513672 -8.8664551 7
-0.069641002 -1.5361331 -8.8514404 7
-0.06842 -1.558594 -8.8417358 7
-0.070983998 -1.583984 -8.8491821 7
-0.42077601 -8.6347656 8.875061 7
-0.41949499 -8.6123047 8.8919678 7
-0.414368 -8.5771484 8.8974609 7
-0.415649 -8.5634766 8.9219971 7
-0.41442901 -8.5419922 8.9385986 7
-0.41442901 -8.5234385 8.9591064 7
-0.418396 -8.5185547 8.9909668 7
-0.418396 -8.5 9.0113525 7
-0.41320801 -8.4658203 9.0164185 7
-0.415833 -8.4550781 9.0442495 7
-0.41326901 -8.4287109 9.0568848 7
-0.40942401 -8.3984385 9.0654907 7
-0.408142 -8.375 9.0819092 7
-0.40423599 -8.3447266 9.0900879 7
-0.40301499 -8.3212891 9.1062622 7
-0.112183 -4.782227 10.27124 7
-0.109619 -4.7548828 10.272705 7
-0.100525 -4.7148442 10.248779 7
-0.097838998 -4.688477 10.250122 7
-0.097900003 -4.6679692 10.261597 7
-0.103088 -4.6582031 10.293091 7
-0.108276 -4.6455078 10.324463 7
-0.10437 -4.617188 10.320435 7
-0.101807 -4.5908198 10.321472 7
-0.101807 -4.570312 10.332703 7
-0.096557997 -4.5380859 10.323303 7
-0.091370001 -4.5068359 10.313843 7
-0.093933001 -4.4912109 10.3349 7
0.033996999 -1.59082 10.739502 7
0.033996999 -1.5693361 10.743652 7
0.039246 -1.542969 10.724976 7
0.044495001 -1.517578 10.70636 7
0.044495001 -1.4951169 10.710266 7
0.043212999 -1.474609 10.719482 7
0.043212999 -1.452148 10.723267 7
0.036804002 -1.43457 10.755127 7
0.032898001 -1.4150389 10.775635 7
0.032898001 -1.393555 10.779236 7
0.040771 -1.365234 10.748718 7
0.039489999 -1.34375 10.75769 7
0.040833 -1.322266 10.755615 7
0.042114001 -1.298828 10.753235 7
-0.071777001 -1.292969 -8.4790649 7
-0.078368999 -1.3193361 -8.5040894 7
-0.078429997 -1.341797 -8.5005493 7
-0.081115998 -1.3662111 -8.5085449 7
-0.078491002 -1.387695 -8.4937744 7
-0.070556998 -1.405273 -8.4563599 7
-0.070556998 -1.427734 -8.4527588 7
-0.065307997 -1.447266 -8.4263916 7
-0.066711001 -1.470703 -8.4284668 7
-0.070679002 -1.496094 -8.4416504 7
-0.078674003 -1.525391 -8.4716187 7
-0.075989 -1.544922 -8.4564209 7
-0.078674003 -1.570312 -8.4637451 7
-0.078674003 -1.592773 -8.4599609 7
-0.43225101 -8.6289062 8.2450562 7
-0.43359399 -8.6171885 8.2692871 7
-0.42962599 -8.5869141 8.2791748 7
-0.43103001 -8.5751953 8.3032227 7
-0.43640101 -8.5771484 8.3381958 7
-0.43914801 -8.5683594 8.3659668 7
-0.43920901 -8.5527344 8.3865356 7
-0.43652299 -8.5273438 8.3996582 7
-0.432556 -8.4980469 8.4093628 7
-0.43389899 -8.4853516 8.4332886 7
-0.42852801 -8.4511719 8.4391479 7
-0.42852801 -8.4345703 8.4592896 7
-0.42864999 -8.4179688 8.4794922 7
-0.42321801 -8.3837891 8.4850464 7
-0.42327899 -8.3662109 8.5049438 7
-0.42193601 -8.3457031 8.5213623 7
-0.122742 -4.773438 9.868103 7
-0.115967 -4.7392578 9.8548584 7
-0.11731 -4.7226558 9.8712769 7
-0.118713 -4.7050781 9.8877563 7
-0.119995 -4.6875 9.9039307 7
0.011475 -1.5869139 10.456177 7
0.016907001 -1.561523 10.437866 7
0.023682 -1.535156 10.413574 7
0.023743 -1.513672 10.41748 7
0.019714 -1.4951169 10.438049 7
0.021057 -1.472656 10.436218 7
0.021118 -1.451172 10.440002 7
0.013 -1.436523 10.477356 7
0.011658 -1.4150389 10.486511 7
0.014404 -1.391602 10.47876 7
0.021179 -1.3662111 10.454163 7
0.018494001 -1.347656 10.469055 7
0.018555 -1.326172 10.472229 7
0.02124 -1.302734 10.464417 7
0.017212 -1.283203 10.484619 7
0.019409001 -1.597656 10.034973 7
0.010986 -1.5830081 10.072327 7
0.013794 -1.561523 10.065247 7
0.032104 -1.527344 9.9962769 7
0.030762 -1.507812 10.005798 7
0.036377002 -1.484375 9.9872437 7
0.030762 -1.467773 10.013245 7
0.033629999 -1.445312 10.005737 7
0.029418999 -1.4287111 10.026184 7
0.018188 -1.4150389 10.074768 7
0.022461001 -1.391602 10.061279 7
0.023864999 -1.3701169 10.059204 7
0.028137 -1.34668 10.045959 7
0.029541001 -1.325195 10.043701 7
0.029602 -1.304688 10.046997 7
0.029602 -1.28418 10.050171 7
0.023010001 -1.59375 9.6915894 7
0.020142 -1.576172 9.7068481 7
0.023071 -1.5537111 9.699646 7
0.023071 -1.535156 9.7036133 7
0.024597 -1.513672 9.7017822 7
0.024597 -1.4951169 9.7055664 7
0.026062001 -1.454102 9.7074575 7
0.02179 -1.4375 9.7279663 7
0.017395001 -1.420898 9.74823 7
0.020324999 -1.400391 9.7406006 7
0.023254 -1.37793 9.7330933 7
0.023254 -1.359375 9.7363892 7
0.023314999 -1.339844 9.7399902 7
0.026245 -1.297852 9.7353516 7
0.023375999 -1.280273 9.749939 7
-0.474792 -8.3574219 -4.3978882 7
-0.47039801 -8.3554688 -4.3682861 7
-0.46301299 -8.3457031 -4.332458 7
-0.47503701 -8.3964844 -4.3374629 7
-0.470581 -8.3964844 -4.3079219 7
-0.466187 -8.3945312 -4.278687 7
-0.46325701 -8.3974609 -4.2523799 7
-0.46935999 -8.4306641 -4.2443848 7
-0.476868 -8.4677734 -4.239624 7
-0.470947 -8.4609385 -4.2070918 7
-0.47399899 -8.4833984 -4.1928711 7
-0.48004201 -8.5146484 -4.1845698 7
-0.481628 -8.5322266 -4.1671748 7
-0.47863799 -8.5361328 -4.140625 7
-0.47876 -8.5498047 -4.1201782 7
-0.480286 -8.5664062 -4.1026611 7
-0.487854 -8.6025391 -4.0971069 7
-0.48791501 -8.6152344 -4.0762939 7
-0.48199499 -8.6083984 -4.0438838 7
-0.486572 -8.6357422 -4.032043 7
-0.476257 -8.6269531 -3.970093 7
0.014099 -1.577148 9.3884888 7
0.0050659999 -1.564453 9.4256592 7
0.012634 -1.539062 9.4017944 7
0.021729 -1.514648 9.3723745 7
0.012695 -1.501953 9.4093628 7
0.012695 -1.482422 9.413208 7
0.020324999 -1.439453 9.3925781 7
0.011292 -1.4267581 9.4298706 7
0.0097660003 -1.40918 9.4389648 7
0.015869001 -1.367188 9.4237061 7
0.012817 -1.3505861 9.4384155 7
0.011353 -1.332031 9.4475098 7
0.020447001 -1.3076169 9.4171143 7
0.020508001 -1.2880861 9.4205322 7
0.016968001 -1.59082 9.0917969 7
0.018555 -1.5712889 9.09021 7
0.010742 -1.558594 9.1217651 7
0.020203 -1.533203 9.0924683 7
0.026489001 -1.511719 9.0741577 7
0.024901999 -1.494141 9.0834351 7
0.020203 -1.4794919 9.1040649 7
0.020264 -1.4619139 9.107666 7
0.023375999 -1.441406 9.1002808 7
0.020264 -1.424805 9.1149292 7
0.012512 -1.412109 9.1462402 7
0.018798999 -1.389648 9.1276255 7
0.015625 -1.374023 9.1421509 7
0.023499001 -1.3505861 9.117981 7
0.021911999 -1.3330081 9.1268921 7
0.017273 -1.318359 9.1470337 7
0.021973001 -1.296875 9.1334229 7
-0.17816199 -4.5566411 -5.759521 7
-0.18139599 -4.579102 -5.7580571 7
-0.17987099 -4.592773 -5.742249 7
-0.18310501 -4.6152339 -5.74054 7
-0.18158001 -4.6279302 -5.7245479 7
-0.18158001 -4.6455078 -5.7133179 7
-0.18005399 -4.657227 -5.6975708 7
-0.17688 -4.6679692 -5.6768799 7
-0.170532 -4.670898 -5.6468511 7
-0.167419 -4.6826172 -5.6262212 7
-0.169067 -4.7011719 -5.6196289 7
-0.173889 -4.726562 -5.6221919 7
-0.18035901 -4.7558589 -5.6292109 7
-0.18194599 -4.7753911 -5.6222529 7
-0.45489499 -8.4238281 -2.5515749 7
-0.45819101 -8.4433594 -2.536072 7
-0.46142599 -8.4628906 -2.5203249 7
-0.459961 -8.4667969 -2.4977419 7
-0.46643099 -8.4970703 -2.48645 7
-0.46814001 -8.5117188 -2.468262 7
-0.466553 -8.5146484 -2.445801 7
-0.46984899 -8.5341797 -2.429749 7
-0.46667501 -8.5322266 -2.4047849 7
-0.469971 -8.5517578 -2.3886721 7
-0.47003201 -8.5595703 -2.3682251 7
-0.46850601 -8.5644531 -2.34552 7
-0.46539301 -8.5625 -2.3205571 7
-0.46545401 -8.5703115 -2.3001709 7
-0.46228001 -8.5683594 -2.275085 7
-0.46551499 -8.5869141 -2.2589109 7
-0.181152 -4.4804692 -5.4407349 7
-0.181152 -4.4960942 -5.42981 7
-0.17456099 -4.499023 -5.4003301 7
-0.174622 -4.514648 -5.3895259 7
-0.174683 -4.530273 -5.378479 7
-0.173096 -4.5429692 -5.3629761 7
-0.18634 -4.5839839 -5.3887939 7
-0.179749 -4.5869141 -5.3591309 7
-0.19305401 -4.6279302 -5.3849492 7
-0.18981899 -4.6357422 -5.364502 7
-0.18652301 -4.6464839 -5.3441162 7
-0.181641 -4.6523442 -5.3190918 7
-0.176636 -4.657227 -5.2940059 7
-0.173401 -4.6660161 -5.2738042 7
-0.173401 -4.6816411 -5.2624512 7
-0.16851801 -4.6875 -5.2374272 7
-0.17688 -4.719727 -5.2487178 7
-0.17523199 -4.7304692 -5.2327881 7
-0.17694101 -4.75 -5.2258911 7
-0.18194599 -4.7753911 -5.2278442 7
0.013733 -1.591797 8.4889526 7
0.013733 -1.574219 8.492981 7
0.013733 -1.5576169 8.4968262 7
0.012085 -1.5419919 8.5062866 7
0.018859999 -1.519531 8.4881592 7
0.023864999 -1.499023 8.4755859 7
0.020569 -1.485352 8.4903564 7
0.025635 -1.464844 8.477417 7
0.022217 -1.451172 8.4922485 7
0.017273 -1.4375 8.5123901 7
0.012207 -1.424805 8.5325928 7
0.0088499999 -1.410156 8.5471191 7
0.0089109996 -1.392578 8.5505371 7
0.013977 -1.37207 8.5375977 7
0.030823 -1.34375 8.4860229 7
0.024109 -1.332031 8.5114746 7
0.019043 -1.3193361 8.5314331 7
0.024109 -1.298828 8.5181274 7
0.019104 -1.285156 8.5379639 7
-0.1698 -4.485352 -5.0195918 7
-0.169861 -4.5 -5.0087891 7
-0.169983 -4.530273 -4.986938 7
-0.169983 -4.5449219 -4.9760742 7
-0.17688 -4.5722661 -4.9829712 7
-0.17694101 -4.5869141 -4.9717412 7
-0.180481 -4.6230469 -4.9584351 7
-0.178772 -4.6337891 -4.942749 7
-0.171997 -4.6503911 -4.9025269 7
-0.165222 -4.6650391 -4.8623662 7
-0.16528299 -4.679688 -4.850708 7
-0.167053 -4.710938 -4.83252 7
-0.17230199 -4.7363281 -4.834167 7
-0.17059299 -4.7607422 -4.8069458 7
0.012451 -1.597656 8.2180786 7
0.012512 -1.581055 8.2221069 7
0.015991 -1.5625 8.2150269 7
0.022949001 -1.5419919 8.1972046 7
0.024719 -1.5244139 8.1956787 7
0.02478 -1.5087889 8.1994019 7
0.026489001 -1.4912111 8.1977539 7
0.026550001 -1.4755861 8.201416 7
0.024840999 -1.4599611 8.2106934 7
0.019592 -1.4462889 8.2306519 7
0.016174 -1.4326169 8.2453003 7
0.012695 -1.418945 8.2599487 7
0.012695 -1.40332 8.2633667 7
0.016174 -1.384766 8.2560415 7
0.012695 -1.371094 8.2704468 7
0.021484001 -1.3486331 8.246582 7
0.019714 -1.333984 8.2554932 7
0.019714 -1.3173831 8.258667 7
0.018005 -1.302734 8.2677002 7
0.016295999 -1.287109 8.2764893 7
-0.171326 -4.5068359 -4.6538091 7
-0.18554699 -4.547852 -4.6783452 7
-0.178528 -4.5488281 -4.6496582 7
-0.178589 -4.5761719 -4.6273799 7
-0.18042 -4.592773 -4.6208501 7
-0.180481 -4.6074219 -4.6097412 7
-0.187622 -4.648438 -4.6048579 7
-0.187683 -4.6630859 -4.5934448 7
-0.184204 -4.6689448 -4.573669 7
-0.175354 -4.6787109 -4.5292358 7
-0.17541499 -4.6923828 -4.5178828 7
-0.175476 -4.7060552 -4.5064702 7
-0.17382801 -4.7294922 -4.4796748 7
-0.17382801 -4.742188 -4.4680181 7
-0.180969 -4.7705078 -4.4733891 7
0.0073850001 -1.589844 7.979919 7
0.01825 -1.566406 7.9514771 7
0.0056759999 -1.55957 7.9931641 7
0.012817 -1.5400389 7.9755249 7
0.014648 -1.5224611 7.9738159 7
0.014709 -1.507812 7.9776611 7
0.011108 -1.494141 7.992249 7
0.011108 -1.478516 7.9961548 7
0.011108 -1.4619139 7.9998169 7
0.0075679999 -1.449219 8.0142822 7
0.00036599999 -1.438477 8.0397949 7
0.0093989996 -1.4169919 8.0160522 7
0.0057979999 -1.404297 8.0307007 7
0.0057979999 -1.387695 8.0341797 7
0.018433001 -1.3642581 7.9995122 7
0.014832 -1.3505861 8.0137939 7
0.0076290001 -1.339844 8.0391846 7
0.011292 -1.3212889 8.0316162 7
0.0076899999 -1.308594 8.0457153 7
0.0041499999 -1.294922 8.0600586 7
-0.192091 -4.6510668 18.636265 7
0.005446 -1.407584 13.955557 7
0.054708999 -1.465268 11.971064 7
0.0062810001 -1.379779 10.088825 7
-0.40829101 -8.5739031 8.1482086 7
0.031335998 -1.4346451 9.3085365 7
0.0058220001 -1.537987 8.2665291 7
-0.00058200001 -1.372229 8.3636227 7
0.018785 -1.571458 7.8576188 7
0.021445001 -1.404338 7.9014459 7
0.035172001 -1.438392 7.53651 7
0.036068 -1.2888449 7.5859709 7
0.057239 -0.301514 3.9381499 7
0.085010998 -0.291823 3.953089 7
0.080370001 -0.31203201 4.0946121 7
0.079008996 -0.292382 3.9700019 7
0.052315 -0.31476599 4.1181269 7
0.068942003 -0.303967 4.1296601 7
0.069805004 -0.29868701 4.148499 7
0.088435002 -0.28381801 3.9857869 7
0.090549998 -0.28640699 4.0010262 7
0.058134999 -0.297295 4.0176492 7
0.088238001 -0.276972 4.0329051 7
0.068850003 -0.28723899 4.0497479 7
0.067385003 -0.28028801 4.0647631 7
0.089914002 -0.26961699 4.079102 7
0.066983998 -0.270547 4.0960698 7
0.094641 -0.25646201 4.1084042 7
0.066004999 -0.257074 4.1279359 7
0.077423997 -0.24863701 4.1399951 7
0.083329 -0.24187399 4.1520991 7
0.010614 -1.406764 -12.155032 7
0.065433003 -1.452358 15.442837 7
-0.10457 -1.338951 -9.6638956 7
-0.020469001 -1.3849469 13.65619 7
-0.045279998 -1.286072 -7.594492 7
0.022472 -1.333197 12.219591 7
0.042259 -1.297648 11.238522 7
0.056418002 -1.567803 10.394408 7
-0.126283 -4.7134571 -3.953021 7
-0.499008 -8.4966431 9.3781567 7
0.003796 -1.514133 9.7271042 7
-0.184837 -4.62991 -3.125149 7
0.023148 -1.471073 9.1747637 7
0.043776002 -1.407456 8.3609428 7
0.01152 -1.571789 7.933681 7
0.0067960001 -1.37802 7.9971919 7
0.025167 -1.535754 7.6335602 7
0.023405001 -1.3533 7.6785879 7
0.040150002 -1.330891 7.389307 7
-0.106955 -4.6722188 3.335227 7
-0.11303 -4.6828279 3.490036 7
-0.129529 -4.481586 3.3300929 7
-0.13415299 -4.4869032 3.4765649 7
-0.11652 -1.334932 -9.8683395 7
-0.070368998 -1.351449 -8.0337143 7
-0.18443 -4.5465889 -4.785707 7
-0.17783 -4.67416 -4.576817 7
-0.14004999 -4.5532689 -3.4339271 7
-0.13954601 -4.6697488 -3.252332 7
