# .PCD v0.7 - Point Cloud Data file format
VERSION 0.7
FIELDS x y z intensity
SIZE 4 4 4 4
TYPE F F F F
COUNT 1 1 1 1
WIDTH 680
HEIGHT 1
VIEWPOINT 0 0 0 1 0 0 0
POINTS 680
DATA ascii
0.197754 -1.574219 71.583557 7
0.159119 -1.608398 66.311584 7
0.048401002 -4.891602 47.666992 7
0.137024 -1.6357419 46.070923 7
-0.85308802 -1.231445 -64.161377 7
0.132385 -1.597656 42.385864 7
0.114807 -1.416016 42.750122 7
-0.84845001 -1.371094 -61.503845 7
-0.030517999 -4.7705078 38.864685 7
-0.79681402 2.8730471 -52.969971 7
-0.82287598 2.766602 -53.449341 7
-0.77612299 -1.125 -50.250305 7
-0.78906202 -1.25293 -50.469421 7
-0.91088903 -4.4785161 -52.343689 7
-0.88842797 -4.5722661 -51.942322 7
-0.015991 -4.890625 33.174744 7
-0.0094600003 -4.8007808 33.094055 7
0.092285 -1.3369139 32.01709 7
-1.2628779 -23.543945 -31.646484 7
-1.264648 -23.631836 -31.604553 7
-0.047545999 -4.8867192 25.799866 7
-0.043274 -4.8193359 25.765991 7
-0.065186001 -4.750977 26.029419 7
-0.056212999 -4.6738281 25.94342 7
0.042908002 -1.568359 21.186523 7
0.037903 -1.525391 21.236755 7
0.035461001 -1.480469 21.263794 7
0.037475999 -1.431641 21.250122 7
0.042603001 -1.380859 21.207214 7
0.036926001 -1.337891 21.262878 7
0.034545999 -1.2919919 21.289429 7
-0.074890003 -4.7861328 18.31311 7
-0.078612998 -4.7548828 18.352661 7
-0.087523997 -4.7324219 18.431213 7
-0.091247998 -4.7001948 18.470642 7
-0.088196002 -4.6523442 18.459534 7
-0.080688 -4.5986328 18.414734 7
-0.079894997 -4.5556641 18.420288 7
-0.076110996 -4.507812 18.403015 7
0.03833 -1.558594 18.06897 7
0.035399999 -1.521484 18.095886 7
0.031738002 -1.484375 18.128601 7
0.027344 -1.447266 18.166992 7
0.037048001 -1.4013669 18.095398 7
0.034912001 -1.363281 18.11615 7
0.033447001 -1.325195 18.131287 7
0.026062001 -1.2900389 18.192566 7
-0.083557002 -4.7773442 17.411072 7
-0.086731002 -4.7451172 17.444824 7
-0.095337003 -4.7255859 17.517456 7
-0.097655997 -4.6933589 17.545654 7
-0.092162997 -4.6435552 17.517944 7
-0.085814998 -4.5917969 17.484497 7
-0.085754 -4.5537109 17.495544 7
-0.081786998 -4.5068359 17.478577 7
0.026123 -1.59668 17.263794 7
0.034058001 -1.552734 17.210144 7
0.031738002 -1.517578 17.231262 7
0.025451999 -1.484375 17.281311 7
0.022399999 -1.449219 17.308167 7
0.032653999 -1.404297 17.236633 7
0.031189 -1.3681639 17.251648 7
0.02887 -1.332031 17.272522 7
0.02179 -1.298828 17.327881 7
0.034485001 -1.576172 16.347473 7
0.037842002 -1.5380861 16.328369 7
0.036254998 -1.503906 16.343689 7
0.033020001 -1.470703 16.370544 7
0.030517999 -1.4375 16.391602 7
0.038086001 -1.396484 16.34314 7
0.036437999 -1.363281 16.358337 7
0.032349002 -1.330078 16.390503 7
0.029114 -1.296875 16.41687 7
0.029785 -1.5693361 15.650208 7
0.035094999 -1.532227 15.619629 7
0.027283 -1.503906 15.675354 7
0.023864999 -1.47168 15.702026 7
0.024719 -1.438477 15.700134 7
0.028259 -1.402344 15.680481 7
0.029175 -1.3681639 15.678284 7
0.026611 -1.335938 15.699219 7
0.026611 -1.302734 15.702454 7
0.036377002 -1.5849611 14.89624 7
0.034607001 -1.554688 14.911621 7
0.034667999 -1.5224611 14.915527 7
0.03009 -1.4931639 14.94812 7
0.023743 -1.46582 14.992065 7
0.026550001 -1.431641 14.978333 7
0.034790002 -1.393555 14.930176 7
0.032104 -1.3642581 14.950989 7
0.033996999 -1.330078 14.94281 7
0.023925999 -1.304688 15.009705 7
0.051697001 -1.59082 14.183472 7
0.035461001 -1.542969 14.288757 7
0.033629999 -1.512695 14.304077 7
0.035583001 -1.481445 14.29657 7
0.039429002 -1.4482419 14.277344 7
0.053893998 -1.40918 14.194885 7
0.041503999 -1.355469 14.276611 7
0.038695998 -1.296875 14.300415 7
-0.198364 -4.4960942 -12.150269 7
-0.203308 -4.5361328 -12.166687 7
-0.213135 -4.5878911 -12.210144 7
-0.220093 -4.6337891 -12.237 7
-0.210388 -4.6464839 -12.171265 7
-0.203613 -4.664062 -12.121887 7
-0.200745 -4.6894531 -12.094299 7
-0.205688 -4.7304692 -12.110107 7
-0.21850599 -4.7880859 -12.169312 7
0.044128001 -1.547852 13.601196 7
0.045226999 -1.4892581 13.602722 7
0.042236 -1.4638669 13.623718 7
0.038268998 -1.436523 13.650208 7
0.043334998 -1.404297 13.625488 7
0.044372998 -1.375 13.623291 7
0.039429002 -1.3212889 13.658813 7
-0.072205 -1.454102 -11.506714 7
0.031738002 -1.599609 13.125061 7
0.032898001 -1.543945 13.127319 7
0.031860001 -1.516602 13.136719 7
0.029785 -1.4912111 13.1521 7
0.024536001 -1.466797 13.184509 7
0.027771 -1.436523 13.170898 7
0.030944999 -1.40625 13.157349 7
0.032042999 -1.37793 13.155212 7
0.027892999 -1.3525389 13.18158 7
0.026854999 -1.325195 13.190613 7
0.025878999 -1.298828 13.199768 7
-0.070373997 -1.439453 -10.877014 7
-0.066161998 -1.464844 -10.850525 7
-0.073792003 -1.5556639 -10.879089 7
0.03418 -1.575195 12.547241 7
0.03418 -1.549805 12.551208 7
0.031982001 -1.525391 12.566467 7
0.027649 -1.501953 12.592957 7
0.027649 -1.474609 12.596802 7
0.022217 -1.453125 12.629089 7
0.024413999 -1.423828 12.621216 7
0.024475001 -1.3974611 12.624695 7
0.025635 -1.3701169 12.622498 7
0.024536001 -1.34375 12.631836 7
0.024597 -1.3173831 12.635254 7
0.022461001 -1.2919919 12.649963 7
0.031005999 -1.5869139 12.085693 7
0.031067001 -1.560547 12.089722 7
0.033386 -1.535156 12.082336 7
0.035705999 -1.507812 12.074829 7
0.033447001 -1.483398 12.089844 7
0.035767 -1.4580081 12.082214 7
0.026611 -1.4375 12.13147 7
0.03241 -1.408203 12.106567 7
0.03241 -1.382812 12.110168 7
0.038208 -1.3544919 12.085144 7
0.033691 -1.331055 12.111206 7
0.033691 -1.306641 12.114746 7
0.030273 -1.283203 12.135132 7
-0.059997998 -1.28418 -9.8063955 7
-0.059997998 -1.310547 -9.8031616 7
-0.067078002 -1.341797 -9.8339844 7
-0.067078002 -1.3662111 -9.8306274 7
-0.062438998 -1.389648 -9.8043213 7
-0.057799999 -1.412109 -9.7780762 7
-0.059021 -1.439453 -9.7799683 7
-0.055542 -1.462891 -9.7594604 7
-0.053284001 -1.487305 -9.7442017 7
-0.062622003 -1.519531 -9.7859497 7
-0.062683001 -1.545898 -9.7820435 7
-0.065063 -1.5732419 -9.7894897 7
-0.063904002 -1.5986331 -9.7798462 7
-0.41046101 -8.6171885 10.308655 7
-0.406921 -8.5849609 10.317017 7
-0.4021 -8.5478516 10.320984 7
-0.402161 -8.5048828 10.361694 7
-0.406982 -8.4990234 10.398804 7
-0.404663 -8.4707031 10.411072 7
-0.404724 -8.4277344 10.451416 7
-0.404724 -8.40625 10.471619 7
-0.404724 -8.3847656 10.49176 7
-0.40118399 -8.3515615 10.499084 7
-0.400024 -8.3261719 10.514954 7
0.025574001 -1.59668 11.640015 7
0.029236 -1.545898 11.630798 7
0.026854999 -1.5224611 11.645996 7
0.026854999 -1.499023 11.649841 7
0.024536001 -1.476562 11.665039 7
0.022156 -1.453125 11.680054 7
0.022217 -1.427734 11.683533 7
0.025818 -1.402344 11.670166 7
0.02832 -1.351562 11.665771 7
0.030701 -1.326172 11.657715 7
0.027100001 -1.3037111 11.678284 7
0.023560001 -1.282227 11.698608 7
0.031005999 -1.548828 11.202942 7
0.032288 -1.5244139 11.201111 7
0.027344 -1.5048831 11.227722 7
0.024901999 -1.483398 11.242737 7
0.022399999 -1.462891 11.257751 7
0.019958001 -1.441406 11.272766 7
0.022461001 -1.416016 11.265076 7
0.03125 -1.386719 11.228943 7
0.033752002 -1.362305 11.221191 7
0.030029001 -1.34082 11.241455 7
0.026306 -1.320312 11.261963 7
0.016418001 -1.3037111 11.31073 7
-0.042663999 -1.28418 -8.774231 7
-0.044006001 -1.306641 -8.7766113 7
-0.051635999 -1.335938 -8.8071289 7
-0.052917 -1.360352 -8.8094482 7
-0.049132999 -1.380859 -8.7890615 7
-0.042847 -1.4013669 -8.7573242 7
-0.042847 -1.424805 -8.7537231 7
-0.041625999 -1.447266 -8.7443237 7
-0.042908002 -1.47168 -8.7463989 7
-0.048035 -1.499023 -8.7651978 7
-0.051879998 -1.5244139 -8.7783203 7
-0.053222999 -1.548828 -8.7800903 7
-0.053222999 -1.572266 -8.7761841 7
-0.053284001 -1.59668 -8.7722168 7
-0.46759 -8.4941406 -7.032959 7
-0.46765101 -8.5136719 -7.0125122 7
-0.466492 -8.5292969 -6.9882202 7
-0.47161901 -8.5654297 -6.983521 7
-0.47045901 -8.5810547 -6.9590449 7
-0.47314501 -8.6083984 -6.9462891 7
-0.40448001 -8.6259766 8.7608643 7
-0.403198 -8.6044922 8.777832 7
-0.40460199 -8.5917969 8.8022461 7
-0.40325901 -8.5693359 8.8191528 7
-0.405884 -8.5595703 8.847229 7
-0.405945 -8.5429688 8.8675537 7
-0.404663 -8.5205078 8.8843384 7
-0.40338099 -8.4980469 8.9008789 7
-0.403442 -8.4794922 8.9213257 7
-0.39563 -8.4375 8.9188843 7
-0.394409 -8.4140615 8.9350586 7
-0.39312699 -8.3925781 8.9515991 7
-0.39056399 -8.3662109 8.9638672 7
-0.39056399 -8.3476562 8.9840088 7
-0.390625 -8.3300781 9.0040894 7
-0.106079 -4.7861328 10.22998 7
-0.10083 -4.733398 10.232666 7
-0.098205999 -4.7070308 10.234314 7
0.03009 -1.592773 10.751099 7
0.036621001 -1.566406 10.727051 7
0.037964001 -1.521484 10.729248 7
0.036681999 -1.5 10.738708 7
0.039306998 -1.4755861 10.731201 7
0.031555001 -1.4599611 10.768677 7
0.02771 -1.417969 10.792542 7
0.038146999 -1.388672 10.751221 7
0.038208 -1.34375 10.757996 7
0.036926001 -1.322266 10.767212 7
0.030456999 -1.283203 10.802246 7
-0.053406 -1.282227 -8.4060059 7
-0.056152001 -1.3076169 -8.4138184 7
-0.060059 -1.332031 -8.4277344 7
-0.061462 -1.355469 -8.4299316 7
-0.064148001 -1.3798831 -8.4376831 7
-0.057556 -1.398438 -8.4058228 7
-0.050964002 -1.4169919 -8.3740845 7
-0.052368 -1.44043 -8.3761597 7
-0.052368 -1.462891 -8.3724976 7
-0.052368 -1.484375 -8.3687134 7
-0.070923001 -1.519531 -8.4439087 7
-0.070983998 -1.5419919 -8.4400024 7
-0.065734997 -1.5625 -8.4137573 7
-0.060486 -1.582031 -8.3869629 7
-0.46350101 -8.4091797 -6.3823848 7
-0.46356201 -8.4277344 -6.3622441 7
-0.46630901 -8.4541016 -6.3496089 7
-0.463745 -8.4638672 -6.3216548 7
-0.466492 -8.4902344 -6.3088989 7
-0.471863 -8.5244141 -6.3037109 7
-0.47460899 -8.5498047 -6.290833 7
-0.476013 -8.5722656 -6.2741089 7
-0.47345001 -8.5820312 -6.2459111 7
-0.47485399 -8.6035156 -6.229126 7
-0.474976 -8.6210938 -6.208374 7
-0.41925001 -8.6132812 8.1650391 7
-0.41796899 -8.5917969 8.1820068 7
-0.42205799 -8.5898438 8.2131958 7
-0.42205799 -8.5732422 8.2338257 7
-0.42211899 -8.5576172 8.2543325 7
-0.427551 -8.5585938 8.2892456 7
-0.42627001 -8.5380859 8.3062134 7
-0.42218 -8.5078115 8.3156128 7
-0.122986 -4.7910161 9.8519287 7
-0.117554 -4.7587891 9.8435669 7
-0.114868 -4.733398 9.8450928 7
-0.116211 -4.7158198 9.8616333 7
-0.116211 -4.6962891 9.8729248 7
-0.124329 -4.6933589 9.9141235 7
-0.13110401 -4.686523 9.9504395 7
-0.125671 -4.655273 9.9417725 7
-0.118896 -4.6210942 9.9281006 7
-0.114868 -4.592773 9.9241943 7
-0.116211 -4.5751948 9.9401255 7
-0.110779 -4.5439448 9.9312744 7
-0.112122 -4.5263672 9.9472656 7
-0.104004 -4.4892578 9.9280396 7
0.014282 -1.5830081 10.439453 7
0.017029 -1.560547 10.432312 7
0.022461001 -1.535156 10.413757 7
0.021118 -1.514648 10.423157 7
0.019774999 -1.494141 10.432495 7
0.021179 -1.47168 10.430664 7
0.018494001 -1.452148 10.44574 7
0.01178 -1.43457 10.477478 7
0.014526 -1.4111331 10.469666 7
0.017212 -1.389648 10.462036 7
0.019958001 -1.365234 10.454285 7
0.021361999 -1.34375 10.452148 7
0.020020001 -1.3232419 10.461121 7
0.018677 -1.3017581 10.470093 7
0.015991 -1.282227 10.484619 7
-0.45019501 -8.3496094 -5.6365361 7
-0.451599 -8.3701172 -5.6202388 7
-0.45172101 -8.3857422 -5.6000981 7
-0.446228 -8.3837891 -5.5656128 7
-0.45184299 -8.4179688 -5.559875 7
-0.451904 -8.4345703 -5.5396729 7
-0.45202601 -8.4501953 -5.5192871 7
-0.459167 -8.5048828 -5.4963379 7
-0.46478301 -8.5390615 -5.4901118 7
-0.46624801 -8.5595703 -5.473145 7
-0.46771199 -8.5791016 -5.4561162 7
-0.42663601 -8.6298828 7.4356689 7
-0.42523199 -8.6103516 7.453125 7
-0.42669699 -8.6015615 7.4770508 7
-0.42956501 -8.5957031 7.504395 7
-0.43243399 -8.5888672 7.5314331 7
-0.42822301 -8.5615234 7.5420532 7
-0.41980001 -8.5185547 7.5426641 7
-0.41986099 -8.5048828 7.5629268 7
-0.418457 -8.484375 7.5799561 7
-0.41992199 -8.4755859 7.6036992 7
-0.41571 -8.4462891 7.613708 7
-0.414368 -8.4267578 7.6306758 7
-0.414368 -8.4121094 7.6508789 7
-0.41302499 -8.3925781 7.6677251 7
-0.40887499 -8.3642578 7.6773682 7
0.025146 -1.592773 10.007202 7
0.025208 -1.5712889 10.01123 7
0.025269 -1.5517581 10.015137 7
0.029479999 -1.52832 10.002258 7
0.029479999 -1.507812 10.006165 7
0.029541001 -1.488281 10.009888 7
0.02533 -1.469727 10.030396 7
0.021118 -1.453125 10.050903 7
0.025390999 -1.429688 10.03772 7
0.022583 -1.410156 10.052612 7
0.021179 -1.391602 10.061646 7
0.028259 -1.365234 10.037048 7
0.029724 -1.344727 10.034912 7
0.02832 -1.325195 10.043945 7
0.026916999 -1.3056639 10.052856 7
0.022705 -1.287109 10.073181 7
-0.44238299 -8.3203115 -4.9334111 7
-0.44537401 -8.34375 -4.9203491 7
-0.44683799 -8.3632812 -4.903748 7
-0.44262701 -8.3632812 -4.8734741 7
-0.44415301 -8.3828115 -4.85675 7
-0.450012 -8.4160156 -4.8500371 7
-0.450073 -8.4296885 -4.8297729 7
-0.45300299 -8.4541016 -4.8161621 7
-0.45452899 -8.4716797 -4.7991328 7
-0.45318601 -8.4824219 -4.7755132 7
-0.45898399 -8.5146484 -4.7683721 7
-0.45764199 -8.5244141 -4.7446289 7
-0.459167 -8.5429688 -4.727417 7
-0.460693 -8.5615234 -4.710083 7
-0.46508801 -8.5888672 -4.6993408 7
-0.463745 -8.5996094 -4.6754761 7
-0.46093801 -8.6044922 -4.648438 7
-0.45813 -8.6083984 -4.6213989 7
-0.45819101 -8.6220703 -4.6005859 7
-0.45831299 -8.6357422 -4.5799561 7
0.017517 -1.59668 9.7084961 7
0.020447001 -1.575195 9.701355 7
0.021911999 -1.554688 9.6998291 7
0.024901999 -1.532227 9.6925659 7
0.024901999 -1.512695 9.6963501 7
0.024901999 -1.494141 9.7000122 7
0.026427999 -1.472656 9.6981812 7
0.023499001 -1.455078 9.7130737 7
0.016235 -1.439453 9.744751 7
0.02063 -1.4169919 9.7314453 7
0.020691 -1.3974611 9.7351685 7
0.020691 -1.376953 9.7385864 7
0.020752 -1.357422 9.7420654 7
0.025085 -1.335938 9.7285767 7
0.025146 -1.31543 9.7320557 7
0.022278 -1.297852 9.7466431 7
-0.44604501 -8.375 -4.1533198 7
-0.44018599 -8.3691406 -4.1210332 7
-0.44171101 -8.3857422 -4.1038208 7
-0.44183299 -8.3994141 -4.0838008 7
-0.449341 -8.4345703 -4.0788569 7
-0.44793701 -8.4433594 -4.055603 7
-0.44805899 -8.4560547 -4.0352168 7
-0.45257601 -8.4824219 -4.0238652 7
-0.449646 -8.4853516 -3.9975591 7
-0.44824201 -8.4931641 -3.974426 7
-0.454285 -8.5244141 -3.9658811 7
-0.45440701 -8.5371094 -3.94519 7
-0.46044901 -8.5683594 -3.936523 7
-0.45904499 -8.5761719 -3.913147 7
-0.453125 -8.5693359 -3.8808589 7
-0.460693 -8.6044922 -3.8747561 7
-0.45629901 -8.6025391 -3.84552 7
-0.436584 -8.5761719 6.10675 7
-0.439697 -8.5751953 6.132874 7
-0.42761201 -8.5244141 6.1314092 7
-0.42919901 -8.5175781 6.1546021 7
-0.42773399 -8.5009766 6.1721802 7
-0.42773399 -8.4892578 6.1923828 7
-0.42327899 -8.4628906 6.2044072 7
-0.420288 -8.4423828 6.2192378 7
-0.41577101 -8.4160156 6.230835 7
-0.415833 -8.4033203 6.250977 7
-0.40832499 -8.3681641 6.2567749 7
-0.405334 -8.3457031 6.2711792 7
-0.405334 -8.3339844 6.2910771 7
-0.41143799 -8.3417969 6.3228149 7
0.025024001 -1.566406 9.3440552 7
0.015991 -1.554688 9.3812866 7
0.014526 -1.5361331 9.3907471 7
0.016052 -1.516602 9.3890991 7
0.017578 -1.49707 9.3872681 7
0.016052 -1.4794919 9.3965454 7
0.017639 -1.458984 9.3947754 7
0.010071 -1.443359 9.4262075 7
0.0086059999 -1.4267581 9.4356079 7
0.013123 -1.404297 9.4223633 7
0.011658 -1.386719 9.4315186 7
0.014709 -1.3662111 9.4237671 7
0.019286999 -1.34375 9.4104004 7
0.017761 -1.327148 9.4195557 7
0.019286999 -1.3076169 9.4173584 7
0.011719 -1.2919919 9.4484253 7
-0.16558801 -4.648438 -6.051208 7
-0.161011 -4.65625 -6.0258179 7
-0.157959 -4.6689448 -6.0048828 7
-0.15802 -4.6855469 -5.9936519 7
-0.156555 -4.7001948 -5.977356 7
-0.164307 -4.7314448 -5.9898682 7
-0.15820301 -4.7363281 -5.95929 7
-0.16131601 -4.7587891 -5.9572139 7
0.015930001 -1.589844 9.0918579 7
0.015991 -1.572266 9.0961304 7
0.02063 -1.550781 9.0834351 7
0.03009 -1.5087889 9.0576782 7
0.015991 -1.5 9.1114502 7
0.020752 -1.478516 9.0986938 7
0.017639 -1.443359 9.1168823 7
0.016113 -1.425781 9.1262817 7
0.011414 -1.412109 9.1464844 7
0.020873999 -1.369141 9.1203003 7
0.020935001 -1.332031 9.1269531 7
0.014709 -1.3173831 9.1524658 7
0.020996001 -1.295898 9.1339111 7
-0.154663 -4.4941411 -5.700623 7
-0.15631101 -4.5292969 -5.6835942 7
-0.15960699 -4.5683589 -5.6712041 7
-0.16131601 -4.5888672 -5.6647339 7
-0.169312 -4.6201172 -5.6768799 7
-0.159851 -4.6337891 -5.6264648 7
-0.15033001 -4.6464839 -5.5759888 7
-0.153687 -4.6855469 -5.5629268 7
-0.15374801 -4.7011719 -5.5516362 7
-0.150574 -4.710938 -5.5308838 7
-0.153809 -4.7324219 -5.528748 7
-0.161865 -4.764648 -5.5402222 7
-0.163513 -4.7851558 -5.5330811 7
0.015807999 -1.5986331 8.7766113 7
0.019043 -1.579102 8.7695312 7
0.0077510001 -1.5693361 8.8118896 7
0.019104 -1.543945 8.7774048 7
0.019104 -1.5263669 8.78125 7
0.017517 -1.509766 8.7905884 7
0.017517 -1.492188 8.7942495 7
0.017578 -1.474609 8.7979126 7
0.017578 -1.457031 8.8018799 7
0.011108 -1.4443361 8.8275146 7
0.0094600003 -1.4287111 8.8366699 7
0.015991 -1.40625 8.8181152 7
0.0095830001 -1.392578 8.843811 7
0.019286999 -1.3681639 8.8141479 7
0.0177 -1.3525389 8.8231812 7
0.016113 -1.335938 8.8320923 7
0.016174 -1.3173831 8.8353882 7
0.017761 -1.299805 8.833252 7
0.011292 -1.2861331 8.8587036 7
-0.15856899 -4.499023 -5.333252 7
-0.15863 -4.514648 -5.3223271 7
-0.16198701 -4.5361328 -5.3205571 7
-0.158691 -4.5449219 -5.300354 7
-0.15875199 -4.5605469 -5.2894292 7
-0.158813 -4.5761719 -5.2782588 7
-0.167114 -4.6064448 -5.2901611 7
-0.165527 -4.6191411 -5.274353 7
-0.16888399 -4.641602 -5.2722168 7
-0.160706 -4.640625 -5.2382808 7
-0.16235401 -4.6582031 -5.2316279 7
-0.15411399 -4.657227 -5.1975708 7
-0.14758299 -4.6591802 -5.1681519 7
-0.15094 -4.6806641 -5.165894 7
-0.15100101 -4.6962891 -5.1547241 7
-0.15271001 -4.7148442 -5.1477661 7
-0.159363 -4.7431641 -5.1542358 7
-0.159485 -4.7597661 -5.1427612 7
-0.167786 -4.7910161 -5.153625 7
0.012695 -1.59082 8.4891357 7
0.002625 -1.580078 8.5258179 7
0.002625 -1.563477 8.5297852 7
0.016113 -1.5380861 8.4898071 7
0.022826999 -1.515625 8.4717407 7
0.016113 -1.503906 8.4974976 7
0.019531 -1.484375 8.4904165 7
0.021179 -1.466797 8.4886475 7
0.017883001 -1.452148 8.5031128 7
0.011108 -1.439453 8.5288696 7
0.0078119999 -1.424805 8.543457 7
0.012878 -1.404297 8.5306396 7
0.012939 -1.387695 8.5341187 7
0.012878 -1.3701169 8.5375366 7
0.012939 -1.353516 8.5410767 7
0.016357001 -1.3349611 8.5334473 7
0.018005 -1.318359 8.5314941 7
0.0096439999 -1.3056639 8.562439 7
0.018005 -1.28418 8.5379639 7
-0.15509 -4.499023 -4.9472051 7
-0.151733 -4.507812 -4.9271851 7
-0.155212 -4.5292969 -4.9252319 7
-0.162109 -4.5566411 -4.932373 7
-0.157043 -4.5605469 -4.9078979 7
-0.162231 -4.585938 -4.9102168 7
-0.164001 -4.6035161 -4.903564 7
-0.16406199 -4.6181641 -4.892395 7
-0.16235401 -4.6289058 -4.87677 7
-0.160706 -4.639648 -4.8612061 7
-0.164185 -4.6611328 -4.8587041 7
-0.159058 -4.6650391 -4.8339839 7
-0.152283 -4.6660161 -4.8051152 7
-0.152344 -4.679688 -4.7938228 7
-0.15240499 -4.6943359 -4.7825322 7
-0.152466 -4.7080078 -4.7711182 7
-0.154236 -4.726562 -4.763916 7
-0.16113301 -4.7539058 -4.7702031 7
-0.162903 -4.7724609 -4.763 7
0.011475 -1.595703 8.2180176 7
0.011475 -1.580078 8.2221069 7
0.011536 -1.564453 8.2260132 7
0.016724 -1.544922 8.213623 7
0.023743 -1.5224611 8.1956177 7
0.022034001 -1.507812 8.2050781 7
0.022034001 -1.492188 8.2087402 7
0.023804 -1.474609 8.2069702 7
0.018555 -1.4619139 8.2271118 7
0.023804 -1.4423831 8.2143555 7
0.011658 -1.43457 8.2564087 7
0.015137 -1.417969 8.2490845 7
0.015137 -1.400391 8.2525635 7
0.011719 -1.386719 8.2671509 7
0.011719 -1.371094 8.2705078 7
0.020385999 -1.349609 8.2466431 7
0.018677 -1.333984 8.2555542 7
0.018738 -1.318359 8.2590332 7
0.013489 -1.304688 8.2785645 7
0.015259 -1.287109 8.2765503 7
-0.156128 -4.4902339 -4.604126 7
-0.159729 -4.5107422 -4.6021729 7
-0.15978999 -4.5244141 -4.591187 7
-0.16339099 -4.5449219 -4.5890498 7
-0.15991201 -4.5517578 -4.5691528 7
-0.15991201 -4.5654302 -4.558228 7
-0.163574 -4.5869141 -4.5559692 7
-0.163635 -4.6005859 -4.5446782 7
-0.174316 -4.6337891 -4.5596919 7
-0.183228 -4.6650391 -4.57019 7
-0.169067 -4.6513672 -4.524292 7
-0.16729701 -4.6611328 -4.508606 7
-0.165649 -4.671875 -4.493042 7
-0.162109 -4.6777339 -4.473022 7
-0.16216999 -4.6914058 -4.461731 7
-0.162231 -4.7050781 -4.4505 7
-0.165833 -4.7255859 -4.4475708 7
-0.165894 -4.7392578 -4.4360962 7
-0.164124 -4.7480469 -4.4203491 7
-0.16595501 -4.765625 -4.4130859 7
-0.167786 -4.782227 -4.4058232 7
0.002869 -1.591797 7.9907231 7
0.015442 -1.566406 7.9567871 7
-0.002502 -1.564453 8.0148926 7
0.0064699999 -1.543945 7.9917598 7
0.0064699999 -1.527344 7.9957891 7
0.010132 -1.509766 7.9885249 7
0.00293 -1.499023 8.0142212 7
0.010132 -1.478516 7.9962769 7
0.0065919999 -1.464844 8.0108032 7
0.010193 -1.447266 8.00354 7
-0.00060999999 -1.439453 8.0397949 7
0.001221 -1.421875 8.0379639 7
0.010193 -1.400391 8.0144043 7
0.0066530001 -1.387695 8.0288086 7
0.010254 -1.369141 8.0214233 7
0.0066530001 -1.356445 8.0358276 7
0.003113 -1.342773 8.0499878 7
0.003113 -1.325195 8.0534668 7
0.0067139999 -1.308594 8.0458374 7
0.001343 -1.295898 8.0657349 7
0.039794002 -1.3368551 13.458824 7
0.064792998 -1.441972 11.845449 7
0.019667 -1.4958611 10.595798 7
0.024537999 -1.588572 9.8711615 7
0.032597002 -1.3265949 9.8568296 7
0.036892001 -1.422527 9.2642899 7
-0.001253 -1.476722 8.6910524 7
0.013705 -1.5202399 8.2181053 7
0.013499 -1.344207 8.2759447 7
0.017755 -1.573873 7.8634381 7
0.021353001 -1.40453 7.9019718 7
0.037094999 -1.434162 7.5263171 7
0.037981998 -1.285068 7.575665 7
0.072337002 -0.29303101 3.938215 7
0.074754 -0.29792199 3.954227 7
0.064801 -0.31923699 4.1019392 7
0.089258 -0.287469 3.9716821 7
0.078267999 -0.302488 4.1129999 7
0.048055001 -0.312666 4.1382341 7
0.079951003 -0.29379201 4.147213 7
0.057273 -0.30015999 3.9877031 7
0.090476997 -0.28644201 4.0010171 7
0.078951001 -0.287485 4.0193758 7
0.082979001 -0.27969 4.035512 7
0.084599003 -0.27994499 4.050262 7
0.072651997 -0.27786899 4.0677209 7
0.092348002 -0.26105401 4.0786338 7
0.077552997 -0.26558599 4.098412 7
0.083851002 -0.26061299 4.111834 7
0.097898997 -0.244553 4.1224122 7
0.050271999 -0.25792 4.1485219 7
0.088357002 -0.238923 4.153924 7
-0.081843004 -4.7636819 18.213604 7
-0.010534 -1.567139 18.61771 7
-0.077271 -4.648509 -11.947684 7
0.021111 -1.34008 16.078236 7
-0.029262001 -1.281989 -7.4249811 7
0.0028289999 -1.246576 -6.0455589 7
-0.117725 -4.787015 -5.6357589 7
0.026853001 -1.554211 11.30944 7
0.013394 -1.566785 -5.0194888 7
-0.099545002 -4.635148 -4.5879021 7
0.054933 -1.49445 10.424087 7
-0.095329002 -4.610158 -3.7514341 7
-0.143692 -4.637383 9.9363098 7
-0.49312201 -8.5919428 8.0034428 7
-0.00094900001 -1.448875 9.7735338 7
-0.451646 -8.5194521 6.354301 7
0.013189 -1.413458 9.2496376 7
0.026357001 -1.3828 8.7958307 7
-0.002781 -1.560079 8.2816505 7
-0.01557 -1.3542399 8.3903599 7
0.010022 -1.523927 7.9517732 7
0.0041729999 -1.3293459 8.0189953 7
0.029647 -1.4880199 7.622787 7
0.021751 -1.307593 7.6943798 7
0.033130001 -1.289657 7.4277129 7
0.042962 -1.483301 13.559919 7
-0.10653 -1.402406 -9.7087584 7
-0.28778899 -4.699101 -11.847052 7
-0.069542997 -1.422109 -8.0124693 7
-0.050391 -1.389044 -6.9314198 7
-0.034947 -1.412714 -6.1052532 7
-0.113285 -4.6335249 -5.4504061 7
-0.101812 -4.745502 -5.1978989 7
-0.024359999 -1.432403 -5.4772358 7
-0.014128 -1.399519 -4.9705658 7
-0.011361 -1.553414 -4.896565 7
-0.15436 -4.6655321 -4.2788229 7
