# .PCD v0.7 - Point Cloud Data file format
VERSION 0.7
FIELDS x y z intensity
SIZE 4 4 4 4
TYPE F F F F
COUNT 1 1 1 1
WIDTH 686
HEIGHT 1
VIEWPOINT 0 0 0 1 0 0 0
POINTS 686
DATA ascii
-0.042969 -5.125977 65.905457 7
0.065125003 -1.6767581 63.106689 7
-0.71935999 -1.0244139 -61.350952 7
-0.72674602 -1.1767581 -61.505981 7
-0.82568401 -4.5292969 -66.684326 7
-0.060729999 -5.0341802 45.962952 7
-0.067626998 -4.9433589 46.114563 7
-0.096984997 -4.9003911 46.713623 7
-0.74529999 2.8935549 -61.942993 7
-0.72534198 -1.0224611 -59.434692 7
-0.75195301 -1.1767581 -59.981567 7
-0.76403803 3.047852 -60.310059 7
-0.695068 -1.0517581 -53.466248 7
-0.69995099 -1.1826169 -53.550903 7
-0.050719999 -4.9101558 39.246948 7
-0.067322001 -4.8564448 39.542786 7
-0.081603996 -4.797852 39.798035 7
-0.81897002 -4.4814448 -51.047119 7
0.045959 -1.6455081 35.363159 7
0.060059 -1.554688 35.145325 7
0.054749001 -1.511719 32.599487 7
-0.071106002 -4.9287109 31.987 7
-0.082457997 -4.8808589 32.154541 7
-0.107788 -4.7880859 32.523865 7
0.044617001 -1.519531 28.744995 7
0.046509001 -1.454102 28.725464 7
0.0071410001 -1.582031 18.323364 7
0.0034789999 -1.544922 18.356323 7
-0.002441 -1.5087889 18.406311 7
0.002136 -1.464844 18.375305 7
0.0073850001 -1.421875 18.338623 7
0.002991 -1.384766 18.376892 7
-0.0066530001 -1.3505861 18.455627 7
-0.002136 -1.3076169 18.424194 7
0.0056759999 -1.574219 17.429504 7
0.0034179999 -1.5380861 17.450439 7
-0.00048799999 -1.50293 17.483276 7
-0.0075070001 -1.470703 17.539185 7
0.001953 -1.4267581 17.473389 7
0.001282 -1.388672 17.482788 7
-0.000244 -1.3525389 17.497864 7
-0.0064699999 -1.318359 17.547485 7
-0.101013 -4.7753911 16.605896 7
-0.108459 -4.7558589 16.66748 7
-0.111755 -4.726562 16.70105 7
-0.11084 -4.6875 16.706787 7
-0.099182002 -4.5917969 16.651672 7
-0.095764004 -4.5126948 16.651611 7
0.011841 -1.5576169 16.518677 7
0.002808 -1.4931639 16.589844 7
0.0095210001 -1.452148 16.547302 7
0.012085 -1.4150389 16.533813 7
0.0096439999 -1.3798831 16.554443 7
0.0046999999 -1.347656 16.59259 7
0.003113 -1.3125 16.607666 7
0.012024 -1.583984 15.777039 7
0.0060419999 -1.5205081 15.825073 7
0.0034179999 -1.4892581 15.846252 7
0.0087890001 -1.416016 15.819031 7
0.0071410001 -1.382812 15.834045 7
0.0071410001 -1.349609 15.837402 7
-0.003174 -1.2861331 15.913086 7
-0.18396001 -4.4892578 -13.642395 7
-0.192871 -4.5419922 -13.68689 7
-0.20013399 -4.5908198 -13.720215 7
-0.19751 -4.6210942 -13.692322 7
-0.18963601 -4.640625 -13.63147 7
-0.182678 -4.6621089 -13.575928 7
-0.17926 -4.6894531 -13.54248 7
-0.194397 -4.7548828 -13.625 7
0.0083010001 -1.574219 15.08374 7
0.011108 -1.5400389 15.070557 7
0.0056759999 -1.511719 15.108887 7
0.002991 -1.480469 15.130005 7
0.0067139999 -1.412109 15.114319 7
0.003174 -1.3505861 15.144165 7
-0.00042699999 -1.320312 15.170654 7
-0.0077510001 -1.2919919 15.21991 7
-0.18103001 -4.6337891 -12.783264 7
-0.177368 -4.6611328 -12.750061 7
-0.17285199 -4.6845698 -12.711365 7
-0.18042 -4.733398 -12.743774 7
0.028137 -1.580078 14.336609 7
0.012817 -1.55957 14.432251 7
0.012878 -1.52832 14.436035 7
0.0177 -1.496094 14.411377 7
0.0081789996 -1.470703 14.472412 7
-0.001343 -1.4462889 14.533386 7
0.017883001 -1.402344 14.422241 7
0.010254 -1.376953 14.471802 7
0.0093379999 -1.345703 14.480957 7
0.0064699999 -1.3173831 14.501404 7
0.014221 -1.28125 14.458801 7
-0.050415002 -1.2880861 -12.032898 7
-0.052429002 -1.3212889 -12.040833 7
-0.046631001 -1.349609 -12.002991 7
-0.041809 -1.37793 -11.970886 7
-0.041870002 -1.40918 -11.967529 7
-0.040955 -1.439453 -11.958008 7
-0.047851998 -1.474609 -11.994568 7
-0.045959 -1.5048831 -11.97937 7
-0.046021 -1.5361331 -11.975525 7
-0.049011 -1.5693361 -11.988831 7
0.023071 -1.594727 13.722839 7
0.018127 -1.5673831 13.755493 7
0.023193 -1.535156 13.730713 7
0.020203 -1.507812 13.751709 7
0.013184 -1.484375 13.795471 7
0.018310999 -1.451172 13.77063 7
0.023375999 -1.418945 13.745728 7
0.021361999 -1.390625 13.760742 7
0.019409001 -1.362305 13.775574 7
0.016418001 -1.335938 13.796265 7
0.011475 -1.308594 13.828186 7
-0.044677999 -1.287109 -11.398621 7
-0.051879998 -1.3212889 -11.435425 7
-0.057068001 -1.3544919 -11.460632 7
-0.045898002 -1.376953 -11.394287 7
-0.043945 -1.40625 -11.37915 7
-0.042969 -1.43457 -11.369812 7
-0.045104999 -1.46582 -11.377625 7
-0.051208001 -1.499023 -11.408264 7
-0.051330999 -1.529297 -11.404541 7
-0.04834 -1.556641 -11.383484 7
-0.050415002 -1.587891 -11.39093 7
0.016113 -1.5849611 13.220459 7
0.01825 -1.527344 13.216797 7
0.017273 -1.500977 13.226257 7
0.0068359999 -1.4794919 13.287231 7
0.016295999 -1.445312 13.239563 7
0.019531 -1.4150389 13.226074 7
0.013306 -1.362305 13.267578 7
0.0091549996 -1.3369139 13.293762 7
0.010254 -1.280273 13.294434 7
-0.047363002 -1.310547 -10.794556 7
-0.049561001 -1.339844 -10.80249 7
-0.039000999 -1.363281 -10.741699 7
-0.040100001 -1.391602 -10.744019 7
-0.036986999 -1.445312 -10.719849 7
-0.033813 -1.47168 -10.699036 7
-0.048827998 -1.5107419 -10.775208 7
-0.041443001 -1.53418 -10.731506 7
-0.044677999 -1.564453 -10.744629 7
-0.046936002 -1.59375 -10.751831 7
0.018616 -1.587891 12.632812 7
0.020873999 -1.55957 12.625244 7
0.017578 -1.535156 12.64624 7
0.018738 -1.507812 12.644348 7
0.0177 -1.481445 12.65387 7
0.0177 -1.456055 12.657715 7
0.014465 -1.4306639 12.678284 7
0.019958001 -1.400391 12.653381 7
0.014526 -1.37793 12.685547 7
0.016785 -1.349609 12.677551 7
0.015686 -1.324219 12.686707 7
0.012451 -1.298828 12.70697 7
-0.039733998 -1.168945 -10.23645 7
-0.03418 -1.191406 -10.204956 7
-0.034240998 -1.21875 -10.201843 7
-0.034240998 -1.246094 -10.198608 7
-0.031005999 -1.271484 -10.178467 7
0.014832 -1.599609 12.171082 7
0.018310999 -1.572266 12.158142 7
0.013794 -1.549805 12.184814 7
0.014954 -1.523438 12.1828 7
0.010437 -1.5 12.20929 7
0.000122 -1.482422 12.264404 7
0.0036009999 -1.453125 12.251099 7
0.0059199999 -1.4267581 12.243225 7
0.016295999 -1.394531 12.195618 7
0.011719 -1.371094 12.221985 7
0.012939 -1.345703 12.219788 7
0.010681 -1.320312 12.234436 7
0.0061650001 -1.297852 12.260681 7
-0.040527001 -1.298828 -9.7296143 7
-0.044128001 -1.326172 -9.7432861 7
-0.042969 -1.3525389 -9.734375 7
-0.038391002 -1.375 -9.7081909 7
-0.039551001 -1.4013669 -9.7103882 7
-0.037354 -1.425781 -9.6952515 7
-0.032715 -1.4482419 -9.6688843 7
-0.038635001 -1.478516 -9.6936646 7
-0.047913 -1.509766 -9.7354736 7
-0.043334998 -1.532227 -9.7087402 7
-0.042236 -1.556641 -9.6992188 7
-0.041138001 -1.5830081 -9.6894531 7
0.0097049996 -1.583984 11.723022 7
0.016907001 -1.554688 11.692993 7
0.018127 -1.530273 11.691223 7
0.014587 -1.507812 11.712036 7
0.0098270001 -1.487305 11.738708 7
0.0086669996 -1.462891 11.747864 7
0.011108 -1.4375 11.740112 7
0.0087280003 -1.414062 11.755249 7
0.017151 -1.3837889 11.718994 7
0.01001 -1.3642581 11.756592 7
0.014832 -1.3369139 11.737183 7
0.010071 -1.31543 11.763428 7
0.00054899999 -1.295898 11.812134 7
0.015747 -1.5849611 11.272583 7
0.013306 -1.563477 11.287781 7
0.0095830001 -1.5419919 11.308777 7
0.018371999 -1.512695 11.273071 7
0.013428 -1.492188 11.299255 7
0.0059810001 -1.474609 11.337097 7
0.0097660003 -1.4482419 11.323853 7
0.011047 -1.423828 11.321777 7
0.017273 -1.396484 11.297058 7
0.0061039999 -1.380859 11.351379 7
0.011108 -1.353516 11.332336 7
0.014893 -1.328125 11.318848 7
0.0062259999 -1.310547 11.361816 7
0.0099489996 -1.285156 11.348206 7
-0.024840999 -1.295898 -8.7092295 7
-0.03125 -1.3232419 -8.7341919 7
-0.028748 -1.345703 -8.7192993 7
-0.023743 -1.365234 -8.6932373 7
-0.017456001 -1.3837889 -8.661377 7
-0.017517 -1.407227 -8.65802 7
-0.021361999 -1.433594 -8.6712646 7
-0.016295999 -1.454102 -8.6450806 7
-0.025208 -1.482422 -8.6808472 7
-0.024048001 -1.5048831 -8.6713867 7
-0.02533 -1.530273 -8.6733398 7
-0.029236 -1.5556639 -8.6864624 7
-0.031799 -1.580078 -8.6936646 7
-0.026794 -1.599609 -8.6671753 7
0.017944001 -1.580078 10.811401 7
0.024475001 -1.552734 10.787109 7
0.025818 -1.529297 10.785339 7
0.025818 -1.507812 10.789246 7
0.024536001 -1.486328 10.798523 7
0.018127 -1.46875 10.830444 7
0.015503 -1.449219 10.845581 7
0.015564 -1.425781 10.849182 7
0.019531 -1.400391 10.835938 7
0.024719 -1.375977 10.816711 7
0.02478 -1.3525389 10.820251 7
0.02478 -1.331055 10.823608 7
0.022217 -1.310547 10.83844 7
0.014465 -1.292969 10.875671 7
-0.032593001 -1.2919919 -8.3295898 7
-0.040527001 -1.3193361 -8.3602905 7
-0.045898002 -1.345703 -8.3792725 7
-0.036681999 -1.362305 -8.3364868 7
-0.030151 -1.3818361 -8.3047485 7
-0.02887 -1.40332 -8.2955933 7
-0.026306 -1.423828 -8.2807007 7
-0.027649 -1.447266 -8.2826538 7
-0.030334 -1.47168 -8.2902832 7
-0.034363002 -1.49707 -8.3035278 7
-0.035767 -1.5205081 -8.3053589 7
-0.038391002 -1.544922 -8.312561 7
-0.035828002 -1.564453 -8.2976074 7
-0.041138001 -1.59082 -8.3161621 7
-0.41833499 -8.6210938 8.1363525 7
-0.41833499 -8.6054688 8.1569214 7
-0.42242399 -8.6025391 8.1881714 7
-0.42511001 -8.59375 8.2156982 7
-0.42517099 -8.578125 8.2363892 7
-0.42517099 -8.5615234 8.256958 7
-0.42248499 -8.5361328 8.2703857 7
-0.41851801 -8.5078115 8.2801514 7
-0.415833 -8.4824219 8.2932129 7
-0.413147 -8.4570312 8.3063354 7
-0.41046101 -8.4316406 8.3192749 7
-0.127441 -4.7998052 9.8662109 7
-0.12738 -4.7792969 9.8778076 7
-0.124634 -4.7539058 9.8793945 7
-0.126038 -4.7373052 9.8959351 7
0.001587 -1.592773 10.495728 7
0.011108 -1.564453 10.460449 7
0.011108 -1.542969 10.464294 7
0.0097660003 -1.523438 10.473694 7
0.011169 -1.500977 10.472046 7
0.0071410001 -1.481445 10.492554 7
-0.00091599999 -1.46582 10.530151 7
0.0045170002 -1.44043 10.511169 7
0.001892 -1.419922 10.526062 7
0.011353 -1.392578 10.490234 7
0.01001 -1.37207 10.49939 7
0.0059810001 -1.353516 10.519775 7
0.0060419999 -1.332031 10.523132 7
0.003357 -1.311523 10.537781 7
0.00067099999 -1.2919919 10.552429 7
-0.43072501 -8.4091797 -5.4241328 7
-0.428101 -8.4160156 -5.3969121 7
-0.43231201 -8.4453115 -5.3873291 7
-0.43279999 -8.4619141 -5.366394 7
-0.43573001 -8.4873047 -5.3530269 7
-0.43859899 -8.5117188 -5.3397222 7
-0.43450901 -8.5136719 -5.3087769 7
-0.44152799 -8.5517578 -5.3056641 7
-0.447144 -8.5859385 -5.2990718 7
-0.440308 -8.5791016 -5.261169 7
-0.439026 -8.5888672 -5.2371831 7
-0.43914801 -8.6044922 -5.2164311 7
-0.43646199 -8.6103516 -5.1890869 7
-0.43792701 -8.6298828 -5.171875 7
-0.41918901 -8.625 7.3717041 7
-0.41925001 -8.6103516 7.3925781 7
-0.41644299 -8.5878906 7.4064331 7
-0.41369599 -8.5644531 7.4204712 7
-0.42218 -8.5771484 7.460815 7
-0.42218 -8.5615234 7.4813228 7
-0.422241 -8.5478516 7.5021362 7
-0.422241 -8.5341797 7.5223999 7
-0.42089799 -8.5146484 7.5396118 7
-0.423767 -8.5097656 7.5667109 7
-0.418152 -8.4755859 7.573669 7
-0.41394001 -8.4472656 7.5838618 7
-0.41821301 -8.4462891 7.6142578 7
-0.415344 -8.421875 7.627563 7
-0.406982 -8.3798828 7.627502 7
-0.406982 -8.3642578 7.647583 7
-0.40564001 -8.3457031 7.6642461 7
-0.116394 -4.7705078 9.3633423 7
-0.113525 -4.7470698 9.3653564 7
-0.11499 -4.7119141 9.3928833 7
-0.113525 -4.6894531 9.399353 7
-0.117737 -4.6787109 9.425415 7
-0.126221 -4.6777339 9.4663086 7
-0.122009 -4.6494141 9.4627085 7
-0.116333 -4.6191411 9.4542847 7
-0.113525 -4.594727 9.4558716 7
-0.113464 -4.5556641 9.4777222 7
-0.110657 -4.53125 9.4788818 7
-0.110657 -4.5117192 9.4897461 7
-0.107849 -4.4873052 9.4909058 7
0.021729 -1.554688 10.031738 7
0.018921001 -1.537109 10.047119 7
0.016174 -1.517578 10.062073 7
0.019043 -1.4755861 10.058228 7
0.014832 -1.4580081 10.078979 7
0.012085 -1.438477 10.093872 7
0.010681 -1.398438 10.106445 7
0.016357001 -1.374023 10.087585 7
0.013611 -1.3544919 10.102417 7
0.013611 -1.313477 10.109131 7
-0.147522 -4.4960942 -6.881042 7
-0.147644 -4.5351558 -6.8590088 7
-0.14636201 -4.570312 -6.8320308 7
-0.150757 -4.6162109 -6.824646 7
-0.142334 -4.6367192 -6.7727051 7
-0.140991 -4.6523442 -6.7566528 7
-0.143921 -4.6777339 -6.755188 7
-0.139709 -4.6875 -6.729187 7
-0.139771 -4.7060552 -6.7177119 7
-0.15271001 -4.7519531 -6.7502441 7
-0.15564001 -4.7763672 -6.7484741 7
0.015381 -1.579102 9.7237549 7
0.016845999 -1.558594 9.722168 7
0.019835999 -1.5361331 9.7149658 7
0.015503 -1.519531 9.7354736 7
0.015503 -1.500977 9.7391968 7
0.014099 -1.481445 9.7485352 7
0.0097049996 -1.464844 9.769104 7
0.0083010001 -1.445312 9.7782593 7
0.0083010001 -1.425781 9.7819824 7
0.015625 -1.4013669 9.7576294 7
0.020020001 -1.378906 9.7442627 7
0.015686 -1.361328 9.7644653 7
0.015747 -1.341797 9.7680054 7
0.015747 -1.322266 9.7714233 7
0.0099489996 -1.306641 9.7970581 7
0.011414 -1.2861331 9.7948608 7
-0.151245 -4.4902339 -6.4859009 7
-0.143921 -4.4941411 -6.450562 7
-0.14691199 -4.5175781 -6.4494019 7
-0.154419 -4.5507808 -6.462646 7
-0.154541 -4.5683589 -6.4517822 7
-0.147156 -4.5722661 -6.4163818 7
-0.150208 -4.5966802 -6.414856 7
-0.154724 -4.6230469 -6.4182739 7
-0.160706 -4.6533198 -6.4265141 7
-0.151917 -4.6533198 -6.386169 7
-0.143005 -4.6542969 -6.3460689 7
-0.14605699 -4.6757808 -6.3443599 7
-0.146118 -4.6943359 -6.3330078 7
-0.140259 -4.7001948 -6.3025508 7
-0.138855 -4.7158198 -6.2863159 7
-0.147827 -4.750977 -6.3036499 7
-0.155334 -4.7841802 -6.315979 7
-0.42712399 -8.5361328 6.0852661 7
-0.422607 -8.5107422 6.0975342 7
-0.42864999 -8.5185547 6.1289058 7
-0.418091 -8.4736328 6.1298828 7
-0.419678 -8.4658203 6.1528931 7
-0.42425501 -8.4697266 6.1817021 7
-0.42425501 -8.4589844 6.2020259 7
-0.41369599 -8.4121094 6.2025762 7
-0.413757 -8.4013672 6.2227168 7
-0.41528299 -8.3935547 6.245605 7
-0.41833499 -8.3916016 6.2714839 7
-0.42138699 -8.3896484 6.2973628 7
-0.41235399 -8.3486328 6.3001099 7
-0.41540501 -8.3466797 6.3260498 7
-0.41546601 -8.3349609 6.3458862 7
-0.125366 -4.7949219 8.5596313 7
-0.119324 -4.765625 8.5523071 7
-0.123901 -4.7587891 8.5780029 7
-0.119263 -4.7314448 8.5753784 7
-0.119324 -4.7148442 8.586731 7
-0.12835699 -4.7158198 8.6266479 7
-0.12384 -4.671875 8.6349487 7
-0.120789 -4.6494141 8.6369019 7
-0.001587 -1.5869139 9.4439697 7
0.010559 -1.558594 9.4035645 7
0.0090330001 -1.541016 9.413147 7
0.0091549996 -1.521484 9.4168701 7
0.0045779999 -1.505859 9.4373779 7
0.0091549996 -1.483398 9.4244385 7
0.003174 -1.46875 9.4504995 7
-0.001343 -1.453125 9.4708862 7
-0.0074459999 -1.438477 9.4966431 7
0.000183 -1.4150389 9.4726562 7
0.0092160003 -1.389648 9.442688 7
0.0077510001 -1.37207 9.4517822 7
0.000244 -1.357422 9.4832764 7
0.003296 -1.3369139 9.4754028 7
0.0078739999 -1.314453 9.4619141 7
-0.002747 -1.3017581 9.5044556 7
-0.0057370001 -1.28418 9.5189819 7
-0.134766 -4.4863281 -6.02771 7
-0.13793901 -4.5097661 -6.0264888 7
-0.138 -4.5263672 -6.015564 7
-0.13964801 -4.547852 -6.0093379 7
-0.14276101 -4.570312 -6.007812 7
-0.150574 -4.6035161 -6.0204468 7
-0.152161 -4.624023 -6.0142212 7
-0.14294399 -4.6220698 -5.9745479 7
-0.139954 -4.632812 -5.9536738 7
-0.13537601 -4.639648 -5.9283452 7
-0.132385 -4.6513672 -5.9075928 7
-0.13555899 -4.6748052 -5.9058232 7
-0.132507 -4.6845698 -5.8849492 7
-0.140259 -4.7167969 -5.8972168 7
-0.14032 -4.733398 -5.8856812 7
-0.146606 -4.7636719 -5.8930659 7
-0.152832 -4.7929692 -5.900269 7
-0.111084 -4.515625 8.3303223 7
-0.111084 -4.499023 8.3411865 7
-0.111084 -4.4824219 8.3521118 7
0.0041499999 -1.599609 9.1361694 7
0.0072630001 -1.578125 9.1290894 7
0.013611 -1.556641 9.1109009 7
0.015137 -1.5380861 9.109375 7
0.0089109996 -1.523438 9.1353149 7
0.0073850001 -1.505859 9.1446533 7
0.0058590001 -1.488281 9.1539307 7
0.0074459999 -1.46875 9.1520386 7
0.0043330002 -1.453125 9.1669312 7
0.0075070001 -1.4326169 9.1594238 7
0.0059810001 -1.4150389 9.1686401 7
0.0059810001 -1.3974611 9.1722412 7
0.013794 -1.373047 9.1479492 7
0.010742 -1.356445 9.1624756 7
0.010742 -1.3388669 9.1660156 7
0.0061039999 -1.324219 9.1859741 7
0.0076290001 -1.304688 9.1838379 7
0.010803 -1.283203 9.1758423 7
-0.139221 -4.4814448 -5.6486211 7
-0.13604701 -4.4902339 -5.6283569 7
-0.136169 -4.507812 -5.61731 7
-0.14257801 -4.5351558 -5.6253052 7
-0.13623001 -4.539062 -5.595459 7
-0.136353 -4.5556641 -5.5844731 7
-0.13641401 -4.5712891 -5.5733638 7
-0.14605699 -4.6074219 -5.590332 7
-0.14929201 -4.6298828 -5.5884399 7
-0.14294399 -4.632812 -5.5587158 7
-0.138245 -4.639648 -5.5335078 7
-0.135132 -4.648438 -5.513 7
-0.13519301 -4.664062 -5.5016479 7
-0.136841 -4.6835942 -5.4950562 7
-0.136902 -4.6992192 -5.483582 7
-0.13855 -4.71875 -5.4768071 7
-0.14501999 -4.7470698 -5.4838872 7
-0.145081 -4.7626948 -5.4724121 7
-0.14996301 -4.789062 -5.4745479 7
0.0083619999 -1.5869139 8.8078613 7
0.016479 -1.563477 8.7842407 7
0.013306 -1.548828 8.7993164 7
0.011658 -1.532227 8.8085938 7
0.0084229996 -1.517578 8.8234863 7
0.0084840003 -1.5 8.8272095 7
0.010132 -1.481445 8.8255615 7
0.0084840003 -1.464844 8.8348389 7
0.0068970001 -1.4482419 8.8439941 7
0.002075 -1.4326169 8.8641357 7
0.002075 -1.416016 8.8678589 7
0.0053710002 -1.3955081 8.8602285 7
0.011902 -1.374023 8.8416138 7
0.0086669996 -1.357422 8.8562622 7
0.011902 -1.339844 8.8485107 7
0.0087280003 -1.3232419 8.8630981 7
0.0054930001 -1.3076169 8.8773804 7
0.0071410001 -1.289062 8.8751831 7
-0.136108 -4.4863281 -5.2524409 7
-0.136169 -4.500977 -5.2416382 7
-0.13793901 -4.5195308 -5.235229 7
-0.136292 -4.532227 -5.219727 7
-0.143005 -4.5595698 -5.2270508 7
-0.151306 -4.5917969 -5.238831 7
-0.154724 -4.6123052 -5.237061 7
-0.151489 -4.6220698 -5.2165532 7
-0.144897 -4.624023 -5.1871338 7
-0.144958 -4.6386719 -5.1759639 7
-0.135132 -4.6357422 -5.1373291 7
-0.133545 -4.6474609 -5.1218262 7
-0.135254 -4.6650391 -5.1149902 7
-0.135315 -4.6806641 -5.1035771 7
-0.13867199 -4.702148 -5.1012568 7
-0.13214099 -4.703125 -5.07196 7
-0.138794 -4.7324219 -5.0785518 7
-0.147156 -4.7636719 -5.089355 7
-0.15222199 -4.789062 -5.0913091 7
0.003113 -1.597656 8.5219727 7
-0.000244 -1.583984 8.5368652 7
0.0082400003 -1.55957 8.5133667 7
0.0099489996 -1.541016 8.5118408 7
0.0082400003 -1.5263669 8.5211792 7
0.0065919999 -1.5107419 8.5305176 7
-0.000122 -1.499023 8.5562744 7
0.0066530001 -1.476562 8.5380249 7
0.0083619999 -1.458984 8.5363159 7
-6.0999999e-05 -1.4482419 8.5674438 7
-0.0034179999 -1.4326169 8.5821533 7
0 -1.4150389 8.574707 7
0.003357 -1.3955081 8.5671387 7
0.010132 -1.374023 8.5488281 7
0.001709 -1.363281 8.579834 7
0.00177 -1.345703 8.583374 7
0.0085450001 -1.324219 8.5645142 7
0.010193 -1.306641 8.5622559 7
0.0085450001 -1.2900389 8.571167 7
-0.14056399 -4.4863281 -4.9011841 7
-0.135498 -4.4902339 -4.8768311 7
-0.13555899 -4.5048828 -4.8659058 7
-0.14416499 -4.5361328 -4.8773799 7
-0.140808 -4.5439448 -4.8574829 7
-0.14086901 -4.5585942 -4.846375 7
-0.144409 -4.5800781 -4.8442988 7
-0.147827 -4.6005859 -4.8422241 7
-0.14624 -4.6123052 -4.826416 7
-0.151428 -4.6367192 -4.8285518 7
-0.144592 -4.6367192 -4.7996221 7
-0.14123499 -4.6435552 -4.7796631 7
-0.139587 -4.6542969 -4.763916 7
-0.13623001 -4.6621089 -4.743835 7
-0.13281199 -4.6689448 -4.7236328 7
-0.132874 -4.6826172 -4.7122798 7
-0.13128699 -4.6933589 -4.6968379 7
-0.138184 -4.7216802 -4.7028198 7
-0.141663 -4.7431641 -4.7001948 7
-0.14520299 -4.7636719 -4.6973882 7
-0.150391 -4.789062 -4.69873 7
0.0050659999 -1.585938 8.2438354 7
0.0051270002 -1.568359 8.2477417 7
0.010376 -1.548828 8.2353516 7
0.0086669996 -1.533203 8.244751 7
0.013855 -1.513672 8.2323608 7
0.0086669996 -1.50293 8.2525635 7
0.010376 -1.485352 8.2508535 7
0.010376 -1.469727 8.2545776 7
0.001709 -1.458984 8.2856445 7
0.0052490002 -1.44043 8.2784424 7
0.00177 -1.4267581 8.2929688 7
-0.001709 -1.4130861 8.3074341 7
0.0053099999 -1.391602 8.2891846 7
0.010559 -1.37207 8.2761841 7
0.010559 -1.3544919 8.2796021 7
0.01062 -1.3388669 8.28302 7
0.0071410001 -1.325195 8.2973022 7
0.0054319999 -1.30957 8.3061523 7
0.0054319999 -1.293945 8.3095093 7
-0.001465 -1.28125 8.3348389 7
-0.13952599 -4.485352 -4.5437622 7
-0.134277 -4.4882808 -4.5197749 7
-0.134277 -4.5019531 -4.5089111 7
-0.13262901 -4.5126948 -4.4934692 7
-0.139771 -4.539062 -4.5001831 7
-0.13446 -4.5419922 -4.4760742 7
-0.13452099 -4.5566411 -4.4649658 7
-0.139893 -4.5800781 -4.46698 7
-0.134644 -4.5830078 -4.4428101 7
-0.147156 -4.6210942 -4.4620972 7
-0.156067 -4.6513672 -4.4724731 7
-0.143738 -4.640625 -4.4310298 7
-0.14379901 -4.6542969 -4.4197388 7
-0.140259 -4.6601558 -4.3999019 7
-0.14208999 -4.6767578 -4.3929439 7
-0.138611 -4.6835942 -4.3729858 7
-0.13867199 -4.6962891 -4.3615718 7
-0.138794 -4.7099609 -4.3502202 7
-0.138855 -4.7226558 -4.3389888 7
-0.135315 -4.7285161 -4.3188481 7
-0.142456 -4.7558589 -4.3243408 7
-0.147888 -4.78125 -4.3255 7
-0.002014 -1.595703 8.007019 7
-0.0038449999 -1.5830081 8.0166626 7
-0.0056150001 -1.568359 8.0259399 7
0.001648 -1.546875 8.0081177 7
-0.001953 -1.53418 8.0228882 7
0.001709 -1.515625 8.0158691 7
-0.001892 -1.501953 8.0305176 7
-0.001892 -1.487305 8.0343018 7
-0.001892 -1.47168 8.0379028 7
-0.001892 -1.455078 8.041687 7
-0.001831 -1.439453 8.0454102 7
-0.012573 -1.4306639 8.0817261 7
0.0036009999 -1.405273 8.036377 7
-0.00177 -1.392578 8.0561523 7
0.0036619999 -1.373047 8.043335 7
-0.0035399999 -1.362305 8.0685415 7
-0.010681 -1.3505861 8.0939331 7
-0.010681 -1.335938 8.097229 7
-0.0070799999 -1.3173831 8.0897827 7
-0.0088499999 -1.302734 8.0984497 7
-0.01062 -1.287109 8.1072998 7
-0.01353 -1.339919 14.243103 7
0.015325 -1.467944 12.475929 7
-0.031207999 -1.5355639 11.106919 7
-0.113523 -4.6851439 9.7862768 7
-0.010061 -1.34788 10.246271 7
-0.39911401 -8.451993 8.1993599 7
-0.080068 -4.7194381 8.5409021 7
0.0043219998 -1.436024 9.5379772 7
-0.026211999 -1.47952 8.872942 7
-0.031366002 -1.285054 8.9621754 7
-0.017495999 -1.544535 8.4252367 7
-0.019476 -1.363223 8.4949608 7
0.0024059999 -1.568704 7.96593 7
0.000337 -1.4069099 8.0367422 7
0.017769 -1.4389451 7.6432748 7
0.014637 -1.2927279 7.7144208 7
-0.0085439999 -1.503209 7.3017931 7
-0.0076159998 -1.328496 7.3682709 7
0.00036100001 -1.405887 7.092207 7
0.066990003 -0.29686099 3.9401851 7
0.061007999 -0.29789001 3.9576149 7
0.083979003 -0.28999999 3.9708171 7
0.067680001 -0.30717 4.1169658 7
0.042617999 -0.314491 4.1421099 7
0.059076 -0.30194801 4.1562009 7
0.067500003 -0.29530001 3.9890361 7
0.087251998 -0.28098601 4.0052509 7
0.083993003 -0.28510901 4.019794 7
0.051231999 -0.294862 4.039886 7
0.092099003 -0.26891801 4.0508628 7
0.056564 -0.285045 4.0706501 7
0.086889997 -0.263255 4.0814729 7
0.072054997 -0.26797301 4.0986681 7
0.078353003 -0.26244199 4.1149659 7
0.076461002 -0.25275901 4.1269641 7
0.050241999 -0.25793201 4.1485262 7
0.082957 -0.240091 4.157197 7
-0.094104998 -4.684104 16.164972 7
0.058534 -1.3277709 15.576856 7
0.095650002 -1.445083 -8.7471628 7
-0.0035610001 -1.383334 -7.12396 7
-0.100451 -4.7277632 -5.4958868 7
0.059661001 -1.535975 11.03156 7
-0.083309002 -4.6544638 -4.417645 7
0.074992001 -1.484259 10.268242 7
-0.488745 -8.5225792 8.0704861 7
0.011093 -1.443666 9.6933069 7
-0.11593 -4.7459092 8.4497948 7
-0.103456 -4.4973068 8.5604525 7
0.025164001 -1.4086421 9.1751852 7
0.04504 -1.375782 8.6869659 7
0.055475999 -1.559309 8.2633438 7
0.055144001 -1.350226 8.3089561 7
0.021652 -1.517938 7.8952799 7
0.018073 -1.325007 7.9509239 7
0.039391 -1.4832669 7.5778508 7
0.031451002 -1.3047301 7.6492949 7
0.048207998 -1.456012 7.329319 7
0.043315001 -1.2868069 7.3826761 7
0.0093520004 -1.5923719 7.0865479 7
0.01471 -1.429992 7.1002002 7
-0.094935998 -1.373908 -9.534936 7
-0.057907 -1.391096 -7.8629231 7
-0.043947998 -1.432242 -6.8477721 7
-0.103455 -4.6642809 -6.270956 7
-0.087953001 -4.629271 -5.0988779 7
