# .PCD v0.7 - Point Cloud Data file format
VERSION 0.7
FIELDS x y z intensity
SIZE 4 4 4 4
TYPE F F F F
COUNT 1 1 1 1
WIDTH 675
HEIGHT 1
VIEWPOINT 0 0 0 1 0 0 0
POINTS 675
DATA ascii
-0.64660603 -0.84472698 -60.623047 7
-0.64502001 3.148438 -60.579224 7
-0.66876203 3.0253911 -61.106201 7
-0.66064501 -1.003906 -57.493042 7
-0.66552699 -1.144531 -57.58374 7
-0.81707799 -4.2714839 -60.389648 7
-0.75695801 -4.4707031 -59.120239 7
-0.036437999 -1.509766 42.683716 7
-0.69970697 2.9404299 -58.458862 7
-0.620911 -0.90136701 -51.574219 7
-0.60693401 -1.0205081 -51.302612 7
-0.61291498 -1.1474611 -51.404907 7
-0.74237102 -4.3144531 -53.51062 7
-0.72064197 -4.4101558 -53.086426 7
0.0053710002 -1.539062 38.629395 7
-0.123718 -4.9638672 37.644714 7
-0.154907 -4.8564448 38.160706 7
0.016174 -1.74707 35.79071 7
-0.148926 -4.8769531 30.773682 7
-0.14605699 -4.8007808 30.750916 7
-0.677917 -12.876953 -29.777466 7
-0.68273902 -12.970703 -29.794922 7
-0.68695098 -13.061523 -29.807007 7
-0.68920898 -13.145508 -29.797119 7
-0.69195598 -13.230469 -29.792542 7
-0.69769299 -13.329102 -29.819763 7
-0.69848597 -13.404297 -29.793213 7
-0.70373499 -13.500977 -29.814636 7
-0.70550501 -13.582031 -29.798218 7
-0.71020502 -13.675781 -29.813904 7
-0.71203601 -13.756836 -29.797119 7
-0.715271 -13.844727 -29.796143 7
-0.718018 -13.929688 -29.789612 7
-0.72277802 -14.024414 -29.803955 7
-0.72454798 -14.105469 -29.786377 7
-0.72924799 -14.200195 -29.800415 7
-0.73358202 -14.293945 -29.808777 7
-0.73584002 -14.376953 -29.795776 7
-0.129517 -4.9306641 23.55426 7
-0.128296 -4.875977 23.55481 7
-0.137695 -4.8417969 23.657715 7
-0.019531 -1.592773 17.608704 7
-0.024963001 -1.5576169 17.653198 7
-0.03125 -1.523438 17.703003 7
-0.028015001 -1.483398 17.683777 7
-0.020873999 -1.439453 17.635437 7
-0.024048001 -1.40332 17.662231 7
-0.027892999 -1.3681639 17.69458 7
-0.029418999 -1.329102 17.709595 7
-0.031738002 -1.292969 17.730225 7
-0.012878 -1.575195 16.685913 7
-0.01532 -1.5400389 16.707153 7
-0.023560001 -1.509766 16.768494 7
-0.0177 -1.46875 16.731995 7
-0.010193 -1.4287111 16.683655 7
-0.015137 -1.394531 16.721924 7
-0.015869001 -1.358398 16.731262 7
-0.025818 -1.329102 16.803833 7
-0.021606 -1.2900389 16.77832 7
-0.027222 3.6582029 -13.840454 7
-0.037659001 -1.201172 -14.07666 7
-0.036926001 -1.236328 -14.067627 7
-0.035521999 -1.34375 -14.046082 7
-0.036499001 -1.3798831 -14.048584 7
-0.037475999 -1.4169919 -14.050781 7
-0.17395 -4.5039058 -14.332581 7
-0.184204 -4.5605469 -14.388428 7
-0.180969 -4.5908198 -14.355103 7
-0.170105 -4.6064448 -14.271667 7
-0.16766401 -4.6376948 -14.243896 7
-0.16528299 -4.6689448 -14.216003 7
-0.191589 -4.757812 -14.376404 7
-0.133362 -4.8476558 15.996643 7
-0.128113 -4.8027339 15.975464 7
-0.0095830001 -1.564453 15.919067 7
-0.013916 -1.533203 15.951843 7
-0.016479 -1.5 15.973022 7
-0.019958001 -1.46875 15.999756 7
-0.012024 -1.427734 15.951355 7
-0.013733 -1.394531 15.966614 7
-0.015442 -1.361328 15.981567 7
-0.02063 -1.330078 16.019653 7
-0.024048001 -1.297852 16.046021 7
-0.172546 -4.483398 -13.48645 7
-0.18335 -4.5400391 -13.541931 7
-0.186157 -4.5800781 -13.547607 7
-0.178223 -4.5986328 -13.486694 7
-0.17297401 -4.6220698 -13.442322 7
-0.165161 -4.641602 -13.381531 7
-0.172363 -4.6894531 -13.414307 7
-0.189392 -4.7587891 -13.507568 7
-0.012329 -1.587891 15.210449 7
-0.013184 -1.5556639 15.220032 7
-0.013123 -1.5224611 15.223877 7
-0.020385999 -1.4951169 15.273865 7
-0.011169 -1.456055 15.220032 7
-0.0084229996 -1.421875 15.206421 7
-0.013855 -1.392578 15.244568 7
-0.015686 -1.361328 15.259399 7
-0.025696 -1.333984 15.326233 7
-0.020142 -1.296875 15.295044 7
-0.010803 -1.576172 14.570007 7
-0.01178 -1.545898 14.579651 7
-0.015564 -1.517578 14.606506 7
-0.012634 -1.484375 14.593201 7
-0.0097049996 -1.451172 14.57959 7
-6.0999999e-05 -1.4130861 14.525696 7
-0.0086669996 -1.387695 14.580933 7
-0.013428 -1.358398 14.61322 7
-0.017273 -1.330078 14.639709 7
-0.022949001 -1.3017581 14.677368 7
-0.025085 -1.365234 -11.827271 7
-0.027161 -1.3974611 -11.835388 7
-0.026306 -1.427734 -11.82605 7
-0.001465 -1.582031 13.86438 7
0.001648 -1.548828 13.851135 7
-0.0074459999 -1.525391 13.906616 7
-0.0073850001 -1.496094 13.910278 7
-0.0063479999 -1.46582 13.908325 7
0.00073199999 -1.4326169 13.871826 7
-0.002258 -1.405273 13.8927 7
-0.001221 -1.375 13.890503 7
-0.0081789996 -1.3486331 13.933899 7
-0.0081179999 -1.3193361 13.9375 7
-0.0081179999 -1.289062 13.940735 7
-0.003235 -1.597656 13.323303 7
-0.0042719999 -1.5693361 13.332947 7
-0.0053099999 -1.542969 13.34259 7
-0.0094600003 -1.517578 13.369202 7
-0.011536 -1.4912111 13.384583 7
-0.0072630001 -1.4599611 13.365417 7
-0.002014 -1.427734 13.340332 7
-0.0051270002 -1.4013669 13.361145 7
-0.0082400003 -1.375 13.381836 7
-0.0092160003 -1.347656 13.391052 7
-0.014465 -1.3212889 13.423035 7
-0.010254 -1.292969 13.403625 7
0.0040279999 -1.570312 12.710693 7
0.0051879999 -1.542969 12.708984 7
0.002991 -1.518555 12.724243 7
0.0041499999 -1.490234 12.722473 7
-0.000244 -1.466797 12.749084 7
0.0064090001 -1.435547 12.718628 7
0.0064699999 -1.382812 12.725464 7
0.0042719999 -1.356445 12.740295 7
0.003174 -1.331055 12.749512 7
-0.00116 -1.306641 12.775635 7
-0.024292 -1.292969 -10.106567 7
-0.032226998 -1.324219 -10.142883 7
-0.021179 -1.3701169 -10.079224 7
-0.020142 -1.396484 -10.070007 7
-0.018005 -1.420898 -10.054871 7
-0.024840999 -1.4794919 -10.08197 7
-0.027161 -1.5068361 -10.089478 7
-0.021667 -1.530273 -10.057007 7
-0.024048001 -1.5849611 -10.060852 7
-0.44140601 -8.3613281 -9.2033081 7
-0.44836399 -8.4326172 -9.1898804 7
-0.451965 -8.4921885 -9.1626587 7
-0.45672601 -8.5566406 -9.1394653 7
-0.460327 -8.6162109 -9.1115723 7
0.0042110002 -1.581055 12.22644 7
0.0087890001 -1.5517581 12.207642 7
0.0065310001 -1.52832 12.222961 7
-0.00036599999 -1.5068361 12.260681 7
0.002014 -1.478516 12.253174 7
-0.001404 -1.456055 12.274048 7
0.0078119999 -1.424805 12.232178 7
0.0043330002 -1.4013669 12.252808 7
0.0043950002 -1.375977 12.256226 7
0.002136 -1.351562 12.27124 7
-0.0046999999 -1.330078 12.308838 7
0.001038 -1.3017581 12.28363 7
-0.02063 -1.387695 -9.5846558 7
-0.023010001 -1.4150389 -9.5925293 7
-0.011475 -1.431641 -9.5319824 7
-0.028076001 -1.544922 -9.5964966 7
-0.44567901 -8.3359385 -8.4983521 7
-0.45050001 -8.3740234 -8.4957275 7
-0.45178199 -8.4013672 -8.4798584 7
-0.45184299 -8.4248047 -8.4597778 7
-0.45788601 -8.4667969 -8.4611206 7
-0.45562699 -8.4814453 -8.4321289 7
-0.456909 -8.5087891 -8.4160156 7
-0.45703101 -8.53125 -8.3955688 7
-0.45953399 -8.5615234 -8.3838501 7
-0.46429399 -8.5996094 -8.3803711 7
-0.46673599 -8.6298828 -8.3681641 7
-0.001282 -1.591797 11.774292 7
-0.001221 -1.566406 11.778198 7
-0.001221 -1.5419919 11.782043 7
-0.0059810001 -1.521484 11.808594 7
-0.010742 -1.499023 11.835205 7
-0.0083619999 -1.4736331 11.827759 7
-0.011841 -1.450195 11.848145 7
-0.0046999999 -1.420898 11.817871 7
-0.0070190001 -1.398438 11.832947 7
-0.0081789996 -1.374023 11.842041 7
-0.0081789996 -1.349609 11.84552 7
-0.0093379999 -1.325195 11.854492 7
-0.0177 -1.3056639 11.897644 7
-0.018798999 -1.28125 11.906738 7
-0.003235 -1.59668 11.357483 7
-0.0082400003 -1.577148 11.384094 7
-0.001953 -1.548828 11.35968 7
-0.0056759999 -1.52832 11.380615 7
-0.0081789996 -1.5068361 11.395874 7
-0.0081789996 -1.484375 11.399475 7
-0.018066 -1.46582 11.448547 7
-0.00060999999 -1.431641 11.373108 7
-0.010559 -1.414062 11.421936 7
-0.013 -1.392578 11.436829 7
-0.010498 -1.3681639 11.428955 7
-0.0067139999 -1.34082 11.415344 7
-0.011658 -1.320312 11.441406 7
-0.0066530001 -1.293945 11.42218 7
-0.42572001 -8.5654297 8.9627686 7
-0.42700201 -8.5517578 8.9872437 7
-0.42572001 -8.5292969 9.0037231 7
-0.42834499 -8.5185547 9.0318604 7
-0.42834499 -8.5009766 9.0523071 7
-0.42706299 -8.4794922 9.0687866 7
-0.42315701 -8.4472656 9.0775146 7
-0.41796899 -8.4130859 9.0825195 7
-0.421875 -8.40625 9.1141968 7
-0.421875 -8.3886719 9.1342773 7
-0.421875 -8.3701172 9.1543579 7
-0.42193601 -8.3515615 9.1745005 7
-0.42321801 -8.3369141 9.1984253 7
0.0086059999 -1.585938 10.850891 7
0.011292 -1.561523 10.843628 7
0.011292 -1.539062 10.847595 7
0.011292 -1.516602 10.85144 7
0.0074459999 -1.498047 10.872192 7
0.0048830002 -1.476562 10.887085 7
0.002258 -1.456055 10.902161 7
0.0075070001 -1.4306639 10.883179 7
0.014038 -1.40332 10.858765 7
0.014099 -1.380859 10.862122 7
0.010193 -1.361328 10.882568 7
0.010193 -1.3388669 10.886047 7
0.00116 -1.3212889 10.929016 7
0.002502 -1.297852 10.926758 7
-0.02887 -1.199219 -8.3027954 7
-0.026306 -1.220703 -8.2883301 7
-0.028991999 -1.2431639 -8.2965088 7
-0.027771 -1.265625 -8.2877808 7
-0.019897001 -1.283203 -8.2504272 7
-0.027892999 -1.30957 -8.2810669 7
-0.030579001 -1.333984 -8.2890015 7
-0.028015001 -1.355469 -8.2741699 7
-0.025451999 -1.375977 -8.2595835 7
-0.018859999 -1.393555 -8.2278442 7
-0.022949001 -1.418945 -8.2411499 7
-0.023010001 -1.44043 -8.2375488 7
-0.021729 -1.4619139 -8.2282705 7
-0.024475001 -1.485352 -8.2359009 7
-0.028503001 -1.5107419 -8.2489624 7
-0.025939999 -1.53125 -8.2337646 7
-0.028625 -1.5556639 -8.2412109 7
-0.027404999 -1.577148 -8.2315674 7
-0.023499001 -1.59668 -8.2108154 7
-0.45172101 -8.5478516 -6.0735469 7
-0.45184299 -8.5664062 -6.052979 7
-0.45458999 -8.5917969 -6.0397949 7
-0.454651 -8.6083984 -6.019165 7
-0.45343 -8.6220703 -5.994812 7
-0.0040279999 -1.59668 10.518311 7
-0.002686 -1.5732419 10.516724 7
-0.0053710002 -1.554688 10.532043 7
-0.0053099999 -1.532227 10.535767 7
-0.0066530001 -1.511719 10.545227 7
-0.013367 -1.494141 10.577209 7
-0.0079349997 -1.469727 10.558411 7
-0.01062 -1.449219 10.573425 7
-0.002502 -1.422852 10.543091 7
-0.0065310001 -1.40332 10.56366 7
-0.0064699999 -1.3818361 10.5672 7
-0.0037229999 -1.358398 10.559448 7
-0.0064090001 -1.3388669 10.574219 7
-0.013184 -1.320312 10.605591 7
-0.01178 -1.297852 10.603394 7
-0.145081 -4.4970698 -7.261353 7
-0.145142 -4.5175781 -7.2504268 7
-0.14520299 -4.5371089 -7.2394409 7
-0.152161 -4.570312 -7.2536011 7
-0.152283 -4.5908198 -7.2423711 7
-0.14679 -4.5996089 -7.2113652 7
-0.137207 -4.5996089 -7.1652832 7
-0.13592499 -4.6162109 -7.1489868 7
-0.134644 -4.6337891 -7.1330571 7
-0.133301 -4.6503911 -7.1168208 7
-0.138916 -4.6816411 -7.1253662 7
-0.13763399 -4.6992192 -7.1088872 7
-0.144592 -4.733398 -7.1222529 7
-0.154358 -4.7714839 -7.1454468 7
-0.15033001 -4.7832031 -7.119019 7
-0.435242 -8.6181641 7.4891968 7
-0.43243399 -8.5947266 7.5032349 7
-0.43670699 -8.59375 7.5336909 7
-0.43389899 -8.5693359 7.547729 7
-0.43810999 -8.5693359 7.5782471 7
-0.44512901 -8.5771484 7.61554 7
-0.44512901 -8.5625 7.6361079 7
-0.436768 -8.5205078 7.636353 7
-0.43536401 -8.5 7.6533809 7
-0.43389899 -8.4804688 7.6703491 7
-0.43536401 -8.4707031 7.6941528 7
-0.43115199 -8.4423828 7.7042851 7
-0.42974901 -8.421875 7.7210689 7
-0.43316701 -8.4199219 7.7530522 7
-0.42901599 -8.3916016 7.762939 7
-0.42333999 -8.3583984 7.7692261 7
-0.42480499 -8.3476562 7.7928472 7
-0.42480499 -8.3320312 7.8128662 7
-0.42620799 -8.3212891 7.8362432 7
-0.133728 -4.7871089 9.4398193 7
-0.129517 -4.7607422 9.4367676 7
-0.12384 -4.7304692 9.4286499 7
-0.12664799 -4.7167969 9.4497681 7
-0.132263 -4.7080078 9.4807739 7
-0.14208999 -4.7099609 9.5266113 7
-0.143494 -4.6933589 9.5429688 7
-0.139221 -4.6650391 9.5394897 7
-0.130798 -4.6289058 9.5211182 7
-0.12799101 -4.6035161 9.5223999 7
-0.125122 -4.579102 9.5236206 7
-0.125183 -4.5595698 9.534729 7
-0.125122 -4.5400391 9.5458374 7
-0.123718 -4.5185552 9.5516357 7
-0.12506101 -4.500977 9.567627 7
-0.125122 -4.4824219 9.5784912 7
-0.0051879999 -1.59375 10.134277 7
0.0061039999 -1.56543 10.093506 7
0.0089720003 -1.5419919 10.086243 7
0.0089720003 -1.5224611 10.090271 7
0.010437 -1.5 10.088318 7
0.00060999999 -1.486328 10.131348 7
-0.00079299998 -1.46582 10.140625 7
-0.002197 -1.4462889 10.149963 7
-0.0035399999 -1.427734 10.159241 7
0.002075 -1.402344 10.14032 7
0.0063479999 -1.378906 10.127014 7
0.0035399999 -1.360352 10.141663 7
0.0064090001 -1.3369139 10.133789 7
0.0036009999 -1.318359 10.14856 7
-0.001953 -1.3017581 10.174377 7
-0.001953 -1.28125 10.177551 7
-0.137207 -4.6503911 -6.7052002 7
-0.13726801 -4.6689448 -6.6939092 7
-0.13592499 -4.6845698 -6.6777339 7
-0.131653 -4.6943359 -6.6516719 7
-0.141846 -4.734375 -6.6745 7
-0.14624 -4.7607422 -6.6775508 7
-0.147705 -4.782227 -6.6708369 7
-0.44012499 -8.6103516 6.8309941 7
-0.44018599 -8.5839844 6.8719478 7
-0.44165 -8.5751953 6.8954468 7
-0.44165 -8.5625 6.9163818 7
-0.44464099 -8.5449219 6.963562 7
-0.43945301 -8.5039062 6.9967651 7
-0.43798801 -8.4716797 7.0340581 7
0.002075 -1.587891 9.7741699 7
0.0050659999 -1.545898 9.7709351 7
0.0050659999 -1.5068361 9.7785645 7
-0.002136 -1.47168 9.8138428 7
-0.00067099999 -1.451172 9.8120728 7
0.00079299998 -1.429688 9.8101196 7
0.0051879999 -1.387695 9.8004761 7
0.0052490002 -1.347656 9.8074341 7
-0.0034179999 -1.3125 9.8478394 7
-0.147034 -4.4863281 -6.434814 7
-0.13964801 -4.4892578 -6.3995361 7
-0.13677999 -4.5019531 -6.3789058 7
-0.139771 -4.5253911 -6.3777471 7
-0.15033001 -4.563477 -6.4008179 7
-0.14587399 -4.5732422 -6.3751221 7
-0.150452 -4.5996089 -6.3786011 7
-0.15649401 -4.6298828 -6.3867192 7
-0.15203901 -4.6386719 -6.3610229 7
-0.140259 -4.6337891 -6.3111572 7
-0.137329 -4.6445308 -6.2902832 7
-0.13592499 -4.6591802 -6.274231 7
-0.141968 -4.6894531 -6.282104 7
-0.14501999 -4.7138672 -6.280273 7
-0.145081 -4.7314448 -6.2689209 7
-0.15118399 -4.7617192 -6.2765498 7
-0.160156 -4.796875 -6.2936401 7
-0.136658 -4.7832031 8.6217041 7
-0.138184 -4.7695308 8.6379395 7
-0.138184 -4.7519531 8.649292 7
-0.129089 -4.7158198 8.6323242 7
-0.13208 -4.7050781 8.6533813 7
-0.138184 -4.7011719 8.6836548 7
-0.148743 -4.703125 8.7285156 7
-0.1427 -4.6748052 8.7206421 7
-0.133606 -4.639648 8.7032471 7
-0.13812301 -4.6308589 8.7289429 7
-0.13812301 -4.6132808 8.7401733 7
-0.127563 -4.5751948 8.7177124 7
-0.12750199 -4.5576172 8.7287598 7
-0.12146 -4.5283198 8.720459 7
-0.133606 -4.5351558 8.7700195 7
-0.124451 -4.499023 8.7519531 7
0.001343 -1.583984 9.4329834 7
0.00293 -1.563477 9.4313354 7
-0.003113 -1.548828 9.4575195 7
-0.0045779999 -1.53125 9.4669189 7
0.002991 -1.5068361 9.4431152 7
-0.0075679999 -1.4951169 9.4857178 7
-0.015076 -1.480469 9.517334 7
-0.001526 -1.453125 9.4709473 7
-0.0059810001 -1.4375 9.491272 7
6.0999999e-05 -1.414062 9.4726562 7
-0.0059199999 -1.398438 9.4983521 7
0.001587 -1.375 9.4741211 7
0.003174 -1.3544919 9.4719238 7
-0.0073850001 -1.342773 9.5145264 7
-0.0073850001 -1.322266 9.5177612 7
-0.001282 -1.299805 9.4987183 7
-0.0057979999 -1.283203 9.5187988 7
-0.13574199 -4.4931641 -5.9966431 7
-0.13739 -4.5292969 -5.9795532 7
-0.143738 -4.5761719 -5.976562 7
-0.14843801 -4.6191411 -5.9685669 7
-0.143921 -4.6269531 -5.9432979 7
-0.137817 -4.6318359 -5.9130249 7
-0.13793901 -4.6650391 -5.8904419 7
-0.139587 -4.6855469 -5.8838501 7
-0.13812301 -4.6992192 -5.8679199 7
-0.149048 -4.7539058 -5.8778691 7
-0.155334 -4.7841802 -5.8848882 7
-0.13848899 -4.7998052 8.2581177 7
-0.13537601 -4.7773442 8.2605591 7
-0.132263 -4.7548828 8.2626343 7
-0.13696299 -4.7480469 8.2880859 7
-0.136902 -4.7314448 8.2995005 7
-0.136902 -4.7148442 8.3109741 7
-0.14001501 -4.704102 8.3317261 7
-0.147827 -4.704102 8.366394 7
-0.143188 -4.6787109 8.3637075 7
-0.14312699 -4.6611328 8.375061 7
-0.133789 -4.625977 8.3581543 7
-0.130615 -4.6035161 8.3599243 7
-0.12750199 -4.5800781 8.3615723 7
-0.127441 -4.563477 8.3725586 7
-0.121216 -4.5351558 8.3648071 7
-0.127441 -4.530273 8.3947754 7
-0.124329 -4.507812 8.3962402 7
-0.121216 -4.485352 8.3977051 7
0.0055539999 -1.580078 9.1348267 7
0.002441 -1.5625 9.1498413 7
0.002441 -1.544922 9.1536865 7
-0.002197 -1.529297 9.1740723 7
0.00097699999 -1.509766 9.1669312 7
-0.0037229999 -1.494141 9.1875 7
-0.0052490002 -1.476562 9.1968384 7
-0.002075 -1.456055 9.189209 7
0.002625 -1.43457 9.1762075 7
0.0042110002 -1.4150389 9.1743164 7
0.0089109996 -1.394531 9.1611938 7
-0.002014 -1.382812 9.2037354 7
-0.00042699999 -1.363281 9.2015381 7
-0.001953 -1.345703 9.2106323 7
-0.00042699999 -1.326172 9.2084961 7
-0.00036599999 -1.3076169 9.211792 7
-0.0050659999 -1.2919919 9.2318115 7
-0.13812301 -4.4970698 -5.6022339 7
-0.133423 -4.5048828 -5.577332 7
-0.14312699 -4.539062 -5.5944819 7
-0.144775 -4.5585942 -5.5880742 7
-0.143188 -4.5712891 -5.5723882 7
-0.144897 -4.5898442 -5.565979 7
-0.15460201 -4.625977 -5.5828252 7
-0.146606 -4.625977 -5.5482788 7
-0.140259 -4.6289058 -5.5184331 7
-0.13555899 -4.6357422 -5.4932861 7
-0.137207 -4.655273 -5.486877 7
-0.140503 -4.6767578 -5.4847412 7
-0.14056399 -4.6923828 -5.4733281 7
-0.13745099 -4.703125 -5.4528198 7
-0.139099 -4.7216802 -5.4458618 7
-0.147156 -4.7539058 -5.45752 7
-0.150452 -4.7763672 -5.4551392 7
-0.15051299 -4.7919922 -5.443542 7
-0.14105199 -4.7880859 7.8707891 7
-0.137817 -4.766602 7.8734741 7
-0.137817 -4.750977 7.8848271 7
-0.132935 -4.7255859 7.882812 7
-0.137817 -4.7207031 7.9077759 7
-0.137817 -4.7050781 7.91925 7
-0.145935 -4.7050781 7.9534912 7
-0.139404 -4.6767578 7.9464111 7
-0.14105199 -4.664062 7.9624019 7
-0.137817 -4.641602 7.964478 7
-0.132935 -4.617188 7.9619141 7
-0.137817 -4.6113281 7.987 7
-0.132935 -4.5878911 7.9842529 7
-0.128052 -4.561523 7.9813228 7
-0.128052 -4.545898 7.9924932 7
-0.132935 -4.539062 8.017395 7
-0.123169 -4.5048828 8.0006104 7
-0.128052 -4.499023 8.0254517 7
-0.12799101 -4.483398 8.0362549 7
-0.0063479999 -1.59668 8.8575439 7
0.000183 -1.575195 8.8395386 7
0.000183 -1.556641 8.8433838 7
0.001831 -1.5380861 8.8417969 7
-0.0046999999 -1.5244139 8.8677979 7
-0.0046390002 -1.5068361 8.871582 7
0.000244 -1.486328 8.8587646 7
-0.00293 -1.470703 8.8737183 7
-0.0062259999 -1.455078 8.8882446 7
-0.0061650001 -1.4375 8.8920288 7
-0.0094600003 -1.421875 8.9066772 7
0.001953 -1.3974611 8.8713989 7
-0.002869 -1.3818361 8.8916626 7
-0.001221 -1.3642581 8.8897095 7
-0.0044559999 -1.347656 8.9042969 7
-0.002808 -1.329102 8.9019175 7
-0.00116 -1.310547 8.8998413 7
-0.0060419999 -1.295898 8.9196777 7
-0.133057 -4.4824219 -5.2131348 7
-0.143066 -4.516602 -5.2295532 7
-0.14312699 -4.5332031 -5.21875 7
-0.139893 -4.5410161 -5.1984248 7
-0.146667 -4.5849609 -5.1946411 7
-0.145081 -4.5966802 -5.1789551 7
-0.143494 -4.6230469 -5.1524048 7
-0.14190701 -4.6357422 -5.136353 7
-0.13867199 -4.6435552 -5.1160278 7
-0.13043199 -4.641602 -5.0821528 7
-0.137207 -4.6855469 -5.0776372 7
-0.132263 -4.6894531 -5.052917 7
-0.13574199 -4.726562 -5.0392461 7
-0.150757 -4.7714839 -5.0678711 7
-0.15081801 -4.7861328 -5.0562129 7
-0.000244 -1.599609 8.5330811 7
-0.000244 -1.5830081 8.5371704 7
0.003113 -1.563477 8.5300293 7
-0.0069579999 -1.554688 8.5668325 7
-0.001892 -1.533203 8.5544434 7
0.001526 -1.513672 8.5472412 7
-0.001831 -1.5 8.5620728 7
-0.0034789999 -1.483398 8.5712891 7
-0.0068970001 -1.469727 8.5861206 7
-0.0068359999 -1.452148 8.5897217 7
-0.0067750001 -1.43457 8.5932617 7
-0.011841 -1.420898 8.6134644 7
-0.0084840003 -1.4013669 8.6060181 7
-6.0999999e-05 -1.3798831 8.5820312 7
0 -1.363281 8.5854492 7
-0.001648 -1.34668 8.5944214 7
-0.003357 -1.331055 8.6034546 7
6.0999999e-05 -1.311523 8.5956421 7
-0.0066530001 -1.297852 8.6209717 7
-0.02179 -1.2900389 8.6740112 7
-0.135132 -4.4912109 -4.8471069 7
-0.13177501 -4.5 -4.827209 7
-0.135254 -4.5205078 -4.8253779 7
-0.131897 -4.5273442 -4.8054199 7
-0.0053710002 -1.592773 8.2767944 7
0.003357 -1.570312 8.25354 7
0.003296 -1.5537111 8.2576294 7
0.0050659999 -1.5361331 8.2560415 7
0.0068359999 -1.518555 8.2545166 7
0.003357 -1.5048831 8.2692261 7
0.0068970001 -1.486328 8.2619629 7
-0.0053099999 -1.4794919 8.3040161 7
-0.0070190001 -1.4638669 8.3131714 7
-0.0069579999 -1.447266 8.3167725 7
-0.010437 -1.433594 8.3314819 7
-0.00177 -1.4111331 8.3075562 7
0.0034789999 -1.391602 8.2948608 7
0.0035399999 -1.375 8.2982788 7
6.0999999e-05 -1.361328 8.3127441 7
-0.001648 -1.345703 8.3217163 7
-0.001648 -1.330078 8.3250122 7
-0.0050659999 -1.31543 8.3392944 7
-0.0068359999 -1.299805 8.3481445 7
-0.0085450001 -1.28418 8.3569946 7
-0.0092160003 -1.5849611 8.032959 7
-0.010986 -1.570312 8.0424194 7
-0.0073850001 -1.5517581 8.0355225 7
-0.0092160003 -1.5380861 8.0446777 7
-0.018188 -1.529297 8.0757446 7
-0.012756 -1.5087889 8.0633535 7
-0.0091549996 -1.4912111 8.0563354 7
-0.019897001 -1.482422 8.0927124 7
-0.019897001 -1.466797 8.0963755 7
-0.010925 -1.445312 8.072876 7
-0.014465 -1.4306639 8.0873413 7
-0.012634 -1.4150389 8.0855713 7
-0.010864 -1.3974611 8.0836182 7
-0.012634 -1.382812 8.0926514 7
-0.0090330001 -1.3642581 8.0852051 7
-0.012573 -1.3505861 8.0994263 7
-0.014343 -1.3369139 8.1083374 7
-0.017944001 -1.322266 8.1228027 7
-0.017944001 -1.3056639 8.1260376 7
-0.012512 -1.2880861 8.1129761 7
-0.017189 -1.591146 16.151381 7
0.0080260001 -1.298805 13.930952 7
0.048923001 -1.394733 12.0567 7
-0.005622 -1.481012 10.856925 7
0.021708 -1.5338399 9.9109936 7
0.014983 -1.299593 10.025007 7
-0.39446101 -8.5634098 7.925313 7
-0.159573 -4.751503 9.3945904 7
0.032708 -1.596405 9.2534361 7
0.037342999 -1.366768 9.2742662 7
-0.180705 -4.7102351 8.1702328 7
-0.182807 -4.5345631 8.3643951 7
-0.012262 -1.450662 8.7792625 7
0.006327 -1.492453 8.2783747 7
0.0026060001 -1.320734 8.3570423 7
0.013684 -1.542937 7.9019361 7
0.015397 -1.3761441 7.9499989 7
0.018851999 -1.586485 7.5773792 7
0.022729 -1.4283119 7.6168699 7
-0.0053710002 -1.462208 7.3018899 7
-0.002051 -1.317884 7.3419261 7
0.0013379999 -1.371856 7.1018372 7
0.072962999 -0.29401001 3.941432 7
0.061795998 -0.29751599 3.957757 7
0.084726997 -0.29057899 3.9739859 7
0.068172 -0.30633101 4.1201401 7
0.043090001 -0.31426099 4.1420569 7
0.059471 -0.301759 4.156147 7
0.062976003 -0.29820001 3.9915731 7
0.061886001 -0.294007 4.0086799 7
0.063791998 -0.29547799 4.0243101 7
0.067688003 -0.28725401 4.0406628 7
0.092707001 -0.268749 4.0537 7
0.05711 -0.28468999 4.0736351 7
0.087370999 -0.26282999 4.0842199 7
0.077809997 -0.26508 4.1011801 7
0.073532 -0.26394299 4.1180892 7
0.087548003 -0.24750599 4.1285291 7
0.050632998 -0.25685501 4.1511722 7
0.090347998 -0.232941 4.0549879 7
-0.0033859999 -1.348138 16.406429 7
-0.079654999 -1.291364 14.302836 7
-0.0074100001 -1.384737 -7.164577 7
-0.147322 -4.5982819 -7.2682738 7
0.006238 -1.341947 -5.9895592 7
-0.087858997 -4.684567 -5.3939171 7
0.0068339999 -1.5653369 11.478993 7
0.027547 -1.30471 -4.9612799 7
0.02791 -1.508178 10.634029 7
-0.164407 -4.640203 9.4673367 7
-0.028902 -1.460966 9.9597607 7
-0.46911901 -8.443512 6.7904062 7
-0.13393199 -4.540916 8.7526512 7
0.002787 -1.417642 9.3143034 7
-0.122382 -4.6889939 8.0447044 7
-0.120147 -4.488997 8.2012606 7
0.018255999 -1.385842 8.8430328 7
0.030905001 -1.358759 8.4418173 7
-0.023068 -1.571135 8.3857269 7
-0.0078360001 -1.5331219 8.0385151 7
-0.007762 -1.3330719 8.077446 7
0.0059460001 -1.499579 7.73208 7
0.0055180001 -1.312385 7.7698321 7
0.019591 -1.469264 7.4548898 7
0.017395001 -1.294059 7.497293 7
-0.013688 -1.441919 7.2137341 7
-0.128066 -4.8727288 3.5845251 7
-0.132257 -4.8674321 3.7479789 7
-0.087142996 -1.299562 -11.016415 7
-0.04366 -1.353122 -7.679811 7
-0.124227 -4.64292 -6.5807819 7
-0.0096880002 -1.3912719 -5.8432231 7
-0.103048 -4.5513639 -5.3742399 7
-0.1569 -4.665051 -5.1281152 7
