# .PCD v0.7 - Point Cloud Data file format
VERSION 0.7
FIELDS x y z intensity
SIZE 4 4 4 4
TYPE F F F F
COUNT 1 1 1 1
WIDTH 625
HEIGHT 1
VIEWPOINT 0 0 0 1 0 0 0
POINTS 625
DATA ascii
-0.65942401 -0.86523402 -61.231079 7
-0.641357 -1.007812 -60.824951 7
-0.642456 -1.1318361 -56.694702 7
-0.159302 -4.984375 44.638916 7
-0.18689001 -4.9404302 45.162231 7
-0.041443001 -1.515625 42.7948 7
-0.63214099 3.113281 -56.535034 7
-0.65307599 3.0019529 -57.026978 7
-0.60717797 -1.0205081 -50.957397 7
-0.73004198 -4.2744141 -52.956421 7
0.0034179999 -1.8056639 38.663452 7
-0.025939999 -1.5625 39.184204 7
-0.128906 -5.063477 37.73114 7
-0.13952599 -5 37.911072 7
-0.001282 -1.5986331 36.096863 7
0.0076899999 -1.7705081 33.258057 7
-0.132202 -4.9824219 30.554016 7
-0.139465 -4.9287109 30.658142 7
-0.154907 -4.891602 30.865723 7
-0.16491701 -4.84375 31.00415 7
-0.015381 -1.628906 29.498962 7
-1.080566 -16.319336 -36.51416 7
0.0046390002 -1.6962889 27.498047 7
-0.010071 -1.8173831 24.329895 7
-0.010986 -1.655273 24.354614 7
-0.010376 -1.6005861 24.352783 7
-0.160034 -5.1044922 23.83136 7
-0.14093 -4.9570308 23.673828 7
-0.144409 -4.9121089 23.719849 7
-0.15564001 -4.829102 23.851379 7
-0.18206801 -5.1074219 22.689392 7
-0.18328901 -5.0595698 22.713196 7
-0.17504901 -4.992188 22.651611 7
-0.15863 -4.9082031 22.516296 7
-0.162964 -4.867188 22.567871 7
-0.172424 -4.8369141 22.664551 7
-0.180298 -4.4814448 -15.261719 7
-0.19085699 -4.5400391 -15.323547 7
-0.188538 -4.5742192 -15.295654 7
-0.174988 -4.5869141 -15.189819 7
-0.171021 -4.617188 -15.150696 7
-0.175964 -4.6650391 -15.172913 7
-0.200195 -4.7529302 -15.328735 7
-0.023864999 -1.583984 16.766785 7
-0.027161 -1.549805 16.793701 7
-0.024597 -1.511719 16.780273 7
-0.018738 -1.470703 16.74353 7
-0.022034001 -1.436523 16.770386 7
-0.025269 -1.402344 16.797119 7
-0.032715 -1.3701169 16.852478 7
-0.029358 -1.332031 16.832947 7
-0.029297 -1.294922 16.836243 7
-0.040833 -1.094727 -14.073486 7
-0.040894002 -1.130859 -14.070618 7
-0.035094999 -1.164062 -14.027161 7
-0.035156 -1.200195 -14.024231 7
-0.032715 -1.234375 -14.003784 7
-0.04126 -1.275391 -14.058289 7
-0.18158001 -4.515625 -14.359985 7
-0.182495 -4.5527339 -14.354553 7
-0.17749 -4.5800781 -14.310181 7
-0.169983 -4.6025391 -14.248962 7
-0.172607 -4.6445308 -14.254395 7
-0.173584 -4.6826172 -14.248718 7
-0.193115 -4.7568359 -14.364807 7
-0.19494601 -4.7988281 -14.364319 7
-0.020447001 -1.5732419 15.994019 7
-0.025574001 -1.5419919 16.032532 7
-0.026427999 -1.507812 16.042053 7
-0.0177 -1.467773 15.988281 7
-0.021118 -1.435547 16.014954 7
-0.021057 -1.4013669 16.018555 7
-0.027100001 -1.369141 16.062439 7
-0.029724 -1.3369139 16.08313 7
-0.030517999 -1.3017581 16.092102 7
-0.17932101 -4.4931641 -13.508057 7
-0.188293 -4.545898 -13.552429 7
-0.184875 -4.5732422 -13.519348 7
-0.179626 -4.5976558 -13.475159 7
-0.176147 -4.625977 -13.441772 7
-0.178894 -4.6660161 -13.447083 7
-0.19769301 -4.7373052 -13.551575 7
-0.191589 -4.7587891 -13.501465 7
-0.019897001 -1.59375 15.262268 7
-0.019897001 -1.561523 15.266052 7
-0.031738002 -1.537109 15.344971 7
-0.022522001 -1.49707 15.291138 7
-0.013367 -1.458984 15.237305 7
-0.020691 -1.4306639 15.28717 7
-0.020569 -1.3974611 15.29071 7
-0.027892999 -1.369141 15.340088 7
-0.026001001 -1.335938 15.332275 7
-0.025024001 -1.3017581 15.329712 7
-0.017944001 -1.2705081 -12.448181 7
-0.011292 -1.577148 14.575867 7
-0.022766 -1.5224611 14.652588 7
-0.012207 -1.483398 14.593079 7
-0.010254 -1.452148 14.585388 7
-0.023560001 -1.398438 14.672974 7
-0.029236 -1.3701169 14.710999 7
-0.027039001 -1.181641 -11.835144 7
-0.023193 -1.2099611 -11.808899 7
-0.024231 -1.2412111 -11.811584 7
-0.029175 -1.275391 -11.83728 7
-0.035156 -1.310547 -11.868286 7
-0.027404999 -1.335938 -11.819031 7
-0.02063 -1.362305 -11.775391 7
-0.022644 -1.394531 -11.783386 7
-0.020752 -1.423828 -11.768372 7
-0.025757 -1.4580081 -11.793335 7
-0.028748 -1.490234 -11.806946 7
-0.028809 -1.5205081 -11.802979 7
-0.027892999 -1.550781 -11.793457 7
-0.028930999 -1.582031 -11.795349 7
-0.010986 -1.5888669 13.921631 7
-0.014954 -1.533203 13.952332 7
-0.020996001 -1.507812 13.990356 7
-0.016907001 -1.474609 13.971191 7
-0.014893 -1.4443361 13.963745 7
-0.014832 -1.414062 13.967407 7
-0.025818 -1.361328 14.037354 7
-0.022705 -1.299805 14.026917 7
-0.01532 -1.580078 13.395813 7
-0.017395001 -1.5537111 13.411255 7
-0.025818 -1.530273 13.460938 7
-0.020508001 -1.498047 13.436035 7
-0.013123 -1.464844 13.399841 7
-0.016235 -1.438477 13.420532 7
-0.017273 -1.410156 13.429871 7
-0.020385999 -1.384766 13.450745 7
-0.026672 -1.360352 13.488647 7
-0.022399999 -1.328125 13.469055 7
-0.022338999 -1.299805 13.472351 7
-0.014832 -1.4287111 -10.542114 7
-0.003174 -1.576172 12.75061 7
-0.0042110002 -1.5517581 12.760315 7
-0.011902 -1.52832 12.804016 7
-0.0074459999 -1.499023 12.785217 7
-0.003052 -1.470703 12.766174 7
-0.003052 -1.4443361 12.769714 7
-0.002991 -1.416016 12.773376 7
-0.0051270002 -1.389648 12.788269 7
-0.0073239999 -1.365234 12.803284 7
-0.01062 -1.34082 12.823853 7
-0.012756 -1.314453 12.838806 7
-0.0094600003 -1.285156 12.824707 7
0.00116 -1.558594 12.247681 7
-0.0090939999 -1.513672 12.306213 7
-0.0090939999 -1.488281 12.309998 7
0.001282 -1.455078 12.262756 7
0.001343 -1.404297 12.269836 7
-0.00091599999 -1.380859 12.284607 7
-0.0089109996 -1.359375 12.328186 7
-0.0088499999 -1.308594 12.335083 7
-0.021484001 -1.259766 -9.5900879 7
-0.032104 -1.3173831 -9.6348877 7
-0.032226998 -1.344727 -9.6313477 7
0.00042699999 -1.59082 11.768616 7
0.001648 -1.56543 11.76709 7
-0.001892 -1.543945 11.787964 7
-0.0090330001 -1.523438 11.825928 7
-0.0090330001 -1.499023 11.829468 7
0.00060999999 -1.443359 11.791565 7
-0.00177 -1.420898 11.806641 7
-0.00054899999 -1.3955081 11.804565 7
-0.002869 -1.371094 11.819153 7
-0.002869 -1.574219 11.361389 7
0.0071410001 -1.543945 11.320129 7
-0.00030499999 -1.5263669 11.358032 7
-0.013977 -1.512695 11.42395 7
-0.002747 -1.480469 11.376709 7
-0.011414 -1.462891 11.420166 7
-0.0051879999 -1.435547 11.395569 7
-0.000183 -1.408203 11.376465 7
-0.0039059999 -1.386719 11.397034 7
-0.0075679999 -1.3662111 11.417419 7
-0.011292 -1.342773 11.437927 7
-0.012512 -1.3212889 11.44696 7
-0.014954 -1.298828 11.461731 7
-0.021484001 -1.316406 -8.6489258 7
-0.022766 -1.339844 -8.651123 7
-0.001282 -1.59375 10.896118 7
-0.002563 -1.549805 10.909668 7
-0.001221 -1.5263669 10.907776 7
-0.0076899999 -1.5087889 10.93988 7
-0.0076899999 -1.485352 10.943726 7
-0.0063479999 -1.439453 10.94519 7
0.002747 -1.4130861 10.909485 7
0.000183 -1.3681639 10.927917 7
-0.00238 -1.347656 10.942688 7
-0.010132 -1.330078 10.97998 7
-0.0049439999 -1.304688 10.960815 7
-0.025574001 -1.2880861 -8.2615356 7
-0.026916999 -1.310547 -8.263855 7
-0.025696 -1.332031 -8.2548828 7
-0.028380999 -1.356445 -8.2626343 7
-0.024475001 -1.375977 -8.2422485 7
-0.019226 -1.3955081 -8.2161865 7
-0.027222 -1.421875 -8.246582 7
-0.027222 -1.4443361 -8.2429199 7
-0.024658 -1.464844 -8.2278442 7
-0.026062001 -1.488281 -8.2297363 7
-0.028748 -1.511719 -8.2374268 7
-0.026184 -1.532227 -8.2223511 7
-0.02887 -1.556641 -8.2296143 7
-0.026245 -1.577148 -8.2144775 7
-0.15460201 -4.5019531 -7.7702031 7
-0.153381 -4.5205078 -7.754272 7
-0.153442 -4.5419922 -7.7433472 7
-0.16149899 -4.577148 -7.7627559 7
-0.162903 -4.601562 -7.7567139 7
-0.16424599 -4.625977 -7.7504878 7
-0.15771499 -4.6347661 -7.7140498 7
-0.152466 -4.6445308 -7.6826782 7
-0.152527 -4.6660161 -7.6713262 7
-0.15393101 -4.6894531 -7.6651611 7
-0.151306 -4.7050781 -7.6436772 7
-0.148743 -4.719727 -7.6221919 7
-0.158081 -4.7597661 -7.6459961 7
-0.16613799 -4.796875 -7.6644902 7
-0.46142599 -8.6220703 -6.0661621 7
-0.45745799 -8.6337891 8.3858643 7
-0.461548 -8.6308594 8.4174194 7
-0.45886201 -8.6054688 8.4308472 7
-0.46026599 -8.5927734 8.4550171 7
-0.45892301 -8.5722656 8.472168 7
-0.45892301 -8.5537109 8.4925537 7
-0.460327 -8.5410156 8.5168457 7
-0.460327 -8.5244141 8.5371704 7
-0.45629901 -8.4941406 8.5466309 7
-0.45361301 -8.4677734 8.5596313 7
-0.45636001 -8.4599609 8.5872803 7
-0.45904499 -8.4511719 8.6149292 7
-0.45770299 -8.4296885 8.6314087 7
-0.45642099 -8.4091797 8.6478271 7
-0.457764 -8.3955078 8.671875 7
-0.45373499 -8.3652344 8.6808472 7
-0.452393 -8.34375 8.6970835 7
-0.45513901 -8.3349609 8.7245483 7
-0.0076290001 -1.599609 10.535095 7
-0.0076290001 -1.579102 10.539124 7
-0.0062870001 -1.556641 10.537415 7
-0.0076290001 -1.535156 10.546875 7
-0.0062259999 -1.512695 10.545105 7
-0.014343 -1.496094 10.582642 7
-0.0089109996 -1.47168 10.564026 7
-0.010193 -1.451172 10.573303 7
-0.0061650001 -1.4267581 10.559998 7
-0.0074459999 -1.405273 10.569092 7
-0.010132 -1.384766 10.583984 7
-0.0060419999 -1.361328 10.570679 7
-0.0073850001 -1.339844 10.579834 7
-0.011414 -1.3212889 10.600037 7
-0.010071 -1.297852 10.597656 7
-0.14880399 -4.484375 -7.2818599 7
-0.148865 -4.5048828 -7.2709351 7
-0.147522 -4.5214839 -7.2550049 7
-0.150391 -4.546875 -7.2539668 7
-0.15460201 -4.5751948 -7.2579961 7
-0.160217 -4.6064448 -7.2670288 7
-0.14776599 -4.601562 -7.2107539 7
-0.14093 -4.608398 -7.1746221 7
-0.145142 -4.6347661 -7.1784668 7
-0.14520299 -4.655273 -7.1672359 7
-0.13696299 -4.6591802 -7.1260991 7
-0.139832 -4.6845698 -7.1247559 7
-0.146851 -4.717773 -7.1382451 7
-0.15515099 -4.7539058 -7.1564331 7
-0.162109 -4.7880859 -7.1696782 7
-0.44830301 -8.4628906 -5.42981 7
-0.45257601 -8.4921885 -5.4200439 7
-0.45544401 -8.5166016 -5.4066768 7
-0.45135501 -8.5195312 -5.3757319 7
-0.45556599 -8.5478516 -5.3659058 7
-0.455688 -8.5634766 -5.3452759 7
-0.454346 -8.5751953 -5.3212891 7
-0.45306399 -8.5859385 -5.2971191 7
-0.45867899 -8.6191406 -5.2904048 7
-0.46014401 -8.6386719 -5.2732539 7
0.00238 -1.5888669 10.106323 7
0.0065919999 -1.56543 10.093628 7
0.0052490002 -1.545898 10.103088 7
0.002441 -1.527344 10.118042 7
-0.0059810001 -1.511719 10.155457 7
-0.0087890001 -1.4931639 10.170593 7
-0.0087280003 -1.472656 10.174377 7
-0.00030499999 -1.4462889 10.144531 7
0.0039059999 -1.422852 10.131226 7
0.0039670002 -1.4013669 10.134766 7
0.00116 -1.382812 10.149536 7
0.002625 -1.360352 10.147217 7
-0.000183 -1.341797 10.162109 7
-0.0043330002 -1.324219 10.182312 7
-0.0043330002 -1.3037111 10.185486 7
-0.0071410001 -1.285156 10.200256 7
-0.144592 -4.4960942 -6.829102 7
-0.147461 -4.5205078 -6.828125 7
-0.14605699 -4.5361328 -6.8121948 7
-0.15051299 -4.5644531 -6.8158569 7
-0.154907 -4.5917969 -6.8196411 7
-0.15203901 -4.6054692 -6.7987061 7
-0.149231 -4.6181641 -6.77771 7
-0.143555 -4.625977 -6.7467041 7
-0.142212 -4.641602 -6.7307129 7
-0.14086901 -4.6582031 -6.7146001 7
-0.14227299 -4.679688 -6.7081299 7
-0.14379901 -4.7011719 -6.7016602 7
-0.148193 -4.7285161 -6.704834 7
-0.155396 -4.7617192 -6.717773 7
-0.156921 -4.7841802 -6.7111211 7
-0.443481 -8.3886719 -4.799561 7
-0.45080599 -8.4257812 -4.795959 7
-0.44793701 -8.4316406 -4.769165 7
-0.450928 -8.4550781 -4.7553711 7
-0.45678699 -8.4873047 -4.748291 7
-0.455383 -8.4960938 -4.7246699 7
-0.45544401 -8.5107422 -4.7042851 7
-0.45697001 -8.5302734 -4.6870732 7
-0.45416301 -8.5341797 -4.6600952 7
-0.45422399 -8.5478516 -4.639771 7
-0.454346 -8.5625 -4.6190801 7
-0.45440701 -8.5771484 -4.5985718 7
-0.455933 -8.5947266 -4.5811772 7
-0.45452899 -8.6044922 -4.557373 7
-0.45892301 -8.6318359 -4.5463872 7
-0.45172101 -8.6269531 6.8999019 7
-0.44763201 -8.6005859 6.912354 7
-0.45202601 -8.6005859 6.9422612 7
-0.453491 -8.5917969 6.9660029 7
-0.453491 -8.5791016 6.9864502 7
-0.455017 -8.5703115 7.0101929 7
-0.45361301 -8.5527344 7.0275269 7
-0.45068401 -8.5292969 7.0418701 7
-0.45214799 -8.5205078 7.0653691 7
-0.45074499 -8.5029297 7.0826421 7
-0.45074499 -8.4882812 7.1030269 7
-0.44494599 -8.4560547 7.1105962 7
-0.44494599 -8.4423828 7.131042 7
-0.44207799 -8.4189453 7.1447139 7
-0.43920901 -8.3964844 7.1584468 7
-0.44067401 -8.3867188 7.1817632 7
-0.43774399 -8.3632812 7.195374 7
-0.43926999 -8.3554688 7.21875 7
-0.437866 -8.3359385 7.2355351 7
0.00097699999 -1.589844 9.7796631 7
0.002502 -1.568359 9.7779541 7
0.0039059999 -1.548828 9.7763062 7
0.0068359999 -1.5263669 9.769043 7
0.0039670002 -1.5087889 9.7839966 7
-0.00036599999 -1.4912111 9.8045044 7
-0.0061650001 -1.4755861 9.8306274 7
-0.00030499999 -1.452148 9.8120117 7
-0.00177 -1.433594 9.821167 7
0.0040890002 -1.40918 9.8025513 7
0.0055539999 -1.388672 9.800354 7
0.0041499999 -1.3701169 9.8093872 7
0.0041499999 -1.3505861 9.8129272 7
-0.000183 -1.332031 9.8331909 7
-0.003052 -1.313477 9.8476562 7
0.002808 -1.291016 9.8286133 7
-0.14929201 -4.4902339 -6.43927 7
-0.155334 -4.5205078 -6.447998 7
-0.15240499 -4.532227 -6.4271851 7
-0.14947499 -4.5449219 -6.4064941 7
-0.159973 -4.5830078 -6.4293818 7
-0.16302501 -4.6074219 -6.427917 7
-0.16009501 -4.6191411 -6.407227 7
-0.15118399 -4.6191411 -6.3669429 7
-0.14532501 -4.6269531 -6.3363042 7
-0.152832 -4.6582031 -6.3493042 7
-0.14691199 -4.664062 -6.3188481 7
-0.146973 -4.6826172 -6.3075562 7
-0.15154999 -4.7089839 -6.3105469 7
-0.16198701 -4.7480469 -6.3326421 7
-0.157593 -4.7568359 -6.3067632 7
-0.169617 -4.7988281 -6.3334961 7
-0.456543 -8.6123047 6.180542 7
-0.461182 -8.6171885 6.2095952 7
-0.45971701 -8.6005859 6.2275391 7
-0.46881101 -8.6181641 6.2649541 7
-0.46881101 -8.6054688 6.285522 7
-0.46582001 -8.5839844 6.3005981 7
-0.47039801 -8.5869141 6.3295898 7
-0.47045901 -8.5761719 6.3503418 7
-0.46136501 -8.5341797 6.3536382 7
-0.455383 -8.5039062 6.3623662 7
-0.455383 -8.4912109 6.382935 7
0.00036599999 -1.5849611 9.4385376 7
0.001831 -1.56543 9.4370728 7
-0.0086669996 -1.5537111 9.4797974 7
-0.0086669996 -1.535156 9.4837036 7
-0.001099 -1.509766 9.4597168 7
-0.010132 -1.498047 9.4968872 7
-0.0070799999 -1.476562 9.489563 7
-0.017639 -1.4638669 9.5322266 7
-0.013123 -1.441406 9.519104 7
-0.0040279999 -1.4169919 9.4893188 7
-0.0054930001 -1.398438 9.4984741 7
-0.0039670002 -1.37793 9.4963989 7
-0.0069579999 -1.361328 9.5111694 7
-0.0054319999 -1.34082 9.5089111 7
-0.00238 -1.320312 9.5010986 7
-0.015930001 -1.308594 9.5546265 7
-0.0084229996 -1.285156 9.5301514 7
-0.14086901 -4.4863281 -6.021667 7
-0.14862099 -4.5185552 -6.0348511 7
-0.148743 -4.5361328 -6.0238652 7
-0.14105199 -4.5371089 -5.9889531 7
-0.15496799 -4.5820308 -6.020874 7
-0.159668 -4.608398 -6.0240479 7
-0.15509 -4.6162109 -5.9983521 7
-0.145935 -4.6318359 -5.9473882 7
-0.146118 -4.6660161 -5.9251099 7
-0.143066 -4.6767578 -5.9044189 7
-0.14929201 -4.7060552 -5.9119868 7
-0.144714 -4.7128911 -5.8864141 7
-0.155579 -4.7519531 -5.9078979 7
-0.16027801 -4.7783198 -5.9104609 7
-0.16027801 -4.7949219 -5.8989868 7
-0.13763399 -4.780273 8.2647095 7
-0.142334 -4.757812 8.3016357 7
0.002747 -1.5830081 9.1460571 7
-0.00036599999 -1.566406 9.1608887 7
-0.00030499999 -1.529297 9.1688843 7
-0.0080570001 -1.499023 9.2041626 7
-0.003296 -1.4580081 9.1950073 7
-0.00177 -1.438477 9.1930542 7
0.0061039999 -1.4150389 9.1690674 7
-0.003296 -1.384766 9.2094116 7
-0.001648 -1.34668 9.2107544 7
-0.003174 -1.310547 9.2230225 7
-0.003174 -1.292969 9.2263794 7
-0.14019801 -4.4873052 -5.6174932 7
-0.14019801 -4.5029302 -5.6065059 7
-0.13867199 -4.516602 -5.5908198 7
-0.143555 -4.5419922 -5.5940552 7
-0.141968 -4.554688 -5.578186 7
-0.145264 -4.577148 -5.5765381 7
-0.148499 -4.5996089 -5.5747681 7
-0.15014599 -4.6181641 -5.5683589 7
-0.145447 -4.625977 -5.5432129 7
-0.14068601 -4.6318359 -5.5180659 7
-0.137512 -4.640625 -5.4976201 7
-0.135986 -4.6533198 -5.48175 7
-0.13763399 -4.672852 -5.4749761 7
-0.14093 -4.695312 -5.473083 7
-0.142517 -4.7138672 -5.466248 7
-0.15222199 -4.749023 -5.4822998 7
-0.150635 -4.7617192 -5.466187 7
-0.15393101 -4.7841802 -5.4638062 7
-0.153992 -4.7998052 -5.4523931 7
-0.14978001 -4.7910161 7.9050288 7
-0.138428 -4.7519531 7.884644 7
-0.140076 -4.7402339 7.9008179 7
-0.14331099 -4.7324219 7.9213262 7
-0.144897 -4.71875 7.937439 7
-0.15789799 -4.7294922 7.985291 7
-0.153015 -4.704102 7.9829712 7
-0.144958 -4.671875 7.971436 7
-0.14331099 -4.6523442 7.9781489 7
-0.141663 -4.6347661 7.9848628 7
-0.138428 -4.6132808 7.986877 7
-0.13519301 -4.5908198 7.988708 7
-0.138428 -4.5810552 8.0090332 7
-0.133545 -4.5556641 8.0061646 7
-0.138428 -4.5488281 8.0310669 7
-0.133606 -4.5244141 8.0281982 7
-0.13848899 -4.5185552 8.0531006 7
-0.128723 -4.484375 8.0359497 7
0.0086059999 -1.585938 8.8081675 7
-0.001099 -1.576172 8.8451538 7
-0.0043330002 -1.561523 8.8599854 7
-0.001038 -1.541016 8.8529663 7
0.0038449999 -1.519531 8.840271 7
-0.0042719999 -1.507812 8.871582 7
-0.0075070001 -1.492188 8.8865356 7
-0.0042110002 -1.472656 8.8792114 7
0.002258 -1.451172 8.8607788 7
0.002319 -1.433594 8.8644409 7
0.0055539999 -1.414062 8.8569336 7
-0.00091599999 -1.400391 8.8828735 7
0.00073199999 -1.3818361 8.8807983 7
-0.002502 -1.3662111 8.8953247 7
-0.00085399998 -1.34668 8.8930664 7
-0.002441 -1.330078 8.9021606 7
-0.0056759999 -1.314453 8.916626 7
-0.010559 -1.299805 8.9365234 7
-0.14190701 -4.797852 7.4710078 7
-0.13848899 -4.7763672 7.4737549 7
-0.136902 -4.7441411 7.492126 7
-0.14190701 -4.7402339 7.5171509 7
-0.145264 -4.7324219 7.5375981 7
-0.145264 -4.717773 7.5489502 7
-0.14862099 -4.695312 7.5805659 7
-0.14361601 -4.670898 7.5784912 7
-0.14019801 -4.6337891 7.5918579 7
-0.14361601 -4.6269531 7.6123052 7
-0.14361601 -4.6123052 7.6234131 7
-0.136902 -4.5830078 7.6165161 7
-0.130188 -4.5410161 7.620605 7
-0.130188 -4.5263672 7.6315918 7
-0.126831 -4.4902339 7.6442261 7
-0.133545 -4.4882808 7.6734619 7
-0.001526 -1.5849611 8.5426025 7
-0.001465 -1.550781 8.550415 7
0.001953 -1.530273 8.5432129 7
-0.001465 -1.516602 8.5582886 7
-0.0047610002 -1.485352 8.5765381 7
-0.0098270001 -1.47168 8.5971069 7
-0.013123 -1.456055 8.6117554 7
0.0053710002 -1.4267581 8.5548096 7
-0.001282 -1.3974611 8.5839844 7
0.002075 -1.378906 8.5765991 7
0.002075 -1.344727 8.5834351 7
-0.0079349997 -1.3330081 8.6200562 7
-0.014709 -1.3212889 8.6453247 7
-0.0095830001 -1.300781 8.6323242 7
-0.001526 -1.589844 8.2657471 7
0.002014 -1.5712889 8.2589111 7
0.0054930001 -1.552734 8.2519531 7
-0.001465 -1.5419919 8.2776489 7
0.002014 -1.5224611 8.2706909 7
0.00030499999 -1.507812 8.2797852 7
-0.001465 -1.4931639 8.2890615 7
-0.0083619999 -1.481445 8.3146362 7
-0.0083619999 -1.464844 8.3183594 7
-0.0048830002 -1.4462889 8.3112183 7
-0.0083010001 -1.4326169 8.3258057 7
0.002136 -1.40918 8.2965698 7
0.0056759999 -1.389648 8.2891235 7
0.00042699999 -1.37793 8.309021 7
0.0039670002 -1.358398 8.3015747 7
0.00048799999 -1.344727 8.315918 7
0.00048799999 -1.328125 8.3192749 7
-0.0046999999 -1.31543 8.3392334 7
-0.0064090001 -1.299805 8.3480225 7
-0.011597 -1.2861331 8.3678589 7
-0.0070799999 -1.599609 8.0234985 7
-0.016052 -1.59082 8.0545044 7
-0.0087890001 -1.5693361 8.0368652 7
-0.0088499999 -1.5537111 8.0406494 7
-0.01062 -1.539062 8.0499878 7
-0.01062 -1.5244139 8.0539551 7
-0.01062 -1.507812 8.0578613 7
-0.015930001 -1.496094 8.0778809 7
-0.017761 -1.481445 8.0869751 7
-0.01416 -1.4638669 8.079895 7
-0.019531 -1.451172 8.0997915 7
-0.012268 -1.429688 8.0817871 7
-0.010498 -1.414062 8.0799561 7
-0.0086669996 -1.396484 8.0778809 7
-0.010437 -1.3818361 8.0870361 7
-0.012207 -1.367188 8.0958862 7
-0.015807999 -1.353516 8.1103516 7
-0.010376 -1.333984 8.097229 7
-0.0050050002 -1.31543 8.0842295 7
-0.019347999 -1.3076169 8.1312866 7
-0.019347999 -1.291016 8.1346436 7
-0.069692999 -1.331661 15.069521 7
-0.036029998 -1.484695 13.131227 7
-0.062309001 -1.5245579 11.425831 7
-0.036664002 -1.331664 10.494564 7
-0.42832601 -8.626523 8.397171 7
-0.43800899 -8.4818506 8.7793684 7
-0.019019 -1.484979 9.7243795 7
-0.181574 -4.7149429 8.1743336 7
-0.043653999 -1.515601 8.9900713 7
-0.14497299 -4.5069561 7.3721919 7
-0.023801999 -1.55832 8.4641056 7
-0.026675999 -1.377077 8.5399294 7
-0.010957 -1.5992351 8.0417538 7
-0.014912 -1.438063 8.1245785 7
0.0055490001 -1.4651411 7.7083259 7
0.0034439999 -1.314185 7.7749138 7
-0.015607 -1.483762 7.3495312 7
-0.0046640001 -1.512273 7.0701971 7
-0.0070520001 -1.388594 7.1388292 7
0.068148002 -0.297562 3.943547 7
0.056887001 -0.30092499 3.9600329 7
0.074713998 -0.29631299 3.975502 7
0.057776999 -0.310821 4.124238 7
0.063864999 -0.304153 4.13974 7
0.068374999 -0.29562899 3.992249 7
0.051614001 -0.299371 4.0108151 7
0.079557002 -0.28802699 4.0254622 7
0.078321002 -0.28233799 4.0411649 7
0.061131999 -0.283106 4.058774 7
0.067759998 -0.279892 4.0735731 7
0.050209999 -0.27851501 4.0909419 7
0.067249998 -0.26923001 4.1045418 7
0.062749997 -0.26795599 4.1217418 7
0.060663 -0.25783199 4.1338491 7
0.077353001 -0.246985 4.1451931 7
-0.26161101 -4.7136059 14.879501 7
0.0241 -1.373246 -6.8320522 7
-0.14194 -4.5812068 -7.2180371 7
0.0016589999 -1.529771 12.36663 7
0.034499999 -1.332739 -5.7212648 7
-0.133837 -4.579917 -5.9400511 7
0.019587999 -1.473956 11.392072 7
0.043674 -1.42472 10.529257 7
-0.50695997 -8.3669128 8.5353737 7
-0.000604 -1.380859 9.7854786 7
-0.484341 -8.5214911 6.827673 7
0.017061001 -1.349669 9.2380104 7
-0.121428 -4.6858211 8.0405464 7
0.030887 -1.55248 8.7331352 7
0.031282999 -1.323457 8.7781258 7
0.040601 -1.515044 8.3560638 7
0.042456999 -1.301219 8.3883152 7
-0.174649 -4.7968731 7.4110751 7
-0.15783399 -4.5757942 7.5146222 7
0.0036859999 -1.478 7.992979 7
0.001403 -1.280298 8.0410786 7
0.0093069999 -1.451484 7.7261739 7
-0.121946 -4.5960169 0.103275 7
-0.12355 -4.5485868 0.39717001 7
-0.12640101 -4.6624651 0.54965401 7
-0.121216 -4.5810132 0.83366001 7
-0.014153 -1.565316 7.1892529 7
-0.010111 -1.399271 7.2073698 7
-0.054972 -1.357937 -8.9263725 7
-0.027757 -1.377753 -7.465097 7
-0.017333001 -1.41457 -6.5383072 7
-0.116479 -4.5817618 -6.5093122 7
