# .PCD v0.7 - Point Cloud Data file format
VERSION 0.7
FIELDS x y z intensity
SIZE 4 4 4 4
TYPE F F F F
COUNT 1 1 1 1
WIDTH 513
HEIGHT 1
VIEWPOINT 0 0 0 1 0 0 0
POINTS 513
DATA ascii
-0.61224401 -0.694336 -73.047302 7
-0.62182599 3.094727 -60.075867 7
-0.196777 -5.0625 45.289185 7
-0.66198701 3.164062 -57.242126 7
-0.73321497 -4.2714839 -53.057556 7
-0.14996301 -5.1035161 38.049805 7
-0.016724 -1.6943361 36.308838 7
-0.019470001 -1.794922 33.631348 7
-0.14483599 -5.0751948 30.691833 7
-0.144775 -5.0058589 30.703979 7
-0.15978999 -4.967773 30.905823 7
-0.156921 -4.8925781 30.883179 7
-0.002502 -1.813477 29.311157 7
-0.029602 -1.662109 27.898315 7
-0.016785 -1.65625 25.949951 7
-0.164612 -5.0576172 23.883362 7
-0.14672901 -4.9658198 23.725098 7
-0.149597 -4.9189448 23.765503 7
-0.155518 -4.8789058 23.834229 7
-0.16613799 -4.8476558 23.948425 7
-0.0092160003 -1.90625 22.882874 7
-0.010925 -1.856445 22.904968 7
-0.010864 -1.8056639 22.909546 7
-0.0078119999 -1.75293 22.885071 7
-0.002991 -1.6982419 22.842896 7
-0.012451 -1.655273 22.939941 7
-0.01001 -1.601562 22.920837 7
-0.176697 -5.0439448 22.651245 7
-0.166565 -4.9726558 22.572632 7
-0.169678 -4.9287109 22.612854 7
-0.178406 -4.8955078 22.704102 7
-0.18774401 -4.53125 -15.314392 7
-0.183899 -4.563477 -15.27533 7
-0.171875 -4.579102 -15.180725 7
-0.170349 -4.6142578 -15.158264 7
-0.17285199 -4.6582031 -15.163757 7
-0.192322 -4.7363281 -15.286194 7
-0.18176299 -4.514648 -14.372986 7
-0.182739 -4.5527339 -14.367615 7
-0.175171 -4.5751948 -14.306458 7
-0.173584 -4.608398 -14.284241 7
-0.171143 -4.640625 -14.256409 7
-0.175476 -4.6845698 -14.272888 7
-0.193359 -4.757812 -14.377869 7
-0.156982 -4.8925781 15.342468 7
-0.15325899 -4.8505859 15.332642 7
-0.018188 -1.170898 -12.470154 7
-0.020142 -1.204102 -12.478699 7
-0.022644 -1.144531 -11.82196 7
-0.020812999 -1.174805 -11.807678 7
-0.017944001 -1.205078 -11.78717 7
-0.020935001 -1.237305 -11.801453 7
-0.027832 -1.2705081 -11.83844 7
-0.015137 -1.59082 13.944397 7
-0.016113 -1.5625 13.954102 7
-0.021118 -1.535156 13.986572 7
-0.022034001 -1.5068361 13.996155 7
-0.014954 -1.472656 13.9599 7
-0.016968001 -1.443359 13.974976 7
-0.016968001 -1.414062 13.978699 7
-0.020873999 -1.386719 14.004944 7
-0.024901999 -1.359375 14.031433 7
-0.024840999 -1.329102 14.034973 7
-0.025818 -1.300781 14.044067 7
-0.021729 -1.291016 -10.606628 7
-0.029297 -1.3232419 -10.643494 7
-0.017517 -1.344727 -10.576965 7
-0.018798999 -1.4013669 -10.575867 7
-0.013489 -1.425781 -10.54364 7
-0.016785 -1.456055 -10.55719 7
-0.026489001 -1.490234 -10.604919 7
-0.026550001 -1.517578 -10.601013 7
-0.024475001 -1.544922 -10.585754 7
-0.024536001 -1.572266 -10.581604 7
-0.014282 -1.611328 12.803711 7
-0.012024 -1.582031 12.796204 7
-0.0046390002 -1.5869139 12.271851 7
-0.0080570001 -1.564453 12.292908 7
-0.016052 -1.542969 12.336487 7
-0.014832 -1.516602 12.334717 7
-0.010254 -1.487305 12.315613 7
-0.0062259999 -1.460938 12.296692 7
-0.0085450001 -1.436523 12.311707 7
-0.0061650001 -1.410156 12.303955 7
-0.0084840003 -1.384766 12.318848 7
-0.016479 -1.3642581 12.362183 7
-0.015259 -1.3369139 12.359924 7
-0.018677 -1.314453 12.380615 7
-0.019774999 -1.2880861 12.389404 7
-0.024963001 -1.28418 -9.6110229 7
-0.033202998 -1.31543 -9.647522 7
-0.0067750001 -1.594727 11.802429 7
-0.0055539999 -1.568359 11.80072 7
-0.013916 -1.550781 11.844421 7
-0.012695 -1.5244139 11.842529 7
-0.013916 -1.501953 11.85199 7
-0.0042719999 -1.469727 11.810425 7
-0.011475 -1.451172 11.848206 7
-0.0065919999 -1.422852 11.829102 7
-0.012573 -1.402344 11.861206 7
-0.0089720003 -1.375977 11.847595 7
-0.016113 -1.355469 11.885193 7
-0.016113 -1.330078 11.888672 7
-0.017273 -1.3056639 11.897705 7
-0.017212 -1.28125 11.901001 7
0.00085399998 -1.594727 11.340576 7
-0.0090939999 -1.578125 11.389648 7
-0.0072019999 -1.5556639 11.382446 7
-0.010925 -1.533203 11.403137 7
-0.0059199999 -1.5068361 11.38446 7
-0.0083010001 -1.483398 11.399414 7
0.001648 -1.454102 11.357849 7
-0.0045170002 -1.435547 11.390015 7
-0.0045170002 -1.412109 11.393555 7
-0.011963 -1.392578 11.431152 7
-0.013184 -1.369141 11.440125 7
-0.0081789996 -1.342773 11.420959 7
-0.0093989996 -1.3193361 11.429932 7
-0.001892 -1.291016 11.399292 7
-0.021361999 -1.2900389 -8.6589966 7
-0.018921001 -1.311523 -8.6442261 7
-0.020264 -1.3369139 -8.6465454 7
-0.150757 -4.485352 -8.244812 7
-0.150879 -4.507812 -8.2339478 7
-0.153442 -4.5341802 -8.2332153 7
-0.15734901 -4.5644531 -8.2376099 7
-0.159973 -4.5917969 -8.2368774 7
-0.14856 -4.5917969 -8.1797485 7
-0.143555 -4.6035161 -8.1478882 7
-0.142334 -4.6230469 -8.1316528 7
-0.143677 -4.648438 -8.1254272 7
-0.143738 -4.6699219 -8.1140747 7
-0.150208 -4.7050781 -8.128479 7
-0.15789799 -4.742188 -8.147644 7
-0.163086 -4.7744141 -8.1564331 7
-0.161926 -4.7939448 -8.1398315 7
0.0077510001 -1.587891 10.856567 7
0.0090330001 -1.564453 10.854919 7
0.0064699999 -1.543945 10.870178 7
0 -1.5244139 10.9021 7
-0.001282 -1.503906 10.911621 7
-0.001221 -1.480469 10.915344 7
6.0999999e-05 -1.4580081 10.913391 7
0.0065919999 -1.431641 10.888855 7
0.0066530001 -1.408203 10.892517 7
0.0067139999 -1.3857419 10.895813 7
0.0040890002 -1.365234 10.910706 7
-0.0036619999 -1.347656 10.94812 7
-0.00238 -1.324219 10.945862 7
-0.002319 -1.3017581 10.949158 7
-0.025635 -1.285156 -8.2683716 7
-0.02832 -1.308594 -8.2765503 7
-0.025696 -1.329102 -8.2617798 7
-0.024413999 -1.351562 -8.2527466 7
-0.021850999 -1.37207 -8.237854 7
-0.02063 -1.393555 -8.2288208 7
-0.02063 -1.416016 -8.2251587 7
-0.019347999 -1.436523 -8.2160034 7
-0.024719 -1.462891 -8.2348022 7
-0.026123 -1.486328 -8.2367554 7
-0.026123 -1.5087889 -8.2328491 7
-0.026184 -1.530273 -8.2290649 7
-0.026306 -1.552734 -8.2252808 7
-0.026306 -1.575195 -8.2212524 7
-0.026366999 -1.597656 -8.2173462 7
-0.154724 -4.5019531 -7.7770391 7
-0.156067 -4.5253911 -7.7711792 7
-0.16149899 -4.5566411 -7.7805791 7
-0.165527 -4.5869141 -7.7848511 7
-0.161621 -4.5996089 -7.7583618 7
-0.157654 -4.6123052 -7.7319951 7
-0.153809 -4.625977 -7.705627 7
-0.15118399 -4.641602 -7.6843872 7
-0.151245 -4.6630859 -7.6730351 7
-0.14996301 -4.6806641 -7.6566768 7
-0.155334 -4.7128911 -7.6654658 7
-0.163452 -4.75 -7.6842651 7
-0.16613799 -4.7763672 -7.6829219 7
-0.011719 -1.580078 10.55603 7
-0.01709 -1.5625 10.582336 7
-0.018433001 -1.541016 10.591797 7
-0.021118 -1.521484 10.606995 7
-0.018371999 -1.498047 10.599609 7
-0.021057 -1.478516 10.614563 7
-0.016968001 -1.454102 10.601318 7
-0.015564 -1.431641 10.599487 7
-0.015564 -1.40918 10.603027 7
-0.01825 -1.389648 10.617859 7
-0.016845999 -1.3662111 10.615723 7
-0.024963001 -1.349609 10.652832 7
-0.020873999 -1.326172 10.639526 7
-0.019531 -1.3037111 10.637146 7
-0.022156 -1.282227 10.651672 7
-0.15307599 -4.492188 -7.303772 7
-0.150391 -4.507812 -7.28302 7
-0.15460201 -4.5351558 -7.2870479 7
-0.156067 -4.5576172 -7.2810669 7
-0.161621 -4.5888672 -7.289978 7
-0.15618899 -4.5976558 -7.2588501 7
-0.154846 -4.6162109 -7.2427368 7
-0.149353 -4.624023 -7.2116089 7
-0.14672901 -4.639648 -7.1903691 7
-0.148132 -4.6611328 -7.184021 7
-0.15094 -4.686523 -7.1826782 7
-0.156555 -4.717773 -7.1912231 7
-0.160767 -4.7451172 -7.1947632 7
-0.163635 -4.7705078 -7.1930542 7
-0.46453899 -8.6171885 7.7067871 7
-0.465942 -8.6064453 7.7307739 7
-0.45758101 -8.5488281 7.7514648 7
-0.45477301 -8.5244141 7.7650151 7
-0.45758101 -8.5185547 7.792603 7
-0.45483401 -8.4785156 7.8261719 7
-0.45715299 -8.4726562 7.8547359 7
-0.45855701 -8.4609385 7.87854 7
-0.45019501 -8.4033203 7.8978882 7
-0.44879201 -8.3837891 7.9143682 7
-0.45025599 -8.3720703 7.9382319 7
-0.45452899 -8.3544922 7.98877 7
-0.00042699999 -1.5693361 10.121338 7
-0.0088499999 -1.554688 10.158997 7
-0.015869001 -1.539062 10.190857 7
-0.011597 -1.494141 10.181763 7
-0.010193 -1.472656 10.179932 7
-0.010132 -1.452148 10.183472 7
-0.010071 -1.410156 10.190552 7
-0.017151 -1.394531 10.222534 7
-0.014282 -1.37207 10.214844 7
-0.015686 -1.351562 10.223816 7
-0.014282 -1.330078 10.221619 7
-0.012817 -1.3076169 10.219299 7
-0.015564 -1.289062 10.233948 7
-0.460327 -8.5761719 7.0415039 7
-0.45989999 -8.5625 7.0630488 7
-0.458496 -8.5449219 7.0803218 7
-0.45703101 -8.5263672 7.0977778 7
-0.45562699 -8.5078115 7.1150508 7
-0.45269799 -8.484375 7.1289058 7
-0.45269799 -8.4707031 7.1491699 7
-0.44982901 -8.4482422 7.163147 7
-0.44836399 -8.4296885 7.1802368 7
-0.44842499 -8.4150391 7.2003779 7
-0.44696 -8.3974609 7.2174072 7
-0.44995099 -8.3925781 7.243896 7
-0.44409201 -8.359375 7.2510381 7
-0.445618 -8.3505859 7.274353 7
-0.44415301 -8.3320312 7.2910771 7
-0.00042699999 -1.589844 9.7851562 7
0.0039670002 -1.5673831 9.7724609 7
0.0039670002 -1.547852 9.7764282 7
-0.001831 -1.53125 9.8025513 7
-0.0046999999 -1.513672 9.8175049 7
-0.003235 -1.492188 9.8157349 7
-0.00030499999 -1.469727 9.8083496 7
0.00116 -1.450195 9.8064585 7
-0.000244 -1.4306639 9.8157349 7
-0.001709 -1.4111331 9.824707 7
0.001221 -1.389648 9.8172607 7
-0.000183 -1.371094 9.826355 7
-0.0059810001 -1.3544919 9.8522339 7
-0.0045170002 -1.333984 9.8500366 7
-0.001587 -1.3125 9.842041 7
-0.0044559999 -1.293945 9.8566895 7
-0.15753201 -4.6503911 -6.381897 7
-0.151611 -4.65625 -6.3512568 7
-0.154663 -4.6806641 -6.3494258 7
-0.15771499 -4.704102 -6.3479609 7
-0.15631101 -4.719727 -6.3313599 7
-0.159363 -4.7607422 -6.3182979 7
-0.46093801 -8.6386719 6.1672969 7
-0.46551499 -8.6308594 6.217041 7
-0.46557599 -8.6181641 6.237915 7
-0.47466999 -8.625 6.295898 7
-0.465637 -8.5839844 6.2996831 7
-0.47021499 -8.5869141 6.3288569 7
-0.465637 -8.5595703 6.3407588 7
-0.47326699 -8.5732422 6.3756099 7
-0.470276 -8.5507812 6.3903809 7
-0.45971701 -8.5039062 6.390686 7
-0.470337 -8.5273438 6.431458 7
-0.46734601 -8.5048828 6.4460449 7
-0.46130401 -8.4736328 6.4547119 7
-0.45678699 -8.4462891 6.466064 7
-0.45227101 -8.4199219 6.4776611 7
-0.45837399 -8.4277344 6.509644 7
-0.44927999 -8.3857422 6.5119629 7
-0.44635001 -8.3662109 6.5263672 7
-0.45697001 -8.3867188 6.5673218 7
-0.45544401 -8.3681641 6.584167 7
-0.44641101 -8.3271484 6.5862432 7
-0.44793701 -8.3203115 6.609314 7
-0.010254 -1.592773 9.477478 7
-0.0071410001 -1.570312 9.4703979 7
-0.0041499999 -1.549805 9.4630737 7
-0.002625 -1.529297 9.4613647 7
-0.014709 -1.518555 9.5097656 7
-0.0070799999 -1.494141 9.4857788 7
-0.0070799999 -1.474609 9.4894409 7
-0.010132 -1.4580081 9.5043325 7
-0.011597 -1.439453 9.5135498 7
-0.0039670002 -1.416016 9.4893188 7
-0.0070190001 -1.398438 9.5040283 7
-0.0054319999 -1.37793 9.5020142 7
-0.014526 -1.3642581 9.5389404 7
-0.019043 -1.3486331 9.5591431 7
-0.014465 -1.326172 9.5457764 7
-0.020508001 -1.311523 9.5714722 7
-0.021973001 -1.2919919 9.5803833 7
-0.46215799 -8.6318359 5.4412842 7
-0.462219 -8.6220703 5.4619141 7
-0.46850601 -8.6337891 5.4924321 7
-0.46228001 -8.6035156 5.5032349 7
-0.46075401 -8.5888672 5.5214229 7
-0.46075401 -8.578125 5.5421138 7
-0.46240199 -8.5742188 5.565186 7
-0.46240199 -8.5634766 5.5856929 7
-0.46868899 -8.5742188 5.6161499 7
-0.46875 -8.5644531 5.6366582 7
-0.47345001 -8.5693359 5.664917 7
-0.47192401 -8.5537109 5.6829219 7
-0.47821 -8.5625 5.7136841 7
-0.47198501 -8.5322266 5.7237549 7
-0.47045901 -8.5175781 5.7416992 7
-0.46734601 -8.4970703 5.756958 7
-0.14276101 -4.7939448 8.2825928 7
-0.149048 -4.7910161 8.3128662 7
-0.0034789999 -1.5869139 9.1680908 7
-0.0034179999 -1.5673831 9.171936 7
-0.001831 -1.548828 9.1702271 7
-0.001831 -1.530273 9.1741943 7
-0.0080570001 -1.515625 9.2001343 7
-0.0064699999 -1.496094 9.1984863 7
-0.0048830002 -1.4775389 9.1965942 7
-0.0048219999 -1.4580081 9.2003784 7
0.001404 -1.436523 9.1818237 7
0.002991 -1.4169919 9.1798706 7
-0.001709 -1.4013669 9.2001343 7
-0.0063479999 -1.386719 9.2202148 7
-0.003174 -1.365234 9.2125854 7
-0.003174 -1.34668 9.2160645 7
-0.0093989996 -1.332031 9.2417603 7
-0.0078119999 -1.311523 9.239624 7
-0.0046999999 -1.292969 9.2317495 7
-0.14379901 -4.782227 7.8907471 7
-0.145447 -4.7685552 7.9067988 7
-0.14386 -4.750977 7.9138179 7
-0.147034 -4.7402339 7.9342651 7
-0.151978 -4.7363281 7.9595342 7
-0.156799 -4.7304692 7.9847412 7
-0.155212 -4.710938 7.9915161 7
-0.151917 -4.688477 7.9937129 7
-0.145447 -4.6601558 7.9866939 7
-0.145447 -4.6445308 7.9979858 7
-0.147034 -4.6318359 8.0136719 7
-0.14709499 -4.6162109 8.0250854 7
-0.142212 -4.5908198 8.0222168 7
-0.145447 -4.5820308 8.0426636 7
-0.145447 -4.5654302 8.0536499 7
-0.142212 -4.5439448 8.055481 7
-0.135681 -4.514648 8.0478516 7
-0.142212 -4.5117192 8.0773926 7
-0.138916 -4.4892578 8.0789185 7
0.002136 -1.591797 8.8300171 7
-0.0043330002 -1.578125 8.8560181 7
-0.001038 -1.5576169 8.848938 7
-0.001038 -1.5400389 8.8528442 7
-0.0058590001 -1.525391 8.87323 7
-0.0058590001 -1.5087889 8.8769531 7
-0.0058590001 -1.4912111 8.8807983 7
-0.002563 -1.470703 8.8735352 7
-0.0041499999 -1.455078 8.8828115 7
0.002319 -1.4326169 8.8643799 7
0.0056150001 -1.4130861 8.8569336 7
-0.00085399998 -1.3994139 8.8825073 7
0.00073199999 -1.380859 8.8806152 7
-0.0040890002 -1.365234 8.9007568 7
-0.0040279999 -1.331055 8.9073486 7
-0.0040279999 -1.3125 8.9107666 7
-0.0040279999 -1.294922 8.9140615 7
0.0052490002 -1.595703 8.5165405 7
-0.001465 -1.583984 8.5424194 7
-0.001465 -1.5673831 8.5463867 7
-0.003174 -1.5517581 8.5558472 7
0.000244 -1.53125 8.5487061 7
0.0036619999 -1.512695 8.5415649 7
-0.016479 -1.5087889 8.6112671 7
-0.013123 -1.4892581 8.604126 7
-0.0097660003 -1.470703 8.5968628 7
-0.0063479999 -1.450195 8.5895386 7
0.00036599999 -1.4306639 8.5710449 7
0.00036599999 -1.4130861 8.574646 7
-0.001221 -1.3974611 8.5838013 7
0.00042699999 -1.3798831 8.5819092 7
-0.0079349997 -1.367188 8.612854 7
-0.0045779999 -1.347656 8.6052246 7
0.00048799999 -1.327148 8.5921021 7
-0.0095830001 -1.316406 8.6286011 7
-0.0095830001 -1.299805 8.631958 7
-0.0095830001 -1.283203 8.635376 7
0.0072019999 -1.599609 8.2345581 7
0.0037839999 -1.5849611 8.2493896 7
0.0054930001 -1.568359 8.2480469 7
0.00030499999 -1.5556639 8.2683105 7
0.002075 -1.5380861 8.2667236 7
0.002075 -1.5224611 8.2705078 7
-0.0065919999 -1.512695 8.3017578 7
-0.001343 -1.492188 8.2890615 7
-0.0048219999 -1.4775389 8.303833 7
-0.01178 -1.466797 8.3294678 7
0.0056150001 -1.438477 8.2783813 7
0.0039059999 -1.423828 8.2874146 7
0.00042699999 -1.40918 8.3019409 7
0.002197 -1.392578 8.3000488 7
0.002258 -1.375 8.3035278 7
0.002258 -1.359375 8.3070068 7
-0.001221 -1.345703 8.3214722 7
-0.0064090001 -1.332031 8.3413696 7
-0.0098270001 -1.3173831 8.3556519 7
0.00060999999 -1.295898 8.3261719 7
-0.0098270001 -1.28418 8.3622437 7
-0.0051879999 -1.582031 8.0220337 7
-0.0087890001 -1.568359 8.0366821 7
-0.0087280003 -1.552734 8.0407705 7
-0.012329 -1.5400389 8.055481 7
-0.0087280003 -1.5224611 8.0484619 7
-0.023132 -1.515625 8.0957642 7
-0.014099 -1.494141 8.0723267 7
-0.010498 -1.4755861 8.0651855 7
-0.010437 -1.4599611 8.0690308 7
-0.0086669996 -1.443359 8.0672607 7
-0.010437 -1.4287111 8.0764771 7
-0.0086059999 -1.412109 8.0744629 7
-0.012207 -1.398438 8.0888062 7
-0.0086059999 -1.380859 8.081665 7
-0.012207 -1.3681639 8.0960083 7
-0.0085450001 -1.3486331 8.088501 7
-0.015747 -1.337891 8.1137695 7
-0.010376 -1.3193361 8.100769 7
-0.012146 -1.3037111 8.1096191 7
-0.012146 -1.2880861 8.112915 7
-0.076301999 -1.586818 17.178017 7
-0.023015 -1.682243 14.337715 7
0.018324999 -1.3733881 12.451906 7
-0.020984 -1.440701 11.021228 7
0.002872 -1.513769 10.090807 7
-0.01418 -1.2904021 10.295497 7
0.024786999 -1.560222 9.3314333 7
0.022391001 -1.341976 9.4070129 7
-0.50282103 -8.5461674 6.2994828 7
-0.016561 -1.4095089 8.8222399 7
-0.007125 -1.476454 8.3761005 7
-0.002879 -1.285656 8.4042263 7
-0.119398 -4.5611839 6.3556552 7
0.013509 -1.502704 7.9180222 7
0.012396 -1.341049 7.9807782 7
0.023706 -1.53801 7.5674548 7
0.026574001 -1.3827 7.6103368 7
-0.0055979998 -1.28982 7.3717971 7
0.068618 -0.29733601 3.9436431 7
0.065673999 -0.31787601 4.1085639 7
0.078000002 -0.28982899 3.9606559 7
0.048797999 -0.31062999 4.1446772 7
0.054683 -0.30304 4.1599789 7
0.051188 -0.30055699 3.9774041 7
0.058582 -0.301016 3.9941781 7
0.072977997 -0.28880599 4.0097651 7
0.074890003 -0.29023299 4.0251212 7
0.078840002 -0.282098 4.0411901 7
0.045770001 -0.29004899 4.0615401 7
0.073611997 -0.27725601 4.0735402 7
0.071947999 -0.269317 4.087409 7
0.057041001 -0.27318299 4.1079741 7
0.079377003 -0.26143599 4.1176319 7
0.050533 -0.26121101 4.1376181 7
0.072535001 -0.248042 4.148387 7
0.050655998 -1.714589 15.552689 7
-0.030239999 -1.605845 13.697752 7
0.015930001 -1.5224 12.233442 7
0.018175 -1.432566 -5.8520222 7
0.046181001 -1.461511 11.166247 7
0.054775 -1.419976 10.442802 7
0.001049 -1.380258 9.7744427 7
-0.50311702 -8.4275932 7.273448 7
0.025245 -1.5923949 9.1341648 7
0.020674 -1.3484499 9.2154961 7
-0.49221501 -8.4814806 5.713551 7
-0.14249299 -4.7074471 8.1753979 7
0.038773 -1.548092 8.6874847 7
0.037114002 -1.32162 8.7440796 7
0.044755001 -1.512875 8.333437 7
0.047591001 -1.299704 8.3601227 7
0.004803 -1.477481 7.9875388 7
-0.13011 -4.5727348 -0.37010601 7
-0.131162 -4.7103319 -0.20769501 7
-0.161443 -4.6772308 6.655334 7
0.020342 -1.446631 7.6751771 7
-0.116766 -4.4884868 -0.001239 7
-0.129209 -4.6493092 0.123286 7
-0.13632999 -4.7879829 0.26971999 7
-0.152017 -4.724853 6.158875 7
-0.13248301 -4.5434389 6.2642989 7
0.031984001 -1.420329 7.409215 7
-0.113006 -4.5413752 0.46355101 7
-0.114409 -4.6478829 0.61896598 7
-0.10601 -4.714695 0.80022901 7
-0.101385 -4.53898 0.91569799 7
-0.099381998 -4.61659 1.075837 7
-0.091417998 -4.6672339 1.249222 7
-0.0060879998 -1.353869 -14.711756 7
-0.077425003 -1.3788821 -10.834052 7
-0.046987999 -1.418034 -8.796957 7
-0.027701 -1.176468 -7.4937029 7
-0.14587501 -4.6518359 -8.0670834 7
