# .PCD v0.7 - Point Cloud Data file format
VERSION 0.7
FIELDS x y z intensity
SIZE 4 4 4 4
TYPE F F F F
COUNT 1 1 1 1
WIDTH 327
HEIGHT 1
VIEWPOINT 0 0 0 1 0 0 0
POINTS 327
DATA ascii
-0.079650998 -2.1074221 67.338318 7
-0.075745001 -1.947266 67.238159 7
-0.206177 -5.4355469 64.123474 7
-0.22381601 -5.3261719 64.602966 7
-0.078856997 -2.1894529 61.081726 7
-0.092407003 -2.0595701 61.449646 7
-0.57550001 -0.48632801 -72.41687 7
-0.56286597 -0.66015601 -72.063965 7
-0.6875 -4.0351558 -69.113892 7
-0.584656 -0.69140601 -59.434937 7
-0.58575398 -0.83593798 -59.450439 7
-0.690247 -4.1132808 -62.586914 7
-0.559448 3.3496089 -58.990601 7
-0.59985399 3.2529299 -59.886108 7
-0.61334199 3.1074221 -56.315796 7
-0.57220501 -0.87792999 -50.418945 7
-0.054016002 -1.675781 39.694214 7
-0.20288099 -5.0712891 35.978149 7
-0.025696 -1.724609 33.776062 7
-0.049377002 -1.780273 32.11261 7
-0.041138001 -1.628906 32.010315 7
-0.042236 -1.7861331 29.846008 7
-0.038513001 -1.733398 24.646851 7
-0.038451999 -1.6787111 24.651123 7
-0.034972999 -1.566406 24.624451 7
-0.186951 -4.9707031 22.777283 7
-0.19696 -4.9404302 22.879883 7
-0.200684 -4.8974609 22.925781 7
-0.18603501 -5.054688 21.407166 7
-0.174622 -4.984375 21.323486 7
-0.179932 -4.9472661 21.380432 7
-0.18725599 -4.9160161 21.454651 7
-0.19653299 -4.8876948 21.545654 7
-0.18042 -4.8066411 21.42157 7
-0.176514 -4.5351558 -16.286011 7
-0.171326 -4.5664058 -16.235718 7
-0.17059299 -4.6054692 -16.218994 7
-0.178955 -4.484375 -15.287476 7
-0.179077 -4.523438 -15.276611 7
-0.171082 -4.545898 -15.209595 7
-0.163147 -4.570312 -15.1427 7
-0.16168199 -4.6054692 -15.120483 7
-0.16571 -4.6523442 -15.137207 7
-0.185059 -4.7285161 -15.259644 7
-0.188354 -4.7744141 -15.270508 7
-0.063477002 -1.613281 17.043335 7
-0.195251 -5.109375 15.522705 7
-0.19341999 -5.0722661 15.52417 7
-0.187866 -5.0263672 15.50354 7
-0.176819 -4.9707031 15.450317 7
-0.16766401 -4.9179692 15.407715 7
-0.163086 -4.875 15.392456 7
-0.174927 -4.8662109 15.47522 7
-0.177673 -4.8388672 15.503296 7
-0.18310501 -4.8164058 15.547852 7
-0.036377002 -1.672852 15.357422 7
-0.182129 -5.0371089 14.737671 7
-0.17730699 -4.9951172 14.722656 7
-0.168579 -4.8496089 14.721436 7
-0.17144801 -4.8242192 14.749512 7
-0.180969 -4.813477 14.81543 7
-0.038086001 -1.6611331 14.728271 7
-0.038024999 -1.628906 14.732544 7
-0.042785998 -1.601562 14.765137 7
-0.022644 -1.554688 14.648804 7
-0.022583 -1.5224611 14.65271 7
-0.027344 -1.4951169 14.685059 7
-0.029175 -1.43457 14.703979 7
-0.017333999 -1.297852 -11.779053 7
-0.012512 -1.325195 -11.746948 7
-0.01062 -1.3544919 -11.732056 7
-0.0086669996 -1.3837889 -11.717163 7
-0.017578 -1.419922 -11.765259 7
-0.022461001 -1.454102 -11.790161 7
-0.019592 -1.483398 -11.769287 7
-0.015747 -1.5107419 -11.742676 7
-0.017761 -1.542969 -11.750122 7
-0.014893 -1.5712889 -11.729126 7
-0.036072001 -1.579102 14.068726 7
-0.033996999 -1.546875 14.061157 7
-0.024963001 -1.5107419 14.013672 7
-0.026916999 -1.482422 14.028687 7
-0.029906999 -1.456055 14.049683 7
-0.031920999 -1.427734 14.064819 7
-0.031738002 -1.306641 14.078613 7
-0.022399999 -1.300781 -11.219727 7
-0.032166 -1.59375 13.487305 7
-0.036316 -1.568359 13.514404 7
-0.037354 -1.5400389 13.523682 7
-0.029967999 -1.5068361 13.487671 7
-0.033080999 -1.4794919 13.508667 7
-0.034058001 -1.451172 13.517944 7
-0.034058001 -1.422852 13.521484 7
-0.03717 -1.396484 13.542236 7
-0.038146999 -1.3681639 13.551514 7
-0.038146999 -1.339844 13.554932 7
-0.038086001 -1.310547 13.558228 7
-0.040160999 -1.283203 13.57312 7
-0.010193 -1.231445 -10.557129 7
-0.027404999 -1.595703 12.876099 7
-0.027465999 -1.568359 12.880005 7
-0.027404999 -1.541016 12.883789 7
-0.020691 -1.5087889 12.85376 7
-0.026184 -1.486328 12.885986 7
-0.025085 -1.4580081 12.884033 7
-0.027222 -1.40625 12.902466 7
-0.031555001 -1.3818361 12.928833 7
-0.028259 -1.3525389 12.915161 7
-0.031493999 -1.326172 12.935791 7
-0.034729 -1.300781 12.956421 7
-0.01825 -1.1806639 -9.5964355 7
-0.014832 -1.231445 -9.572998 7
-0.017212 -1.257812 -9.5811768 7
-0.023132 -1.3125 -9.6032705 7
-0.020324999 -1.780273 11.835205 7
-0.014099 -1.626953 11.83252 7
-0.15789799 -4.5507808 -8.8039551 7
-0.157959 -4.5751948 -8.7928467 7
-0.16046099 -4.6035161 -8.7921143 7
-0.154358 -4.6142578 -8.755127 7
-0.15448 -4.6386719 -8.7437744 7
-0.15203901 -4.657227 -8.722168 7
-0.1521 -4.6806641 -8.7108154 7
-0.160706 -4.7207031 -8.7358398 7
-0.155884 -4.735352 -8.7037354 7
-0.162109 -4.7705078 -8.7178965 7
-0.16333 -4.795898 -8.7116699 7
-0.017029 -1.2900389 -8.6431885 7
-0.145813 -4.4804692 -8.2357178 7
-0.147156 -4.5058589 -8.2299805 7
-0.15100101 -4.5351558 -8.2344971 7
-0.152344 -4.5605469 -8.2287598 7
-0.14862099 -4.5751948 -8.2021484 7
-0.138428 -4.5761719 -8.1500244 7
-0.13848899 -4.5996089 -8.1387939 7
-0.13855 -4.6210942 -8.1276855 7
-0.141174 -4.648438 -8.126709 7
-0.14379901 -4.6757808 -8.1257324 7
-0.15271001 -4.7158198 -8.1501455 7
-0.15924101 -4.7519531 -8.1641846 7
-0.160522 -4.7753911 -8.1577148 7
-0.15014599 -4.6669922 -7.6793208 7
-0.15069599 -4.4931641 -7.3050542 7
-0.15631101 -4.5244141 -7.3143311 7
-0.15496799 -4.5419922 -7.2983398 7
-0.16748001 -4.585938 -7.3322749 7
-0.16198701 -4.5957031 -7.301147 7
-0.148193 -4.5878911 -7.2401118 7
-0.145569 -4.6025391 -7.2188721 7
-0.145569 -4.6230469 -7.2077641 7
-0.14563 -4.6425781 -7.1966548 7
-0.14843801 -4.6679692 -7.195312 7
-0.147156 -4.6845698 -7.178833 7
-0.163757 -4.7382808 -7.2271729 7
-0.167969 -4.7675781 -7.2305908 7
-0.166687 -4.7841802 -7.2139888 7
-0.0063479999 -1.59668 10.139893 7
-0.011902 -1.579102 10.16626 7
-0.0076899999 -1.556641 10.153442 7
-0.013306 -1.539062 10.17981 7
-0.010498 -1.515625 10.172363 7
-0.013245 -1.49707 10.187256 7
-0.0090330001 -1.4736331 10.174438 7
-0.0090330001 -1.453125 10.177979 7
-0.01178 -1.43457 10.192993 7
-0.014587 -1.4150389 10.207642 7
-0.0089109996 -1.390625 10.188721 7
-0.017333999 -1.375 10.226074 7
-0.018677 -1.333984 10.238525 7
-0.14532501 -4.484375 -6.8577881 7
-0.142517 -4.4980469 -6.8370361 7
-0.144043 -4.5205078 -6.8310552 7
-0.149841 -4.5498052 -6.8399658 7
-0.151306 -4.5722661 -6.8338618 7
-0.149902 -4.5878911 -6.8175049 7
-0.141418 -4.608398 -6.7659912 7
-0.143005 -4.6494141 -6.7485352 7
-0.14160199 -4.6650391 -6.7322998 7
-0.153198 -4.7451172 -6.7373052 7
-0.157593 -4.773438 -6.740356 7
-0.012329 -1.599609 9.8297119 7
-0.015259 -1.582031 9.8449707 7
-0.016663 -1.563477 9.8546143 7
-0.019531 -1.5244139 9.8735352 7
-0.012207 -1.480469 9.8531494 7
-0.0092770001 -1.458984 9.8458252 7
-0.010681 -1.439453 9.8549805 7
-0.013611 -1.420898 9.869751 7
-0.012146 -1.3994139 9.8677979 7
-0.016479 -1.382812 9.8879395 7
-0.015015 -1.362305 9.8859863 7
-0.013489 -1.3212889 9.887207 7
-0.010559 -1.299805 9.8795166 7
-0.013489 -1.28125 9.8937988 7
-0.0090939999 -1.59375 9.4719238 7
-0.012085 -1.576172 9.4869385 7
-0.018127 -1.5625 9.5131836 7
-0.019592 -1.543945 9.522583 7
-0.019531 -1.5244139 9.5263672 7
-0.022583 -1.507812 9.5413818 7
-0.022583 -1.488281 9.545166 7
-0.0089109996 -1.458984 9.4987793 7
-0.011963 -1.4423831 9.5135498 7
-0.014954 -1.424805 9.5284424 7
-0.016418001 -1.407227 9.5373545 7
-0.017883001 -1.388672 9.5466309 7
-0.020935001 -1.3701169 9.5611572 7
-0.028441999 -1.356445 9.5925293 7
-0.026916999 -1.335938 9.590332 7
-0.020812999 -1.3125 9.5715332 7
-0.023804 -1.294922 9.5859385 7
-0.465698 -8.625 4.5585942 7
-0.46734601 -8.6230469 4.5812988 7
-0.470642 -8.6259766 4.605957 7
-0.46417201 -8.5966797 4.6186519 7
-0.46423301 -8.5888672 4.6392822 7
-0.467529 -8.5917969 4.6638179 7
-0.47241199 -8.5986328 4.6905522 7
-0.47082499 -8.5859385 4.709229 7
-0.474121 -8.5878906 4.7340088 7
-0.47088599 -8.5693359 4.7503662 7
-0.47418201 -8.5712891 4.7749019 7
-0.470947 -8.5527344 4.7912598 7
-0.001892 -1.5849611 8.5426025 7
-0.0052490002 -1.570312 8.5574951 7
-0.0086059999 -1.556641 8.5725098 7
-0.015259 -1.543945 8.5982666 7
-0.010254 -1.523438 8.5855713 7
-0.01355 -1.5087889 8.6003418 7
-0.01355 -1.492188 8.604248 7
-0.011841 -1.4736331 8.6025391 7
-0.0051270002 -1.452148 8.5842295 7
-0.0051270002 -1.435547 8.5878906 7
-0.013489 -1.423828 8.6190186 7
-0.01178 -1.40625 8.6171885 7
-0.001709 -1.3818361 8.5875244 7
-0.010071 -1.371094 8.6187744 7
-0.015076 -1.356445 8.6385498 7
-0.011719 -1.337891 8.6308594 7
-0.01001 -1.302734 8.6322021 7
-0.000183 -1.59082 8.260498 7
0.003296 -1.572266 8.2536621 7
-0.000183 -1.558594 8.2684326 7
-0.0036009999 -1.544922 8.2833252 7
-0.010559 -1.532227 8.309082 7
-0.014038 -1.518555 8.3237305 7
-0.010498 -1.5 8.3166504 7
-0.0070190001 -1.481445 8.3094482 7
-0.0035399999 -1.462891 8.3022461 7
-0.0034789999 -1.445312 8.3057861 7
-0.0052490002 -1.431641 8.3150635 7
-0.00177 -1.412109 8.3077393 7
0 -1.3955081 8.3056641 7
-0.0034789999 -1.380859 8.3203115 7
-0.0034179999 -1.3642581 8.3238525 7
-0.010376 -1.3525389 8.348999 7
-0.010315 -1.335938 8.352417 7
-0.010315 -1.320312 8.355835 7
-0.010315 -1.3037111 8.359375 7
-0.010315 -1.287109 8.3626709 7
-0.018310999 -1.59375 8.0601807 7
-0.01825 -1.577148 8.0639648 7
-0.01825 -1.561523 8.0681152 7
-0.012817 -1.542969 8.055542 7
-0.028991999 -1.5380861 8.1083984 7
-0.02179 -1.516602 8.0905762 7
-0.014587 -1.496094 8.0726318 7
-0.018188 -1.483398 8.0871582 7
-0.0090939999 -1.460938 8.0637207 7
-0.018127 -1.451172 8.0947266 7
-0.012695 -1.431641 8.0819092 7
-0.018066 -1.418945 8.1020508 7
-0.018066 -1.40332 8.1054688 7
-0.018066 -1.387695 8.1090088 7
-0.025208 -1.376953 8.1343994 7
-0.026977999 -1.361328 8.1433105 7
-0.018005 -1.339844 8.1193848 7
-0.017944001 -1.324219 8.1228027 7
-0.016174 -1.3076169 8.1204834 7
-0.014343 -1.2900389 8.1184082 7
-0.021356 -1.454645 12.94783 7
-0.016461 -1.420191 9.7180729 7
-0.030283 -1.5255719 8.5193539 7
-0.031389002 -1.3386329 8.5828209 7
-0.14135499 -4.7917051 6.2248969 7
-0.138631 -4.6697001 6.4100342 7
-0.0046140002 -1.5430191 8.0212574 7
-0.006697 -1.378893 8.0911379 7
0.0093059996 -1.418745 7.7026291 7
-0.002871 -1.286751 7.8220372 7
0.052841999 -0.30736601 3.946862 7
0.067313001 -0.29596201 3.9618471 7
0.056880001 -0.31412199 4.107935 7
0.053229999 -0.312381 4.1279039 7
0.054087002 -0.30806401 4.1440601 7
0.061232999 -0.29582301 3.978863 7
0.073769003 -0.29376501 3.9960051 7
0.072639003 -0.289496 4.0127668 7
0.045221999 -0.29680401 4.0302491 7
0.078461997 -0.28247499 4.0441332 7
0.055911001 -0.28547701 4.0616741 7
0.062679999 -0.282042 4.07656 7
0.076930001 -0.26686499 4.090066 7
0.051897001 -0.27490601 4.111166 7
0.084821001 -0.258513 4.1199179 7
0.072107002 -0.25238401 4.1353331 7
0.072636001 -0.247087 4.1509662 7
0.031514 -1.598943 15.851591 7
-0.053125001 -1.5081511 13.96604 7
0.0083079999 -1.485031 -6.968987 7
-0.168312 -4.7678952 -7.4001541 7
-0.0098550003 -1.588974 9.8021812 7
-0.013108 -1.316417 9.8827457 7
-0.47340801 -8.6345472 4.7363782 7
0.040507998 -1.462032 8.3679523 7
-0.000136 -1.430233 8.021574 7
-0.16396999 -4.681046 -0.48047301 7
-0.15237901 -4.6482072 6.628232 7
-0.156332 -4.6135468 -0.118454 7
-0.145246 -4.702703 6.1414299 7
-0.131162 -4.539258 6.2607112 7
-0.139412 -4.6264071 0.39629 7
-0.13114899 -4.7033482 0.57876199 7
-0.041689001 -1.403329 -8.7177095 7
-0.033578999 -1.190532 -7.5694799 7
-0.01997 -1.421862 -7.3544941 7
-0.0054970002 -1.435699 -6.3945541 7
