# .PCD v0.7 - Point Cloud Data file format
VERSION 0.7
FIELDS x y z intensity
SIZE 4 4 4 4
TYPE F F F F
COUNT 1 1 1 1
WIDTH 360
HEIGHT 1
VIEWPOINT 0 0 0 1 0 0 0
POINTS 360
DATA ascii
-0.20544399 -5.4267578 64.000732 7
-0.59307897 3.453125 -66.660034 7
-0.61926299 -0.69726598 -60.701782 7
-0.732544 -3.9863279 -62.800659 7
-0.61779797 3.3056641 -60.782837 7
-0.60516399 -0.70605499 -55.465088 7
-0.61712599 -0.84375 -55.702759 7
-0.60614002 3.308594 -55.655029 7
-0.64074701 3.2119141 -56.369019 7
-0.034363002 -1.839844 39.311646 7
-0.16271999 -5.061523 29.042603 7
-0.024413999 -1.831055 24.480713 7
-0.029906999 -1.78125 24.543579 7
-0.021973001 -1.6650389 24.470947 7
-0.028015001 -1.615234 24.539062 7
-0.021973001 -1.768555 23.030029 7
-0.170471 -5.0693359 21.264893 7
-0.167725 -5.016602 21.254395 7
-0.168396 -4.9707031 21.272217 7
-0.177673 -4.9433589 21.363281 7
-0.185669 -4.9130859 21.442871 7
-0.185669 -4.8652339 21.454712 7
-0.032531999 -1.894531 20.64856 7
-0.028503001 -1.845703 20.61853 7
-0.029114 -1.800781 20.628784 7
-0.024352999 -1.751953 20.592773 7
-0.029602 -1.7099611 20.643433 7
-0.033629999 -1.667969 20.682617 7
-0.019531 -1.611328 20.564941 7
-0.043884002 -1.907227 18.685791 7
-0.043823 -1.8662111 18.690552 7
-0.043761998 -1.825195 18.69519 7
-0.041443001 -1.782227 18.682251 7
-0.036926001 -1.738281 18.652222 7
-0.041382 -1.700195 18.691162 7
-0.047302 -1.664062 18.741455 7
-0.042785998 -1.619141 18.710938 7
-0.027222 -1.2880861 -15.672729 7
-0.024231 -1.326172 -15.646118 7
-0.022705 -1.3642581 -15.631226 7
-0.18206801 -4.4941411 -16.285645 7
-0.17987099 -4.53125 -16.25769 7
-0.170044 -4.5537109 -16.173706 7
-0.164795 -4.5839839 -16.123413 7
-0.166382 -4.6279302 -16.123413 7
-0.183228 -4.702148 -16.235474 7
-0.190125 -4.7568359 -16.274536 7
-0.048950002 -1.8486331 17.80188 7
-0.048889 -1.80957 17.806763 7
-0.036986999 -1.722656 17.72876 7
-0.047180001 -1.691406 17.808228 7
-0.050292999 -1.655273 17.835449 7
-0.045471001 -1.612305 17.805054 7
-0.020324999 -1.1005861 -14.708496 7
-0.020324999 -1.138672 -14.705688 7
-0.018798999 -1.174805 -14.69104 7
-0.022887999 -1.251953 -14.713623 7
-0.014404 -1.362305 -13.084473 7
-0.040038999 -1.875 15.353638 7
-0.035278 -1.706055 15.34729 7
-0.171021 -4.8554692 14.737427 7
-0.172913 -4.829102 14.760132 7
-0.045898002 -1.7919919 14.756714 7
-0.045898002 -1.7607419 14.761108 7
-0.040100001 -1.724609 14.731079 7
-0.037108999 -1.658203 14.72229 7
-0.031311002 -1.55957 14.700317 7
-0.029297 -1.496094 14.696411 7
-0.029236 -1.4638669 14.699951 7
-0.170166 -5.0976558 13.896362 7
-0.168152 -5.063477 13.897949 7
-0.16613799 -5.030273 13.899414 7
-0.162109 -4.992188 13.890259 7
-0.155029 -4.9462891 13.864502 7
-0.148987 -4.905273 13.84436 7
-0.147949 -4.8730469 13.850586 7
-0.147949 -4.842773 13.862549 7
-0.155029 -4.829102 13.911987 7
-0.16302501 -4.8144531 13.966675 7
-0.016602 -1.1513669 -11.172607 7
-0.012512 -1.177734 -11.146851 7
-0.013611 -1.236328 -11.146606 7
-0.016724 -1.267578 -11.160522 7
-0.167786 -5.0957031 13.246338 7
-0.167725 -5.0673828 13.258667 7
-0.167725 -5.039062 13.270874 7
-0.163513 -5.0029302 13.261719 7
-0.15509 -4.9570308 13.231445 7
-0.151917 -4.921875 13.227417 7
-0.152954 -4.8964839 13.244629 7
-0.158264 -4.8789058 13.282959 7
-0.162415 -4.859375 13.316162 7
-0.16558801 -4.8378911 13.343872 7
-0.161377 -4.8007808 13.334106 7
-0.012207 -1.202148 -10.543579 7
-0.013367 -1.231445 -10.546143 7
-0.021606 -1.59082 12.847412 7
-0.023743 -1.56543 12.862915 7
-0.019347999 -1.5361331 12.844116 7
-0.021484001 -1.509766 12.859375 7
-0.022522001 -1.483398 12.86853 7
-0.022522001 -1.456055 12.872314 7
-0.024719 -1.4306639 12.887451 7
-0.026916999 -1.405273 12.902588 7
-0.027953999 -1.378906 12.911743 7
-0.025696 -1.349609 12.903687 7
-0.032288 -1.327148 12.941406 7
-0.027832 -1.296875 12.921875 7
-0.151489 -4.5048828 -9.866333 7
-0.153809 -4.5351558 -9.8658447 7
-0.152771 -4.5595698 -9.8496094 7
-0.15167201 -4.5839839 -9.833252 7
-0.14386 -4.594727 -9.7849121 7
-0.142822 -4.6191411 -9.7683105 7
-0.145081 -4.6494141 -9.7678223 7
-0.14740001 -4.679688 -9.7670898 7
-0.156433 -4.7236328 -9.7980957 7
-0.163269 -4.7636719 -9.8182373 7
-0.167786 -4.7988281 -9.8276367 7
-0.030762 -1.582031 12.406494 7
-0.030701 -1.556641 12.4104 7
-0.028380999 -1.52832 12.402954 7
-0.021484001 -1.49707 12.372559 7
-0.024901999 -1.474609 12.393311 7
-0.022583 -1.4462889 12.385864 7
-0.026001001 -1.422852 12.406494 7
-0.033996999 -1.4013669 12.449951 7
-0.029358 -1.37207 12.430664 7
-0.033936001 -1.3486331 12.456909 7
-0.035034001 -1.324219 12.465942 7
-0.035034001 -1.296875 12.46936 7
-0.021850999 -1.15625 -9.5943604 7
-0.020752 -1.181641 -9.5855713 7
-0.020752 -1.207031 -9.5823975 7
-0.017273 -1.2294919 -9.5623779 7
-0.013733 -1.253906 -9.5421143 7
-0.15258799 -4.6357422 -9.2574463 7
-0.14801 -4.6513672 -9.2253418 7
-0.14801 -4.6748052 -9.2142334 7
-0.15393101 -4.7128911 -9.2290039 7
-0.15753201 -4.7441411 -9.2332764 7
-0.164612 -4.782227 -9.2528076 7
-0.032715 -1.59082 11.930908 7
-0.031433001 -1.564453 11.929199 7
-0.030273 -1.539062 11.92749 7
-0.023010001 -1.5087889 11.897461 7
-0.02417 -1.484375 11.90686 7
-0.025390999 -1.4619139 11.916382 7
-0.025390999 -1.4375 11.920044 7
-0.031311002 -1.416016 11.951904 7
-0.032471001 -1.392578 11.961304 7
-0.03009 -1.365234 11.953369 7
-0.03241 -1.341797 11.96814 7
-0.031189 -1.316406 11.96582 7
-0.034790002 -1.292969 11.986084 7
-0.148926 -4.5292969 -8.7512207 7
-0.16729701 -4.5888672 -8.8184814 7
-0.157593 -4.592773 -8.7657471 7
-0.149048 -4.5996089 -8.7180176 7
-0.14910901 -4.6230469 -8.7069092 7
-0.14428701 -4.6367192 -8.6750488 7
-0.14679 -4.6650391 -8.6740723 7
-0.15167201 -4.6982422 -8.6833496 7
-0.153015 -4.7236328 -8.677124 7
-0.1604 -4.7626948 -8.6968994 7
-0.156738 -4.7783198 -8.6697998 7
-0.14501999 -4.4970698 -8.2091064 7
-0.14257801 -4.515625 -8.1878662 7
-0.148987 -4.5498052 -8.2027588 7
-0.152832 -4.578125 -8.2070312 7
-0.14520299 -4.5869141 -8.1652832 7
-0.14019801 -4.5996089 -8.1335449 7
-0.137695 -4.6152339 -8.1121826 7
-0.137756 -4.6376948 -8.1008301 7
-0.14032 -4.664062 -8.0999756 7
-0.14550801 -4.6972661 -8.1090088 7
-0.157043 -4.7412109 -8.1434326 7
-0.16095001 -4.7724609 -8.1472168 7
-0.162231 -4.795898 -8.1407471 7
-0.019774999 -1.282227 -8.230835 7
-0.023804 -1.3076169 -8.2443848 7
-0.023864999 -1.329102 -8.2410889 7
-0.023864999 -1.351562 -8.2375488 7
-0.019897001 -1.371094 -8.2171631 7
-0.015930001 -1.390625 -8.1967773 7
-0.015991 -1.412109 -8.1932373 7
-0.013367 -1.4326169 -8.1784668 7
-0.022644 -1.4619139 -8.2139893 7
-0.022705 -1.484375 -8.2104492 7
-0.024048001 -1.5068361 -8.2124023 7
-0.025390999 -1.530273 -8.2141113 7
-0.024109 -1.550781 -8.2045898 7
-0.021484001 -1.5712889 -8.1893311 7
-0.029479999 -1.599609 -8.2191162 7
-0.148926 -4.6601558 -7.6638179 7
-0.148926 -4.6806641 -7.6524658 7
-0.148987 -4.702148 -7.6412349 7
-0.157043 -4.7392578 -7.6600342 7
-0.000122 -1.59082 10.117432 7
-0.0043330002 -1.574219 10.138184 7
-0.0070799999 -1.5556639 10.153442 7
-0.0070799999 -1.53418 10.157227 7
-0.002869 -1.5107419 10.144287 7
-0.001404 -1.488281 10.142334 7
-0.002808 -1.469727 10.151855 7
0.002869 -1.4443361 10.133057 7
-0.001343 -1.4267581 10.153687 7
-0.0097660003 -1.412109 10.190918 7
-0.011169 -1.391602 10.200073 7
-0.0097660003 -1.3701169 10.197876 7
-0.0097049996 -1.349609 10.201538 7
-0.011108 -1.329102 10.210449 7
-0.012451 -1.30957 10.21936 7
-0.0082400003 -1.2861331 10.205933 7
0.002686 -1.587891 9.7739258 7
-0.0075070001 -1.576172 9.8168945 7
-0.0074459999 -1.556641 9.8208008 7
-0.0059810001 -1.535156 9.8192139 7
-0.0045170002 -1.514648 9.8173828 7
-0.003052 -1.4931639 9.8156738 7
-0.001587 -1.472656 9.8137207 7
0.002808 -1.449219 9.8007812 7
-6.0999999e-05 -1.431641 9.8155518 7
-6.0999999e-05 -1.412109 9.8192139 7
-0.010254 -1.3994139 9.8619385 7
-0.0073239999 -1.37793 9.8543701 7
-0.0072630001 -1.357422 9.8577881 7
-0.0057979999 -1.335938 9.8555908 7
-0.010132 -1.318359 9.8758535 7
-0.010132 -1.298828 9.8791504 7
-0.0098879999 -1.592773 9.4772949 7
-0.012878 -1.576172 9.4923096 7
-0.021911999 -1.564453 9.5297852 7
-0.021911999 -1.543945 9.5334473 7
-0.017333999 -1.521484 9.520752 7
-0.014282 -1.500977 9.5135498 7
-0.014282 -1.481445 9.517334 7
-0.021850999 -1.467773 9.5488281 7
-0.018798999 -1.4462889 9.5413818 7
-0.012695 -1.422852 9.522583 7
-0.02179 -1.40918 9.5598145 7
-0.02179 -1.389648 9.5631104 7
-0.023254 -1.37207 9.5723877 7
-0.020203 -1.349609 9.5646973 7
-0.020203 -1.331055 9.5679932 7
-0.026245 -1.31543 9.59375 7
-0.023132 -1.293945 9.5859385 7
-0.0064090001 -1.589844 9.1790771 7
-0.0095210001 -1.574219 9.1940918 7
-0.011047 -1.556641 9.2033691 7
-0.021973001 -1.545898 9.2460938 7
-0.018859999 -1.5244139 9.2387695 7
-0.01416 -1.50293 9.2261963 7
-0.010986 -1.482422 9.21875 7
-0.0062870001 -1.4599611 9.2058105 7
-0.0078119999 -1.443359 9.2149658 7
-0.0093379999 -1.425781 9.2242432 7
-0.010925 -1.408203 9.2333984 7
-0.013977 -1.391602 9.2480469 7
-0.01239 -1.373047 9.2459717 7
-0.015564 -1.356445 9.2606201 7
-0.013977 -1.3369139 9.2585449 7
-0.0092770001 -1.314453 9.2452393 7
-0.01239 -1.297852 9.2596436 7
-0.013916 -1.280273 9.2684326 7
0.00073199999 -1.592773 8.8355713 7
-0.002441 -1.577148 8.8504639 7
-0.002502 -1.560547 8.8544922 7
-0.0056759999 -1.527344 8.873291 7
-0.0040279999 -1.4912111 8.8754883 7
0.00085399998 -1.452148 8.8662109 7
-0.0055539999 -1.438477 8.8920898 7
-0.0039670002 -1.420898 8.8902588 7
-0.010376 -1.389648 8.9195557 7
-0.013611 -1.3544919 8.9375 7
-0.01355 -1.3193361 8.9442139 7
-0.015198 -1.302734 8.953125 7
-0.020020001 -1.2880861 8.9730225 7
-0.015991 -1.3037111 8.6539307 7
0.0057979999 -1.5849611 8.2437744 7
0.0040279999 -1.5712889 8.2532959 7
-0.00116 -1.558594 8.2735596 7
-0.0098270001 -1.547852 8.3048096 7
-0.0098270001 -1.53125 8.3085938 7
-0.0063479999 -1.511719 8.3016357 7
-0.0062870001 -1.496094 8.3052979 7
-0.001099 -1.4775389 8.2928467 7
0.00067099999 -1.4599611 8.2910156 7
0.0041499999 -1.44043 8.2838135 7
0.0042110002 -1.424805 8.2874756 7
0.0042110002 -1.408203 8.2910156 7
0.00073199999 -1.394531 8.3054199 7
-0.0085450001 -1.585938 8.0327148 7
-0.0085450001 -1.570312 8.0368652 7
-0.0085450001 -1.554688 8.0407705 7
-0.019286999 -1.545898 8.0771484 7
-0.0049439999 -1.5205081 8.0374756 7
-0.010315 -1.5087889 8.0578613 7
-0.0084840003 -1.492188 8.0560303 7
-0.012024 -1.4775389 8.0706787 7
-0.013855 -1.462891 8.079834 7
-0.012024 -1.445312 8.0780029 7
-0.0084229996 -1.427734 8.0706787 7
-0.012024 -1.4150389 8.0853271 7
-0.0083619999 -1.3955081 8.0778809 7
-0.017395001 -1.387695 8.1087646 7
-0.020996001 -1.374023 8.123291 7
-0.017395001 -1.356445 8.1158447 7
-0.0083619999 -1.333984 8.0919189 7
-0.019104 -1.325195 8.1279297 7
-0.010132 -1.3037111 8.1040039 7
-0.011902 -1.289062 8.112915 7
-0.056403 -1.648093 14.83511 7
-0.18593501 -4.8207021 14.16881 7
-0.030228 -1.520243 10.396293 7
-0.0085969996 -1.580265 9.6115284 7
-0.016635999 -1.360985 9.7330275 7
-9.1000002e-05 -1.435023 9.1017075 7
-0.120808 -4.7462649 6.0275178 7
-0.012368 -1.517938 8.0806818 7
-0.0087660002 -1.340354 8.1165962 7
-0.108611 -4.553309 5.4623852 7
0.0092759999 -1.5334359 7.6587491 7
0.0071089999 -1.384734 7.728334 7
-0.013807 -1.4104021 7.3700671 7
-0.028502 -1.296248 7.4938178 7
0.071653999 -1.278307 -14.160274 7
-0.015427 -1.627377 16.476151 7
-0.22998001 -4.950829 14.397623 7
-0.069425002 -1.515782 14.135362 7
-0.20520601 -4.8923521 12.921881 7
-0.036187001 -1.450941 12.745337 7
0.028875999 -1.521018 -5.7258348 7
0.049949002 -1.46394 -4.7279248 7
-0.015129 -1.591982 9.8371544 7
-0.027868999 -1.320753 9.9815044 7
-0.012687 -1.551496 9.3830299 7
-0.0077169999 -1.293978 9.4045334 7
0.017022001 -1.5024329 8.8262196 7
-0.116511 -4.6847978 -1.45831 7
-0.110406 -4.6261139 -1.004544 7
-0.094343998 -4.5332251 -0.56083202 7
0.0021309999 -1.4292949 8.0105152 7
-0.14345901 -4.650033 -0.37213701 7
-0.140835 -4.7094941 6.4739928 7
-0.12971 -4.5424008 6.5993719 7
0.01299 -1.588254 7.679132 7
0.017394001 -1.401716 7.6978631 7
-0.114848 -4.5130329 0.043877002 7
-0.116684 -4.6373229 0.199095 7
-0.123648 -4.7424588 5.9272151 7
0.027193001 -1.552165 7.402761 7
0.024939001 -1.379622 7.4485402 7
-0.15520699 -4.7152882 5.4619451 7
-0.152357 -4.613812 5.6121559 7
-0.025366001 -1.4377151 -7.4236159 7
-0.168696 -4.577033 -8.4404449 7
0.006633 -1.439859 -5.6583638 7
-0.022172 -1.419276 -4.676579 7
-0.022204001 -1.569968 -4.6231489 7
