# .PCD v0.7 - Point Cloud Data file format
VERSION 0.7
FIELDS x y z intensity
SIZE 4 4 4 4
TYPE F F F F
COUNT 1 1 1 1
WIDTH 326
HEIGHT 1
VIEWPOINT 0 0 0 1 0 0 0
POINTS 326
DATA ascii
-0.16156 -5.6005859 62.722534 7
-0.038635001 -2.2744141 59.814148 7
-0.036437999 -2.1337891 59.766907 7
-0.64489698 -0.54882801 -60.694214 7
-0.75817901 -3.8779299 -63.559448 7
-0.74230999 -4.0087891 -63.193726 7
-0.60046399 3.5439451 -59.723999 7
-0.63928199 3.4462891 -60.584473 7
-0.65838599 -0.58300799 -56.790405 7
-0.62713599 -0.84765601 -56.137573 7
-0.67047101 3.3505859 -56.369385 7
-0.020812999 -1.910156 39.027466 7
-0.018677 -1.8193361 38.99707 7
-0.0065919999 -2.0087891 36.109985 7
-0.163757 -5.1376948 35.329956 7
-0.178101 -5.0878911 35.550293 7
-0.0077510001 -1.882812 29.353516 7
-0.0045170002 -1.813477 29.317749 7
-0.0093379999 -1.685547 29.390259 7
-0.14312699 -5.139648 28.760986 7
-0.023254 -1.855469 21.769165 7
-0.026977999 -1.810547 21.808716 7
-0.026245 -1.761719 21.807373 7
-0.022338999 -1.662109 21.780884 7
-0.021667 -1.613281 21.779175 7
-0.155518 -5.0761719 21.107056 7
-0.155518 -5.0292969 21.119385 7
-0.164856 -5.0029302 21.210449 7
-0.174133 -4.9755859 21.301392 7
-0.17541499 -4.9306641 21.324585 7
-0.16198701 -4.8564448 21.223511 7
-0.015930001 -1.875977 20.487183 7
-0.014465 -1.785156 20.484863 7
-0.021057 -1.7451169 20.547119 7
-0.015015 -1.695312 20.499268 7
-0.014282 -1.6494139 20.497559 7
-0.015564 -1.605469 20.513428 7
-0.168274 -4.546875 -17.227783 7
-0.023254 -1.763672 18.526855 7
-0.19085699 -4.4628911 -16.348633 7
-0.184875 -4.492188 -16.292725 7
-0.170654 -4.547852 -16.164185 7
-0.176819 -4.6005859 -16.197998 7
-0.194519 -4.6757808 -16.315796 7
-0.044372998 -1.643555 15.4021 7
-0.042541999 -1.608398 15.394653 7
-0.036072001 -1.5712889 15.358643 7
-0.039795 -1.626953 14.733154 7
-0.167542 -5.1152339 13.858276 7
-0.165466 -5.0810552 13.859863 7
-0.161438 -5.0439448 13.85083 7
-0.15741 -5.0058589 13.841553 7
-0.148315 -4.9570308 13.805298 7
-0.145264 -4.920898 13.80127 7
-0.14624 -4.8935552 13.818359 7
-0.150269 -4.8720698 13.851685 7
-0.158325 -4.859375 13.906494 7
-0.15527301 -4.8232422 13.9021 7
-0.026916999 -1.896484 13.958496 7
-0.027892999 -1.867188 13.968872 7
-0.026854999 -1.8369139 13.967896 7
-0.027832 -1.8076169 13.978149 7
-0.027771 -1.77832 13.982422 7
-0.026733 -1.74707 13.981079 7
-0.018677 -1.7119139 13.939941 7
-0.023682 -1.685547 13.972778 7
-0.02063 -1.65332 13.959717 7
-0.03064 -1.6318361 14.020996 7
-0.024292 -1.299805 -11.20459 7
-0.026366999 -1.329102 -11.212891 7
-0.167969 -5.1191411 13.224365 7
-0.167969 -5.0908198 13.236572 7
-0.16369601 -5.0537109 13.227661 7
-0.161621 -5.0214839 13.22937 7
-0.151062 -4.969727 13.188232 7
-0.151062 -4.9423828 13.200195 7
-0.14996301 -4.9121089 13.206909 7
-0.14996301 -4.8837891 13.21875 7
-0.155212 -4.867188 13.25708 7
-0.164673 -4.859375 13.316895 7
-0.159363 -4.820312 13.302002 7
-0.032593001 -1.6181639 13.478027 7
-0.15918 -4.4970698 -10.486572 7
-0.157104 -4.5214839 -10.464966 7
-0.1604 -4.554688 -10.469971 7
-0.152954 -4.5673828 -10.421509 7
-0.153015 -4.594727 -10.410278 7
-0.153137 -4.6230469 -10.39917 7
-0.15429699 -4.6513672 -10.393311 7
-0.160889 -4.6933589 -10.414062 7
-0.16851801 -4.734375 -10.439941 7
-0.169617 -4.7636719 -10.433838 7
-0.16973899 -4.7910161 -10.422363 7
-0.156982 -5.1162109 12.483643 7
-0.15582301 -5.0878911 12.490845 7
-0.154724 -5.0585942 12.497803 7
-0.154724 -5.032227 12.51001 7
-0.156921 -5.0117192 12.532715 7
-0.152466 -4.9746089 12.523682 7
-0.14257801 -4.9277339 12.488525 7
-0.14032 -4.8964839 12.489868 7
-0.13726801 -4.8652339 12.491333 7
-0.14276101 -4.8505859 12.529541 7
-0.15051299 -4.8408198 12.578247 7
-0.149353 -4.811523 12.584717 7
-0.016785 -1.666016 12.801514 7
-0.017883001 -1.639648 12.811646 7
-0.024413999 -1.6181639 12.849854 7
-0.158081 -4.484375 -9.8947754 7
-0.16156 -4.516602 -9.8997803 7
-0.162781 -4.5449219 -9.894165 7
-0.161743 -4.5693359 -9.8779297 7
-0.15509 -4.5820308 -9.8348389 7
-0.15625 -4.610352 -9.8289785 7
-0.15185501 -4.6279302 -9.7967529 7
-0.153015 -4.655273 -9.7906494 7
-0.15649401 -4.688477 -9.7952881 7
-0.16113301 -4.7236328 -9.8050537 7
-0.167908 -4.7636719 -9.8251953 7
-0.166931 -4.7880859 -9.8083496 7
-0.020569 -1.255859 -9.578125 7
-0.029967999 -1.287109 -9.6203613 7
-0.030029001 -1.3125 -9.6169434 7
-0.157471 -4.6113281 -9.2755127 7
-0.156433 -4.6582031 -9.2479248 7
-0.16717499 -4.7285161 -9.2722168 7
-0.162231 -4.545898 -8.7946777 7
-0.169617 -4.5839839 -8.8149414 7
-0.17089801 -4.610352 -8.8088379 7
-0.15631101 -4.6044922 -8.7353516 7
-0.15515099 -4.625 -8.7189941 7
-0.152832 -4.6455078 -8.6973877 7
-0.159058 -4.6806641 -8.7120361 7
-0.16766401 -4.7216802 -8.7368164 7
-0.16406199 -4.7382808 -8.7098389 7
-0.171509 -4.7763672 -8.7293701 7
-0.023682 -1.313477 -8.6538086 7
-0.15509 -4.5068359 -8.2363281 7
-0.15649401 -4.5537109 -8.2196035 7
-0.151489 -4.5673828 -8.1879883 7
-0.14398199 -4.5966802 -8.1350098 7
-0.140259 -4.632812 -8.0975342 7
-0.14929201 -4.672852 -8.1217041 7
-0.163513 -4.7441411 -8.1551514 7
-0.163635 -4.7675781 -8.1436768 7
-0.033875 -1.130859 -8.3162842 7
-0.035339002 -1.1767581 -8.3161621 7
-0.028748 -1.1962889 -8.28479 7
-0.027465999 -1.217773 -8.276001 7
-0.027527001 -1.240234 -8.2728271 7
-0.027588001 -1.261719 -8.2696533 7
-0.0075679999 -1.511719 10.545776 7
0.00116 -1.568359 9.7785645 7
0.002625 -1.527344 9.7808838 7
0.002747 -1.487305 9.7884521 7
0.002747 -1.447266 9.7957764 7
-0.000122 -1.410156 9.814209 7
-0.001526 -1.371094 9.8270264 7
-0.0058590001 -1.333984 9.8505859 7
0 -1.291016 9.8349609 7
-0.453857 -8.6201172 6.12854 7
-0.455383 -8.6132812 6.151855 7
-0.450867 -8.5869141 6.164185 7
-0.458435 -8.6005859 6.19873 7
-0.45544401 -8.5791016 6.2138672 7
-0.45703101 -8.5722656 6.237061 7
-0.45550501 -8.5556641 6.2547612 7
-0.45556599 -8.5449219 6.2753911 7
-0.45105001 -8.5185547 6.287354 7
-0.45105001 -8.5068359 6.3078609 7
-0.44653299 -8.4794922 6.3195801 7
-0.45263699 -8.4882812 6.351562 7
-0.45263699 -8.4755859 6.3717041 7
-0.44665501 -8.4453115 6.3804932 7
-0.0039670002 -1.587891 9.4500732 7
-0.013062 -1.575195 9.4871826 7
-0.00091599999 -1.546875 9.4467773 7
-0.0039059999 -1.530273 9.4616699 7
-0.00085399998 -1.5087889 9.4545898 7
-0.0039059999 -1.492188 9.4694824 7
-0.002319 -1.47168 9.4675293 7
0.002197 -1.449219 9.4545898 7
-0.0053099999 -1.435547 9.4859619 7
-0.0083010001 -1.418945 9.5007324 7
-0.0083010001 -1.400391 9.5043945 7
-0.0052490002 -1.37793 9.4967041 7
-0.0052490002 -1.359375 9.5002441 7
-0.018798999 -1.347656 9.5539551 7
-0.012756 -1.325195 9.5349121 7
-0.0067139999 -1.302734 9.5158691 7
-0.014282 -1.2880861 9.5472412 7
0.0045779999 -1.5986331 9.1314697 7
0.003052 -1.581055 9.1409912 7
-0.0047610002 -1.5673831 9.1724854 7
-0.001587 -1.547852 9.1655273 7
-0.001587 -1.52832 9.1691895 7
0.003113 -1.507812 9.1563721 7
0.0062259999 -1.487305 9.1491699 7
0.003174 -1.470703 9.1640615 7
0.001648 -1.454102 9.1733398 7
-0.003052 -1.4375 9.1936045 7
0.000122 -1.4169919 9.1859131 7
-0.0061650001 -1.40332 9.2119141 7
-0.0076899999 -1.3857419 9.2210693 7
-0.001404 -1.363281 9.2022715 7
-0.0076290001 -1.3486331 9.2279053 7
-0.0076290001 -1.331055 9.2313232 7
-0.0044559999 -1.30957 9.2235107 7
-0.001343 -1.2900389 9.2158203 7
-0.4646 -8.5048828 -1.273438 7
-0.469666 -8.5273438 -1.257568 7
-0.46636999 -8.5224609 -1.234131 7
-0.47143599 -8.5449219 -1.218262 7
-0.46826199 -8.5458984 -1.174072 7
-0.469971 -8.5566406 -1.1550291 7
-0.468445 -8.5634766 -1.112793 7
-0.46679699 -8.5625 -1.0905761 7
-0.46679699 -8.5683594 -1.070068 7
-0.46350101 -8.5625 -1.046631 7
-0.460327 -8.5625 -1.002563 7
-0.45867899 -8.5625 -0.98071301 7
0.00054899999 -1.5986331 8.5279541 7
-0.001099 -1.5830081 8.5374756 7
-0.011169 -1.5732419 8.5742188 7
-0.012878 -1.558594 8.5837402 7
-0.0094600003 -1.5380861 8.5767822 7
-0.0061039999 -1.519531 8.569458 7
-0.012756 -1.5068361 8.5953369 7
-0.0093989996 -1.487305 8.5881348 7
0.00073199999 -1.462891 8.5588379 7
0.00073199999 -1.4462889 8.5626221 7
-0.002625 -1.431641 8.5771484 7
-0.00091599999 -1.414062 8.5753174 7
-0.0059810001 -1.400391 8.5953369 7
-0.014343 -1.387695 8.6264648 7
-0.012573 -1.3349611 8.6314697 7
-0.0058590001 -1.297852 8.6159668 7
-0.0075070001 -1.28125 8.6248779 7
0.0076899999 -1.5986331 8.2294922 7
0.00067099999 -1.5888669 8.2554932 7
-0.0045170002 -1.575195 8.2757568 7
-0.002747 -1.5576169 8.274292 7
-0.0044559999 -1.542969 8.2836914 7
0.002502 -1.5224611 8.2657471 7
0.0094600003 -1.485352 8.2514648 7
0.0077510001 -1.469727 8.2607422 7
0.0043330002 -1.456055 8.2752686 7
0.0078119999 -1.4375 8.2679443 7
0.0078739999 -1.420898 8.2717295 7
0.0043950002 -1.40625 8.2861328 7
-0.0060419999 -1.3974611 8.3225098 7
-0.0043330002 -1.3798831 8.3205566 7
-0.0060419999 -1.3642581 8.3295898 7
-0.002502 -1.345703 8.3220205 7
-0.002502 -1.330078 8.3254395 7
-0.0077510001 -1.316406 8.3453369 7
-0.011169 -1.3017581 8.3594971 7
-0.0076899999 -1.28418 8.3518066 7
-0.00293 -1.59668 8.0078115 7
-0.0064699999 -1.5830081 8.022583 7
-0.017273 -1.575195 8.059082 7
-0.015442 -1.5576169 8.0577393 7
-0.0083010001 -1.537109 8.0396729 7
-0.001038 -1.516602 8.0219727 7
0.00073199999 -1.5 8.0202637 7
-0.01001 -1.4912111 8.0566406 7
-0.0064090001 -1.472656 8.0495605 7
-0.0063479999 -1.457031 8.0534668 7
-0.01001 -1.4443361 8.0678711 7
-0.01001 -1.4287111 8.0714111 7
-0.01355 -1.4150389 8.0859385 7
-0.0081179999 -1.394531 8.0731201 7
-0.0081179999 -1.378906 8.0767822 7
-0.013489 -1.367188 8.0965576 7
-0.0098879999 -1.3486331 8.0889893 7
-0.00085399998 -1.328125 8.0650635 7
0.002747 -1.30957 8.0577393 7
-0.0098270001 -1.300781 8.0992432 7
-0.00079299998 -1.280273 8.0751953 7
-0.126274 -4.8939519 13.305525 7
-0.025795 -1.510873 10.357304 7
-0.0058470001 -1.574037 9.5896893 7
-0.007547 -1.343455 9.6600866 7
-0.043373 -1.410995 9.0169678 7
-0.023472 -1.464518 8.4919119 7
-0.027218999 -1.283528 8.5696182 7
-0.126221 -4.7779899 6.0406032 7
-0.002992 -1.497645 8.0270643 7
-0.0050619999 -1.33324 8.0951176 7
-0.122337 -4.7449579 5.148149 7
-0.120038 -4.6698499 5.3389878 7
-0.108074 -4.5324569 5.5081091 7
0.010216 -1.531315 7.6537862 7
-0.013874 -1.410537 7.3703809 7
0.103584 -1.269393 -13.54779 7
-0.036338001 -1.743881 18.955721 7
-0.0093639996 -1.623704 16.395481 7
-0.206809 -4.875587 14.183877 7
0.017113 -1.1639889 -6.9616041 7
-0.031323999 -1.4489011 12.69983 7
-0.020496 -1.5950429 9.8727465 7
-0.48177001 -8.4891901 -1.037555 7
0.002965 -1.5431859 9.2861519 7
0.001375 -1.2915 9.3477764 7
-0.115059 -4.6414952 -1.0226949 7
-0.025756 -1.465454 8.422327 7
-0.00042 -1.430351 8.0229588 7
-0.141157 -4.5018582 -0.52847701 7
-0.152385 -4.6788611 -0.400902 7
-0.13950901 -4.7051301 6.4701681 7
-0.125791 -4.5299659 6.5875139 7
0.017725 -1.585494 7.6574011 7
0.026976001 -1.552285 7.4037089 7
0.025976 -1.379236 7.4439702 7
-0.176862 -4.7225051 5.9729681 7
-0.15824699 -4.7251759 5.467886 7
-0.147916 -4.5997229 5.6028619 7
-0.15272599 -4.786644 4.9007239 7
-0.146942 -4.6971302 5.0496368 7
-0.13952699 -4.597106 5.1914048 7
-0.128968 -4.482388 5.3223648 7
-0.13558599 -4.6590228 4.6211338 7
-0.121536 -4.538734 4.7917709 7
-0.16102199 -4.5929909 -9.8190393 7
-0.024546999 -1.235562 -7.4438639 7
-0.0022859999 -1.481361 -6.3469539 7
