# .PCD v0.7 - Point Cloud Data file format
VERSION 0.7
FIELDS x y z intensity
SIZE 4 4 4 4
TYPE F F F F
COUNT 1 1 1 1
WIDTH 253
HEIGHT 1
VIEWPOINT 0 0 0 1 0 0 0
POINTS 253
DATA ascii
-0.155701 -5.7597661 62.842957 7
-0.175293 -5.514648 63.394348 7
-0.74011201 -3.782227 -64.108154 7
-0.70892298 -3.8955081 -63.398193 7
-0.603333 -0.60351598 -56.319946 7
-0.61737102 -0.743164 -56.60498 7
-0.148682 -5.280273 35.160034 7
-0.166565 -5.2402339 35.432373 7
-0.037903 -1.9638669 33.972656 7
-0.023437999 -1.875 33.767456 7
-0.03009 -1.8037111 33.87146 7
-0.044983 -1.922852 32.075073 7
-1.003235 -20.578125 -33.573975 7
-0.15014599 -5.1699219 28.897949 7
-0.16333 -5.1523442 27.115234 7
-0.17163099 -5.109375 27.219238 7
-0.178894 -5.0644531 27.311646 7
-0.025085 -1.8212889 23.078613 7
-0.030334 -1.7744139 23.135376 7
-0.024292 -1.71875 23.081665 7
-0.020081 -1.664062 23.045166 7
-0.02832 -1.619141 23.130615 7
-0.165344 -5.108398 21.219116 7
-0.159973 -5.0498052 21.186157 7
-0.16729701 -5.0185552 21.260376 7
-0.177917 -4.9931641 21.362671 7
-0.171143 -4.8847661 21.3302 7
-0.16577099 -4.827148 21.296753 7
-0.023010001 -1.889648 20.57959 7
-0.019653 -1.84082 20.555054 7
-0.020935001 -1.796875 20.571289 7
-0.026184 -1.7548831 20.621948 7
-0.025451999 -1.708984 20.620605 7
-0.021361999 -1.660156 20.590088 7
-0.02533 -1.617188 20.629028 7
-0.033447001 -1.000977 -16.851562 7
-0.027771 -1.041016 -16.802368 7
-0.021361999 -1.079102 -16.747559 7
-0.023682 -1.166016 -16.759399 7
-0.031555001 -1.212891 -16.819824 7
-0.021545 -1.25 -16.735596 7
-0.15100101 -4.5136719 -17.246338 7
-0.036132999 -1.900391 18.640503 7
-0.033080999 -1.857422 18.62207 7
-0.027832 -1.8125 18.586304 7
-0.030762 -1.7744139 18.613892 7
-0.039611999 -1.740234 18.687256 7
-0.036559999 -1.697266 18.668701 7
-0.030517999 -1.6513669 18.626709 7
-0.03717 -1.6162111 18.682739 7
-0.033629999 -0.98535198 -15.851196 7
-0.032898001 -1.025391 -15.842773 7
-0.032958999 -1.066406 -15.840088 7
-0.024658 -1.101562 -15.773682 7
-0.024719 -1.141602 -15.770752 7
-0.025513001 -1.181641 -15.77356 7
-0.036132999 -1.228516 -15.851562 7
-0.026306 -1.262695 -15.773193 7
-0.044066999 -1.8837889 17.775269 7
-0.044006001 -1.844727 17.779785 7
-0.039978001 -1.802734 17.755493 7
-0.039124001 -1.724609 17.758423 7
-0.048462 -1.6923831 17.832275 7
-0.041320998 -1.609375 17.788086 7
-0.010681 -1.3349611 -14.71167 7
-0.016907001 -1.123047 -11.825684 7
-0.014954 -1.152344 -11.811401 7
-0.014038 -1.183594 -11.80249 7
-0.012146 -1.212891 -11.787964 7
-0.015076 -1.2451169 -11.802246 7
-0.022949001 -1.28125 -11.844849 7
-0.031738002 -1.576172 14.051758 7
-0.030762 -1.545898 14.049927 7
-0.034729 -1.518555 14.076538 7
-0.032653999 -1.487305 14.068848 7
-0.17352299 -5.1113281 13.27832 7
-0.16925 -5.0742192 13.269409 7
-0.162903 -5.032227 13.25 7
-0.155579 -4.9882808 13.224976 7
-0.153442 -4.9550781 13.226318 7
-0.157654 -4.936523 13.259521 7
-0.159729 -4.914062 13.282104 7
-0.164978 -4.8964839 13.320557 7
-0.166016 -4.8691411 13.337769 7
-0.16284201 -4.8349609 13.333496 7
-0.14965799 -4.483398 -10.521118 7
-0.15081801 -4.5136719 -10.515503 7
-0.154053 -4.546875 -10.52063 7
-0.145569 -4.5576172 -10.466675 7
-0.13916001 -4.5732422 -10.423462 7
-0.140259 -4.601562 -10.417725 7
-0.138184 -4.625 -10.395996 7
-0.141479 -4.6591802 -10.400757 7
-0.150085 -4.704102 -10.432007 7
-0.152283 -4.735352 -10.431396 7
-0.153442 -4.765625 -10.425171 7
-0.15564001 -4.797852 -10.424194 7
-0.16320799 -5.1132808 12.542725 7
-0.161011 -5.0820308 12.544678 7
-0.159851 -5.0527339 12.551758 7
-0.152161 -5.0097661 12.527222 7
-0.146606 -4.9716802 12.513062 7
-0.14776599 -4.9482422 12.530273 7
-0.14550801 -4.9169922 12.531738 7
-0.144409 -4.8876948 12.53833 7
-0.149902 -4.874023 12.576416 7
-0.15100101 -4.8486328 12.593506 7
-0.149902 -4.820312 12.599854 7
-0.14709499 -4.4941411 -9.9075928 7
-0.15167201 -4.5283198 -9.9178467 7
-0.15509 -4.561523 -9.9226074 7
-0.151794 -4.5810552 -9.895752 7
-0.141785 -4.5878911 -9.836792 7
-0.13952599 -4.609375 -9.8151855 7
-0.140747 -4.6386719 -9.8092041 7
-0.140808 -4.664062 -9.7980957 7
-0.14758299 -4.703125 -9.8183594 7
-0.158813 -4.7519531 -9.8597412 7
-0.158875 -4.7773442 -9.8482666 7
-0.16095001 -5.092773 11.970093 7
-0.162109 -5.070312 11.987549 7
-0.15863 -5.039062 11.984253 7
-0.15289301 -5 11.970337 7
-0.148315 -4.9667969 11.961548 7
-0.143677 -4.9316411 11.953003 7
-0.143677 -4.907227 11.964722 7
-0.141357 -4.875977 11.966187 7
-0.14825401 -4.8662109 12.009277 7
-0.152832 -4.8505859 12.04187 7
-0.153992 -4.827148 12.058716 7
-0.155701 -4.563477 -8.8227539 7
-0.155762 -4.5869141 -8.8116465 7
-0.15222199 -4.6035161 -8.7849121 7
-0.142517 -4.608398 -8.7319336 7
-0.141357 -4.6298828 -8.7158203 7
-0.141357 -4.6523442 -8.7047119 7
-0.15118399 -4.695312 -8.7346191 7
-0.14880399 -4.7148442 -8.7130127 7
-0.152466 -4.7441411 -8.7169189 7
-0.15618899 -4.7763672 -8.7209473 7
-0.15136699 -4.7900391 -8.6887207 7
-0.02124 -1.179688 -8.2906494 7
-0.023925999 -1.204102 -8.2988281 7
-0.019958001 -1.2236331 -8.2788086 7
-0.022583 -1.24707 -8.2871094 7
-0.020020001 -1.268555 -8.2724609 7
-0.016357001 -1.5849611 10.188965 7
-0.0093379999 -1.558594 10.164795 7
-0.0092770001 -1.5380861 10.168701 7
-0.0050050002 -1.513672 10.155762 7
-0.0050659999 -1.494141 10.159668 7
-0.0050050002 -1.472656 10.16333 7
-0.012024 -1.457031 10.195068 7
-0.020385999 -1.441406 10.232422 7
-0.018982001 -1.418945 10.230347 7
-0.011902 -1.393555 10.205811 7
-0.013306 -1.375 10.215088 7
-0.013306 -1.353516 10.218628 7
-0.014648 -1.3330081 10.227539 7
-0.013245 -1.3125 10.22522 7
-0.454346 -8.6083984 5.4545898 7
-0.44812 -8.5791016 5.4655762 7
-0.449707 -8.5742188 5.4885249 7
-0.45440701 -8.578125 5.516602 7
-0.44824201 -8.5498047 5.5272222 7
-0.44830301 -8.5390615 5.547729 7
-0.44677699 -8.5244141 5.5655522 7
-0.44683799 -8.5146484 5.585938 7
-0.454712 -8.5292969 5.6191411 7
-0.454712 -8.5185547 5.6395259 7
-0.45318601 -8.5029297 5.6573491 7
-0.450073 -8.4824219 5.6726069 7
-0.45013401 -8.4726562 5.6931152 7
-0.44702101 -8.4521484 5.7080078 7
-0.445557 -8.4365234 5.7258301 7
-0.444031 -8.4208984 5.7434082 7
0.001404 -1.59375 8.8359385 7
0.001404 -1.577148 8.8399658 7
0.001465 -1.541016 8.8477783 7
0.003052 -1.5224611 8.8461914 7
0.0046999999 -1.5048831 8.8443604 7
0.001526 -1.470703 8.862915 7
0.001526 -1.436523 8.8703613 7
0.001587 -1.3994139 8.8774414 7
-0.0065310001 -1.387695 8.9085693 7
-0.0048219999 -1.3681639 8.9066162 7
-0.001587 -1.332031 8.9024658 7
-0.0064090001 -1.298828 8.9259033 7
-0.45373499 -8.6289062 3.20105 7
-0.45544401 -8.6289062 3.223022 7
-0.45550501 -8.625 3.2437739 7
-0.453857 -8.6152344 3.2633059 7
-0.45556599 -8.6152344 3.2850339 7
-0.45562699 -8.6113281 3.3056641 7
-0.45733601 -8.6123047 3.3278811 7
-0.46246299 -8.6230469 3.3521731 7
-0.46081501 -8.6123047 3.371582 7
-0.462524 -8.6123047 3.3934331 7
-0.46423301 -8.6132812 3.4155271 7
-0.46429399 -8.6083984 3.436157 7
-0.45599401 -8.5751953 3.450073 7
-0.454346 -8.5654297 3.469238 7
-0.45947301 -8.5771484 3.493896 7
-0.45782501 -8.5654297 3.513062 7
-0.002441 -1.592773 8.2713623 7
-0.0076899999 -1.581055 8.291626 7
-0.0042110002 -1.5625 8.28479 7
-0.0076290001 -1.548828 8.2998047 7
-0.0076290001 -1.532227 8.3034668 7
-0.00238 -1.512695 8.2910156 7
-0.0058590001 -1.499023 8.3057861 7
-0.00060999999 -1.478516 8.2930908 7
0.00116 -1.460938 8.2912598 7
-0.0057370001 -1.449219 8.3167725 7
-0.00054899999 -1.429688 8.3040771 7
-0.013489 -1.591797 8.0493164 7
-0.018859999 -1.579102 8.0697021 7
-0.0098270001 -1.5576169 8.0463867 7
-0.013428 -1.543945 8.0611572 7
-0.011597 -1.527344 8.0595703 7
-0.0098270001 -1.509766 8.0578613 7
-0.0079960003 -1.4931639 8.0563955 7
-0.015137 -1.481445 8.0817871 7
-0.0097660003 -1.462891 8.0692139 7
-0.015137 -1.451172 8.0892334 7
-0.0097049996 -1.431641 8.0765381 7
-0.018677 -1.421875 8.1074219 7
-0.016907001 -1.405273 8.1057129 7
-0.018677 -1.388672 8.114502 7
-0.0096439999 -1.3681639 8.0906982 7
-0.013184 -1.3544919 8.1052246 7
-0.013245 -1.3388669 8.1085215 7
-0.00060999999 -1.31543 8.0737305 7
-0.013184 -1.3076169 8.1152344 7
-0.0041499999 -1.2861331 8.0913086 7
-0.135905 -4.8505888 13.460234 7
-0.469623 -8.469615 5.719389 7
-0.0060060001 -1.462086 8.059 7
-0.01089 -1.301544 8.1420336 7
-0.000155 -1.360347 7.7810278 7
-0.21979301 -4.5369501 -9.6931658 7
0.0153 -1.164251 -6.980844 7
-0.151704 -4.9862652 12.317835 7
-0.03122 -1.531696 9.959856 7
-0.129939 -4.614152 -2.137557 7
-0.461375 -8.3733978 5.5074701 7
0.021005999 -1.442732 8.8153324 7
-0.0076279999 -1.58261 8.0264759 7
-0.0087839998 -1.383678 8.07335 7
0.010004 -1.543874 7.7033291 7
0.00089700002 -1.361033 7.7830172 7
-0.158958 -4.5778232 -9.7904243 7
-0.002232 -1.258996 -6.3906112 7
