# .PCD v0.7 - Point Cloud Data file format
VERSION 0.7
FIELDS x y z intensity
SIZE 4 4 4 4
TYPE F F F F
COUNT 1 1 1 1
WIDTH 290
HEIGHT 1
VIEWPOINT 0 0 0 1 0 0 0
POINTS 290
DATA ascii
-0.29327399 -5.6074219 66.158691 7
-0.14776599 -2.097656 62.684143 7
-0.51922601 -0.397461 -65.620117 7
-0.508057 -0.553711 -65.332031 7
-0.50250202 3.4511721 -57.421387 7
-0.537781 3.355469 -58.205811 7
-0.096863002 -1.8369139 37.554321 7
-0.081115998 -1.917969 34.508057 7
-0.071837999 -1.832031 34.378784 7
-0.221558 -5.249023 33.976807 7
-0.237122 -5.1279302 34.215332 7
-0.066528 -2.007812 32.27417 7
-0.072815001 -1.94043 30.174927 7
-0.062134001 -1.795898 30.050171 7
-0.19873001 -5.155273 27.447754 7
-0.047118999 -1.887695 23.242188 7
-0.051819 -1.839844 23.293091 7
-0.058837999 -1.793945 23.367432 7
-0.054625999 -1.7392581 23.331177 7
-0.054565001 -1.686523 23.335449 7
-0.059204001 -1.637695 23.38623 7
-0.061035 -1.888672 22.117188 7
-0.067199998 -1.84375 22.179688 7
-0.067139 -1.794922 22.184326 7
-0.073363997 -1.750977 22.246704 7
-0.060059 -1.691406 22.129272 7
-0.065673999 -1.6474611 22.185547 7
-0.073792003 -1.603516 22.265137 7
-0.055663999 -1.910156 20.828613 7
-0.055603001 -1.8193361 20.837891 7
-0.060851999 -1.77832 20.888794 7
-0.058104999 -1.7294919 20.869995 7
-0.055298001 -1.6357419 20.855469 7
-0.19665501 -5.0849609 19.200195 7
-0.19512901 -5.0400391 19.201294 7
-0.207764 -5.023438 19.30835 7
-0.214417 -4.9960942 19.370972 7
-0.213623 -4.9511719 19.377319 7
-0.206848 -4.8955078 19.338867 7
-0.197083 -4.8330078 19.27771 7
-0.012695 -1.017578 -15.676758 7
-0.0075679999 -1.054688 -15.633301 7
-0.003113 -1.091797 -15.595825 7
-0.003357 -1.171875 -15.590088 7
-0.011047 -1.214844 -15.64502 7
-0.0051270002 -1.250977 -15.595459 7
-0.065063 -1.898438 17.901733 7
-0.062560998 -1.8193361 17.893799 7
-0.057007 -1.775391 17.85791 7
-0.060059 -1.738281 17.885254 7
-0.063110001 -1.6630861 17.916748 7
-0.061523002 -1.62207 17.909424 7
-0.054076999 -1.7880861 16.942017 7
-0.0040279999 -1.0986331 -13.110107 7
-0.00238 -1.132812 -13.095581 7
-0.00073199999 -1.166016 -13.081299 7
-0.0043950002 -1.201172 -13.10144 7
-0.0037229999 -1.267578 -13.089111 7
-0.061523002 -1.891602 15.474243 7
-0.063354 -1.859375 15.490479 7
-0.058655001 -1.789062 15.470825 7
-0.060424998 -1.757812 15.486694 7
-0.067688003 -1.730469 15.536987 7
-0.062194999 -1.6923831 15.506958 7
-0.066528 -1.660156 15.540039 7
-0.056334998 -1.619141 15.480835 7
-0.0077510001 -1.3017581 -11.740112 7
-0.0039670002 -1.329102 -11.713745 7
-0.0040890002 -1.359375 -11.710327 7
-0.0051270002 -1.390625 -11.712646 7
-0.003296 -1.421875 -11.69751 7
-0.0062870001 -1.452148 -11.71106 7
-0.0073850001 -1.484375 -11.713013 7
-0.0054930001 -1.513672 -11.697998 7
-0.0056150001 -1.543945 -11.69397 7
-0.0076899999 -1.576172 -11.701538 7
-0.14605699 -4.484375 -11.125488 7
-0.149231 -4.5185552 -11.130981 7
-0.15448 -4.5576172 -11.146851 7
-0.14532501 -4.5683589 -11.08728 7
-0.142395 -4.592773 -11.059814 7
-0.139404 -4.6152339 -11.032471 7
-0.135437 -4.6357422 -10.999756 7
-0.150024 -4.7216802 -11.05249 7
-0.152161 -4.7548828 -11.052002 7
-0.154358 -4.7880859 -11.051025 7
-0.001892 -1.1513669 -10.539062 7
-0.003052 -1.1806639 -10.541748 7
-0.002075 -1.207031 -10.532959 7
-0.001099 -1.235352 -10.524048 7
-0.142029 -4.5048828 -10.414185 7
-0.146423 -4.5410161 -10.424683 7
-0.144348 -4.5644531 -10.402954 7
-0.134827 -4.5742192 -10.34375 7
-0.133911 -4.5996089 -10.327271 7
-0.132874 -4.624023 -10.310791 7
-0.140503 -4.6660161 -10.33667 7
-0.144958 -4.7011719 -10.346924 7
-0.14825401 -4.735352 -10.351318 7
-0.15374801 -4.773438 -10.366577 7
-0.187134 -5.1025391 12.661377 7
-0.188232 -5.078125 12.678955 7
-0.180481 -5.0351558 12.654541 7
-0.172729 -4.992188 12.629883 7
-0.173767 -4.9667969 12.647095 7
-0.168274 -4.9287109 12.63269 7
-0.169312 -4.9042969 12.649902 7
-0.171509 -4.882812 12.672241 7
-0.178101 -4.8701172 12.715698 7
-0.177002 -4.8408198 12.722168 7
-0.14312699 -4.4941411 -9.8334961 7
-0.14776599 -4.5292969 -9.8438721 7
-0.151245 -4.5625 -9.8487549 7
-0.15356401 -4.5917969 -9.8481445 7
-0.14361601 -4.5986328 -9.7893066 7
-0.143677 -4.625 -9.7780762 7
-0.142639 -4.648438 -9.7617188 7
-0.143921 -4.6767578 -9.7556152 7
-0.150757 -4.7167969 -9.776001 7
-0.157593 -4.7548828 -9.7962646 7
-0.162231 -4.7910161 -9.8057861 7
-0.18896499 -5.1191411 12.090698 7
-0.187805 -5.0908198 12.0979 7
-0.187805 -5.0664058 12.110352 7
-0.180847 -5.0253911 12.091187 7
-0.178528 -4.9970698 12.092896 7
-0.164673 -4.9414058 12.04248 7
-0.16699199 -4.920898 12.064819 7
-0.16699199 -4.8964839 12.07666 7
-0.16925 -4.875 12.098999 7
-0.171509 -4.8554692 12.121216 7
-0.17608599 -4.8378911 12.153931 7
-0.044861 -1.589844 12.469482 7
-0.037964001 -1.560547 12.439575 7
-0.042479999 -1.5361331 12.466064 7
-0.042479999 -1.5107419 12.469971 7
-0.042419001 -1.484375 12.473755 7
-0.014526 -1.188477 -9.5921631 7
-0.012268 -1.2119139 -9.5776367 7
-0.015807999 -1.2392581 -9.5916748 7
-0.01123 -1.261719 -9.5656738 7
-0.14807101 -4.6308589 -9.2410889 7
-0.146973 -4.6533198 -9.2246094 7
-0.142395 -4.6669922 -9.1925049 7
-0.13897701 -4.6855469 -9.1654053 7
-0.149597 -4.7304692 -9.2011719 7
-0.154419 -4.765625 -9.2104492 7
-0.184448 -5.110352 11.500488 7
-0.185608 -5.0878911 11.518066 7
-0.183167 -5.0585942 11.519897 7
-0.180786 -5.030273 11.521851 7
-0.172363 -4.9882808 11.498047 7
-0.166382 -4.952148 11.484375 7
-0.16394 -4.922852 11.486084 7
-0.16387901 -4.898438 11.497925 7
-0.16748001 -4.8818359 11.525024 7
-0.171082 -4.8652339 11.55249 7
-0.179443 -4.859375 11.600586 7
-0.178223 -4.8320308 11.607178 7
-0.045288 -1.5986331 11.9823 7
-0.044128001 -1.574219 11.980713 7
-0.036865 -1.543945 11.950562 7
-0.040405001 -1.5205081 11.971436 7
-0.039184999 -1.496094 11.969482 7
-0.037964001 -1.469727 11.967651 7
-0.047545999 -1.451172 12.016724 7
-0.045104999 -1.424805 12.008911 7
-0.048645001 -1.4013669 12.029663 7
-0.047424 -1.375977 12.027588 7
-0.044983 -1.349609 12.019775 7
-0.044922002 -1.324219 12.023193 7
-0.046082001 -1.298828 12.03186 7
-0.048950002 -1.630859 11.561401 7
-0.036437999 -1.5986331 11.508911 7
-0.03009 -1.5224611 11.492554 7
-0.0041499999 -1.173828 -8.6149902 7
-0.00293 -1.195312 -8.6064453 7
-0.00042699999 -1.21582 -8.592041 7
-0.003052 -1.2412111 -8.6000977 7
-0.0043950002 -1.264648 -8.6026611 7
-0.028687 -1.591797 11.012695 7
-0.032593001 -1.572266 11.033691 7
-0.022095 -1.542969 10.992554 7
-0.022095 -1.519531 10.996216 7
-0.024536001 -1.49707 11.011597 7
-0.024536001 -1.474609 11.015381 7
-0.024475001 -1.451172 11.019043 7
-0.032288 -1.433594 11.056519 7
-0.036072001 -1.4130861 11.077148 7
-0.037354 -1.390625 11.086426 7
-0.037354 -1.3681639 11.089722 7
-0.037292 -1.345703 11.093262 7
-0.036010999 -1.322266 11.090942 7
-0.037292 -1.300781 11.099976 7
-0.45361301 -8.3359385 -5.5953369 7
-0.45513901 -8.3564453 -5.578979 7
-0.45519999 -8.3730469 -5.5588379 7
-0.455322 -8.3886719 -5.5388179 7
-0.45544401 -8.4052734 -5.5186772 7
-0.46112099 -8.4394531 -5.5126948 7
-0.46679699 -8.4726562 -5.5064702 7
-0.469666 -8.4970703 -5.4931641 7
-0.46698001 -8.5048828 -5.4656978 7
-0.47265601 -8.5390615 -5.4594731 7
-0.035521999 -1.6162111 10.251709 7
-0.025513001 -1.503906 10.232056 7
-0.030456999 -1.390625 9.9387207 7
-0.028991999 -1.369141 9.9367676 7
-0.026001001 -1.328125 9.932251 7
-0.02887 -1.30957 9.9468994 7
-0.031799 -1.291016 9.9615479 7
-0.021729 -1.599609 9.229126 7
-0.024840999 -1.583984 9.2443848 7
-0.021729 -1.5625 9.2373047 7
-0.021667 -1.543945 9.2412109 7
-0.0090939999 -1.517578 9.2005615 7
-0.012268 -1.501953 9.2155762 7
-0.021606 -1.488281 9.2524414 7
-0.015381 -1.466797 9.2342529 7
-0.021545 -1.452148 9.2601318 7
-0.018371999 -1.4306639 9.2525635 7
-0.023071 -1.3974611 9.2763672 7
-0.46234101 -8.5361328 -2.23999 7
-0.46240199 -8.5439453 -2.2193601 7
-0.45605499 -8.53125 -2.1903081 7
-0.46093801 -8.5556641 -2.176147 7
-0.45947301 -8.5664062 -2.1331789 7
-0.45953399 -8.5742188 -2.1123049 7
-0.46130401 -8.5957031 -2.0734861 7
-0.45977801 -8.5976562 -2.050781 7
-0.456604 -8.5957031 -2.026123 7
-0.46160901 -8.6259766 -1.990967 7
-0.021361999 -1.341797 8.963501 7
-0.021361999 -1.324219 8.9667969 7
-0.0096439999 -1.59668 8.2875977 7
-0.013062 -1.5830081 8.3024902 7
-0.013062 -1.566406 8.3066406 7
-0.013 -1.549805 8.3105469 7
-0.0095830001 -1.53125 8.3033447 7
-0.002563 -1.5107419 8.2855225 7
-0.0059810001 -1.496094 8.3001709 7
-0.0042110002 -1.478516 8.2982178 7
-0.00073199999 -1.4599611 8.2911377 7
-0.0042110002 -1.4462889 8.3059082 7
-0.018982001 -1.592773 8.0599365 7
-0.01532 -1.574219 8.0532227 7
-0.0081179999 -1.5537111 8.0354004 7
-0.01709 -1.543945 8.0664062 7
-0.024231 -1.532227 8.0919189 7
-0.015259 -1.511719 8.0687256 7
-0.017029 -1.49707 8.0780029 7
-0.016968001 -1.481445 8.0819092 7
-0.011597 -1.4619139 8.0692139 7
-0.011597 -1.4462889 8.072998 7
-0.011536 -1.4306639 8.0766602 7
-0.027771 -1.425781 8.1292725 7
-0.018738 -1.40332 8.1054688 7
-0.015137 -1.386719 8.0981445 7
-0.024109 -1.375977 8.1290283 7
-0.016845999 -1.3544919 8.1105957 7
-0.024048001 -1.34375 8.1358643 7
-0.016845999 -1.3232419 8.1175537 7
-0.020385999 -1.30957 8.1317139 7
-0.018555 -1.2919919 8.1296387 7
-0.269952 -5.062078 19.923471 7
-0.079451002 -1.582405 15.183336 7
-0.044934999 -1.695455 13.212288 7
-0.214661 -4.8670201 11.820087 7
-0.049961999 -1.5809309 9.0171499 7
-0.055181999 -1.380704 9.1105824 7
-0.0023119999 -1.454314 8.037797 7
-0.015728001 -1.31054 8.1701813 7
-0.122868 -4.78931 5.0010052 7
-0.025276 -1.5392669 7.3793149 7
-0.029889001 -1.406891 7.4598341 7
0.103738 -1.370052 -10.674104 7
-0.19950999 -4.600841 -9.4032393 7
-0.028765 -1.739378 12.59743 7
-0.181274 -5.072124 11.550453 7
-0.0054139998 -1.658242 11.560305 7
-0.027918 -1.53004 9.9379101 7
-0.134818 -4.7055411 -2.6662929 7
-0.12632801 -4.653574 -2.0749991 7
-0.0044049998 -1.531355 8.0218506 7
-0.006724 -1.332749 8.0723639 7
0.025967 -1.466311 7.4269128 7
0.013387 -1.295181 7.515018 7
-0.15369201 -4.7727542 4.9419599 7
-0.144775 -4.671576 5.0850172 7
-0.122543 -4.525948 4.8303881 7
