# .PCD v0.7 - Point Cloud Data file format
VERSION 0.7
FIELDS x y z intensity
SIZE 4 4 4 4
TYPE F F F F
COUNT 1 1 1 1
WIDTH 1257
HEIGHT 1
VIEWPOINT 0 0 0 1 0 0 0
POINTS 1257
DATA ascii
0.24038699 -1.48938 -72.899414 7
0.29128999 -1.6218261 -70.942383 7
0.217354 5.2329102 -73.043945 7
0.169899 -1.535889 -67.144531 7
0.203201 -1.6700439 -66 7
0.186424 -1.8449709 -66.556641 7
0.161934 5.4433589 -66.772461 7
0.210114 5.1550288 -65.150391 7
0.167679 5.1038818 -66.585938 7
0.320366 1.577026 -61.438477 7
0.14681201 -1.677002 -60.383789 7
0.183617 -1.93396 -59.246094 7
0.234161 -2.0249021 -57.702148 7
0.167702 -2.2385249 -59.704102 7
0.18968201 5.0744629 -58.550781 7
0.251701 4.7783198 -56.69043 7
0.19896699 4.766479 -58.282227 7
0.120651 4.8067632 -60.644531 7
0.072479002 -1.956787 -55.731445 7
0.146873 -2.018311 -53.708008 7
0.16851 -2.125854 -53.113281 7
0.130455 -2.2974851 -54.130859 7
0.15531901 -2.399292 -53.447266 7
0.21926901 4.9665532 -51.303711 7
0.18981899 4.9133301 -52.101562 7
0.253227 4.6337891 -50.40625 7
0.20314001 4.6273189 -51.756836 7
0.160873 4.5966802 -52.899414 7
0.051491 -2.0379641 -50.858398 7
0.108368 -2.10376 -49.457031 7
0.14373 -2.1862791 -48.581055 7
0.091735996 -2.363281 -49.84375 7
0.117073 -2.4543459 -49.211914 7
-0.82617998 -3.342041 67.100586 7
-0.78687298 -3.144897 66.254883 7
-0.88678002 -3.0919189 68.447266 7
-0.82057202 -0.53637701 67.147461 7
0.198837 4.8930659 -46.834961 7
0.162781 4.8651118 -47.71875 7
0.224617 4.6027832 -46.22168 7
0.180283 4.4749761 -47.31543 7
0.095146 4.5439448 -49.394531 7
0.050774001 -2.167114 -45.558594 7
0.094512999 -2.245728 -44.969727 7
0.117638 -2.332886 -44.472656 7
0.065323003 -2.503052 -45.623047 7
0.107277 -2.5626221 -44.683594 7
0.14316601 -2.625366 -43.876953 7
-0.76447302 -0.621948 60.477539 7
-0.73333001 -0.476807 59.859375 7
-0.72084802 -0.336914 59.614258 7
-0.69320703 -0.19702099 59.06543 7
-0.69824201 -0.060424998 59.169922 7
0.18769801 4.7766109 -42.558594 7
0.15406799 4.7504878 -43.307617 7
0.124382 4.7119141 -43.970703 7
0.184921 4.4685059 -42.643555 7
0.157051 4.424438 -43.263672 7
0.118416 4.400269 -44.125 7
0.00092299999 -2.272583 -43.288086 7
0.038155001 -2.3378911 -42.517578 7
0.067688003 -2.4082029 -41.90625 7
0.093216002 -2.4802251 -41.373047 7
0.037354 -2.650269 -42.505859 7
0.069739997 -2.7125239 -41.833984 7
0.089561 -2.7883301 -41.418945 7
0.117393 -2.8511961 -40.839844 7
0.145798 -2.910645 -40.250977 7
-0.70356798 -0.18310501 55.19043 7
-0.62174201 -0.053955 53.670898 7
-0.64802599 0.059204001 54.150391 7
0.13762701 4.7142329 -40.136719 7
0.112892 4.670898 -40.647461 7
0.080467001 4.642334 -41.31543 7
0.138374 4.4155269 -40.145508 7
0.115936 4.3641362 -40.610352 7
0.088646002 4.32019 -41.172852 7
0.051902998 4.2927251 -41.928711 7
0.191772 0.92712402 -39.525391 7
0.18850701 0.83154303 -39.591797 7
0.192902 0.73290998 -39.5 7
0.020316999 -2.7224121 -38.942383 7
0.020142 -2.8182371 -38.935547 7
0.045676999 -2.879272 -38.450195 7
0.067123003 -2.943604 -38.041016 7
-0.62870002 -2.898315 49.417969 7
0.097388998 4.844604 -37.185547 7
0.077209003 4.7987061 -37.568359 7
0.061439998 4.7409668 -37.870117 7
0.026123 4.6295171 -38.542969 7
0.198654 1.278564 -35.488281 7
0.188988 1.1086431 -35.668945 7
0.161835 1.03418 -36.173828 7
0.15973701 0.67773402 -36.211914 7
0.195381 0.57824701 -35.545898 7
0.20706201 0.40014601 -35.325195 7
0.0095370002 -2.9663091 -35.96582 7
0.0233 -3.0353999 -35.719727 7
0.036727998 -3.1036379 -35.478516 7
0.050163001 -3.171021 -35.238281 7
-0.56663501 -2.8383789 45 7
-0.57750702 -2.746094 45.181641 7
-0.49928999 0.057617001 44.087891 7
-0.53368402 0.16064499 44.636719 7
-0.49235499 0.259399 43.981445 7
0.085625 4.921875 -34.353516 7
0.070595004 4.8713379 -34.620117 7
0.051139999 4.8297119 -34.961914 7
0.033386 4.7824712 -35.274414 7
-0.00064799999 4.7692871 -35.866211 7
-0.0021289999 4.6838379 -35.900391 7
0.16629 1.199585 -33.194336 7
0.13555101 1.134277 -33.72168 7
0.15599801 0.296143 -33.645508 7
0.174835 0.211182 -33.318359 7
0.159477 0.130005 -33.582031 7
0.15527301 0.047118999 -33.652344 7
0.17266101 -0.105957 -30.201172 7
-0.027855 -3.177124 -33.396484 7
-0.010971 -3.2344971 -33.120117 7
0.0059199999 -3.2906489 -32.844727 7
0.012817 -3.3608401 -32.726562 7
-0.008804 -3.4758301 -33.056641 7
-0.49789399 -2.8317871 40.597656 7
-0.48701501 -2.7276609 40.448242 7
-0.497673 -2.645752 40.612305 7
-0.52864802 -2.58252 41.072266 7
-0.47020701 0.14501999 40.358398 7
-0.43422699 0.234253 39.832031 7
-0.46395901 0.32897899 40.268555 7
-0.440712 0.41747999 39.928711 7
0.028175 5.116333 -32.207031 7
0.082451001 4.9094238 -31.369141 7
0.060904998 4.880981 -31.716797 7
0.038589001 4.852417 -32.074219 7
0.017067 4.8205571 -32.421875 7
-0.013382 4.806519 -32.908203 7
0.16626699 1.5526119 -30.303711 7
0.153542 1.486328 -30.504883 7
0.138252 1.421021 -30.749023 7
0.164459 1.3273931 -30.336914 7
0.116776 1.204102 -31.09082 7
0.120567 0.276611 -31.030273 7
0.144188 0.19738799 -30.655273 7
0.169678 0.119629 -30.253906 7
0.128746 0.045288 -30.897461 7
0.148598 -0.030396 -28.706055 7
0.116074 -0.103394 -29.18457 7
0.133377 -0.174316 -28.927734 7
0.143517 -0.244873 -28.774414 7
-0.056717001 -3.23999 -31.500977 7
-0.051688999 -3.3101809 -31.416992 7
-0.034393001 -3.361572 -31.154297 7
-0.025024001 -3.4238279 -31.005859 7
-0.032303002 -3.512085 -31.101562 7
-0.42480499 0.219482 37.34375 7
0.078621 4.9595952 -29.210938 7
0.061028 4.8538818 -29.487305 7
0.022133 4.8677979 -30.064453 7
-0.001312 4.844727 -30.416992 7
0.000191 4.765625 -30.404297 7
0.149628 1.604736 -28.453125 7
0.12998199 1.476685 -28.746094 7
0.14654499 1.393555 -28.505859 7
0.11219 -0.16064499 -26.733398 7
0.12979101 -0.424438 -26.485352 7
0.135262 -0.48938 -26.407227 7
-0.075355999 -3.4571531 -29.240234 7
-0.051208001 -3.563354 -28.892578 7
-0.038918 -3.6148679 -28.71582 7
-0.059174001 -3.719727 -28.979492 7
0.074676998 5.0024409 -26.907227 7
0.063904002 4.960083 -27.063477 7
0.050140001 4.9238281 -27.258789 7
0.036377002 4.8869629 -27.454102 7
0.011917 4.8730469 -27.793945 7
-0.002693 4.835815 -28.001953 7
0.13024101 1.56543 -26.481445 7
0.146431 1.487305 -26.262695 7
0.125351 1.436157 -26.551758 7
0.12524401 1.369751 -26.555664 7
0.142303 1.29248 -26.326172 7
0.092712 -0.34289601 -25.299805 7
0.110939 -0.40258801 -25.064453 7
0.12593099 -0.461914 -24.871094 7
0.093346 -0.532471 -25.285156 7
0.110641 -0.590698 -25.061523 7
0.124741 -0.64892602 -24.878906 7
-0.080642998 -3.572876 -27.219727 7
-0.084449999 -3.6464839 -27.256836 7
-0.067130998 -3.6860349 -27.029297 7
-0.054871 -3.7327881 -26.864258 7
-0.050873 -3.792603 -26.802734 7
-0.36461601 0.688232 32.00293 7
0.044762 4.990479 -25.34668 7
0.039207 4.9398189 -25.428711 7
0.026306 4.9050288 -25.600586 7
0.0093 4.8787842 -25.825195 7
-0.01413 4.8657231 -26.130859 7
-0.018784 4.8103032 -26.199219 7
0.131042 1.708618 -24.599609 7
0.13591 1.581177 -24.543945 7
0.110268 -0.37353501 -23.180664 7
0.097359002 -0.434448 -23.332031 7
0.112465 -0.54736298 -23.148438 7
0.109917 -0.606323 -23.176758 7
0.102325 -0.72534198 -23.259766 7
0.107658 -0.78173798 -23.194336 7
-0.065696999 -3.606812 -24.954102 7
-0.079650998 -3.691772 -25.107422 7
-0.074309997 -3.745728 -25.035156 7
-0.065048002 -3.79248 -24.915039 7
-0.059723001 -3.8453369 -24.84375 7
-0.055900998 -3.9007571 -24.788086 7
0.028717 5.0849609 -23.539062 7
0.023666 4.9776611 -23.620117 7
0.015701 4.9362788 -23.723633 7
-0.010475 4.9353032 -24.039062 7
-0.026389999 4.8487549 -24.245117 7
0.109261 1.8937989 -22.977539 7
0.119484 1.7687989 -22.864258 7
0.107056 1.721436 -23.013672 7
0.1203 1.65271 -22.860352 7
0.105331 1.548218 -23.042969 7
0.104752 1.490479 -23.051758 7
0.089980997 -0.68102998 -21.760742 7
0.088836998 -0.736206 -21.770508 7
0.066588998 -0.79956102 -22.012695 7
0.080215 -0.849365 -21.859375 7
0.085854001 -0.95703101 -21.791992 7
-0.092583001 -3.760376 -23.444336 7
-0.092681997 -3.8193359 -23.435547 7
-0.084976003 -3.9230959 -23.330078 7
-0.076629996 -3.9667971 -23.228516 7
-0.082030997 -4.0345459 -23.276367 7
-0.003304 5.0993652 -22.169922 7
0.012993 5.0057368 -22.005859 7
0.00238 4.973999 -22.130859 7
-0.0029529999 4.9299321 -22.200195 7
-0.014084 4.898438 -22.333008 7
-0.032081999 4.8814702 -22.538086 7
-0.034782 4.8304439 -22.577148 7
0.094337001 1.890381 -21.514648 7
0.104828 1.826416 -21.402344 7
0.088363998 1.786255 -21.586914 7
0.106789 1.716431 -21.387695 7
0.102493 1.665405 -21.438477 7
0.092377 1.619019 -21.552734 7
0.076920003 -0.69226098 -20.394531 7
0.062743999 -0.74890101 -20.538086 7
0.064354002 -0.80017102 -20.518555 7
0.078377001 -0.84619099 -20.37207 7
0.072655 -0.90039098 -20.427734 7
0.068549998 -1.005615 -20.464844 7
0.073532 -1.05481 -20.40918 7
-0.101768 -3.9163821 -21.864258 7
-0.098480001 -3.9654541 -21.821289 7
-0.088988997 -4.0036621 -21.713867 7
-0.085135996 -4.0513921 -21.664062 7
-0.082413003 -4.1008301 -21.625977 7
0.0096819997 5.0535889 -20.441406 7
0.0028530001 5.017334 -20.521484 7
-0.0028309999 4.9779048 -20.59082 7
-0.011902 4.9459229 -20.692383 7
-0.02774 4.9284668 -20.864258 7
-0.037932999 4.8979492 -20.978516 7
-0.033493001 4.8349609 -20.944336 7
0.087256998 1.876587 -20.092773 7
0.078712001 1.832764 -20.18457 7
0.099541001 1.763672 -19.975586 7
0.089309998 1.721191 -20.083008 7
0.075126998 1.681396 -20.232422 7
0.084656 1.622559 -20.136719 7
-0.106804 -3.895752 -20.475586 7
-0.11834 -3.967407 -20.574219 7
-0.124435 -4.0297852 -20.62207 7
-0.119141 -4.0723882 -20.561523 7
-0.113228 -4.113647 -20.494141 7
-0.109131 -4.1578369 -20.444336 7
-0.0099259997 5.0881348 -19.239258 7
-0.017769 5.0568848 -19.324219 7
-0.02681 5.0279541 -19.420898 7
-0.031638999 4.9891362 -19.478516 7
-0.045485999 4.9702148 -19.621094 7
-0.061133999 4.9545898 -19.779297 7
-0.056389 4.8936772 -19.746094 7
0.048827998 1.894287 -19.15918 7
0.073959 1.823608 -18.919922 7
0.069091998 1.779297 -18.970703 7
0.061829001 1.736572 -19.044922 7
0.059356999 1.689819 -19.072266 7
0.065886997 1.635986 -19.012695 7
0.031128 -0.89892602 -18.074219 7
0.036513999 -0.94519001 -18.171875 7
0.043884002 -0.98913598 -18.105469 7
0.047637999 -1.033447 -18.067383 7
0.032799002 -1.133423 -18.196289 7
0.033348002 -1.179443 -18.1875 7
0.033287 -1.225952 -18.18457 7
-0.132713 -4.0401611 -19.295898 7
-0.14047199 -4.1027832 -19.355469 7
-0.13353001 -4.1392822 -19.283203 7
-0.124664 -4.1719971 -19.193359 7
-0.119652 -4.2115479 -19.137695 7
-0.119751 -4.2601318 -19.126953 7
0.062866002 1.9030761 -17.753906 7
0.048103001 1.870361 -17.891602 7
0.065948002 1.809204 -17.733398 7
0.065254003 1.76416 -17.744141 7
0.065186001 1.71875 -17.74707 7
0.055534001 1.680542 -17.838867 7
0.061218001 1.630371 -17.790039 7
0.023621 -0.98669398 -17.186523 7
0.043830998 -1.020996 -17.009766 7
0.01651 -1.210327 -17.231445 7
-0.145767 -4.2069092 -18.169922 7
-0.139771 -4.242065 -18.108398 7
-0.139175 -4.2871089 -18.09375 7
-0.14875799 -4.3508301 -18.162109 7
-0.15361001 -4.4060059 -18.191406 7
0.042098999 1.901733 -16.850586 7
0.054221999 1.847778 -16.750977 7
0.049415998 1.808472 -16.794922 7
0.056129001 1.759644 -16.741211 7
0.041855 1.728027 -16.867188 7
0.049927 1.6781009 -16.801758 7
0.018112 -0.973755 -16.166016 7
0.020919999 -1.013916 -16.140625 7
0.028717 -1.051514 -16.073242 7
0.012878 -1.100952 -16.199219 7
0.0063709999 -1.146118 -16.248047 7
0.010597 -1.185425 -16.210938 7
0.016266 -1.224243 -16.162109 7
0.003304 -1.273315 -16.263672 7
-0.161072 -4.1672359 -17.133789 7
-0.15613601 -4.202148 -17.083984 7
-0.155518 -4.2446289 -17.068359 7
-0.149857 -4.27771 -17.012695 7
-0.150658 -4.3227539 -17.007812 7
-0.16010299 -4.383667 -17.070312 7
-0.168823 -4.4438481 -17.126953 7
-0.032416999 5.0776372 -15.798828 7
-0.031738002 5.0350342 -15.805664 7
-0.039650001 5.0118408 -15.879883 7
-0.042525999 4.9770508 -15.914062 7
-0.049004 4.9500728 -15.976562 7
-0.060509 4.9338379 -16.077148 7
-0.064125001 4.900146 -16.116211 7
-0.051987 4.8320308 -16.033203 7
0.066986002 1.56958 -15.618164 7
0.065323003 1.408447 -15.643555 7
0.067413002 1.366333 -15.628906 7
0.011635 -0.96203601 -15.244141 7
0.010818 -1.001709 -15.24707 7
0.015236 -1.078369 -15.207031 7
-0.00073999999 -1.1257319 -15.326172 7
-0.0053480002 -1.167969 -15.358398 7
0.0051270002 -1.241089 -15.271484 7
-0.179977 -4.2186279 -16.19043 7
-0.167915 -4.2384028 -16.09082 7
-0.166481 -4.276978 -16.069336 7
-0.17046399 -4.3666992 -16.076172 7
-0.184212 -4.4337158 -16.167969 7
-0.184303 -4.4750981 -16.157227 7
-0.066780001 5.067627 -15.041016 7
-0.065292001 5.025269 -15.041016 7
-0.066109002 4.9876709 -15.058594 7
-0.069145001 4.9552002 -15.092773 7
-0.069191001 4.915894 -15.104492 7
-0.075272001 4.889648 -15.161133 7
-0.081375003 4.8634028 -15.214844 7
0.066811003 1.099609 -14.702148 7
0.072806999 1.058228 -14.658203 7
0.016418001 -0.980591 -14.28418 7
0.013947 -1.018921 -14.299805 7
0.023514001 -1.051392 -14.228516 7
0.024223 -1.0880131 -14.21875 7
0.015343 -1.129517 -14.279297 7
-0.00073999999 -1.175293 -14.392578 7
0.0031969999 -1.210449 -14.360352 7
0.0095600002 -1.244141 -14.311523 7
-0.175423 -4.1732178 -15.138672 7
-0.181122 -4.2224121 -15.167969 7
-0.175575 -4.2514648 -15.119141 7
-0.170837 -4.2818599 -15.075195 7
-0.17094401 -4.3206792 -15.063477 7
-0.168625 -4.3552251 -15.036133 7
-0.17914601 -4.4135742 -15.098633 7
-0.183258 -4.4603271 -15.116211 7
0.062057 0.93225098 -13.848633 7
0.057999 0.89758301 -13.878906 7
0.063545004 0.85900903 -13.839844 7
0.070708998 0.81982398 -13.790039 7
0.076278999 0.78161597 -13.751953 7
0.078644 0.74462903 -13.736328 7
0.082580999 0.70715302 -13.708008 7
0.074515998 0.67382801 -13.768555 7
0.066444002 0.64013702 -13.828125 7
0.016472001 -0.96630901 -13.490234 7
0.018944001 -1.000366 -13.470703 7
0.012978 -1.038452 -13.508789 7
0.017967001 -1.0712889 -13.470703 7
0.015381 -1.107788 -13.485352 7
0.012787 -1.144287 -13.5 7
0.002602 -1.184937 -13.566406 7
-0.00082399999 -1.22229 -13.586914 7
0.0041729999 -1.255005 -13.548828 7
-0.183502 -4.1990972 -14.297852 7
-0.18865199 -4.2453609 -14.321289 7
-0.183662 -4.273438 -14.27832 7
-0.18373901 -4.3106689 -14.267578 7
-0.181282 -4.3430181 -14.240234 7
-0.180527 -4.378418 -14.224609 7
-0.187363 -4.4282231 -14.258789 7
0.073624 0.60583502 -13.005859 7
0.071883999 0.571899 -13.018555 7
0.065909997 0.53918499 -13.061523 7
0.071510002 0.50451702 -13.149414 7
0.072623998 0.46923801 -13.144531 7
0.077620998 0.43383801 -13.110352 7
0.077575997 0.39953601 -13.112305 7
0.073302999 0.36584499 -13.141602 7
0.070747003 0.33166501 -13.160156 7
0.0043870001 -1.023438 -12.814453 7
-0.011848 -1.200439 -12.905273 7
-0.0074769999 -1.231689 -12.874023 7
-0.002228 -1.2624511 -12.835938 7
-0.18649299 -4.379395 -13.416992 7
-0.188347 -4.4177251 -13.417969 7
-0.081078 5.1105962 -12.430664 7
-0.069595002 5.052002 -12.371094 7
-0.050163001 4.9431152 -12.275391 7
-0.057280999 4.893311 -12.341797 7
-0.061767999 4.8374019 -12.392578 7
-0.073296003 4.829102 -12.474609 7
-0.086639002 4.7910161 -12.579102 7
0.056449998 0.31726101 -12.397461 7
0.070556998 0.24975599 -12.306641 7
0.073112004 0.18432599 -12.290039 7
0.068634003 0.15185501 -12.320312 7
0.057921998 0.119751 -12.388672 7
0.066696003 0.053833 -12.332031 7
0.061554 -0.105225 -11.828125 7
0.062431 -0.13659699 -11.822266 7
-0.0099790003 -1.23877 -12.205078 7
-0.0072479998 -1.269531 -12.18457 7
-0.001717 -1.29834 -12.146484 7
-0.0036929999 -1.363647 -12.152344 7
-0.14875799 0.71899402 15.489258 7
-0.13433801 0.74768102 15.401367 7
-0.140999 0.783081 15.44043 7
-0.14092299 0.81616199 15.4375 7
-0.138 0.84838903 15.417969 7
-0.13411701 0.88012701 15.393555 7
-0.14267001 0.91674799 15.443359 7
-0.13974801 0.94860798 15.423828 7
-0.073250003 5.0698242 -11.640625 7
-0.071396001 5.0345459 -11.642578 7
-0.073288001 5.0075679 -11.665039 7
-0.065865003 4.9599609 -11.633789 7
-0.057556 4.910645 -11.595703 7
-0.057564002 4.8796391 -11.608398 7
-0.060371 4.8548579 -11.636719 7
-0.061324999 4.825439 -11.652344 7
-0.069695003 4.8122559 -11.712891 7
-0.079925999 4.8026118 -11.78418 7
0.037154999 -0.34167501 -11.310547 7
0.047851998 -0.36987299 -11.246094 7
0.051720001 -0.399048 -11.222656 7
0.051665999 -0.42895499 -11.220703 7
0.041847002 -0.46093801 -11.27832 7
0.031059001 -0.49340799 -11.339844 7
0.030029001 -0.52380401 -11.344727 7
0.038795002 -0.55163598 -11.291992 7
0.041655999 -0.58105499 -11.273438 7
0.042580001 -0.610596 -11.265625 7
-0.015175 -1.2718509 -11.551758 7
-0.0054469998 -1.296875 -11.492188 7
-0.0055160001 -1.3273931 -11.488281 7
-0.005562 -1.357788 -11.486328 7
-0.0075679999 -1.3894041 -11.494141 7
-0.15779901 -1.9161381 14.717773 7
-0.152725 -1.880615 14.693359 7
-0.151695 -1.848267 14.692383 7
-0.116966 0.70922899 14.625977 7
-0.11692 0.740601 14.624023 7
-0.118889 0.77258301 14.633789 7
-0.119827 0.80419898 14.637695 7
-0.120041 0.83288598 14.635742 7
-0.11998 0.86425799 14.634766 7
-0.114922 0.89331102 14.603516 7
-0.123886 0.92834502 14.652344 7
-0.11982 0.95813 14.62793 7
0.031943999 -0.64355499 -10.755859 7
0.031897999 -0.67236298 -10.753906 7
0.021645 -0.704346 -10.810547 7
0.0093379999 -0.73754901 -10.87793 7
0.018494001 -0.76342797 -10.824219 7
0.020485001 -0.79138201 -10.810547 7
0.023499001 -0.819336 -10.791016 7
0.024475001 -0.84777802 -10.783203 7
0.020331999 -0.87817401 -10.804688 7
0.011078 -0.91101098 -10.854492 7
-0.15077201 -1.887207 14.092773 7
-0.14757501 -1.854614 14.079102 7
-0.145439 -1.822998 14.072266 7
-0.141197 -1.789917 14.052734 7
-0.141167 -1.7598881 14.057617 7
-0.119202 0.64648402 14.063477 7
-0.117058 0.67578101 14.050781 7
-0.117012 0.705688 14.048828 7
-0.114868 0.73498499 14.036133 7
-0.11795 0.76586902 14.050781 7
-0.117897 0.79577601 14.049805 7
-0.116783 0.82531703 14.041016 7
-0.119904 0.856323 14.057617 7
-0.116707 0.88513201 14.038086 7
-0.116646 0.915039 14.036133 7
-0.121841 0.94714397 14.063477 7
0.023163 -0.64209002 -10.212891 7
0.022041 -0.66979998 -10.216797 7
0.020935001 -0.69763201 -10.220703 7
0.016594 -0.72668499 -10.242188 7
0.01442 -0.755005 -10.251953 7
0.019722 -0.780518 -10.22168 7
0.025017001 -0.80615199 -10.19043 7
0.027115 -0.83252001 -10.176758 7
0.022781 -0.86169398 -10.197266 7
0.018448001 -0.89086902 -10.217773 7
0.0044630002 -0.924438 -10.291992 7
0.0044169999 -0.95202601 -10.289062 7
0.012947 -0.97583002 -10.240234 7
0.012901 -1.003418 -10.237305 7
0.012863 -1.030762 -10.235352 7
0.011726 -1.05896 -10.239258 7
-0.001183 -1.092896 -10.305664 7
-0.0033720001 -1.121704 -10.314453 7
0.0040819999 -1.1455081 -10.271484 7
-0.000252 -1.175537 -10.291992 7
0.0029140001 -1.2012939 -10.271484 7
-0.0035550001 -1.2325439 -10.303711 7
-0.018616 -1.268921 -10.380859 7
-0.097609997 0.669312 13.349609 7
-0.097565003 0.69763201 13.348633 7
-0.097519003 0.72583002 13.34668 7
-0.097480997 0.75414997 13.345703 7
-0.09742 0.782471 13.342773 7
-0.096275002 0.81042498 13.335938 7
-0.097328 0.83886701 13.338867 7
-0.096184 0.86682099 13.332031 7
-0.097236998 0.89550799 13.334961 7
-0.097182997 0.92358398 13.333008 7
-0.102623 0.95422399 13.359375 7
0.012794 -0.98608398 -9.7304688 7
0.012756 -1.012207 -9.7275391 7
0.000397 -1.044556 -9.7880859 7
-0.0097049996 -1.07605 -9.8378906 7
-0.0075150002 -1.101562 -9.8242188 7
0.0025249999 -1.122925 -9.7695312 7
-0.00089299999 -1.151001 -9.7832031 7
0.0024260001 -1.175537 -9.7636719 7
-0.00099199999 -1.2038569 -9.7773438 7
-0.0043870001 -1.232178 -9.7929688 7
-0.013397 -1.263916 -9.8349609 7
-0.00367 -0.97534198 -9.3271484 7
-0.006058 -1.0018311 -9.3349609 7
-0.0072630001 -1.027832 -9.3398438 7
-0.001465 -1.050537 -9.3085938 7
-0.001511 -1.075684 -9.3056641 7
0.00312 -1.0986331 -9.2802734 7
0.001907 -1.124634 -9.2832031 7
-0.014488 -1.158569 -9.3613281 7
-0.0063629998 -1.179443 -9.3173828 7
-0.0064090001 -1.2049561 -9.3154297 7
-0.0087890001 -1.231689 -9.3242188 7
-0.011169 -1.258301 -9.3330078 7
-0.059898 4.7993159 -8.4785156 7
-0.066917002 4.790771 -8.5205078 7
-0.068085 4.7694092 -8.5361328 7
-0.065757997 4.7408452 -8.5380859 7
-0.069274999 4.7244868 -8.5644531 7
-0.070441999 4.7028809 -8.5810547 7
-0.077454001 4.6937261 -8.6230469 7
-0.003052 -0.98278803 -8.8691406 7
-0.005539 -1.0081789 -8.8779297 7
-0.003143 -1.031372 -8.8642578 7
-0.016579 -1.062012 -8.9248047 7
-0.015404 -1.085815 -8.9169922 7
-0.0032810001 -1.104126 -8.8564453 7
-0.0094219996 -1.13147 -8.8808594 7
-0.005814 -1.153809 -8.8613281 7
-0.008293 -1.179443 -8.8701172 7
-0.0083309999 -1.2038569 -8.8671885 7
-0.010803 -1.2294919 -8.8759766 7
-0.019362999 -1.258667 -8.9140615 7
-0.118683 -1.905396 11.832031 7
-0.119904 -1.881592 11.842773 7
-0.116142 -1.853882 11.830078 7
-0.113609 -1.827271 11.823242 7
-0.113594 -1.80249 11.827148 7
-0.111076 -1.776001 11.820312 7
-0.106071 -1.747559 11.802734 7
-0.106041 -1.7229 11.805664 7
-0.106003 -1.698364 11.80957 7
-0.101006 -1.6700439 11.791992 7
-0.100975 -1.645386 11.794922 7
-0.104691 -1.623413 11.816406 7
-0.069038004 4.7746582 -8.0205078 7
-0.072685003 4.7598882 -8.046875 7
-0.067841001 4.7271729 -8.0380859 7
-0.067841001 4.7044678 -8.0488281 7
-0.079994 4.7071528 -8.1113281 7
-0.082436003 4.6894531 -8.1328115 7
-0.093383998 4.6893311 -8.1904297 7
-0.092185996 4.664062 -8.1962891 7
-0.083687 4.6236572 -8.1699219 7
-0.070327997 4.5736079 -8.125 7
-0.076416001 4.5632319 -8.1601562 7
-0.074013002 4.535522 -8.1611328 7
-0.095894001 4.556396 -8.265625 7
-0.304993 -5.1123052 11.070312 7
-0.30238301 -5.084106 11.073242 7
-0.30107099 -5.0587158 11.079102 7
-0.299759 -5.032959 11.086914 7
-0.29844701 -5.0074458 11.09375 7
-0.298439 -4.984375 11.105469 7
-0.30104801 -4.9667969 11.12793 7
-0.30492401 -4.9512939 11.154297 7
-0.307533 -4.9334722 11.176758 7
-0.30492401 -4.9050288 11.178711 7
-0.301025 -4.8742681 11.174805 7
-0.301018 -4.8511958 11.186523 7
-0.29970601 -4.825439 11.192383 7
-0.132919 -2.2106929 11.355469 7
-0.138092 -2.191895 11.381836 7
-0.13677999 -2.1673579 11.382812 7
-0.100357 -2.109863 11.232422 7
-0.101639 -2.087769 11.243164 7
-0.126305 -2.086792 11.354492 7
-0.124969 -2.0622561 11.352539 7
-0.127556 -2.040894 11.369141 7
-0.115837 -2.0070801 11.323242 7
-0.106705 -1.975952 11.289062 7
-0.106682 -1.9523931 11.293945 7
-0.102753 -1.9256589 11.28125 7
-0.01017 -1.236938 -8 7
-0.011566 -1.282104 -7.999023 7
-0.319038 -5.09021 10.65625 7
-0.316315 -5.0631099 10.657227 7
-0.316322 -5.0410161 10.669922 7
-0.32037401 -5.0272222 10.696289 7
-0.31494901 -4.9945068 10.688477 7
-0.321724 -4.9858398 10.725586 7
-0.32305899 -4.9664311 10.742188 7
-0.325775 -4.949585 10.764648 7
-0.32711801 -4.9301758 10.78125 7
-0.317642 -4.8894038 10.757812 7
-0.31088299 -4.8538818 10.744141 7
-0.306824 -4.823853 10.741211 7
-0.30815101 -4.8044429 10.756836 7
-0.31716901 -5.107666 10.139648 7
-0.31294301 -5.0783691 10.136719 7
-0.31153101 -5.054688 10.143555 7
-0.308716 -5.0284419 10.146484 7
-0.308716 -5.007812 10.158203 7
-0.30870101 -4.987061 10.169922 7
-0.308716 -4.966187 10.182617 7
-0.31292 -4.9536128 10.208008 7
-0.314316 -4.9356689 10.224609 7
-0.311508 -4.9093022 10.227539 7
-0.31010401 -4.885498 10.234375 7
-0.096061997 -1.8963619 10.447266 7
-0.105873 -1.883057 10.490234 7
-0.100235 -1.856934 10.472656 7
-0.103035 -1.837769 10.488281 7
-0.091766 -1.807251 10.448242 7
-0.083313003 -1.779175 10.419922 7
-0.088904999 -1.762329 10.446289 7
-0.084679 -1.737671 10.432617 7
-0.083244003 -1.715088 10.431641 7
-0.093056001 -1.70105 10.475586 7
-0.088821001 -1.676636 10.461914 7
-0.087402001 -1.654175 10.460938 7
-0.083159998 -1.629761 10.448242 7
-0.083145 -1.608276 10.452148 7
-0.31986201 -5.0993652 9.7158203 7
-0.31692499 -5.07373 9.7177734 7
-0.31547499 -5.0509028 9.7246094 7
-0.31547499 -5.0313721 9.7363281 7
-0.311104 -5.0028081 9.734375 7
-0.31255299 -4.986084 9.7509766 7
-0.31547499 -4.9719238 9.7724609 7
-0.31254601 -4.9464111 9.7744141 7
-0.31837499 -4.9381099 9.8056641 7
-0.31691 -4.9152832 9.8125 7
-0.31400299 -4.889648 9.8144531 7
-0.31108099 -4.8640141 9.8164062 7
-0.31689501 -4.8554692 9.8466797 7
-0.313972 -4.8297119 9.8486328 7
-0.095215 -1.906494 10.087891 7
-0.093735002 -1.884644 10.086914 7
-0.090813003 -1.861938 10.080078 7
-0.10244 -1.85083 10.128906 7
-0.103867 -1.831421 10.138672 7
-0.090736002 -1.800293 10.092773 7
-0.084885001 -1.775146 10.075195 7
-0.080490001 -1.751343 10.0625 7
-0.080481999 -1.730713 10.067383 7
-0.076103002 -1.706787 10.054688 7
-0.078979 -1.688599 10.069336 7
-0.089165002 -1.6756589 10.113281 7
-0.083313003 -1.650635 10.094727 7
-0.076003999 -1.624878 10.070312 7
-0.077445999 -1.605469 10.080078 7
-0.071091004 0.96972698 10.168945 7
-0.071067996 0.99047899 10.166992 7
-0.068108 1.0098881 10.15332 7
-0.069527 1.03125 10.15625 7
-0.068030998 1.05127 10.148438 7
-0.073813997 1.074829 10.167969 7
-0.083968997 1.1005861 10.204102 7
-0.073746003 1.1162111 10.163086 7
-0.078079 1.139038 10.176758 7
-0.080940001 1.161377 10.185547 7
-0.082351997 1.182983 10.188477 7
-0.082321003 1.203613 10.185547 7
-0.083733 1.22522 10.188477 7
-0.085143998 1.2468261 10.19043 7
-0.089469999 1.269897 10.204102 7
-0.15415201 4.1695561 9.5751953 7
-0.145401 4.1732178 9.5351562 7
-0.13662 4.1767578 9.4951172 7
-0.133682 4.1906738 9.4755859 7
-0.13073 4.2043462 9.4550781 7
-0.132118 4.2259521 9.4501953 7
-0.132072 4.2449951 9.4404297 7
-0.133476 4.266602 9.4355469 7
-0.13488001 4.2883301 9.4306641 7
-0.127571 4.2938228 9.3955078 7
-0.128952 4.3154302 9.390625 7
-0.130348 4.3369141 9.3837891 7
-0.139 4.3720698 9.4042969 7
-0.15055101 4.4129639 9.4345703 7
-0.15050501 4.4318848 9.4238281 7
-0.15335099 4.4564209 9.4228516 7
-0.15329701 4.4753418 9.4121094 7
-0.318802 -5.1060791 9.2587891 7
-0.32485199 -5.099731 9.2890615 7
-0.314262 -5.0596919 9.2675781 7
-0.30819699 -5.0288091 9.2607422 7
-0.30820501 -5.0101318 9.2734385 7
-0.30668601 -4.9885249 9.2802734 7
-0.31577301 -4.987915 9.3212891 7
-0.31122601 -4.9602051 9.3173828 7
-0.30668601 -4.9324951 9.3154297 7
-0.31577301 -4.9316411 9.3564453 7
-0.32030499 -4.9216309 9.3818359 7
-0.308189 -4.8790278 9.3544922 7
-0.31275901 -4.869019 9.3828115 7
-0.30368 -4.832397 9.3652344 7
-0.30973101 -4.8251948 9.3955078 7
-0.093483001 -1.909912 9.7275391 7
-0.093460001 -1.890381 9.7304688 7
-0.099480003 -1.87561 9.7578115 7
-0.104012 -1.859497 9.7792969 7
-0.099434003 -1.835938 9.7666016 7
-0.105469 -1.821045 9.7929688 7
-0.099388003 -1.796387 9.7753906 7
-0.081238002 -1.7624511 9.7128906 7
-0.084243998 -1.7451169 9.7285156 7
-0.079673998 -1.7219239 9.7158203 7
-0.085708998 -1.7069089 9.7421885 7
-0.082657002 -1.684814 9.7353516 7
-0.078102 -1.661743 9.7226562 7
-0.087165996 -1.64856 9.7597656 7
-0.087142996 -1.6287839 9.7636719 7
-0.079544 -1.60376 9.7392578 7
-0.32920101 -6.2485352 -5.3535161 7
-0.32771301 -6.2606201 -5.3349609 7
-0.32931501 -6.280396 -5.3242192 7
-0.33246601 -6.3041992 -5.3173828 7
-0.33871499 -6.3355708 -5.3183589 7
-0.34030899 -6.3552251 -5.3076172 7
-0.34809101 -6.390625 -5.3125 7
-0.32077 -5.108521 8.8701172 7
-0.312958 -5.0748291 8.859375 7
-0.308258 -5.047852 8.8564453 7
-0.30511501 -5.0236821 8.859375 7
-0.303581 -5.0028081 8.8681641 7
-0.30670899 -4.9915771 8.8886719 7
-0.303581 -4.9675288 8.8916016 7
-0.30513 -4.9528809 8.9072266 7
-0.305145 -4.9350591 8.9189453 7
-0.308258 -4.9234619 8.9404297 7
-0.30826601 -4.9055181 8.9521484 7
-0.31141701 -4.8939209 8.9736328 7
-0.31140101 -4.875977 8.984375 7
-0.308281 -4.8518071 8.9873047 7
-0.303574 -4.824707 8.984375 7
-0.30045301 -4.8009028 8.9863281 7
-0.087967001 -1.913818 9.3974609 7
-0.092635997 -1.899048 9.4189453 7
-0.091049001 -1.878662 9.4179688 7
-0.094177 -1.862305 9.4335938 7
-0.095717996 -1.8444819 9.4433594 7
-0.098839 -1.827881 9.4589844 7
-0.092560001 -1.804077 9.4414062 7
-0.090988003 -1.783813 9.4404297 7
-0.073752999 -1.751343 9.3837891 7
-0.081573002 -1.738403 9.4160156 7
-0.084679 -1.721802 9.4306641 7
-0.079963997 -1.6993411 9.4179688 7
-0.081511997 -1.681519 9.4277344 7
-0.087752998 -1.6669919 9.4550781 7
-0.089286998 -1.64917 9.4638672 7
-0.075195 -1.6201169 9.4179688 7
-0.086121 -1.608887 9.4609385 7
-0.078414999 4.7984619 -5.3535161 7
-0.072288997 4.7694092 -5.3466802 7
-0.072296001 4.7531738 -5.3574219 7
-0.070762999 4.7337651 -5.3642578 7
-0.075340003 4.7271729 -5.3886719 7
-0.086081997 4.7332759 -5.4326172 7
-0.083022997 4.7106929 -5.4345698 7
-0.078414999 4.6845698 -5.4316411 7
-0.31061599 -5.1075439 8.3974609 7
-0.313858 -5.0975342 8.4179688 7
-0.313858 -5.0810552 8.4296885 7
-0.304131 -5.0444341 8.4140615 7
-0.299263 -5.0180659 8.4130859 7
-0.29925501 -5.0014648 8.4248047 7
-0.30089599 -4.9880371 8.4423828 7
-0.30250499 -4.9746089 8.4580078 7
-0.304153 -4.9611821 8.4746094 7
-0.30414599 -4.944458 8.4853516 7
-0.30252799 -4.924438 8.4931641 7
-0.29927099 -4.9012451 8.4951172 7
-0.30738801 -4.900269 8.5302734 7
-0.30739599 -4.8834229 8.5419922 7
-0.291161 -4.8181152 8.5185547 7
-0.29441801 -4.8076172 8.5390615 7
-0.30253601 -4.806396 8.5732422 7
-0.090407997 -1.91394 9.078125 7
-0.088744998 -1.876343 9.0810547 7
-0.093575001 -1.843872 9.1064453 7
-0.096802004 -1.828369 9.1210938 7
-0.095160998 -1.8087161 9.1210938 7
-0.077301003 -1.7581789 9.0693359 7
-0.078864999 -1.723267 9.0820312 7
-0.070724003 -1.680786 9.0634766 7
-0.080421001 -1.669922 9.0996094 7
-0.083655998 -1.654053 9.1142578 7
-0.073898003 -1.610718 9.0898438 7
-0.077460997 4.790771 -4.9472661 7
-0.075859003 4.7720952 -4.954102 7
-0.061531 4.726685 -4.9248052 7
-0.056754999 4.7016602 -4.921875 7
-0.056747001 4.686523 -4.9335942 7
-0.056731999 4.6712651 -4.9443359 7
-0.061523002 4.6660161 -4.96875 7
-0.058341999 4.6442871 -4.9707031 7
-0.058341999 4.6287842 -4.9814448 7
-0.061523002 4.6199951 -5.000977 7
-0.061523002 4.6047359 -5.0117192 7
-0.061523002 4.589355 -5.0224609 7
-0.064719997 4.5803218 -5.0419922 7
-0.075851001 4.5874019 -5.0869141 7
-0.086989999 4.594604 -5.1289058 7
-0.075843997 4.540894 -5.1191411 7
-0.077431001 4.5284419 -5.1347661 7
-0.074257001 4.5064702 -5.1357422 7
-0.071067996 4.484375 -5.1367192 7
-0.30690801 -5.1107178 7.9658198 7
-0.31195101 -5.0897222 8.0029297 7
-0.308586 -5.0673828 8.0058594 7
-0.29850799 -5.0313721 7.9912109 7
-0.29851499 -5.0157471 8.0029297 7
-0.29177901 -4.9864502 7.9970698 7
-0.295151 -4.9775391 8.0185547 7
-0.29180101 -4.9552002 8.0205078 7
-0.30189499 -4.9595952 8.0605469 7
-0.29684401 -4.93396 8.0576172 7
-0.293488 -4.911499 8.0605469 7
-0.293488 -4.8956299 8.0722656 7
-0.29685199 -4.8865972 8.0927734 7
-0.29854599 -4.8739009 8.109375 7
-0.30865499 -4.877686 8.1484385 7
-0.30024701 -4.8453369 8.1376953 7
-0.30529001 -4.8392329 8.1630859 7
-0.29688299 -4.8070068 8.1513672 7
-0.078902997 -1.901245 8.7304688 7
-0.085616998 -1.8894041 8.7568359 7
-0.082236998 -1.8692631 8.75 7
-0.082230002 -1.852051 8.7548828 7
-0.082213998 -1.834595 8.7587891 7
-0.088927999 -1.8223881 8.7861328 7
-0.098990999 -1.812988 8.8212891 7
-0.080481999 -1.780884 8.7675781 7
-0.080452003 -1.763428 8.7714844 7
-0.068664998 -1.737061 8.7363281 7
-0.070343003 -1.720947 8.7470703 7
-0.066963002 -1.700928 8.7392578 7
-0.063583001 -1.68103 8.7324219 7
-0.068595998 -1.667603 8.7529297 7
-0.076995999 -1.656372 8.7841797 7
-0.076972999 -1.638916 8.7880859 7
-0.073608004 -1.618896 8.78125 7
-0.075263999 -1.602661 8.7900391 7
-0.061783001 0.969971 8.8720703 7
-0.055046 0.98474097 8.8486328 7
-0.04998 1 8.8300781 7
-0.054985002 1.02002 8.8447266 7
-0.056625001 1.0380861 8.8476562 7
-0.048202999 1.0517581 8.8173828 7
-0.049842998 1.07019 8.8203115 7
-0.054839998 1.09021 8.8339844 7
-0.044746 1.102783 8.7978516 7
-0.051422 1.123657 8.8173828 7
-0.061455 1.14624 8.8476562 7
-0.066451997 1.166382 8.8613281 7
-0.068099998 1.184937 8.8642578 7
-0.056327999 1.196411 8.8232422 7
-0.064667001 1.218262 8.8466797 7
-0.061271999 1.234131 8.8339844 7
-0.06459 1.253662 8.8417969 7
-0.059532002 1.268433 8.8222656 7
-0.068770997 4.7462158 -4.554688 7
-0.057197999 4.7077641 -4.5351558 7
-0.058860999 4.6968989 -4.5507808 7
-0.060493 4.6860352 -4.5664058 7
-0.062157001 4.675415 -4.5820308 7
-0.062157001 4.6610112 -4.592773 7
-0.065444998 4.6533198 -4.6132808 7
-0.065444998 4.638916 -4.624023 7
-0.058837999 4.6109619 -4.617188 7
-0.062141001 4.603271 -4.6367192 7
-0.063781999 4.5921631 -4.6523442 7
-0.070373997 4.591064 -4.6816411 7
-0.080292001 4.5965581 -4.719727 7
-0.085243002 4.5919189 -4.7441411 7
-0.086883999 4.5804439 -4.7597661 7
-0.086883999 4.565918 -4.7695308 7
-0.076964997 4.5311279 -4.7548828 7
-0.072021 4.5064702 -4.75 7
-0.073669001 4.4951172 -4.765625 7
-0.075324997 4.4836431 -4.780273 7
-0.29997301 -5.0856929 7.5644531 7
-0.30346701 -5.078125 7.5849609 7
-0.296516 -5.0493159 7.5800781 7
-0.29478499 -5.0311279 7.5878911 7
-0.29652399 -5.02002 7.6035161 7
-0.28784201 -4.9876709 7.59375 7
-0.294815 -4.986938 7.624023 7
-0.29480001 -4.97229 7.6347661 7
-0.291336 -4.9506841 7.6386719 7
-0.294815 -4.942749 7.6582031 7
-0.29308301 -4.924438 7.6650391 7
-0.28439301 -4.8924561 7.655273 7
-0.289619 -4.887939 7.679688 7
-0.30180401 -4.8972168 7.7226558 7
-0.29136699 -4.8616939 7.7080078 7
-0.29136699 -4.8468022 7.71875 7
-0.289635 -4.8283691 7.7255859 7
-0.28965801 -4.8132319 7.7392578 7
-0.079902999 -1.898315 8.4462891 7
-0.081619002 -1.8831789 8.4570312 7
-0.076370001 -1.862305 8.4433594 7
-0.074615002 -1.844116 8.4433594 7
-0.074607998 -1.8273931 8.4482422 7
-0.081551 -1.8162839 8.4736328 7
-0.079796001 -1.7980959 8.4726562 7
-0.076301999 -1.778687 8.4658203 7
-0.072792001 -1.7593991 8.4589844 7
-0.072792001 -1.742676 8.4628906 7
-0.067551002 -1.721802 8.4511719 7
-0.064056002 -1.702637 8.4443359 7
-0.062286001 -1.684692 8.4423828 7
-0.057068001 -1.664185 8.4306641 7
-0.058784001 -1.6488039 8.4394531 7
-0.062247999 -1.634644 8.4550781 7
-0.067451 -1.621704 8.4746094 7
-0.072655 -1.608765 8.4951172 7
-0.060570002 0.96777302 8.5888672 7
-0.055335999 0.982544 8.5712891 7
-0.050087001 0.99707001 8.5517578 7
-0.050034001 1.014038 8.5498047 7
-0.050026 1.030884 8.5478516 7
-0.051720001 1.048462 8.5507812 7
-0.049934 1.064575 8.5419922 7
-0.049927 1.081543 8.5400391 7
-0.051635999 1.099365 8.5439453 7
-0.051612999 1.116089 8.5410156 7
-0.063735999 1.139038 8.5761719 7
-0.058495 1.15332 8.5566406 7
-0.058449 1.17041 8.5537109 7
-0.060164999 1.18811 8.5576172 7
-0.061866999 1.205933 8.5605469 7
-0.060089 1.2219239 8.5517578 7
-0.063538 1.2406009 8.5595703 7
-0.060028002 1.2557369 8.5458984 7
-0.05999 1.272583 8.5419922 7
-0.086043999 4.7940669 -4.219727 7
-0.077491999 4.7628169 -4.2080078 7
-0.068924002 4.7312012 -4.1982422 7
-0.060371 4.6999512 -4.188477 7
-0.063812003 4.6937261 -4.2060552 7
-0.065513998 4.6838379 -4.2226558 7
-0.063804999 4.666748 -4.2285161 7
-0.063796997 4.6531978 -4.2392578 7
-0.065490998 4.643311 -4.2558589 7
-0.063781999 4.6262212 -4.2617192 7
-0.060355999 4.6054692 -4.264648 7
-0.067192003 4.605957 -4.2929692 7
-0.063773997 4.5853271 -4.2949219 7
-0.075737 4.5960689 -4.335938 7
-0.087700002 4.6065669 -4.3789058 7
-0.087700002 4.592773 -4.3886719 7
-0.085975997 4.5753169 -4.3955078 7
-0.075722001 4.540771 -4.3798828 7
-0.077422999 4.530396 -4.3945308 7
-0.077408001 4.516479 -4.405273 7
-0.075705998 4.499146 -4.4111328 7
-0.075705998 4.485229 -4.421875 7
-0.29753101 -4.8701172 7.3613281 7
-0.30473301 -4.8701172 7.3886719 7
-0.297546 -4.8419189 7.3847661 7
-0.29573801 -4.8242192 7.391602 7
-0.080902003 -1.9111331 8.1748047 7
-0.080879003 -1.89502 8.1796885 7
-0.080863997 -1.87915 8.1835938 7
-0.080863997 -1.863037 8.1884766 7
-0.080848999 -1.8469239 8.1923828 7
-0.080833003 -1.830933 8.1972656 7
-0.080802999 -1.814819 8.2011719 7
-0.093406998 -1.8087161 8.2421885 7
-0.080794998 -1.782715 8.2099609 7
-0.066376001 -1.755371 8.1708984 7
-0.078956999 -1.749023 8.2128906 7
-0.066344999 -1.723267 8.1787109 7
-0.068145998 -1.708496 8.1884766 7
-0.069916002 -1.69397 8.1972656 7
-0.069893003 -1.677856 8.2021484 7
-0.069900997 -1.661743 8.2070312 7
-0.064475998 -1.641602 8.1943359 7
-0.068053998 -1.6281739 8.2089844 7
-0.069862001 -1.613403 8.21875 7
-0.080634996 -1.60498 8.2548828 7
-0.062804997 0.99963403 8.3310547 7
-0.071350001 1.216675 8.3242188 7
-0.091849998 4.797852 -3.8798831 7
-0.084762998 4.7702641 -3.874023 7
-0.098892003 4.787354 -3.9199221 7
-0.086516999 4.7485352 -3.9013669 7
-0.086502001 4.7358398 -3.9121089 7
-0.086493999 4.723022 -3.9238279 7
-0.086510003 4.7103271 -3.933594 7
-0.090042002 4.7049561 -3.954102 7
-0.105949 4.724854 -4.0029302 7
-0.091789 4.6828609 -3.980469 7
-0.086493999 4.658936 -3.9775391 7
-0.081169002 4.6350098 -3.976562 7
-0.077629 4.6151118 -3.9785161 7
-0.074088998 4.5949712 -3.9814451 7
-0.077614002 4.5892329 -4.000977 7
-0.086464003 4.5941162 -4.0332031 7
-0.093535997 4.595459 -4.061523 7
-0.093520999 4.582397 -4.0722661 7
-0.084656 4.5513921 -4.061523 7
-0.072273001 4.5136719 -4.0419922 7
-0.074042998 4.5040278 -4.0566411 7
-0.072265998 4.4874272 -4.0625 7
-0.105011 0.91152298 15.63962 7
-0.049539998 0.7349 13.396099 7
-0.15329801 -1.936108 11.442867 7
-0.31031299 -4.9545412 10.805061 7
-0.11621 -1.688825 10.500571 7
-0.044452 0.98026901 10.046439 7
-0.05937 1.256086 10.125963 7
-0.071927004 -1.701496 9.594101 7
-0.36682001 -4.9530811 9.737359 7
-0.335235 -4.9487572 8.7559023 7
-0.108848 -1.744248 8.9883804 7
-0.056662001 0.99014199 8.8416977 7
-0.066783004 1.206525 8.8640404 7
-0.30271101 -5.000555 7.7331548 7
-0.30761799 -4.8557978 7.9501028 7
-0.095565997 -1.792545 8.5218468 7
-0.034356002 1.079143 8.3572865 7
-0.26194301 -4.9032202 6.7892652 7
-0.27090201 -4.8189149 7.0131478 7
-0.070633002 -1.798329 8.0457211 7
-0.063363001 -1.612872 8.075182 7
-0.28652 -4.8542252 5.7787261 7
-0.29183501 -4.7935081 5.986712 7
-0.093566999 -1.800971 7.6433692 7
-0.083109997 -1.62591 7.6637168 7
-0.27698201 -4.7426391 5.0938129 7
-0.26367399 -4.5557952 5.4615021 7
-0.090823002 -1.841921 7.3717561 7
-0.079800002 -1.676079 7.3951721 7
-0.073641002 -1.839772 7.0648041 7
-0.076939002 -1.718156 7.149519 7
-0.064044997 -1.847715 6.8122849 7
-0.064839996 -1.7310309 6.8874331 7
-0.095380001 -1.864031 6.599791 7
-0.083442003 -1.727703 6.6334848 7
-0.072120003 -1.731546 6.4196601 7
0.001452 -1.381505 -7.0710559 7
0.030165 -1.334151 -5.7624159 7
0.045053001 -1.299564 -4.8102908 7
-0.085699998 -2.23949 11.327776 7
-0.357503 -4.9593291 10.722494 7
-0.082795002 -1.7757339 10.250177 7
-0.20971601 -4.5804772 -3.3568411 7
-0.33611301 -4.9183621 9.9487724 7
-0.055707 -1.706521 9.6181145 7
0.00083899999 -1.484279 -2.87011 7
-0.328675 -6.2988939 -2.0083771 7
-0.31929699 -5.1166258 9.0992661 7
-0.31377101 -4.8646541 9.2619972 7
-0.049431 -1.9024661 9.1207504 7
-0.043267999 -1.654893 9.1481628 7
-0.354532 -4.9875631 8.4390917 7
-0.082928002 -1.827884 8.6381054 7
-0.077096 -1.600581 8.6628981 7
-0.325349 -4.8917851 7.8959479 7
-0.060927998 -1.768474 8.246891 7
-0.010614 -1.385787 -1.6222301 7
-0.02441 -1.59418 -1.646698 7
-0.31141299 -4.8357878 7.4563642 7
-0.029544 -1.70857 7.8511438 7
-0.278211 -4.8649268 6.8314538 7
-0.040415999 -1.863512 7.627068 7
-0.015861001 -1.665748 7.569458 7
0.0042770002 -1.343592 -1.081933 7
-0.0022150001 -1.525417 -1.074416 7
-0.319015 -4.7840681 6.4722338 7
-0.31387401 -4.6369929 6.6201882 7
-0.069560997 -1.8094161 7.3545098 7
-0.057528999 -1.631505 7.3515129 7
-0.265733 -4.6108022 0.217631 7
-0.29116601 -4.8890429 5.794148 7
-0.29108399 -4.782805 5.9578881 7
-0.065849997 -1.772427 7.165616 7
-0.050689999 -1.600832 7.1501508 7
-0.012971 -1.30457 -0.59118199 7
-0.020801 -1.466514 -0.59128898 7
-0.25204101 -4.6344571 0.68292201 7
-0.25481799 -4.7369509 0.83824199 7
-0.27201101 -4.797008 5.4580212 7
-0.27684301 -4.6942492 5.6660719 7
-0.27369499 -4.584455 5.8151908 7
-0.067523003 -1.89652 6.964746 7
-0.055147 -1.733513 6.966166 7
-0.001403 -1.288897 -0.38876301 7
-0.012262 -1.443663 -0.40089399 7
-0.24393401 -4.5602808 0.951832 7
-0.24316201 -4.6418939 1.109448 7
-0.239004 -4.7067518 1.2751319 7
-0.25968599 -4.7757459 5.0399141 7
-0.04321 -1.841787 6.7347159 7
-0.032290999 -1.689544 6.7396579 7
-0.26694199 -4.6458902 1.682325 7
-0.27408499 -4.722178 1.830935 7
-0.27226201 -4.7659211 1.992092 7
-0.29780301 -4.7429209 4.6532478 7
-0.29001999 -4.6594348 4.7998829 7
-0.283869 -4.575294 4.9444122 7
-0.281196 -4.4954948 5.0899501 7
-0.064613 -1.795692 6.5446 7
-0.051573001 -1.650449 6.542491 7
-0.25347 -4.480125 1.753199 7
-0.26248801 -4.5587149 1.892833 7
-0.262283 -4.6053739 2.0452859 7
-0.26791099 -4.6723051 2.2330611 7
-0.26374599 -4.693635 2.3918619 7
-0.27232501 -4.7464962 2.543443 7
-0.27917901 -4.7854729 3.65626 7
-0.27567199 -4.7528248 3.8126931 7
-0.27203801 -4.7138228 3.9671381 7
-0.28496 -4.717309 4.1310372 7
-0.2802 -4.5638952 4.585547 7
-0.25411999 -4.4996562 2.240901 7
-0.25959399 -4.5565548 2.4232781 7
-0.284383 -4.6987839 3.0246871 7
-0.27362901 -4.6701498 3.180454 7
-0.26726699 -4.6236062 3.638413 7
-0.26553601 -4.597403 3.7889199 7
-0.26175401 -4.559546 3.936872 7
-0.267405 -4.5426712 4.089107 7
-0.26014301 -4.5090432 3.035773 7
-0.25294799 -4.4914141 3.1833661 7
-0.122781 4.8682961 -15.477714 7
-0.060199998 4.6478019 -4.8478332 7
-0.065614 4.637125 -3.999048 7
-0.16739801 4.208024 9.9992218 7
-0.15785 4.2066979 9.3267822 7
-0.069095001 1.131896 8.6720009 7
0.034876999 -1.105435 -13.534451 7
-0.050747 4.9430871 -15.585672 7
0.064795002 0.422436 -12.671904 7
-0.04129 -0.80995202 -10.220958 7
-0.047749002 -1.206673 -10.31155 7
-0.076978996 4.7009759 -8.3028412 7
0.023515999 -1.29452 -6.0814438 7
-0.021402 4.6688638 -4.9680529 7
-0.033367999 4.5820942 -5.2289672 7
-0.021105001 -1.330857 -5.472095 7
-0.080761001 4.632144 -4.0510721 7
-0.087693997 4.5340362 -4.2614102 7
-0.018436 -1.3708169 -5.0171781 7
-0.205038 -4.5978079 -3.5157471 7
-0.200378 -4.686512 -3.3181131 7
-0.016063999 -1.336349 -2.8503039 7
-0.032366 -1.457685 -2.852428 7
-0.028295999 -1.519043 -2.7804661 7
-0.01193 -1.331786 -2.705389 7
-0.013116 -1.402645 -2.655478 7
-0.023499999 -1.50014 -2.6303749 7
-0.0055030002 -1.3177201 -2.564218 7
-0.007429 -1.512808 -1.867697 7
-0.013724 -1.566339 -1.814103 7
0.0081869997 -1.3736041 -1.8737 7
-0.0034719999 -1.442252 -1.834112 7
-0.011749 -1.4995511 -1.785648 7
-0.011806 -1.529081 -1.723824 7
-0.003641 -1.529255 -1.651937 7
0.0093670003 -1.2856441 -1.897701 7
-0.013549 -1.335411 -1.853058 7
-0.001434 -1.3322591 -1.781677 7
-0.0034459999 -1.366726 -1.729142 7
-0.0071899998 -1.404377 -1.676782 7
-0.016173 -1.456026 -1.627475 7
-0.027225999 -1.59102 -1.23745 7
-0.020467 -1.57559 -1.170588 7
-0.022352999 -1.585461 -1.1042809 7
-0.020834001 -1.581468 -1.038009 7
-0.024432 -1.591355 -0.97006398 7
-0.0043560001 -1.321112 -1.7096649 7
0.0062060002 -1.31624 -1.6437269 7
-0.022457 -1.518925 -1.2333831 7
-0.017367 -1.509083 -1.169602 7
-0.017656 -1.513415 -1.106256 7
-0.014379 -1.503889 -1.043421 7
-0.014687 -1.502972 -0.98000699 7
0.0027900001 -1.280517 -1.630161 7
-0.00178 -1.4018 -1.241758 7
-0.001908 -1.4094779 -1.168329 7
0.001371 -1.402611 -1.1095181 7
0.002777 -1.398942 -1.0509 7
0.00049800001 -1.403972 -0.991225 7
-0.011507 -1.336756 -1.237139 7
-0.0081550004 -1.3329329 -1.180974 7
-0.0084229996 -1.337429 -1.11104 7
-0.0031979999 -1.3229899 -1.055966 7
-0.0095939999 -1.3390909 -0.99819899 7
-0.010637 -1.299742 -1.125603 7
