# .PCD v0.7 - Point Cloud Data file format
VERSION 0.7
FIELDS x y z intensity
SIZE 4 4 4 4
TYPE F F F F
COUNT 1 1 1 1
WIDTH 1405
HEIGHT 1
VIEWPOINT 0 0 0 1 0 0 0
POINTS 1405
DATA ascii
0.193756 4.8181152 -58.912109 7
0.117058 4.8547359 -61.246094 7
0.086173996 -1.9306639 -54.719727 7
0.137367 -2.013062 -53.339844 7
0.169991 -2.1086431 -52.458984 7
0.12691499 -2.283936 -53.599609 7
-0.89408898 -3.0432129 74.701172 7
0.215744 5.010376 -51.757812 7
0.18180101 4.967896 -52.685547 7
0.246475 4.6827388 -50.942383 7
0.194206 4.6811519 -52.364258 7
0.163864 4.6226811 -53.189453 7
0.066703998 -2.1320801 -49.954102 7
0.099815004 -2.2185061 -49.141602 7
0.136536 -2.2967529 -48.242188 7
0.083534002 -2.476685 -49.516602 7
0.196457 4.8148189 -47.201172 7
0.154724 4.797729 -48.231445 7
0.118217 4.763916 -49.134766 7
0.174881 4.5161128 -47.75293 7
0.15074199 4.4520259 -48.351562 7
0.094719 4.4530029 -49.731445 7
0.207939 1.0812989 -46.668945 7
0.001389 -2.114624 -46.943359 7
0.070572004 -2.2694089 -45.391602 7
0.065284997 -2.4868159 -45.185547 7
0.103485 -2.658325 -44.326172 7
0.14506499 -2.7113039 -43.40332 7
-0.72561598 -0.48327601 59.660156 7
-0.684021 -0.20422401 58.836914 7
-0.69553399 -0.068480998 59.071289 7
0.123436 4.7407231 -44.237305 7
0.185059 4.388062 -42.885742 7
0.120438 4.421021 -44.329102 7
0.069816999 4.306519 -45.466797 7
-0.0074539999 -2.2689209 -43.084961 7
0.032692 -2.3305659 -42.261719 7
0.062758997 -2.39978 -41.643555 7
0.087929003 -2.4719241 -41.123047 7
0.031615999 -2.641479 -42.255859 7
0.059386998 -2.7094729 -41.683594 7
0.076508 -2.7886961 -41.327148 7
0.114365 -2.837769 -40.549805 7
-0.67842102 -0.17968801 54.741211 7
-0.62216902 0.071654998 53.699219 7
0.13575 4.7435298 -40.386719 7
0.113182 4.6950679 -40.857422 7
0.088607997 4.6489258 -41.368164 7
0.129448 4.4586182 -40.541992 7
0.110558 4.3988042 -40.935547 7
0.086533003 4.3477778 -41.43457 7
0.043488 4.3328862 -42.324219 7
0.173454 0.92138702 -39.547852 7
0.160385 0.82971197 -39.814453 7
0.20162199 0.71716303 -38.973633 7
-0.000237 -2.8287351 -39 7
0.010643 -2.9095459 -38.788086 7
0.045844998 -2.9559331 -38.12793 7
0.057991002 -3.0319819 -37.893555 7
0.054993 -3.129272 -37.938477 7
-0.593849 -2.9788821 48.780273 7
-0.61493701 -2.8886721 49.148438 7
0.090980999 4.7895508 -37.487305 7
0.072800003 4.7376709 -37.834961 7
0.057418998 4.6781011 -38.130859 7
0.030205 4.6427002 -38.646484 7
0.035087999 4.5369868 -38.56543 7
0.192848 1.20105 -35.770508 7
0.187729 1.115356 -35.867188 7
0.175735 1.032959 -36.092773 7
0.146561 0.95764202 -36.637695 7
0.160568 0.68164098 -36.375 7
0.188889 0.58349597 -35.84375 7
0.163147 0.50146502 -36.326172 7
0.189255 0.40649399 -35.834961 7
-0.00040399999 -3.0523679 -35.858398 7
0.015853999 -3.117188 -35.572266 7
-0.55197901 -2.8273931 44.736328 7
-0.56178999 -2.734741 44.900391 7
-0.599594 -2.667969 45.506836 7
-0.51123798 0.059448 44.292969 7
-0.480957 0.15918 43.813477 7
-0.50396001 0.26208499 44.181641 7
0.068030998 4.8979492 -34.811523 7
0.070969 4.8050542 -34.770508 7
0.044868 4.7771001 -35.227539 7
0.025870999 4.731689 -35.563477 7
-0.002602 4.7049561 -36.0625 7
-0.021278 4.6551509 -36.391602 7
0.165169 1.2062989 -33.363281 7
0.15287 1.130371 -33.576172 7
0.121635 1.063354 -34.117188 7
0.154007 0.96362299 -33.557617 7
0.129631 0.470581 -33.977539 7
0.168854 0.123047 -33.167969 7
0.130806 -0.030762 -30.989258 7
0.155075 -0.106445 -30.602539 7
0.148682 -0.182983 -30.703125 7
-0.039177001 -3.1776121 -33.342773 7
-0.022530001 -3.235352 -33.073242 7
-0.0082780002 -3.3760991 -32.832031 7
-0.0032039999 -3.4489751 -32.742188 7
-0.45844299 -2.793457 39.998047 7
-0.48706099 -2.731323 40.423828 7
-0.454559 0.13855 40.099609 7
-0.45285001 0.230103 40.076172 7
0.076622002 4.8630371 -31.587891 7
0.038596999 4.870605 -32.195312 7
0.018639 4.8353271 -32.519531 7
-0.028061001 4.6920171 -33.282227 7
0.147285 1.497437 -30.727539 7
0.13132501 1.432251 -30.982422 7
0.155846 1.262939 -30.597656 7
0.125854 1.204224 -31.073242 7
0.114677 1.133301 -31.25 7
0.10759 0.28027299 -31.361328 7
0.137421 0.19946299 -30.889648 7
0.164902 0.045531999 -30.451172 7
0.120377 -0.035399999 -28.93457 7
0.141335 -0.106201 -28.624023 7
0.109413 -0.18005399 -29.091797 7
0.12682299 -0.25012201 -28.833984 7
-0.047249001 -3.211426 -31.163086 7
-0.069710001 -3.3214109 -31.480469 7
-0.059471 -3.3837891 -31.321289 7
-0.044449002 -3.437988 -31.092773 7
-0.032607999 -3.4959719 -30.911133 7
-0.40830201 0.30383301 37.126953 7
-0.4366 0.392822 37.518555 7
0.049789 5.0450439 -29.736328 7
0.077316001 4.9067378 -29.34375 7
0.059898 4.8735352 -29.610352 7
0.036575001 4.852417 -29.961914 7
0.017944001 4.8190918 -30.243164 7
-0.006966 4.7982178 -30.620117 7
-0.020462001 4.7510991 -30.827148 7
0.144196 1.544067 -28.644531 7
0.12632801 1.4855959 -28.911133 7
0.148361 1.398193 -28.586914 7
0.137611 1.3338619 -28.749023 7
0.110252 1.279053 -29.15332 7
0.104576 0.036621001 -29.167969 7
0.111824 -0.42895499 -26.823242 7
0.12669399 -0.492432 -26.618164 7
0.119751 -0.56091303 -26.709961 7
-0.084151998 -3.52771 -29.173828 7
-0.059730999 -3.5610349 -28.834961 7
-0.048659999 -3.614502 -28.674805 7
-0.062987998 -3.709229 -28.858398 7
0.061606999 4.9805908 -27.176758 7
0.044937 4.9511719 -27.413086 7
0.032928001 4.9099121 -27.586914 7
-0.0089649996 4.8647461 -28.173828 7
0.133095 1.7019041 -26.524414 7
0.131226 1.570435 -26.555664 7
0.13745899 1.432861 -26.475586 7
0.087471001 -0.345947 -25.224609 7
0.104851 -0.405518 -25.000977 7
0.119957 -0.46484399 -24.808594 7
0.08213 -0.536255 -25.285156 7
0.102287 -0.59387201 -25.027344 7
0.114166 -0.65258801 -24.874023 7
-0.100266 -3.589478 -27.319336 7
-0.087944001 -3.6374509 -27.154297 7
-0.076522999 -3.6862791 -27.000977 7
-0.063744001 -3.732178 -26.829102 7
-0.057418998 -3.7880859 -26.739258 7
0.034752 5.028687 -25.548828 7
0.033767998 4.9666748 -25.571289 7
0.020935001 4.9316411 -25.744141 7
0.0067369998 4.8989258 -25.93457 7
-0.013855 4.8796391 -26.205078 7
-0.026703 4.8419189 -26.376953 7
0.121696 1.722412 -24.797852 7
0.1101 1.606567 -24.951172 7
0.081734002 -0.497803 -23.389648 7
0.087913997 -0.67199701 -23.308594 7
0.096634001 -0.78564501 -23.200195 7
0.098038003 -0.84338403 -23.181641 7
-0.087883003 -3.7536621 -25.063477 7
-0.083030999 -3.8079829 -24.99707 7
-0.069237001 -3.8466799 -24.826172 7
-0.067368001 -3.905396 -24.793945 7
-0.065978996 -3.9647219 -24.767578 7
0.02021 5.0583501 -23.711914 7
0.019173 5.000977 -23.735352 7
0.0092930002 4.9637451 -23.861328 7
0.002838 4.9178472 -23.947266 7
-0.011459 4.8895259 -24.125 7
-0.033126999 4.8762212 -24.389648 7
-0.026802 4.8010249 -24.326172 7
0.110748 1.781616 -23.033203 7
0.119469 1.658447 -22.9375 7
0.112511 1.605835 -23.022461 7
0.071654998 -0.68725598 -21.855469 7
0.082703002 -0.73864698 -21.730469 7
0.067244999 -0.79919398 -21.898438 7
0.060791001 -0.85668898 -21.96582 7
0.072921999 -0.90710402 -21.830078 7
-0.103035 -3.822998 -23.435547 7
-0.102089 -3.8798831 -23.415039 7
-0.089965999 -3.9177251 -23.273438 7
-0.084755003 -3.9667971 -23.206055 7
-0.079535998 -4.0157471 -23.139648 7
-0.097717002 -4.1063228 -23.325195 7
0.0079039996 5.0291748 -22.114258 7
0.001015 4.9890141 -22.200195 7
-0.0084990002 4.9542241 -22.31543 7
-0.016975001 4.916626 -22.417969 7
-0.036490999 4.902832 -22.639648 7
-0.042328 4.858398 -22.71582 7
0.087410003 1.901855 -21.649414 7
0.095245004 1.840088 -21.56543 7
0.081467003 1.797241 -21.720703 7
0.099326998 1.727295 -21.527344 7
0.096625999 1.674805 -21.561523 7
0.084441997 1.629761 -21.699219 7
0.059700001 -1.0087889 -20.458984 7
0.063019 -1.0587161 -20.420898 7
-0.105339 -3.9090581 -21.800781 7
-0.106575 -3.9659419 -21.802734 7
-0.095886 -4.0019531 -21.68457 7
-0.092018001 -4.049561 -21.635742 7
-0.090407997 -4.1010742 -21.607422 7
0.004501 5.0762939 -20.538086 7
-0.00116 5.0371089 -20.607422 7
-0.0084990002 5.0013428 -20.693359 7
-0.018112 4.970459 -20.801758 7
-0.031082001 4.9464111 -20.944336 7
-0.044624001 4.9232178 -21.092773 7
-0.042998999 4.8660889 -21.086914 7
0.086944997 1.932861 -20.141602 7
0.075622998 1.8918459 -20.260742 7
0.075562 1.84021 -20.266602 7
0.087890998 1.7780761 -20.142578 7
0.081626996 1.731934 -20.210938 7
0.068047002 1.691406 -20.353516 7
0.075874001 1.633545 -20.276367 7
-0.135902 -3.984863 -20.655273 7
-0.125229 -4.0700679 -20.532227 7
-0.121803 -4.16748 -20.478516 7
-0.111633 -4.200562 -20.37207 7
-0.122597 -4.2722168 -20.464844 7
-0.020798 5.0736079 -19.392578 7
-0.032226998 5.0003662 -19.524414 7
-0.037055999 4.9611821 -19.581055 7
-0.049065001 4.9377441 -19.706055 7
-0.065825999 4.9243159 -19.875977 7
-0.070641004 4.8840332 -19.933594 7
0.062325001 1.886597 -19.073242 7
0.040718 1.856689 -19.286133 7
0.062804997 1.7886961 -19.076172 7
0.053688001 1.698486 -19.169922 7
0.062004 1.643066 -19.092773 7
0.042479999 -0.98877001 -18.041016 7
0.030869 -1.040405 -18.143555 7
0.026237 -1.135376 -18.178711 7
0.029372999 -1.179932 -18.146484 7
-0.144035 -4.0476069 -19.319336 7
-0.147346 -4.1022949 -19.337891 7
-0.139084 -4.1365972 -19.253906 7
-0.132111 -4.172852 -19.181641 7
-0.127693 -4.2132568 -19.130859 7
-0.126518 -4.2593989 -19.109375 7
0.054092001 1.915161 -17.870117 7
0.038109001 1.8831789 -18.018555 7
0.052726999 1.824585 -17.890625 7
0.057769999 1.774292 -17.847656 7
0.059638999 1.7269289 -17.834961 7
0.047462001 1.6906739 -17.949219 7
0.051856998 1.641479 -17.912109 7
0.016457001 -0.98901403 -17.180664 7
0.019104 -1.031738 -17.155273 7
0.026497001 -1.0718991 -17.089844 7
-0.0034179999 -1.1312259 -17.342773 7
0.0053249998 -1.170776 -17.264648 7
0.0066220001 -1.214233 -17.250977 7
0.0045090001 -1.259521 -17.264648 7
0.051360998 1.897339 -16.802734 7
0.037795998 1.865845 -16.923828 7
0.031005999 1.828003 -16.985352 7
0.045127999 1.7724611 -16.868164 7
0.063293003 1.714355 -16.71582 7
0.026138 1.700562 -17.038086 7
0.045646999 1.641479 -16.874023 7
0.0076899999 -0.97790498 -16.19043 7
0.014816 -1.015991 -16.129883 7
0.01619 -1.057007 -16.115234 7
0.011086 -1.10083 -16.15332 7
-0.0040660002 -1.150391 -16.273438 7
0.00161 -1.188965 -16.223633 7
0.0051350002 -1.228882 -16.191406 7
0.010811 -1.266968 -16.140625 7
-0.044372998 5.0712891 -15.927734 7
-0.036536999 5.0123291 -15.878906 7
-0.040848002 4.9805908 -15.923828 7
-0.049446002 4.958374 -16.00293 7
-0.055916 4.9312739 -16.064453 7
-0.061661001 4.9021001 -16.120117 7
-0.079535998 4.8990479 -16.272461 7
-0.065994002 4.8278809 -16.177734 7
0.048271 1.586426 -15.796875 7
0.054664999 1.540771 -15.749023 7
0.056046002 1.498901 -15.740234 7
0.035255 1.47229 -15.912109 7
0.037354 1.429688 -15.898438 7
0.051598001 1.379272 -15.785156 7
0.066582002 1.328979 -15.666992 7
0.058646999 1.292969 -15.734375 7
0.0083010001 -0.96264601 -15.213867 7
-0.00087699998 -1.0062259 -15.28125 7
0.0097200004 -1.0406491 -15.198242 7
0.012688 -1.078491 -15.171875 7
0.012627 -1.117798 -15.169922 7
-0.003395 -1.165405 -15.289062 7
-0.0080340002 -1.20752 -15.320312 7
-0.002014 -1.24353 -15.271484 7
0.0040130001 -1.2794189 -15.222656 7
-0.076743998 5.097168 -15.132812 7
-0.073752999 5.0510249 -15.123047 7
-0.073792003 5.0115972 -15.134766 7
-0.085883997 4.9989009 -15.236328 7
-0.085152 4.95752 -15.243164 7
-0.087448001 4.9229741 -15.270508 7
-0.087471001 4.8831792 -15.282227 7
-0.078437999 4.8240972 -15.226562 7
0.057425998 1.260986 -14.790039 7
0.051330999 1.225952 -14.838867 7
0.038422 1.1943361 -14.94043 7
0.04744 1.150635 -14.873047 7
0.056473002 1.107178 -14.806641 7
0.061737001 1.065796 -14.769531 7
0.068474002 1.02417 -14.716797 7
0.060867 0.98925799 -14.779297 7
0.017639 -0.97961402 -14.227539 7
0.011963 -1.019165 -14.265625 7
0.012688 -1.055908 -14.256836 7
0.019874999 -1.089355 -14.202148 7
0.021423001 -1.125488 -14.188477 7
0.0044780001 -1.171387 -14.306641 7
-0.0052260002 -1.2138669 -14.373047 7
0.0067670001 -1.2442631 -14.283203 7
0.0042949999 -1.282837 -14.297852 7
0.0098719997 -1.316528 -14.254883 7
-0.007065 -1.364014 -14.37207 7
-0.011139 -1.404053 -14.398438 7
0.057877 0.93579102 -13.899414 7
0.059432998 0.89855999 -13.890625 7
0.057785001 0.86303699 -13.904297 7
0.050528999 0.82910198 -13.958984 7
0.051291998 0.79235798 -13.955078 7
0.060043 0.752563 -13.892578 7
0.067993 0.71350098 -13.835938 7
0.074363999 0.67529303 -13.791992 7
0.016014 -0.96582001 -13.451172 7
0.010887 -1.003418 -13.483398 7
0.0057680001 -1.041016 -13.515625 7
0.011604 -1.073364 -13.47168 7
0.013252 -1.107788 -13.458984 7
0.013199 -1.142822 -13.456055 7
0.0080570001 -1.180786 -13.487305 7
-0.0088879997 -1.225464 -13.600586 7
-0.002205 -1.25708 -13.550781 7
0.056313001 0.61218297 -13.145508 7
0.059647001 0.57653803 -13.124023 7
0.066338003 0.54016101 -13.079102 7
0.068801999 0.50512701 -13.0625 7
0.062729001 0.46887201 -13.168945 7
0.057769999 0.434448 -13.204102 7
0.065338001 0.39831501 -13.15332 7
0.069510996 0.36328101 -13.125 7
0.073692001 0.328125 -13.09668 7
0.072800003 0.29394501 -13.103516 7
0.071898997 0.259644 -13.110352 7
0.0062259999 -0.98840302 -12.766602 7
0.0026169999 -1.023682 -12.787109 7
-0.0081179999 -1.062378 -12.853516 7
0.0069579999 -1.088623 -12.753906 7
0.0069050002 -1.12207 -12.750977 7
0.0077439998 -1.155151 -12.742188 7
-0.0020900001 -1.193848 -12.802734 7
-0.019035 -1.236938 -12.90918 7
-0.010208 -1.265869 -12.848633 7
-0.084320001 5.0899658 -12.474609 7
-0.063133001 4.976685 -12.368164 7
-0.052544001 4.9205322 -12.313477 7
-0.055222001 4.8936772 -12.34082 7
-0.062309001 4.8760991 -12.398438 7
-0.064094998 4.847168 -12.419922 7
-0.066765003 4.8199458 -12.448242 7
0.046721999 0.319336 -12.479492 7
0.049339 0.285889 -12.462891 7
0.048416 0.25292999 -12.46875 7
0.050133001 0.21984901 -12.458984 7
0.057190001 0.18603501 -12.413086 7
0.059792001 0.152954 -12.395508 7
0.065063 0.119751 -12.361328 7
0.063239999 0.087035999 -12.373047 7
0.056122001 0.054565001 -12.419922 7
0.054267999 0.021606 -12.429688 7
0.041083999 -0.01355 -11.922852 7
0.039177001 -0.045166001 -11.93457 7
0.036346 -0.07666 -11.952148 7
0.049346998 -0.107788 -11.871094 7
0.053916998 -0.138794 -11.839844 7
0.05201 -0.170166 -11.851562 7
0.060355999 -0.20080601 -11.799805 7
0.052855998 -0.23291001 -11.844727 7
0.047210999 -0.264893 -11.878906 7
0.046241999 -0.296509 -11.883789 7
-0.0066149998 -1.331665 -12.138672 7
-0.0094600003 -1.3656009 -12.152344 7
-0.12713601 0.78234899 15.358398 7
-0.127037 0.84826702 15.354492 7
-0.127838 0.94775403 15.353516 7
-0.088904999 5.1096191 -11.744141 7
-0.088004999 5.0761719 -11.75 7
-0.088942997 5.046875 -11.768555 7
-0.083397001 5.0031738 -11.74707 7
-0.063004002 4.927124 -11.639648 7
-0.061156999 4.8920898 -11.639648 7
-0.063950002 4.8669429 -11.667969 7
-0.071396001 4.8518071 -11.722656 7
-0.069572002 4.8166499 -11.723633 7
-0.079787999 4.8070068 -11.793945 7
-0.090919003 4.7989502 -11.871094 7
-0.084441997 4.7536621 -11.84375 7
0.036469001 -0.34289601 -11.283203 7
0.028580001 -0.374268 -11.327148 7
0.026588 -0.404663 -11.338867 7
0.037300002 -0.43273899 -11.273438 7
0.042151999 -0.46167001 -11.244141 7
0.044075001 -0.49108899 -11.231445 7
0.043044999 -0.52124 -11.235352 7
0.035179 -0.55334502 -11.28125 7
0.022407999 -0.58654797 -11.354492 7
0.027252 -0.61535603 -11.324219 7
0.0021899999 -0.987427 -11.443359 7
-0.001785 -1.019775 -11.464844 7
-0.001823 -1.0500489 -11.461914 7
-0.010696 -1.084839 -11.511719 7
0.0059199999 -1.107056 -11.411133 7
0.0058670002 -1.137329 -11.408203 7
0.003853 -1.1687011 -11.416992 7
0.001846 -1.200073 -11.425781 7
-0.01387 -1.239136 -11.515625 7
-0.012955 -1.269165 -11.506836 7
-0.0081099998 -1.296753 -11.474609 7
-0.0081479996 -1.327271 -11.47168 7
-0.0091930004 -1.358521 -11.474609 7
-0.115707 0.70959502 14.619141 7
-0.115654 0.74084502 14.617188 7
-0.116608 0.77233899 14.62207 7
-0.114555 0.80297899 14.608398 7
-0.116508 0.83508301 14.617188 7
-0.116455 0.86633301 14.616211 7
-0.119423 0.89880401 14.630859 7
-0.121384 0.93078601 14.640625 7
-0.115303 0.95959502 14.603516 7
0.011292 -0.64990199 -10.841797 7
0.017387001 -0.67712402 -10.806641 7
0.020416001 -0.704956 -10.787109 7
0.024460001 -0.73229998 -10.762695 7
0.024429001 -0.76110798 -10.760742 7
0.01722 -0.79260302 -10.799805 7
0.002838 -0.82678199 -10.87793 7
0.0058749998 -0.85473597 -10.859375 7
0.011955 -0.881226 -10.822266 7
0.013947 -0.909302 -10.808594 7
0.015953001 -0.93737799 -10.794922 7
0.011818 -0.96789598 -10.816406 7
0.00028199999 -1.147217 -10.863281 7
-0.0028919999 -1.2069089 -10.875 7
-0.002937 -1.23584 -10.87207 7
-0.146515 -1.824707 14.071289 7
-0.145439 -1.793823 14.070312 7
-0.145409 -1.764038 14.073242 7
0.011375 -0.78369099 -10.240234 7
0.0081099998 -0.81237799 -10.254883 7
0.0091249999 -0.83947802 -10.24707 7
0.004623 -0.97912598 -10.258789 7
-0.0061650001 -1.011597 -10.314453 7
0.0045389999 -1.034302 -10.253906 7
0.002319 -1.062622 -10.261719 7
0.002235 -1.11792 -10.256836 7
-0.002113 -1.147705 -10.277344 7
-1.5e-05 -1.174194 -10.262695 7
-0.0043560001 -1.204224 -10.283203 7
-0.0054549999 -1.2325439 -10.286133 7
-0.02269 -1.27002 -10.374023 7
-0.147369 -2.0523679 13.425781 7
-0.14843801 -2.0249021 13.435547 7
-0.14397401 -1.964233 13.422852 7
-0.13623001 -1.9293211 13.386719 7
-0.137306 -1.901855 13.397461 7
-0.135078 -1.871704 13.390625 7
-0.132843 -1.841431 13.383789 7
-0.12840299 -1.809692 13.365234 7
-0.12838 -1.781494 13.370117 7
-0.12281 -1.720459 13.348633 7
-0.118378 -1.689087 13.331055 7
-0.119453 -1.661499 13.34082 7
-0.11058 0.64538598 13.419922 7
-0.107239 0.67297399 13.400391 7
-0.097305 0.69812 13.347656 7
-0.098357998 0.726807 13.352539 7
-0.093879998 0.78185999 13.326172 7
-0.093826003 0.81005901 13.323242 7
-0.098182999 0.83984399 13.344727 7
-0.098145001 0.86804199 13.342773 7
-0.100296 0.89733899 13.352539 7
-0.098038003 0.92468297 13.337891 7
-0.102402 0.95471197 13.359375 7
0.000191 -0.96472198 -9.7734385 7
0.0079960003 -0.98767102 -9.7314453 7
0.0068279998 -1.014526 -9.734375 7
0.00679 -1.040771 -9.7314453 7
-0.0078349998 -1.0743411 -9.8037109 7
-0.012375 -1.1031491 -9.8232422 7
-0.014671 -1.130615 -9.8320312 7
-0.0079730004 -1.153687 -9.7958984 7
-0.0035319999 -1.177856 -9.7695312 7
-0.0058209999 -1.205444 -9.7783203 7
-0.0092320004 -1.233765 -9.7919922 7
-0.022728 -1.268066 -9.8583984 7
-0.010757 -0.97827101 -9.3398438 7
-0.011978 -1.00415 -9.3427734 7
-0.014359 -1.03064 -9.3525391 7
-0.012062 -1.054932 -9.3378906 7
-0.0074160001 -1.078125 -9.3125 7
-0.006294 -1.102661 -9.3046885 7
-0.0028230001 -1.126343 -9.2841797 7
-0.01339 -1.1569819 -9.3330078 7
-0.011093 -1.181396 -9.3193359 7
-0.012321 -1.207153 -9.3212891 7
-0.013535 -1.2331541 -9.3242188 7
-0.017082 -1.26062 -9.3378906 7
-0.123734 -1.914307 12.308594 7
-0.123711 -1.88855 12.313477 7
-0.122482 -1.861694 12.311523 7
-0.122459 -1.83606 12.316406 7
-0.118843 -1.807251 12.303711 7
-0.117615 -1.780396 12.301758 7
-0.113998 -1.752075 12.290039 7
-0.112793 -1.725342 12.288086 7
-0.112762 -1.699585 12.291992 7
-0.107925 -1.670288 12.272461 7
-0.109108 -1.645386 12.283203 7
-0.107887 -1.6187741 12.28125 7
-0.067024 4.7932129 -8.5263672 7
-0.069366001 4.774292 -8.5488281 7
-0.072867997 4.7580571 -8.5751953 7
-0.072861001 4.7342529 -8.5859385 7
-0.072875999 4.7105708 -8.5966797 7
-0.0075150002 -0.98413098 -8.8691406 7
0.010735 -1 -8.78125 7
-0.005196 -1.05603 -8.8515615 7
-0.019866999 -1.08728 -8.9160156 7
-0.01503 -1.109497 -8.8916016 7
-0.010239 -1.1555181 -8.8623047 7
-0.016364999 -1.183105 -8.8886719 7
-0.020065 -1.209473 -8.9033203 7
-0.014053 -1.254639 -8.8681641 7
-0.12596101 -1.911743 11.859375 7
-0.119705 -1.881958 11.835938 7
-0.114677 -1.828491 11.822266 7
-0.11216 -1.80188 11.81543 7
-0.112144 -1.777222 11.819336 7
-0.110832 -1.7269289 11.822266 7
-0.109566 -1.701416 11.820312 7
-0.102081 -1.671265 11.791992 7
-0.098297 -1.619385 11.782227 7
-0.109482 -1.602783 11.836914 7
-0.083824001 0.75903302 11.838867 7
-0.083649002 0.85778803 11.831055 7
-0.001427 -0.98352098 -8.3789062 7
-0.0027389999 -1.007202 -8.3818359 7
-0.001503 -1.029785 -8.3730469 7
-0.0053630001 -1.054688 -8.3876953 7
-0.006668 -1.078491 -8.3916016 7
-0.0079800002 -1.102173 -8.3945312 7
-0.010582 -1.126709 -8.4023438 7
-0.016983001 -1.153198 -8.4287109 7
-0.00047299999 -1.167603 -8.3515615 7
-0.003052 -1.192139 -8.3603516 7
-0.00309 -1.215332 -8.3583984 7
-0.0069499998 -1.240356 -8.3710938 7
-0.003174 -1.261353 -8.3515615 7
-0.30307001 -5.1079102 11.060547 7
-0.30046099 -5.0797119 11.0625 7
-0.29393801 -5.043457 11.048828 7
-0.29394501 -5.0206299 11.061523 7
-0.29394501 -4.9978032 11.073242 7
-0.29392201 -4.974731 11.084961 7
-0.30043799 -4.9648442 11.12207 7
-0.30043 -4.941895 11.134766 7
-0.299126 -4.9161382 11.141602 7
-0.295219 -4.885376 11.137695 7
-0.29132101 -4.8547359 11.133789 7
-0.29131299 -4.8317871 11.145508 7
-0.28869599 -4.8035889 11.146484 7
-0.095900998 -1.896973 11.251953 7
-0.091964997 -1.870483 11.239258 7
-0.097153001 -1.851318 11.266602 7
-0.090622 -1.822754 11.242188 7
-0.090607002 -1.799438 11.24707 7
-0.091881 -1.777222 11.256836 7
-0.090553001 -1.75293 11.254883 7
-0.090530001 -1.729614 11.258789 7
-0.085303999 -1.7023931 11.241211 7
-0.081382997 -1.67627 11.227539 7
-0.082657002 -1.653809 11.237305 7
-0.072235003 -1.6231689 11.197266 7
-0.078712001 -1.6044919 11.228516 7
-0.087417997 0.65588403 11.399414 7
-0.083488002 0.678101 11.380859 7
-0.089928001 0.703857 11.407227 7
-0.078224003 0.72399902 11.354492 7
-0.078178003 0.747437 11.352539 7
-0.075539 0.77002001 11.339844 7
-0.075499997 0.79357898 11.337891 7
-0.076782003 0.81762701 11.341797 7
-0.075447001 0.840698 11.334961 7
-0.075409003 0.86401403 11.333008 7
-0.077964999 0.88867199 11.342773 7
-0.075332999 0.91113299 11.328125 7
-0.075294003 0.93457001 11.326172 7
-0.076553002 0.95849597 11.330078 7
-0.010239 -1.191772 -7.9882808 7
-0.011604 -1.214355 -7.9912109 7
-0.014297 -1.2381589 -8 7
-0.014328 -1.260376 -7.9970698 7
-0.014359 -1.282715 -7.9941411 7
-0.315689 -5.1048579 10.62793 7
-0.31298101 -5.0775151 10.628906 7
-0.315689 -5.0610352 10.652344 7
-0.314331 -5.036499 10.658203 7
-0.31296501 -5.0117192 10.665039 7
-0.31432301 -4.9924321 10.683594 7
-0.31568101 -4.973145 10.700195 7
-0.32377601 -4.9671631 10.742188 7
-0.318367 -4.9344478 10.733398 7
-0.3116 -4.8990479 10.719727 7
-0.31159201 -4.8769531 10.731445 7
-0.3116 -4.8548579 10.743164 7
-0.30619001 -4.8222661 10.735352 7
-0.122154 -1.910156 10.955078 7
-0.122124 -1.8874511 10.959961 7
-0.118042 -1.86145 10.947266 7
-0.104515 -1.828247 10.895508 7
-0.101784 -1.8037111 10.888672 7
-0.101776 -1.781128 10.892578 7
-0.099059999 -1.75647 10.886719 7
-0.099036999 -1.734131 10.890625 7
-0.107124 -1.717773 10.928711 7
-0.108459 -1.696045 10.938477 7
-0.103027 -1.669678 10.919922 7
-0.101654 -1.64624 10.917969 7
-0.097571999 -1.62085 10.905273 7
-0.32923901 -6.0908198 -6.9423828 7
-0.330681 -6.1140141 -6.9335942 7
-0.330742 -6.1335449 -6.9189448 7
-0.33772999 -6.170166 -6.9267578 7
-0.337769 -6.1899409 -6.9130859 7
-0.330933 -6.1925049 -6.874023 7
-0.329597 -6.2084961 -6.8554692 7
-0.32965899 -6.2281489 -6.8408198 7
-0.32834601 -6.2441411 -6.820312 7
-0.33256501 -6.2739258 -6.8183589 7
-0.335403 -6.3001709 -6.813477 7
-0.33823401 -6.3267822 -6.8076172 7
-0.34104899 -6.3531489 -6.8017578 7
-0.34805301 -6.3898931 -6.8085942 7
-0.31218001 -5.0966802 10.119141 7
-0.305145 -5.0617681 10.106445 7
-0.306557 -5.0440669 10.123047 7
-0.30936399 -5.0290532 10.144531 7
-0.30936399 -5.0083008 10.157227 7
-0.30513799 -4.979248 10.154297 7
-0.30513 -4.958374 10.166016 7
-0.30513799 -4.9376221 10.176758 7
-0.30936399 -4.9251709 10.205078 7
-0.307953 -4.9016109 10.211914 7
-0.31218001 -4.888916 10.238281 7
-0.30654901 -4.8570561 10.229492 7
-0.30232999 -4.8070068 10.238281 7
-0.094192997 -1.916504 10.430664 7
-0.096992001 -1.897583 10.446289 7
-0.098373003 -1.877197 10.456055 7
-0.103966 -1.860352 10.482422 7
-0.105377 -1.8399661 10.494141 7
-0.098334998 -1.812988 10.470703 7
-0.085662998 -1.781372 10.424805 7
-0.084229 -1.759155 10.422852 7
-0.081390001 -1.735474 10.415039 7
-0.084174998 -1.716309 10.430664 7
-0.096802004 -1.7043459 10.485352 7
-0.091178998 -1.6787111 10.467773 7
-0.091147996 -1.657227 10.470703 7
-0.085495003 -1.6318361 10.452148 7
-0.082680002 -1.608398 10.445312 7
-0.14712501 4.160522 9.9443359 7
-0.13587201 4.160522 9.8935547 7
-0.134415 4.1781011 9.8779297 7
-0.134354 4.1982422 9.8681641 7
-0.137115 4.2233891 9.8691406 7
-0.139862 4.2484131 9.8681641 7
-0.135612 4.2607422 9.84375 7
-0.13555899 4.2807622 9.8339844 7
-0.125717 4.2824712 9.7880859 7
-0.129875 4.3101811 9.7939453 7
-0.13262901 4.3349609 9.7939453 7
-0.143768 4.375977 9.8242188 7
-0.154907 4.4169922 9.8544922 7
-0.160423 4.4476318 9.8632812 7
-0.160393 4.4675288 9.8535156 7
-0.314713 -5.1077881 9.6826172 7
-0.314713 -5.068604 9.7070312 7
-0.31472799 -5.0291748 9.7314453 7
-0.30888399 -4.9780269 9.7353516 7
-0.31617001 -4.9528809 9.7832031 7
-0.31470501 -4.9103999 9.8017578 7
-0.30886799 -4.8591309 9.8046885 7
-0.30741099 -4.8165278 9.8232422 7
-0.093277 -1.905273 10.076172 7
-0.104889 -1.8737791 10.128906 7
-0.101929 -1.830078 10.126953 7
-0.085891999 -1.776123 10.075195 7
-0.078552 -1.7294919 10.055664 7
-0.094543003 -1.700562 10.125 7
-0.085762002 -1.652832 10.099609 7
-0.079894997 -1.6075439 10.084961 7
-0.142059 4.166626 9.5185547 7
-0.13182101 4.186646 9.4638672 7
-0.13024101 4.2219238 9.4384766 7
-0.13015699 4.2600098 9.4189453 7
-0.13150001 4.3005371 9.4033203 7
-0.13866401 4.3518071 9.4091797 7
-0.157417 4.425293 9.453125 7
-0.157288 4.4631348 9.4316406 7
-0.31486499 -5.0974121 9.2431641 7
-0.31940499 -5.0881348 9.2685547 7
-0.31184399 -5.0539551 9.2568359 7
-0.31639901 -5.0445561 9.2841797 7
-0.31033301 -5.0136719 9.2763672 7
-0.31032601 -4.9951172 9.2880859 7
-0.31184399 -4.9794922 9.3056641 7
-0.316383 -4.9698491 9.3310547 7
-0.305801 -4.9300542 9.3095703 7
-0.308815 -4.9172359 9.3300781 7
-0.31185901 -4.9042969 9.3525391 7
-0.32093799 -4.9031978 9.3935547 7
-0.31185201 -4.8665771 9.3759766 7
-0.30127001 -4.827148 9.3535156 7
-0.30731201 -4.8200679 9.3837891 7
-0.31034899 -4.8068848 9.40625 7
-0.097374 -1.913452 9.7373047 7
-0.092834003 -1.8898931 9.7255859 7
-0.098846003 -1.875244 9.7519531 7
-0.100349 -1.856567 9.7617188 7
-0.100319 -1.836792 9.765625 7
-0.095771998 -1.813477 9.7539062 7
-0.088202998 -1.78772 9.7294922 7
-0.089690998 -1.769287 9.7392578 7
-0.079079002 -1.7412111 9.7050781 7
-0.077552997 -1.720459 9.7041016 7
-0.082076997 -1.7043459 9.7246094 7
-0.085083 -1.68689 9.7392578 7
-0.080513 -1.66394 9.7265615 7
-0.082007997 -1.645264 9.7363281 7
-0.077454001 -1.622314 9.7236328 7
-0.088036001 -1.6101069 9.7666016 7
-0.086387999 0.96105999 9.8837891 7
-0.074271999 0.97583002 9.8359385 7
-0.068184003 0.99328601 9.8105469 7
-0.072678 1.015137 9.8251953 7
-0.072646998 1.0350339 9.8232422 7
-0.069618002 1.053589 9.8105469 7
-0.068076998 1.072876 9.8027344 7
-0.071060002 1.094238 9.8115234 7
-0.086121 1.12146 9.8652344 7
-0.077003002 1.1368411 9.828125 7
-0.073959 1.155151 9.8144531 7
-0.084495999 1.1806639 9.8515615 7
-0.085968003 1.201416 9.8535156 7
-0.079894997 1.21814 9.8291016 7
-0.079865001 1.2381589 9.8261719 7
-0.079825997 1.258057 9.8222656 7
-0.342033 -6.2281489 -5.4257808 7
-0.34053001 -6.2406011 -5.4082031 7
-0.337502 -6.249146 -5.3847661 7
-0.33909601 -6.269043 -5.374023 7
-0.33608201 -6.2772222 -5.3496089 7
-0.340767 -6.304688 -5.3466802 7
-0.34083599 -6.3205571 -5.3320308 7
-0.34243 -6.3404541 -5.3212891 7
-0.342491 -6.3563228 -5.3056641 7
-0.34408599 -6.3760991 -5.2949219 7
-0.31050101 -5.0866699 8.8369141 7
-0.31364399 -5.0753169 8.8583984 7
-0.304268 -5.0388179 8.8427734 7
-0.30270401 -5.0179439 8.8496094 7
-0.29957601 -4.9941411 8.8525391 7
-0.30427599 -4.9858398 8.8779297 7
-0.30270401 -4.9648442 8.8847656 7
-0.30269599 -4.9472661 8.8964844 7
-0.301155 -4.9263921 8.9042969 7
-0.30271101 -4.9116211 8.9208984 7
-0.30428299 -4.8969731 8.9375 7
-0.30897501 -4.8883061 8.9628906 7
-0.30585501 -4.8643799 8.9648438 7
-0.30428299 -4.8432622 8.9716797 7
-0.30116299 -4.819458 8.9736328 7
-0.30429101 -4.807373 8.9941406 7
-0.088936001 -1.914917 9.3974609 7
-0.095183998 -1.9013669 9.4238281 7
-0.096709996 -1.883423 9.4335938 7
-0.095138997 -1.8631589 9.4326172 7
-0.098274 -1.84668 9.4492188 7
-0.102943 -1.831421 9.4697266 7
-0.095100001 -1.806152 9.4462891 7
-0.082588002 -1.777344 9.40625 7
-0.077866003 -1.754639 9.3935547 7
-0.088790998 -1.744141 9.4375 7
-0.080955997 -1.71936 9.4130859 7
-0.082511999 -1.7012939 9.4228516 7
-0.084060997 -1.683594 9.4335938 7
-0.090286002 -1.669189 9.4589844 7
-0.077758998 -1.641113 9.4179688 7
-0.080871999 -1.624512 9.4326172 7
-0.074607998 -1.600952 9.4150391 7
-0.065254003 0.976318 9.5048828 7
-0.062088002 0.99389601 9.4912109 7
-0.06205 1.013184 9.4882812 7
-0.066711001 1.034302 9.5029297 7
-0.060417 1.050537 9.4775391 7
-0.063515 1.071167 9.4863281 7
-0.066588998 1.091797 9.4951172 7
-0.071250997 1.1131589 9.5097656 7
-0.069672003 1.131592 9.5019531 7
-0.074317999 1.153198 9.5166016 7
-0.071175002 1.170776 9.5029297 7
-0.067993 1.1882319 9.4882812 7
-0.075768001 1.211426 9.5136719 7
-0.071060002 1.228271 9.4941406 7
-0.072586 1.2481689 9.4970703 7
-0.070992 1.266479 9.4882812 7
-0.081253 4.7888179 -5.3730469 7
-0.070525996 4.75 -5.3525391 7
-0.067451 4.727417 -5.3544922 7
-0.062858999 4.7015381 -5.351562 7
-0.064392 4.6887212 -5.3662109 7
-0.067443997 4.678833 -5.3876948 7
-0.067428999 4.6625981 -5.398438 7
-0.067428999 4.6462402 -5.4091802 7
-0.064369 4.6235352 -5.4111328 7
-0.064361997 4.6074219 -5.421875 7
-0.072013997 4.606689 -5.4560552 7
-0.070496 4.5871582 -5.4619141 7
-0.079673998 4.589355 -5.500977 7
-0.081192002 4.5758061 -5.516602 7
-0.082732998 4.5623779 -5.532227 7
-0.076591 4.5334468 -5.5244141 7
-0.076576002 4.5168462 -5.5351558 7
-0.078110002 4.503418 -5.5507808 7
-0.075057998 4.4805908 -5.5517578 7
-0.240334 -4.649292 -5.7597661 7
-0.24358401 -4.6723628 -5.7587891 7
-0.258194 -4.7679439 -5.7548828 7
-0.330917 -6.0932622 -5 7
-0.32936099 -6.1046138 -4.9814448 7
-0.33583099 -6.1351318 -4.9824219 7
-0.33909601 -6.1580811 -4.976562 7
-0.33756301 -6.169189 -4.9570308 7
-0.340828 -6.1921391 -4.9501948 7
-0.34569499 -6.21875 -4.9472661 7
-0.34413901 -6.22998 -4.9287109 7
-0.34581801 -6.2489009 -4.9169922 7
-0.34426099 -6.2598882 -4.8994141 7
-0.34110299 -6.2667241 -4.875977 7
-0.33795199 -6.27356 -4.8535161 7
-0.33317599 -6.2764888 -4.827148 7
-0.331635 -6.2869868 -4.8076172 7
-0.34131601 -6.3259282 -4.8164058 7
-0.34137699 -6.3404541 -4.8017578 7
-0.383095 -6.7017822 7.2724609 7
-0.37986001 -6.6794429 7.280273 7
-0.383118 -6.6738281 7.304688 7
-0.38151601 -6.6557622 7.3164058 7
-0.38314801 -6.645752 7.3349609 7
-0.38641399 -6.6402588 7.358398 7
-0.316147 -5.1179199 8.4101562 7
-0.314522 -5.098022 8.4179688 7
-0.311279 -5.074707 8.4208984 7
-0.30478701 -5.0450439 8.4140615 7
-0.29506701 -5.0087891 8.3984385 7
-0.296684 -4.9953609 8.4140615 7
-0.29994199 -4.985229 8.4355469 7
-0.299934 -4.96875 8.4472656 7
-0.29833201 -4.94873 8.4550781 7
-0.29995701 -4.9351811 8.4707031 7
-0.29994199 -4.918457 8.4824219 7
-0.295082 -4.8920898 8.4804688 7
-0.30805999 -4.9007568 8.5292969 7
-0.30970001 -4.887207 8.5458984 7
-0.30320001 -4.8575439 8.5380859 7
-0.29833999 -4.8311772 8.5361328 7
-0.29509699 -4.8078609 8.5380859 7
-0.30322301 -4.8067632 8.5732422 7
-0.079979002 -1.905273 9.0390615 7
-0.086456001 -1.892578 9.0654297 7
-0.086448997 -1.874512 9.0693359 7
-0.083176002 -1.85376 9.0625 7
-0.091278002 -1.842163 9.0947266 7
-0.092880003 -1.825195 9.1054688 7
-0.087990001 -1.803223 9.0917969 7
-0.089599997 -1.786255 9.1025391 7
-0.074982002 -1.756592 9.0566406 7
-0.073357001 -1.737305 9.0556641 7
-0.073340997 -1.719238 9.0595703 7
-0.073317997 -1.70105 9.0634766 7
-0.071677998 -1.681641 9.0625 7
-0.073279999 -1.664917 9.0712891 7
-0.084601998 -1.6550291 9.1142578 7
-0.084595002 -1.636719 9.1181641 7
-0.074851997 -1.61145 9.0888672 7
-0.054001 0.97033697 9.1464844 7
-0.055610999 0.98938 9.1503906 7
-0.053939998 1.006714 9.1416016 7
-0.049072001 1.022949 9.1230469 7
-0.053886 1.043335 9.1367188 7
-0.061958 1.0656739 9.1630859 7
-0.066771999 1.0863039 9.1767578 7
-0.053794999 1.098145 9.1298828 7
-0.060233999 1.119751 9.1494141 7
-0.058571 1.137329 9.140625 7
-0.060157999 1.156372 9.1435547 7
-0.055275001 1.172241 9.1240234 7
-0.060112 1.192993 9.1386719 7
-0.063300997 1.2130131 9.1464844 7
-0.066513002 1.2331541 9.1552734 7
-0.072959997 1.255127 9.1748047 7
-0.066459998 1.269653 9.1494141 7
-0.080544002 4.7824712 -4.9667969 7
-0.067795001 4.7402339 -4.9414058 7
-0.059836999 4.708374 -4.9306641 7
-0.061423998 4.6966548 -4.9462891 7
-0.061409 4.681396 -4.9570308 7
-0.06617 4.6759028 -4.9824219 7
-0.062987998 4.6541748 -4.984375 7
-0.062981002 4.6387939 -4.9951172 7
-0.062973 4.6235352 -5.0058589 7
-0.062964998 4.6081538 -5.0175781 7
-0.062958002 4.592773 -5.0283198 7
-0.067726001 4.5870361 -5.0517578 7
-0.074088998 4.5845952 -5.0810552 7
-0.083626002 4.5883789 -5.1210942 7
-0.088394001 4.5822749 -5.1445308 7
-0.082015999 4.553833 -5.1376948 7
-0.083610997 4.5413818 -5.1523442 7
-0.078827001 4.5161128 -5.1494141 7
-0.083595 4.5100098 -5.1748052 7
-0.086777002 4.4846191 -5.204102 7
-0.248276 -4.4849849 -5.5087891 7
-0.249992 -4.504395 -5.5029302 7
-0.245056 -4.5114751 -5.4785161 7
-0.24511001 -4.52771 -5.4667969 7
-0.24349201 -4.540771 -5.4511719 7
-0.24354599 -4.5570068 -5.4394531 7
-0.240273 -4.566895 -5.4199219 7
-0.248634 -4.5987549 -5.4316411 7
-0.24867199 -4.6147461 -5.420898 7
-0.242073 -4.6184082 -5.391602 7
-0.240463 -4.631104 -5.3769531 7
-0.237183 -4.6407471 -5.3564448 7
-0.243874 -4.6696782 -5.3642578 7
-0.25055701 -4.6983638 -5.3710942 7
-0.25724 -4.7272949 -5.3789058 7
-0.26394701 -4.756104 -5.3847661 7
-0.260674 -4.7657471 -5.3642578 7
-0.26404601 -4.7883301 -5.3623052 7
-0.33968401 -6.176147 -4.4736328 7
-0.34307101 -6.1981201 -4.4667969 7
-0.34811401 -6.2242432 -4.4628911 7
-0.351486 -6.24646 -4.4560552 7
-0.35156199 -6.2602539 -4.4404302 7
-0.34992999 -6.2697749 -4.422852 7
-0.33836401 -6.2547612 -4.3808589 7
-0.33508301 -6.2600098 -4.358398 7
-0.335136 -6.27356 -4.342773 7
-0.33850101 -6.2955322 -4.335938 7
-0.336891 -6.3049321 -4.3173828 7
-0.33529699 -6.314209 -4.297852 7
-0.33867601 -6.33606 -4.2900391 7
-0.34539801 -6.366333 -4.2900391 7
-0.340446 -6.367065 -4.264648 7
-0.335518 -6.3679199 -4.2373052 7
-0.338898 -6.3895259 -4.2294922 7
-0.33561701 -6.3945308 -4.2070308 7
-0.304138 -5.1196289 7.9433589 7
-0.309181 -5.114502 7.96875 7
-0.304138 -5.088623 7.967773 7
-0.304153 -5.072998 7.9804692 7
-0.29743201 -5.0439448 7.9736328 7
-0.29405999 -5.0214839 7.976562 7
-0.29576099 -5.0092769 7.9941411 7
-0.29914099 -5.0004878 8.0146484 7
-0.292404 -4.9711909 8.0087891 7
-0.29241899 -4.9555659 8.0205078 7
-0.29409799 -4.9432368 8.0361328 7
-0.29241899 -4.9241939 8.0429688 7
-0.28907001 -4.901855 8.0458984 7
-0.29411301 -4.8959961 8.0722656 7
-0.30422199 -4.900146 8.1113281 7
-0.309273 -4.894165 8.1367188 7
-0.29749301 -4.855103 8.1162109 7
-0.294144 -4.83252 8.1181641 7
-0.29078701 -4.8101811 8.1201172 7
-0.074744999 -1.914917 8.7089844 7
-0.084824003 -1.90625 8.7460938 7
-0.088165 -1.891602 8.7617188 7
-0.084793001 -1.87146 8.7558594 7
-0.078064002 -1.8486331 8.7373047 7
-0.081413001 -1.833984 8.7539062 7
-0.089790002 -1.8232419 8.7851562 7
-0.083053999 -1.800415 8.7675781 7
-0.077987999 -1.779053 8.7548828 7
-0.067886002 -1.7537839 8.7255859 7
-0.076293997 -1.74292 8.7578115 7
-0.074600004 -1.724243 8.7568359 7
-0.067847997 -1.701782 8.7392578 7
-0.064484 -1.681885 8.7324219 7
-0.069495998 -1.668335 8.7519531 7
-0.072844997 -1.65332 8.7666016 7
-0.072829999 -1.635986 8.7705078 7
-0.076180004 -1.621094 8.7861328 7
-0.072800003 -1.601074 8.7783203 7
-0.058136001 0.97070301 8.8613281 7
-0.046356 0.98303199 8.8203115 7
-0.049667001 1.001953 8.8291016 7
-0.049644001 1.019653 8.8271484 7
-0.051291998 1.037964 8.8300781 7
-0.05294 1.056396 8.8330078 7
-0.049552999 1.072266 8.8193359 7
-0.056235999 1.09314 8.8388672 7
-0.059555002 1.112305 8.8476562 7
-0.056152001 1.1281739 8.8330078 7
-0.064521998 1.150146 8.8583984 7
-0.054428 1.1624759 8.8222656 7
-0.059425 1.182495 8.8359385 7
-0.066109002 1.203735 8.8554688 7
-0.057693001 1.2169189 8.8251953 7
-0.074440002 1.243652 8.8779297 7
-0.074424997 1.261353 8.8759766 7
-0.065994002 1.27417 8.8447266 7
-0.086760998 4.7996831 -4.5917969 7
-0.078498997 4.7678218 -4.5810552 7
-0.071883999 4.7397461 -4.5751948 7
-0.066924997 4.7149658 -4.5742192 7
-0.066917002 4.7006841 -4.5849609 7
-0.061958 4.6760249 -4.5830078 7
-0.068572998 4.675415 -4.6113281 7
-0.066909999 4.6575928 -4.6181641 7
-0.065231003 4.639648 -4.625 7
-0.061928 4.6184082 -4.6269531 7
-0.065208003 4.6105962 -4.6464839 7
-0.068520002 4.6030269 -4.6660161 7
-0.066855997 4.585083 -4.672852 7
-0.073440999 4.5838618 -4.7011719 7
-0.088303 4.5994868 -4.7519531 7
-0.084983997 4.5780029 -4.7539058 7
-0.083351001 4.559937 -4.7597661 7
-0.078368999 4.5353999 -4.7568359 7
-0.078383997 4.5206299 -4.7675781 7
-0.083320998 4.5155029 -4.7919922 7
-0.081665002 4.497437 -4.797852 7
-0.244041 -4.4954829 -5.1123052 7
-0.24925999 -4.5202641 -5.1152339 7
-0.24929801 -4.5357671 -5.1044922 7
-0.244186 -4.5413818 -5.0800781 7
-0.237343 -4.5439448 -5.0517578 7
-0.23912799 -4.5625 -5.0449219 7
-0.242607 -4.5839839 -5.0429692 7
-0.242653 -4.5992432 -5.032227 7
-0.24268299 -4.6143799 -5.0214839 7
-0.246185 -4.63623 -5.0195308 7
-0.24452201 -4.6480708 -5.0029302 7
-0.246277 -4.6665039 -4.9960942 7
-0.25665301 -4.701416 -5.0117192 7
-0.25841501 -4.7200928 -5.0048828 7
-0.25847599 -4.735229 -4.9941411 7
-0.256798 -4.7469478 -4.9785161 7
-0.26371801 -4.7755132 -4.985352 7
-0.258614 -4.780396 -4.9599609 7
-0.30234501 -5.104248 7.5556641 7
-0.309311 -5.1037598 7.5849609 7
-0.29712701 -5.064209 7.5664058 7
-0.29888901 -5.0531011 7.5830078 7
-0.29888901 -5.0385742 7.5957031 7
-0.298904 -5.0239258 7.6074219 7
-0.29367799 -4.9986572 7.6064448 7
-0.29369399 -4.9841309 7.6181641 7
-0.29021499 -4.9622798 7.6210942 7
-0.28673601 -4.9405522 7.624023 7
-0.29369399 -4.9396968 7.6533198 7
-0.28849 -4.9145508 7.6513672 7
-0.293724 -4.9101558 7.6767578 7
-0.29371601 -4.8953862 7.6875 7
-0.298958 -4.890625 7.7128911 7
-0.29199201 -4.861938 7.7070308 7
-0.290268 -4.8436279 7.7148442 7
-0.29028299 -4.8287349 7.726562 7
-0.080788001 -1.915771 8.4404297 7
-0.079017997 -1.897583 8.4404297 7
-0.078994997 -1.880981 8.4443359 7
-0.075522996 -1.86145 8.4384766 7
-0.075499997 -1.844849 8.4423828 7
-0.078979 -1.830933 8.4580078 7
-0.080696002 -1.8156739 8.4667969 7
-0.078941002 -1.7976069 8.4658203 7
-0.085883997 -1.786377 8.4921885 7
-0.075447001 -1.761475 8.4638672 7
-0.064986996 -1.736694 8.4355469 7
-0.066696003 -1.721558 8.4443359 7
-0.064957 -1.703491 8.4433594 7
-0.066680998 -1.6882319 8.453125 7
-0.061455 -1.667603 8.4414062 7
-0.066650003 -1.654785 8.4609385 7
-0.073586002 -1.643066 8.4863281 7
-0.068351999 -1.622559 8.4736328 7
-0.063133001 -1.602295 8.4619141 7
-0.058563001 0.96899402 8.5839844 7
-0.049835 0.98217797 8.5527344 7
-0.051552001 0.99987799 8.5566406 7
-0.042838998 1.012817 8.5273438 7
-0.049743999 1.032959 8.546875 7
-0.042778 1.046509 8.5224609 7
-0.046218999 1.064819 8.53125 7
-0.046195999 1.081665 8.5283203 7
-0.047897 1.099609 8.53125 7
-0.049614001 1.11731 8.5341797 7
-0.058272999 1.13855 8.5595703 7
-0.063446 1.157959 8.5732422 7
-0.056435 1.18811 8.546875 7
-0.056412 1.2049561 8.5439453 7
-0.056366 1.2219239 8.5400391 7
-0.056343 1.238647 8.5371094 7
-0.059792001 1.257568 8.5458984 7
-0.064971998 1.2774661 8.5595703 7
-0.094521001 4.799438 -4.250977 7
-0.084259003 4.7642822 -4.2363281 7
-0.068878002 4.7185059 -4.2080078 7
-0.065444998 4.697998 -4.210938 7
-0.067153998 4.6881099 -4.226562 7
-0.067130998 4.674561 -4.2373052 7
-0.070541002 4.6682129 -4.257812 7
-0.065407 4.644043 -4.2548828 7
-0.063675001 4.6134028 -4.273438 7
-0.063666999 4.599731 -4.2841802 7
-0.070487998 4.5999761 -4.3125 7
-0.073898003 4.5932622 -4.3320308 7
-0.080727004 4.5932622 -4.360352 7
-0.087554999 4.5933838 -4.3886719 7
-0.085822999 4.5760498 -4.3955078 7
-0.082405001 4.5554199 -4.3974609 7
-0.080719002 4.5379639 -4.4023442 7
-0.080688 4.5240479 -4.4130859 7
-0.078987002 4.5067139 -4.4199219 7
-0.080681004 4.4960942 -4.4345698 7
-0.334961 -6.1680908 -3.5126951 7
-0.34035501 -6.1929932 -3.5087891 7
-0.33684501 -6.1958008 -3.4873049 7
-0.335098 -6.2028809 -3.46875 7
-0.34406301 -6.2363281 -3.4707029 7
-0.34412399 -6.2478032 -3.4560549 7
-0.349525 -6.272583 -3.4501951 7
-0.36028299 -6.3105469 -3.4550779 7
-0.35142499 -6.2998052 -3.4238279 7
-0.34966999 -6.3067632 -3.40625 7
-0.34616101 -6.3093262 -3.3837891 7
-0.347992 -6.3250728 -3.3730471 7
-0.346268 -6.3317871 -3.3535161 7
-0.34632099 -6.3430181 -3.3388669 7
-0.34635901 -6.3543701 -3.324219 7
-0.34819001 -6.3699951 -3.311523 7
-0.34824401 -6.380981 -3.297852 7
-0.30356601 -4.8952641 7.3613281 7
-0.29998001 -4.8739009 7.3642578 7
-0.289215 -4.8105469 7.3730469 7
-0.29821 -4.8138428 7.407227 7
-0.13780899 -1.677763 12.16503 7
-0.113002 -1.769416 11.107609 7
-0.120693 0.728212 11.35358 7
-0.33173701 -4.9857378 10.998468 7
-0.067148 -1.776176 10.059679 7
-0.049508002 1.023643 9.5835171 7
-0.058123998 1.269665 9.6043425 7
-0.38123 -4.9576631 9.8640862 7
-0.118705 -1.841825 9.4422731 7
-0.39489299 -6.6354618 7.2237082 7
-0.34463 -5.0976882 8.6981268 7
-0.349399 -4.9113131 8.9197397 7
-0.090617001 -1.856017 8.8232784 7
-0.083420001 -1.638274 8.8480501 7
-0.082153 1.127715 8.9841919 7
-0.289601 -5.014843 7.5844851 7
-0.292651 -4.8672838 7.7948041 7
-0.056403 1.01871 8.5085487 7
-0.062512003 1.214852 8.5015612 7
-0.246188 -4.88271 6.645575 7
-0.25708899 -4.8148289 6.873796 7
-0.066054001 -1.9124089 7.9665518 7
-0.039763 -1.6847349 7.9011111 7
-0.031261001 1.186368 7.7787132 7
-0.30008501 -4.9004998 5.8529501 7
-0.082603 -1.738256 7.6108842 7
-0.067960002 1.021557 7.7948699 7
-0.079278 -1.779976 7.3409138 7
-0.0623 -1.6033731 7.3357391 7
-0.047460999 1.085712 7.4630952 7
-0.061195999 1.251071 7.4798021 7
-0.071447 -1.8025759 7.074491 7
-0.056077 -1.639439 7.082293 7
-0.065637 -1.822193 6.8366189 7
-0.053433001 -1.675208 6.8618422 7
-0.091444999 -1.8276761 6.6057529 7
-0.087995 -1.7103029 6.6660509 7
-0.079793997 -1.723557 6.4609671 7
0.142728 -1.0908509 -12.870463 7
0.145804 -1.076455 -10.108295 7
-0.185381 -2.0663569 15.192449 7
0.019484 -1.479735 -6.851388 7
-0.110916 -1.901685 13.329722 7
0.048896998 -1.419534 -5.561142 7
-0.33237299 -6.1170678 -6.941875 7
-0.063481003 -1.786351 12.026241 7
0.045141999 -1.383065 -4.7897701 7
-0.18565799 -4.5088382 -5.4898381 7
-0.29359901 -6.2110562 -5.2686982 7
-0.36557299 -5.1923699 11.367596 7
-0.110209 -1.695578 11.020685 7
-0.00029200001 -1.3389471 -3.876039 7
-0.33681101 -4.825314 10.655489 7
-0.082244001 -1.63026 10.282198 7
0.016068 -1.309877 -3.2519679 7
-0.25029299 -4.5012431 -3.726007 7
-0.326197 -5.0842729 9.7534838 7
-0.32207301 -4.8108749 9.9241753 7
-0.061283998 -1.842062 9.6186256 7
0.024264 -1.28695 -2.7620101 7
0.012278 -1.541329 -2.7843759 7
-0.308754 -5.0257349 9.0992126 7
-0.049805999 -1.781329 9.1555519 7
0.026744001 -1.500172 -2.319653 7
-0.45381901 -6.5842781 7.3433852 7
-0.34654501 -4.9122968 8.4530172 7
-0.069365002 -1.707399 8.59729 7
-0.329422 -4.8572092 7.9541841 7
-0.0048239999 -1.433776 -1.5838929 7
-0.319731 -4.8178892 7.5262151 7
-0.050105002 -1.819272 7.9194779 7
-0.025007 -1.61041 7.853548 7
0.003306 -1.408577 -1.2995369 7
-0.30585501 -5.0571852 6.7794981 7
-0.284401 -4.8476381 6.8913469 7
-0.030701 -1.765746 7.6105051 7
0.01348 -1.384998 -1.032824 7
-0.0071680001 -1.572726 -1.08593 7
-0.086924002 -1.908308 7.3973298 7
-0.070587002 -1.724967 7.3817229 7
-0.019989001 -1.3621351 -0.78519601 7
-0.039120998 -1.538007 -0.82783502 7
-0.27668801 -4.5528102 0.070897996 7
-0.27705899 -4.6724482 0.230646 7
-0.279856 -4.8289752 5.8124242 7
-0.065967001 -1.853206 7.1426568 7
-0.050822001 -1.681569 7.1307278 7
-0.011011 -1.34373 -0.576747 7
-0.023239 -1.507322 -0.59204799 7
-0.268731 -4.5004821 0.37154299 7
-0.27418801 -4.6489682 0.55629802 7
-0.26294899 -4.714756 0.740888 7
-0.050478999 -1.80661 6.9275098 7
-0.031975001 -1.642175 6.9027758 7
-0.0023320001 -1.326885 -0.385833 7
-0.0086230002 -1.479672 -0.379531 7
-0.25411901 -4.545023 0.855079 7
-0.259976 -4.6499629 1.00054 7
-0.249346 -4.699914 1.17819 7
-0.040123999 -1.767278 6.7461629 7
-0.019611999 -1.609586 6.7145929 7
0.010242 -1.310183 -0.195548 7
-0.0023010001 -1.457804 -0.21237101 7
0.023422001 -1.2945549 -0.017130001 7
0.009056 -1.4354 -0.040261999 7
-0.011984 -1.5823801 -0.079305999 7
-0.27321199 -4.692647 1.752956 7
-0.274997 -4.750278 1.9094239 7
-0.31781101 -5.07126 3.045805 7
-0.079717003 -1.87572 6.5702152 7
-0.068369001 -1.729805 6.5770359 7
-0.25805801 -4.520299 1.8224241 7
-0.264525 -4.6713619 2.274585 7
-0.26583701 -4.7072349 2.429508 7
-0.277215 -4.8076921 3.0584781 7
-0.27378401 -4.740726 3.8510211 7
-0.27935499 -4.7273512 4.0104251 7
-0.26815099 -4.65873 4.1576238 7
-0.063051999 -1.700207 6.4408059 7
-0.24533699 -4.4924092 2.321723 7
-0.25223199 -4.5427032 2.465498 7
-0.265481 -4.562479 3.9762859 7
-0.082506001 4.5701752 -5.1417751 7
-0.166379 4.2685461 9.9445944 7
-0.049982 1.224578 9.6304064 7
-0.084590003 1.202722 9.0664196 7
-0.064326003 0.96152198 8.6787472 7
-0.063198 1.187428 8.6298733 7
-0.052453998 0.963754 8.3289547 7
-0.037053999 0.96600997 7.9972229 7
-0.026618 1.162421 7.9146128 7
-0.066435002 0.96669501 7.6785688 7
-0.06064 1.150649 7.6249819 7
-0.049625002 0.96865797 7.4115438 7
-0.072007 4.9807839 -16.208344 7
0.067019999 0.300055 -12.610812 7
-0.046629 -0.91486698 -10.31145 7
-0.072748996 -1.366974 -10.750462 7
-0.052948002 -1.106782 -8.9222612 7
-0.087457001 4.7075891 -8.4789534 7
-0.017331 -1.414109 -7.3206902 7
-0.00095399999 -1.421806 -6.343852 7
-0.030236 4.6540279 -5.1214209 7
-0.046496999 4.5979509 -5.418942 7
-0.034616001 -1.41524 -5.5803761 7
-0.088536002 4.5008278 -4.3084841 7
-0.031888001 -1.451504 -5.1122918 7
-0.21536 -4.5740671 -5.1328659 7
-0.31615201 -6.084095 -4.8690739 7
-0.014149 -1.283855 -4.6544328 7
-0.025487 -1.466998 -4.6876149 7
-0.204833 -4.6034231 -4.2361121 7
-0.304037 -6.2573109 -3.283113 7
-0.00199 -1.2894551 -4.2593732 7
-0.017527999 -1.469517 -4.3119001 7
-0.030319 -1.306813 -3.9610641 7
-0.040031999 -1.454836 -3.9643149 7
-0.044989999 -1.59097 -3.9348199 7
-0.017287999 -1.325247 -3.4694121 7
-0.016943 -1.423679 -3.4155691 7
-0.025827 -1.5493619 -3.400214 7
-0.011937 -1.329141 -3.2649319 7
-0.0094480002 -1.412617 -3.20153 7
-0.01309 -1.364809 -2.8135259 7
-0.016688 -1.447687 -2.7708449 7
-0.018932 -1.525328 -2.7199759 7
-0.0048639998 -1.345438 -2.6562901 7
-0.0060459999 -1.414398 -2.6057329 7
-0.013764 -1.50221 -2.5715909 7
-0.013475 -1.563683 -2.510143 7
0.00016900001 -1.317149 -2.5342751 7
0.0071609998 -1.35658 -2.4610441 7
0.001756 -1.430621 -2.420965 7
-0.0059910002 -1.525291 -2.3681741 7
-0.0098649999 -1.592329 -2.3157949 7
0.007638 -1.295983 -2.402319 7
-0.00373 -1.325902 -2.3275411 7
-0.0082019996 -1.390581 -2.284301 7
-0.021543 -1.481186 -2.2579811 7
-0.004807 -1.568066 -1.557532 7
-0.025168 -1.594391 -1.4934 7
-0.016195999 -1.4838229 -1.551865 7
-0.02128 -1.523661 -1.47805 7
-0.016240001 -1.524104 -1.4119281 7
-0.021578001 -1.554888 -1.35053 7
-0.019996 -1.560987 -1.285166 7
-0.027031001 -1.592284 -1.220806 7
-0.023743 -1.587442 -1.154086 7
-0.018761 -1.574248 -1.08814 7
-0.025785999 -1.597423 -1.020008 7
-0.017411999 -1.567593 -0.95618302 7
-0.024439 -1.5850869 -0.88617802 7
-0.0060060001 -1.517343 -0.83186501 7
0.011392 -1.329126 -1.570636 7
0.0020419999 -1.376766 -1.52292 7
0.007156 -1.379217 -1.462256 7
0.010432 -1.384596 -1.403052 7
-0.0075010001 -1.455763 -1.337745 7
-0.007772 -1.466956 -1.277004 7
-0.0098179998 -1.4811929 -1.215892 7
-0.015445 -1.504156 -1.153807 7
-0.013961 -1.5022449 -1.090871 7
-0.014225 -1.5031821 -1.027645 7
-0.0056940001 -1.473864 -0.967749 7
-0.013085 -1.491843 -0.90166402 7
0.0058729998 -1.424988 -0.85121799 7
0.002475 -1.3086309 -1.563924 7
0.0020570001 -1.329192 -1.509903 7
-0.00015599999 -1.352803 -1.456066 7
0.0087130005 -1.34164 -1.395057 7
-0.00093099999 -1.38274 -1.343007 7
0.0045039998 -1.378965 -1.269383 7
-0.0050869999 -1.415149 -1.2128659 7
0.003731 -1.393404 -1.153589 7
0.001483 -1.402653 -1.094815 7
