# .PCD v0.7 - Point Cloud Data file format
VERSION 0.7
FIELDS x y z intensity
SIZE 4 4 4 4
TYPE F F F F
COUNT 1 1 1 1
WIDTH 1403
HEIGHT 1
VIEWPOINT 0 0 0 1 0 0 0
POINTS 1403
DATA ascii
0.16126999 4.8713379 -53.057617 7
0.20801499 4.6320801 -51.803711 7
0.174591 4.581665 -52.712891 7
0.121262 4.5710449 -54.157227 7
0.070564002 -2.1413569 -50.088867 7
0.097519003 -2.234375 -49.422852 7
0.129265 -2.3187261 -48.640625 7
0.077956997 -2.497925 -49.879883 7
-0.81955701 -3.020386 66.850586 7
-0.80274999 -0.385254 66.657227 7
-0.75058001 -0.226685 65.523438 7
0.129135 4.8320308 -48.674805 7
0.20008101 4.5500488 -46.949219 7
0.15271799 4.5406489 -48.114258 7
0.117264 4.4998779 -48.987305 7
0.209435 1.081543 -46.84668 7
0.033829 -2.197876 -46.067383 7
0.080246001 -2.2618411 -45.064453 7
0.132576 -2.4211431 -43.890625 7
0.065436997 -2.611084 -45.362305 7
0.103905 -2.6721189 -44.50293 7
-0.69475597 -0.33447301 58.988281 7
-0.679474 -0.061278999 58.691406 7
0.15870699 4.7524409 -43.319336 7
0.122551 4.7287598 -44.12793 7
0.100082 4.6706538 -44.633789 7
0.155983 4.4387212 -43.404297 7
0.12560301 4.3970952 -44.083984 7
0.090767004 4.3612061 -44.863281 7
-0.001083 -2.2736821 -43.120117 7
0.032889999 -2.342041 -42.420898 7
0.063415997 -2.4108889 -41.789062 7
0.085922003 -2.486572 -41.323242 7
0.029243 -2.657227 -42.466797 7
0.056334998 -2.72644 -41.905273 7
0.077408001 -2.8006589 -41.466797 7
0.117439 -2.8469241 -40.643555 7
-0.63706201 0.063965 53.882812 7
0.118454 4.661377 -40.619141 7
0.088111997 4.628418 -41.246094 7
0.053787 4.6009521 -41.956055 7
0.112122 4.3745122 -40.772461 7
0.093200997 4.3132319 -41.168945 7
0.051445 4.296021 -42.02832 7
0.158333 1.026978 -40.009766 7
0.16348299 0.82849097 -39.902344 7
-0.0045090001 -2.846802 -39.216797 7
0.0088579999 -2.9246831 -38.958008 7
0.040787 -2.975708 -38.356445 7
0.058883999 -3.043823 -38.010742 7
-0.60603303 -2.8713379 48.955078 7
-0.61412001 -2.7668459 49.102539 7
0.075470001 4.719727 -37.689453 7
0.039763998 4.7050781 -38.363281 7
0.0090260003 4.6765141 -38.943359 7
0.185265 1.195801 -35.8125 7
0.178574 1.110962 -35.938477 7
0.15621901 1.033447 -36.355469 7
0.17410301 0.57971197 -36.020508 7
0.184036 0.48828101 -35.834961 7
0.16729 0.40307599 -36.144531 7
0.18814801 0.310913 -35.75293 7
-0.0038379999 -3.0693359 -36.035156 7
0.023125 -3.206177 -35.552734 7
0.023674 -3.2927251 -35.533203 7
-0.54015398 -2.808105 44.515625 7
-0.54923201 -2.7149661 44.666992 7
-0.57232702 -2.634521 45.041016 7
-0.484795 0.052246001 43.801758 7
-0.48448899 0.25329599 43.800781 7
0.071350001 4.8787842 -34.671875 7
0.048920002 4.8438721 -35.06543 7
0.030898999 4.7971191 -35.383789 7
0.0060959999 4.7637939 -35.818359 7
-0.019043 4.729248 -36.258789 7
0.020470001 4.5562739 -35.591797 7
0.15432 1.203491 -33.463867 7
0.15158799 0.37133801 -33.576172 7
0.16234601 0.28601101 -33.390625 7
0.14456201 0.205322 -33.695312 7
0.161438 0.121216 -33.402344 7
0.148399 0.038940001 -33.625 7
0.15384699 -0.111816 -30.551758 7
-0.037445001 -3.2689209 -33.407227 7
-0.021233 -3.326782 -33.142578 7
-0.0087200003 -3.3890381 -32.9375 7
-0.010376 -3.4727781 -32.951172 7
-0.45488 -2.7830811 39.916992 7
-0.47512099 -2.712646 40.220703 7
-0.48538199 -2.6308589 40.376953 7
-0.53758198 -2.5882571 41.147461 7
-0.45134699 0.142822 40.022461 7
-0.427284 0.232178 39.672852 7
-0.41825101 0.41210899 39.542969 7
0.065269001 4.8787842 -31.698242 7
0.043419 4.8493652 -32.051758 7
-0.004745 4.7955322 -32.825195 7
-0.032508999 4.7738042 -33.272461 7
0.15109301 1.4912111 -30.604492 7
0.157555 1.334717 -30.505859 7
0.100052 1.21106 -31.40625 7
0.115494 0.27294901 -31.164062 7
0.119453 0.19519 -31.099609 7
0.14861301 0.116211 -30.638672 7
0.119255 0.040649001 -31.100586 7
0.119003 -0.037719999 -29.03418 7
0.13358299 -0.109009 -28.818359 7
0.102539 -0.18335 -29.273438 7
0.123062 -0.25354001 -28.969727 7
-0.054053999 -3.2320559 -31.349609 7
-0.070091002 -3.3331299 -31.574219 7
-0.058295999 -3.393311 -31.392578 7
-0.047295 -3.4537351 -31.220703 7
-0.039062001 -3.517822 -31.09082 7
-0.408775 0.29821801 37.080078 7
0.068839997 4.9165039 -29.407227 7
0.044677999 4.898438 -29.770508 7
0.023178 4.797729 -30.104492 7
-0.00098400004 4.7753911 -30.46875 7
0.13024899 1.545898 -28.78418 7
0.111549 1.487427 -29.061523 7
0.135139 1.327148 -28.71875 7
0.099289 0.034667999 -29.326172 7
0.091530003 -0.16699199 -27.054688 7
0.109138 -0.433716 -26.807617 7
0.123169 -0.497437 -26.612305 7
-0.088356003 -3.4724121 -29.317383 7
-0.073569998 -3.594116 -29.09668 7
-0.060798999 -3.645386 -28.914062 7
-0.053192001 -3.704102 -28.800781 7
-0.36461601 0.58471698 34.007812 7
0.062088002 4.9703369 -27.120117 7
0.046234 4.9390869 -27.344727 7
0.031235 4.9046631 -27.558594 7
0.019646 4.8618159 -27.725586 7
-0.0060419999 4.8493652 -28.081055 7
-0.02063 4.810791 -28.290039 7
0.133926 1.697754 -26.467773 7
0.108124 1.5849611 -26.825195 7
0.137978 1.496094 -26.419922 7
0.122932 1.440186 -26.628906 7
0.098472998 1.3898931 -26.962891 7
0.120193 1.3087161 -26.669922 7
0.083007999 -0.34948701 -25.342773 7
0.098968998 -0.40942401 -25.136719 7
0.115852 -0.46850601 -24.918945 7
0.079490997 -0.54016101 -25.378906 7
0.098693997 -0.59826702 -25.132812 7
-0.101982 -3.6022949 -27.40625 7
-0.089667998 -3.6505129 -27.241211 7
-0.077804998 -3.698853 -27.082031 7
-0.068282999 -3.7502439 -26.951172 7
-0.066092998 -3.813477 -26.914062 7
0.001366 5.0976558 -25.921875 7
0.02919 4.9685059 -25.583008 7
0.024574 4.9146729 -25.65332 7
0.010773 4.8812261 -25.835938 7
-0.0084760003 4.8590088 -26.088867 7
-0.032303002 4.8455811 -26.400391 7
0.108528 1.662598 -24.918945 7
0.113876 1.533447 -24.855469 7
0.082161002 -0.50085402 -23.436523 7
0.086014003 -0.55859399 -23.388672 7
0.092087001 -0.79089397 -23.305664 7
0.092987001 -0.84912097 -23.291992 7
-0.083457999 -3.693481 -25.080078 7
-0.091011003 -3.7685549 -25.15625 7
-0.085677996 -3.8222661 -25.083984 7
-0.073905997 -3.8647461 -24.935547 7
-0.068542004 -3.9177251 -24.863281 7
-0.074104004 -3.989502 -24.916992 7
-0.007309 5.1143799 -23.992188 7
0.018723 4.9937739 -23.701172 7
0.010788 4.952148 -23.802734 7
0.001381 4.913208 -23.923828 7
-0.0094910003 4.8770752 -24.0625 7
-0.032173 4.8662109 -24.337891 7
-0.042075999 4.8262939 -24.463867 7
0.111923 1.6036381 -22.993164 7
0.08123 1.509644 -23.361328 7
0.069374003 -0.69116199 -21.924805 7
0.079346001 -0.74291998 -21.8125 7
0.070266999 -0.80127001 -21.910156 7
0.052719001 -0.86352497 -22.099609 7
0.069045998 -0.91210902 -21.916992 7
0.073729999 -0.96508801 -21.862305 7
-0.104996 -3.894165 -23.496094 7
-0.093970999 -3.93396 -23.365234 7
-0.088790998 -3.9832759 -23.298828 7
-0.089423999 -4.0427251 -23.294922 7
-0.102234 -4.1243901 -23.422852 7
-0.0079650003 5.058228 -22.25 7
-0.0022199999 4.9885249 -22.199219 7
-0.011223 4.9527588 -22.308594 7
-0.018646 4.9127202 -22.400391 7
-0.029762 4.8804932 -22.532227 7
-0.047187999 4.8616939 -22.731445 7
0.076041996 1.909302 -21.740234 7
0.087058999 1.840332 -21.617188 7
0.082778998 1.789185 -21.668945 7
0.077956997 1.738281 -21.724609 7
0.092658997 1.671387 -21.566406 7
0.082053997 1.624878 -21.686523 7
0.069328003 1.579224 -21.830078 7
0.069182999 -0.64624 -20.420898 7
0.065711997 -0.69921899 -20.455078 7
0.048682999 -0.756836 -20.62793 7
0.057624999 -0.805664 -20.53125 7
0.067734003 -0.85339397 -20.425781 7
0.063118003 -0.906982 -20.469727 7
-0.102196 -3.8577881 -21.821289 7
-0.114746 -3.934082 -21.939453 7
-0.109749 -3.9803469 -21.87793 7
-0.100777 -4.0197749 -21.777344 7
-0.095779002 -4.0654302 -21.71582 7
-0.098151997 -4.1242681 -21.728516 7
-0.0075070001 5.0969238 -20.628906 7
-0.0036009999 5.035522 -20.601562 7
-0.010414 4.9986572 -20.680664 7
-0.021713 4.971313 -20.806641 7
-0.024559001 4.9248052 -20.84668 7
-0.044884 4.916748 -21.063477 7
-0.050567999 4.8753662 -21.131836 7
0.080802999 1.884277 -20.180664 7
0.061592001 1.849609 -20.381836 7
0.084641002 1.778198 -20.148438 7
0.078391999 1.732056 -20.216797 7
0.071556002 1.686035 -20.291016 7
0.060226001 1.643188 -20.411133 7
0.023956001 -0.91760302 -19.533203 7
0.024863999 -1.115234 -19.511719 7
0.032600001 -1.160522 -19.433594 7
0.040939 -1.205078 -19.349609 7
-0.138542 -3.9976809 -20.717773 7
-0.135712 -4.097168 -20.669922 7
-0.127983 -4.135376 -20.585938 7
-0.023651 5.1230469 -19.379883 7
-0.023079 5.072021 -19.386719 7
-0.032715 5.044312 -19.489258 7
-0.039329998 5.009521 -19.5625 7
-0.048331998 4.9797359 -19.660156 7
-0.065750003 4.9680181 -19.835938 7
0.036263 -0.99487299 -18.129883 7
0.028503001 -1.0448 -18.197266 7
0.011803 -1.099609 -18.345703 7
0.021957001 -1.140747 -18.249023 7
0.024444999 -1.186035 -18.222656 7
0.01413 -1.238403 -18.313477 7
0.052352998 1.914307 -17.865234 7
0.050354 1.8701169 -17.884766 7
0.044555999 1.828979 -17.941406 7
0.054092001 1.774902 -17.859375 7
0.055962 1.7275389 -17.84668 7
0.055259999 1.682373 -17.855469 7
0.053307001 1.637939 -17.876953 7
0.00078599999 -0.95471197 -17.34668 7
0.014931 -0.99255401 -17.222656 7
0.015549 -1.036377 -17.214844 7
0.022926001 -1.076782 -17.148438 7
-0.0076219998 -1.136475 -17.407227 7
0.003151 -1.175171 -17.311523 7
0.0057979999 -1.217896 -17.286133 7
0.0043640002 -1.262939 -17.293945 7
0.033675998 1.863647 -16.935547 7
0.033629999 1.820068 -16.94043 7
0.039657999 1.77124 -16.892578 7
0.047042999 1.721802 -16.833008 7
0.047676001 1.677856 -16.831055 7
0.043579001 1.637695 -16.870117 7
0.0042500002 -0.98193401 -16.243164 7
0.011368 -1.020386 -16.183594 7
0.012024 -1.061646 -16.173828 7
0.016266 -1.1011961 -16.136719 7
-0.010368 -1.156616 -16.348633 7
0.00034299999 -1.192749 -16.259766 7
0.000275 -1.234497 -16.255859 7
0.0074009998 -1.272095 -16.195312 7
-0.038208 5.0515141 -15.861328 7
-0.041816998 5.0184331 -15.901367 7
-0.048988 4.993042 -15.969727 7
-0.054024 4.9628911 -16.020508 7
-0.061912999 4.9387212 -16.09375 7
-0.076247998 4.9282231 -16.217773 7
-0.087021001 4.9095459 -16.3125 7
-0.064873002 4.8198242 -16.150391 7
0.044700999 1.587158 -15.80957 7
0.048950002 1.542969 -15.77832 7
0.056777999 1.496582 -15.717773 7
0.034538001 1.471069 -15.901367 7
0.043076001 1.424194 -15.834961 7
0.051628001 1.377563 -15.768555 7
0.063758999 1.329102 -15.672852 7
0.060828999 1.290161 -15.698242 7
0.0065919999 -0.96606398 -15.25 7
-0.0056079999 -1.011108 -15.34082 7
0.0049439999 -1.045532 -15.256836 7
0.0094600003 -1.08252 -15.21875 7
0.013947 -1.119751 -15.181641 7
-0.0058590001 -1.169312 -15.330078 7
-0.0036319999 -1.207764 -15.310547 7
-0.0044559999 -1.247803 -15.3125 7
-0.00072499999 -1.285156 -15.280273 7
-0.011414 -1.331055 -15.358398 7
-0.078331001 5.0950928 -15.128906 7
-0.080619998 5.060791 -15.157227 7
-0.076874003 5.013062 -15.141602 7
-0.076880999 4.9736328 -15.154297 7
-0.090545997 4.9638672 -15.264648 7
-0.090561002 4.9241939 -15.276367 7
-0.091330998 4.8861079 -15.293945 7
-0.086838 4.836792 -15.271484 7
0.047417 1.262695 -14.84668 7
0.051925998 1.221436 -14.81543 7
0.053390998 1.1817631 -14.805664 7
0.038947999 1.150879 -14.918945 7
0.040421002 1.111328 -14.910156 7
0.053275999 1.065918 -14.814453 7
0.057007 1.0255131 -14.788086 7
0.062270999 0.98449701 -14.75 7
0.013077 -0.98400903 -14.279297 7
0.0081940005 -1.023315 -14.311523 7
0.014557 -1.057251 -14.262695 7
0.016106 -1.09375 -14.249023 7
0.020058 -1.12854 -14.216797 7
0.00235 -1.1750489 -14.341797 7
-0.0089570004 -1.218506 -14.420898 7
0.001419 -1.25 -14.341797 7
0.0029829999 -1.286377 -14.327148 7
0.006935 -1.321167 -14.294922 7
0.052025001 0.93725598 -13.929688 7
0.054382 0.89977998 -13.915039 7
0.051933002 0.86425799 -13.933594 7
0.047844 0.79272503 -13.96582 7
0.056609999 0.75292999 -13.904297 7
0.060570002 0.71521002 -13.876953 7
0.066947997 0.67663598 -13.833008 7
0.049095001 0.61096197 -13.179688 7
0.057434 0.539307 -13.125977 7
0.064034 0.467163 -13.175781 7
0.059379999 0.43335 -13.211914 7
0.055121999 0.399414 -13.242188 7
0.058456 0.36425799 -13.220703 7
0.065132 0.32873499 -13.172852 7
0.0050050002 -1.02478 -12.787109 7
0.0040210001 -1.092285 -12.788086 7
0.0021289999 -1.160278 -12.793945 7
0.04287 0.25109899 -12.493164 7
-0.0071789999 -1.366455 -12.152344 7
-0.090988003 4.7947998 -11.860352 7
-0.091003001 4.763062 -11.87207 7
0.035613999 -0.34423801 -11.299805 7
0.030685 -0.37524399 -11.327148 7
0.027718 -0.40600601 -11.344727 7
0.024734 -0.43652299 -11.361328 7
0.031539999 -0.465332 -11.319336 7
0.038345002 -0.49389601 -11.277344 7
0.0383 -0.52392602 -11.277344 7
0.042144999 -0.55285603 -11.251953 7
0.026466001 -0.58715802 -11.342773 7
0.018585 -0.619385 -11.388672 7
-0.00985 -1.300171 -11.498047 7
-0.0099029997 -1.330688 -11.495117 7
-0.011917 -1.362427 -11.503906 7
0.010262 -0.65185499 -10.861328 7
0.0061189998 -0.68212903 -10.883789 7
0.012199 -0.70910603 -10.845703 7
0.019309999 -0.73571801 -10.803711 7
0.021317 -0.763794 -10.790039 7
0.021271 -0.79272503 -10.788086 7
0.013046 -0.82470697 -10.833008 7
0.001747 -0.85790998 -10.893555 7
0.0037539999 -0.88622999 -10.880859 7
0.0088269999 -0.91320801 -10.850586 7
0.011848 -0.94079602 -10.830078 7
0.014053 -0.97668499 -10.21875 7
5.3e-05 -1.010376 -10.291992 7
-0.0085749999 -1.042236 -10.334961 7
-0.0064770002 -1.069092 -10.321289 7
0.0020600001 -1.092407 -10.272461 7
0.00095399999 -1.120483 -10.276367 7
0.00091599999 -1.148193 -10.273438 7
-0.0023650001 -1.177368 -10.287109 7
-0.00563 -1.206787 -10.300781 7
-0.0067670001 -1.235229 -10.303711 7
-0.019676 -1.270264 -10.369141 7
-0.153717 -2.1413569 13.4375 7
-0.149223 -2.052002 13.430664 7
-0.145882 -2.0205081 13.418945 7
-0.14366101 -1.9901119 13.412109 7
-0.138138 -1.957153 13.389648 7
-0.13700099 -1.927856 13.388672 7
-0.13367499 -1.896606 13.375977 7
-0.134758 -1.869141 13.386719 7
-0.13362101 -1.839844 13.384766 7
-0.125862 -1.805542 13.348633 7
-0.12583899 -1.777344 13.353516 7
-0.122505 -1.74646 13.34082 7
-0.115868 -1.713257 13.310547 7
-0.116936 -1.686035 13.320312 7
-0.119102 -1.659302 13.335938 7
-0.0047149998 -0.96850598 -9.8085938 7
-0.000267 -0.99304199 -9.7832031 7
0.005287 -1.016724 -9.7519531 7
0.0030139999 -1.044312 -9.7607422 7
0.00073999999 -1.071777 -9.7705078 7
-0.011658 -1.10437 -9.8300781 7
-0.02066 -1.13562 -9.8730469 7
-0.0095060002 -1.156372 -9.8125 7
-0.010651 -1.183594 -9.8164062 7
-0.010712 -1.210083 -9.8134766 7
-0.0085220002 -1.235229 -9.7988281 7
-0.013039 -1.2644041 -9.8193359 7
-0.113991 -1.693115 12.791016 7
-0.11396 -1.6661381 12.793945 7
-0.108192 -1.635254 12.770508 7
-0.102783 0.640625 12.861328 7
-0.108475 0.66955602 12.888672 7
-0.091224998 0.69140601 12.800781 7
-0.093483001 0.71923798 12.810547 7
-0.093437001 0.746216 12.80957 7
-0.093383998 0.773193 12.806641 7
-0.093346 0.80029303 12.805664 7
-0.0933 0.82702601 12.802734 7
-0.093262002 0.85412598 12.801758 7
-0.094352998 0.88147002 12.805664 7
-0.094322003 0.90844703 12.803711 7
-0.094276004 0.93542498 12.801758 7
-0.069214001 4.788208 -9.0859385 7
-0.068099998 4.7609859 -9.0917969 7
-0.067001 4.733521 -9.0976562 7
-0.068130001 4.7106929 -9.1142578 7
-0.072586 4.6950679 -9.1464844 7
-0.080421001 4.6859131 -9.1933594 7
-0.089363001 4.6791992 -9.2480469 7
-0.079323001 4.6330571 -9.2109385 7
-0.073738001 4.596436 -9.1953115 7
-0.077095002 4.5778809 -9.2226562 7
-0.077102996 4.5526118 -9.2324219 7
-0.072639003 4.518188 -9.2226562 7
-0.071533002 4.4907231 -9.2275391 7
-0.0078429999 -0.97851598 -9.3339844 7
-0.0067210002 -1.003418 -9.3261719 7
-0.016098 -1.033203 -9.3701172 7
-0.017325999 -1.059204 -9.3730469 7
-0.013847 -1.082886 -9.3544922 7
-0.0080490001 -1.105347 -9.3222656 7
-0.0092540001 -1.1312259 -9.3242188 7
-0.016318999 -1.1604 -9.3574219 7
-0.01284 -1.18396 -9.3369141 7
-0.012901 -1.209229 -9.3339844 7
-0.016441001 -1.236572 -9.3486328 7
-0.018828999 -1.263428 -9.3564453 7
-0.095908999 0.663818 12.338867 7
-0.105431 0.692505 12.382812 7
-0.089859001 0.71362299 12.307617 7
-0.091018997 0.73986799 12.311523 7
-0.094558999 0.766846 12.327148 7
-0.090934999 0.79138201 12.308594 7
-0.089690998 0.81677198 12.299805 7
-0.089661002 0.84265101 12.298828 7
-0.089607 0.86840802 12.296875 7
-0.091949001 0.89514202 12.305664 7
-0.091903999 0.92089802 12.303711 7
-0.091849998 0.94677699 12.301758 7
-0.065025002 4.785645 -8.5107422 7
-0.068526998 4.7694092 -8.5371094 7
-0.074355997 4.757935 -8.5732422 7
-0.072029002 4.729248 -8.5751953 7
-0.073188998 4.7078862 -8.5917969 7
0.000191 -1.006592 -8.8388672 7
-0.004745 -1.057373 -8.8564453 7
-0.0060419999 -1.106445 -8.8574219 7
-0.026794 -1.141479 -8.9521484 7
-0.011017 -1.1574709 -8.8740234 7
-0.017181 -1.209473 -8.8974609 7
-0.01722 -1.233887 -8.8945312 7
-0.013603 -1.256104 -8.8740234 7
-0.122894 -1.932129 11.838867 7
-0.087875001 0.95556599 11.834961 7
-0.078010999 4.7927251 -8.0566406 7
-0.078018002 4.7701421 -8.0673828 7
-0.076820001 4.744751 -8.0732422 7
-0.078025997 4.7249761 -8.0898438 7
-0.076820001 4.6994629 -8.0966797 7
-0.086548001 4.697021 -8.1484385 7
-0.088973999 4.6791992 -8.1699219 7
-0.096259996 4.6711431 -8.2119141 7
-0.095069997 4.645874 -8.2177734 7
-0.092651002 4.618042 -8.2177734 7
-0.079291999 4.5681152 -8.1708984 7
-0.070793003 4.5281978 -8.1464844 7
-0.086571001 4.5368652 -8.2236328 7
-0.298599 -5.1187739 11.029297 7
-0.297272 -5.0932622 11.035156 7
-0.292068 -5.059814 11.027344 7
-0.28946701 -5.0317378 11.029297 7
-0.28946701 -5.0089111 11.041016 7
-0.28946701 -4.986084 11.053711 7
-0.28945199 -4.9632568 11.064453 7
-0.28685001 -4.9350591 11.066406 7
-0.281647 -4.9017329 11.058594 7
-0.28163901 -4.8789058 11.070312 7
-0.27642101 -4.8457031 11.061523 7
-0.28031901 -4.8304439 11.087891 7
-0.276398 -4.8000488 11.083984 7
-0.097832002 -1.896973 11.257812 7
-0.096504003 -1.872437 11.255859 7
-0.096488997 -1.849243 11.260742 7
-0.095169 -1.824707 11.259766 7
-0.091247998 -1.79834 11.24707 7
-0.088623002 -1.772949 11.240234 7
-0.089911997 -1.75061 11.250977 7
-0.088577002 -1.72644 11.249023 7
-0.085952997 -1.7012939 11.241211 7
-0.082024001 -1.674927 11.228516 7
-0.080704004 -1.650635 11.227539 7
-0.080665998 -1.627441 11.230469 7
-0.076759003 -1.601318 11.217773 7
-0.011421 -1.216064 -7.9970698 7
-0.312325 -5.095459 10.614258 7
-0.313667 -5.0762939 10.630859 7
-0.312325 -5.0517578 10.638672 7
-0.31367499 -5.0324712 10.655273 7
-0.312309 -5.007812 10.661133 7
-0.315018 -4.9914551 10.683594 7
-0.31907699 -4.9775391 10.710938 7
-0.32041201 -4.9580078 10.727539 7
-0.32041201 -4.9359131 10.739258 7
-0.313629 -4.9006348 10.725586 7
-0.30687699 -4.8652339 10.711914 7
-0.31227899 -4.8537598 10.743164 7
-0.30822799 -4.823853 10.740234 7
-0.310112 -5.0900879 10.109375 7
-0.31153101 -5.0723882 10.125977 7
-0.311546 -5.0515141 10.139648 7
-0.30451199 -5.0167241 10.126953 7
-0.30450401 -4.9960942 10.138672 7
-0.298859 -4.9641109 10.129883 7
-0.303078 -4.9517822 10.157227 7
-0.30870801 -4.9422612 10.188477 7
-0.31152299 -4.927002 10.209961 7
-0.310112 -4.9033198 10.216797 7
-0.308716 -4.8796391 10.223633 7
-0.30166599 -4.8450928 10.209961 7
-0.303078 -4.8270259 10.226562 7
-0.09623 -1.916626 10.4375 7
-0.093376003 -1.892822 10.429688 7
-0.101814 -1.878296 10.46875 7
-0.113037 -1.865967 10.516602 7
-0.10598 -1.8388669 10.493164 7
-0.101753 -1.813965 10.481445 7
-0.089057997 -1.7824709 10.435547 7
-0.087638997 -1.760132 10.433594 7
-0.086220004 -1.737671 10.432617 7
-0.084784999 -1.71521 10.431641 7
-0.094619997 -1.70105 10.474609 7
-0.097404003 -1.6817631 10.489258 7
-0.088936001 -1.654053 10.459961 7
-0.087517001 -1.63147 10.458984 7
-0.086081997 -1.609131 10.456055 7
-0.133209 4.1914058 9.859375 7
-0.12336 4.1937261 9.8144531 7
-0.12609901 4.2186279 9.8144531 7
-0.12884501 4.2436519 9.8144531 7
-0.13159201 4.2686772 9.8144531 7
-0.128731 4.2833252 9.7939453 7
-0.130081 4.3057861 9.7890615 7
-0.143967 4.3717041 9.8193359 7
-0.14952099 4.4022222 9.8291016 7
-0.155067 4.4327388 9.8398438 7
-0.15500601 4.4526372 9.8291016 7
-0.154953 4.4724121 9.8173828 7
-0.239227 -4.4846191 -7.0888672 7
-0.23498499 -4.496582 -7.063477 7
-0.31833601 -5.112793 9.6933594 7
-0.31103501 -5.0782471 9.6806641 7
-0.31396499 -5.0645752 9.7021484 7
-0.313896 -5.0447998 9.7138672 7
-0.30950901 -5.016479 9.7119141 7
-0.30513799 -4.987793 9.7089844 7
-0.312424 -4.9827881 9.7451172 7
-0.31388101 -4.9659419 9.7617188 7
-0.31243101 -4.9433589 9.7695312 7
-0.313896 -4.92627 9.7861328 7
-0.31098899 -4.9006348 9.7890615 7
-0.30953199 -4.8779302 9.7949219 7
-0.31244701 -4.8638921 9.8164062 7
-0.30806699 -4.8353271 9.8125 7
-0.306595 -4.8125 9.8193359 7
-0.095314004 -1.905273 10.083008 7
-0.095298998 -1.884644 10.086914 7
-0.101105 -1.869019 10.113281 7
-0.098174997 -1.845947 10.106445 7
-0.099601999 -1.826538 10.115234 7
-0.090851001 -1.799072 10.087891 7
-0.086441003 -1.775146 10.075195 7
-0.082053997 -1.7512209 10.0625 7
-0.082030997 -1.730713 10.066406 7
-0.077643998 -1.7069089 10.053711 7
-0.08783 -1.694092 10.09668 7
-0.084899999 -1.671265 10.089844 7
-0.083420001 -1.649658 10.088867 7
-0.083397001 -1.629028 10.092773 7
-0.079010002 -1.6055911 10.080078 7
-0.160889 4.1618652 9.6035156 7
-0.150665 4.1630859 9.5585938 7
-0.144814 4.1721191 9.5292969 7
-0.14041901 4.1834722 9.5039062 7
-0.133095 4.1894531 9.46875 7
-0.131607 4.2059331 9.4541016 7
-0.13155399 4.2249761 9.4443359 7
-0.132965 4.24646 9.4394531 7
-0.134354 4.268188 9.4345703 7
-0.131401 4.2817378 9.4140615 7
-0.12988999 4.2979741 9.3984385 7
-0.13128699 4.3197021 9.3935547 7
-0.13269 4.341187 9.3886719 7
-0.14424901 4.3818359 9.4179688 7
-0.15289301 4.4171138 9.4365234 7
-0.155746 4.4416499 9.4365234 7
-0.161484 4.4718022 9.4453115 7
-0.24913 -4.4980469 -6.6943359 7
-0.241745 -4.5032959 -6.6591802 7
-0.23880801 -4.5168462 -6.6386719 7
-0.23886099 -4.5358891 -6.6279302 7
-0.24637599 -4.5688481 -6.640625 7
-0.237488 -4.5710449 -6.6005859 7
-0.24348401 -4.6011958 -6.610352 7
-0.246521 -4.625854 -6.608398 7
-0.24807 -4.647583 -6.6025391 7
-0.24812301 -4.6663818 -6.5908198 7
-0.245186 -4.679565 -6.570312 7
-0.25417301 -4.7156978 -6.5878911 7
-0.26615101 -4.75769 -6.6162109 7
-0.26322201 -4.770752 -6.5957031 7
-0.25732401 -4.7780762 -6.5644531 7
-0.326157 -5.1181641 9.2763672 7
-0.31404901 -5.0749512 9.25 7
-0.30649599 -5.040894 9.2382812 7
-0.317085 -5.0439448 9.2832031 7
-0.31407201 -5.0189209 9.2871094 7
-0.30801401 -4.9881592 9.2802734 7
-0.30349001 -4.9604492 9.2773438 7
-0.30196401 -4.9387212 9.2841797 7
-0.31558201 -4.947021 9.3388672 7
-0.31861901 -4.9342041 9.3613281 7
-0.31256101 -4.9033198 9.3535156 7
-0.314064 -4.8876948 9.3691406 7
-0.31104299 -4.862793 9.3710938 7
-0.303482 -4.8292241 9.3583984 7
-0.104027 -1.91748 9.7587891 7
-0.096442997 -1.891602 9.734375 7
-0.096419998 -1.8718261 9.7392578 7
-0.099441998 -1.8544919 9.7548828 7
-0.106956 -1.84082 9.7871094 7
-0.099395998 -1.814819 9.7636719 7
-0.084251001 -1.783325 9.7138672 7
-0.088760003 -1.76709 9.734375 7
-0.085708998 -1.7451169 9.7275391 7
-0.079643004 -1.720825 9.7089844 7
-0.079643004 -1.70105 9.7138672 7
-0.082663998 -1.683594 9.7294922 7
-0.090202004 -1.669556 9.7617188 7
-0.082618997 -1.644165 9.7373047 7
-0.079558998 -1.622437 9.7294922 7
-0.088623002 -1.609009 9.7675781 7
-0.073028997 0.97351098 9.8251953 7
-0.068466 0.99145502 9.8056641 7
-0.06842 1.011108 9.8027344 7
-0.068397999 1.031128 9.8007812 7
-0.074401997 1.0537111 9.8212891 7
-0.075874001 1.074219 9.8242188 7
-0.072823003 1.092651 9.8105469 7
-0.083359003 1.117798 9.8476562 7
-0.086333998 1.139282 9.8554688 7
-0.077232003 1.154663 9.8193359 7
-0.071152002 1.171509 9.7939453 7
-0.083214 1.19751 9.8359385 7
-0.092231996 1.222412 9.8671885 7
-0.080109 1.23584 9.8183594 7
-0.08461 1.258301 9.8330078 7
-0.16870899 4.179565 9.2226562 7
-0.16113301 4.1846919 9.1884766 7
-0.14150199 4.1678472 9.1142578 7
-0.13694 4.177979 9.0888672 7
-0.130867 4.1851811 9.0595703 7
-0.132332 4.2059331 9.0537109 7
-0.13227101 4.223999 9.0449219 7
-0.126205 4.2310791 9.0146484 7
-0.136696 4.2684331 9.0390615 7
-0.13362899 4.2810059 9.0195312 7
-0.12455 4.282227 8.9794922 7
-0.125984 4.302856 8.9736328 7
-0.127441 4.3234859 8.96875 7
-0.148468 4.380981 9.0263672 7
-0.151436 4.4046631 9.0263672 7
-0.150482 4.4232178 9.015625 7
-0.162468 4.464355 9.0439453 7
-0.150345 4.4771729 8.984375 7
-0.248703 -4.4825439 -6.3173828 7
-0.24565899 -4.4951172 -6.297852 7
-0.242645 -4.5074458 -6.2763672 7
-0.238068 -4.5172119 -6.250977 7
-0.242744 -4.5439448 -6.2548828 7
-0.241249 -4.559082 -6.2392578 7
-0.24128699 -4.577148 -6.2285161 7
-0.242882 -4.598145 -6.2226558 7
-0.238327 -4.6072998 -6.1972661 7
-0.241447 -4.6312261 -6.195312 7
-0.247665 -4.6608891 -6.204102 7
-0.247719 -4.678833 -6.1933589 7
-0.26163501 -4.7236328 -6.2255859 7
-0.25862101 -4.7355962 -6.204102 7
-0.261742 -4.759644 -6.203125 7
-0.264893 -4.7836909 -6.2001948 7
-0.34316301 -6.2485352 -5.4169922 7
-0.34013399 -6.2568359 -5.3935552 7
-0.341728 -6.2766109 -5.382812 7
-0.346443 -6.3043208 -5.3798828 7
-0.34339899 -6.3126221 -5.3564448 7
-0.35118899 -6.3477778 -5.3613281 7
-0.34506199 -6.3483891 -5.3300781 7
-0.346672 -6.368042 -5.3193359 7
-0.31428501 -5.1098628 8.8349609 7
-0.31270599 -5.0889888 8.8417969 7
-0.306458 -5.0587158 8.8359385 7
-0.306465 -5.0411382 8.8476562 7
-0.300217 -5.0108638 8.8408203 7
-0.301788 -4.9963379 8.8574219 7
-0.30179599 -4.9786382 8.8701172 7
-0.30022401 -4.9577641 8.8759766 7
-0.303352 -4.9464111 8.8974609 7
-0.30492401 -4.9317632 8.9140615 7
-0.308052 -4.9202881 8.9355469 7
-0.304932 -4.8961182 8.9375 7
-0.31432301 -4.896606 8.9775391 7
-0.31430799 -4.8787842 8.9882812 7
-0.304932 -4.8424072 8.9726562 7
-0.29862201 -4.8125 8.9648438 7
-0.30175799 -4.8005371 8.9853516 7
-0.084793001 -1.909912 9.3818359 7
-0.094162002 -1.898926 9.4179688 7
-0.098830998 -1.8837889 9.4394531 7
-0.095702998 -1.862061 9.4326172 7
-0.095673002 -1.843262 9.4375 7
-0.105042 -1.831787 9.4746094 7
-0.094077997 -1.804077 9.4394531 7
-0.090949997 -1.782593 9.4335938 7
-0.076828003 -1.752563 9.3886719 7
-0.084641002 -1.739624 9.4208984 7
-0.084633 -1.720703 9.4248047 7
-0.081490003 -1.699463 9.4179688 7
-0.084578998 -1.6826169 9.4326172 7
-0.087684996 -1.666016 9.4462891 7
-0.086121 -1.645874 9.4462891 7
-0.082976997 -1.624512 9.4394531 7
-0.076691002 -1.6011961 9.4208984 7
-0.068535 0.975586 9.5107422 7
-0.068489 0.99462903 9.5078115 7
-0.066901997 1.013184 9.5 7
-0.06842 1.032959 9.5029297 7
-0.066832997 1.051514 9.4951172 7
-0.071479999 1.072876 9.5087891 7
-0.076141 1.094238 9.5234385 7
-0.071410999 1.111328 9.5039062 7
-0.071381003 1.130371 9.5009766 7
-0.076026998 1.151855 9.515625 7
-0.072867997 1.169434 9.5009766 7
-0.071273997 1.187744 9.4931641 7
-0.077491999 1.210083 9.5126953 7
-0.077445999 1.22937 9.5097656 7
-0.082092002 1.2512209 9.5234385 7
-0.080498002 1.2694089 9.5146484 7
-0.083907999 4.791748 -5.3779302 7
-0.074707001 4.7564702 -5.3613281 7
-0.070106998 4.7304692 -5.359375 7
-0.065498002 4.7045898 -5.3564448 7
-0.062415998 4.6820068 -5.3574219 7
-0.063942 4.6690669 -5.374023 7
-0.065482996 4.6561279 -5.3886719 7
-0.067009002 4.6430659 -5.4042969 7
-0.068526998 4.6297612 -5.421875 7
-0.066993997 4.6104741 -5.4267578 7
-0.070060998 4.6002202 -5.4472661 7
-0.071586996 4.5869141 -5.4638672 7
-0.077705003 4.5828862 -5.4931641 7
-0.082305998 4.5756841 -5.5175781 7
-0.094550997 4.5838618 -5.5664058 7
-0.088425003 4.55481 -5.5585942 7
-0.079239003 4.5197749 -5.5400391 7
-0.082305998 4.5093989 -5.5605469 7
-0.077698 4.4836431 -5.5566411 7
-0.237808 -4.493042 -5.8535161 7
-0.237854 -4.5102539 -5.842773 7
-0.2379 -4.5273442 -5.8320308 7
-0.23633599 -4.5413818 -5.8164058 7
-0.239586 -4.5643311 -5.8154302 7
-0.239632 -4.5814209 -5.8056641 7
-0.239693 -4.5985112 -5.7949219 7
-0.238152 -4.6125488 -5.7773442 7
-0.24300399 -4.6385498 -5.782227 7
-0.239838 -4.6495361 -5.7617192 7
-0.246292 -4.6785889 -5.7685552 7
-0.24953499 -4.7019038 -5.7675781 7
-0.25279999 -4.724854 -5.765625 7
-0.26248199 -4.760498 -5.78125 7
-0.25611901 -4.7650151 -5.750977 7
-0.262566 -4.7945561 -5.7587891 7
-0.340004 -6.0863042 -5.054688 7
-0.33364901 -6.085938 -5.023438 7
-0.336914 -6.1088872 -5.016602 7
-0.33856201 -6.1280522 -5.0068359 7
-0.33702901 -6.1391602 -4.9882808 7
-0.338669 -6.1583252 -4.9785161 7
-0.34194899 -6.1810298 -4.969727 7
-0.34521499 -6.203979 -4.9628911 7
-0.35008201 -6.230835 -4.960938 7
-0.350128 -6.2459722 -4.9462891 7
-0.35501099 -6.2728271 -4.9433589 7
-0.34863999 -6.2718511 -4.9130859 7
-0.343887 -6.2747798 -4.8847661 7
-0.335922 -6.2696528 -4.8505859 7
-0.34079 -6.2965088 -4.8476558 7
-0.34085801 -6.3112788 -4.8320308 7
-0.34250599 -6.3299561 -4.8212891 7
-0.34255999 -6.344604 -4.8066411 7
-0.31188199 -5.1071782 8.3964844 7
-0.31189001 -5.0906978 8.4082031 7
-0.30864701 -5.0675049 8.4121094 7
-0.307037 -5.0476069 8.4189453 7
-0.29892001 -5.0145259 8.4082031 7
-0.30542001 -5.0111079 8.4384766 7
-0.29570001 -4.974731 8.4228516 7
-0.30055201 -4.9680181 8.4472656 7
-0.29570001 -4.9415278 8.4462891 7
-0.29730999 -4.9281011 8.4619141 7
-0.295708 -4.9080811 8.46875 7
-0.30057499 -4.901001 8.4951172 7
-0.30544299 -4.8937988 8.5205078 7
-0.30869299 -4.8833008 8.5410156 7
-0.30545801 -4.8599849 8.5439453 7
-0.29896501 -4.8304439 8.5361328 7
-0.29894999 -4.8135991 8.546875 7
-0.083740003 -1.907104 9.0488281 7
-0.086975001 -1.891724 9.0644531 7
-0.082092002 -1.869385 9.0527344 7
-0.082076997 -1.851318 9.0566406 7
-0.088546999 -1.838745 9.0830078 7
-0.091789 -1.822998 9.0986328 7
-0.096634001 -1.8087161 9.1191406 7
-0.091751002 -1.786499 9.1064453 7
-0.078758001 -1.758057 9.0693359 7
-0.075507998 -1.737671 9.0615234 7
-0.075493 -1.7194819 9.0664062 7
-0.072235003 -1.698853 9.0585938 7
-0.068962 -1.678223 9.0517578 7
-0.072182 -1.66272 9.0673828 7
-0.083526999 -1.652832 9.1083984 7
-0.081894003 -1.633423 9.1083984 7
-0.075386003 -1.610474 9.0898438 7
-0.081573002 4.782227 -4.967773 7
-0.078383997 4.7601318 -4.9707031 7
-0.068832003 4.724731 -4.953125 7
-0.062447 4.6964111 -4.9472661 7
-0.057670999 4.6711431 -4.9433589 7
-0.059250001 4.6591802 -4.9599609 7
-0.062438998 4.6507568 -4.9794922 7
-0.062424 4.635376 -4.9912109 7
-0.059234999 4.6134028 -4.992188 7
-0.065598004 4.6112061 -5.0214839 7
-0.062408 4.589355 -5.023438 7
-0.065605 4.5805659 -5.0429692 7
-0.070389003 4.5748291 -5.0664058 7
-0.079917997 4.5784912 -5.1074219 7
-0.081505001 4.56604 -5.1220698 7
-0.084686004 4.5568848 -5.1425781 7
-0.078299999 4.5283198 -5.1347661 7
-0.087852001 4.5318599 -5.172852 7
-0.079887003 4.5002441 -5.1611328 7
-0.083061002 4.4908452 -5.1806641 7
-0.249474 -4.4881592 -5.514648 7
-0.25283101 -4.5107422 -5.5136719 7
-0.244583 -4.5115972 -5.4794922 7
-0.246292 -4.5308838 -5.4736328 7
-0.24633799 -4.5472412 -5.4628911 7
-0.24804699 -4.5664058 -5.4560552 7
-0.248116 -4.5826421 -5.4443359 7
-0.243187 -4.589478 -5.4189448 7
-0.24322499 -4.6054692 -5.4082031 7
-0.24659701 -4.6278081 -5.407227 7
-0.243332 -4.6376948 -5.3857422 7
-0.240044 -4.6472168 -5.3662109 7
-0.25005299 -4.6824951 -5.3837891 7
-0.25673699 -4.7114258 -5.390625 7
-0.26179501 -4.736938 -5.3925781 7
-0.25352499 -4.736938 -5.359375 7
-0.26519799 -4.7756348 -5.3798828 7
-0.26026899 -4.7817378 -5.3544922 7
-0.34097299 -6.1801758 -4.4775391 7
-0.34601599 -6.2064209 -4.4755859 7
-0.347725 -6.2243652 -4.4648442 7
-0.352768 -6.2504878 -4.460938 7
-0.346176 -6.2480469 -4.4306641 7
-0.347893 -6.2658691 -4.4189448 7
-0.34461999 -6.2713618 -4.3964839 7
-0.34135401 -6.276855 -4.374023 7
-0.33809701 -6.282104 -4.3505859 7
-0.33814201 -6.2956538 -4.3369141 7
-0.346497 -6.3300781 -4.3408198 7
-0.33990499 -6.3269038 -4.3095698 7
-0.338303 -6.3361821 -4.2900391 7
-0.343353 -6.3623052 -4.2861328 7
-0.34339899 -6.3757319 -4.2714839 7
-0.34178901 -6.3848882 -4.2529302 7
-0.34185001 -6.3980708 -4.2373052 7
-0.306427 -5.0914311 7.9726558 7
-0.30474901 -5.0722661 7.9804692 7
-0.31485701 -5.077271 8.0185547 7
-0.29971299 -5.0308838 7.9902339 7
-0.287956 -4.9914551 7.9716802 7
-0.29300699 -4.986084 7.9980469 7
-0.29302201 -4.970459 8.0097656 7
-0.296379 -4.9616699 8.0302734 7
-0.294716 -4.942627 8.0380859 7
-0.29135099 -4.9200439 8.0400391 7
-0.294716 -4.9110112 8.0605469 7
-0.29978901 -4.9051509 8.0869141 7
-0.298096 -4.8861079 8.09375 7
-0.30315399 -4.8800049 8.1181641 7
-0.296417 -4.8510742 8.1123047 7
-0.291374 -4.8253169 8.1103516 7
-0.291374 -4.8094478 8.1210938 7
-0.085358001 -1.905273 8.7451172 7
-0.080298997 -1.8837889 8.7333984 7
-0.083655998 -1.8692631 8.7490234 7
-0.081963003 -1.8505861 8.7480469 7
-0.086989999 -1.837158 8.7685547 7
-0.097053997 -1.827759 8.8056641 7
-0.090317003 -1.804932 8.7880859 7
-0.093666002 -1.790161 8.8037109 7
-0.088600002 -1.7687989 8.7910156 7
-0.066726997 -1.734253 8.7255859 7
-0.071754001 -1.720825 8.7451172 7
-0.071732 -1.703491 8.7490234 7
-0.073402002 -1.687256 8.7587891 7
-0.070037998 -1.66748 8.7519531 7
-0.076752 -1.6550291 8.7792969 7
-0.081795 -1.641235 8.7988281 7
-0.080086 -1.622437 8.796875 7
-0.058127999 0.96850598 8.8544922 7
-0.056435 0.98547399 8.8466797 7
-0.053032 1.001587 8.8330078 7
-0.046294998 1.016113 8.8105469 7
-0.049621999 1.035156 8.8183594 7
-0.054625999 1.054932 8.8320312 7
-0.05294 1.0718991 8.8251953 7
-0.051215999 1.088501 8.8164062 7
-0.05957 1.110229 8.8417969 7
-0.061218001 1.12854 8.8447266 7
-0.059502002 1.145264 8.8369141 7
-0.064514004 1.1656491 8.8505859 7
-0.066161998 1.184082 8.8535156 7
-0.074524 1.206177 8.8789062 7
-0.071121 1.222046 8.8642578 7
-0.066055 1.236816 8.8447266 7
-0.066024996 1.254395 8.8417969 7
-0.071021996 1.274902 8.8554688 7
-0.091507003 4.7912598 -4.6132808 7
-0.081611998 4.755981 -4.5976558 7
-0.065086 4.7071528 -4.5644531 7
-0.065079004 4.692749 -4.5751948 7
-0.065063 4.6784668 -4.585938 7
-0.066696003 4.667603 -4.6025391 7
-0.070014998 4.6600342 -4.6210942 7
-0.068343997 4.6422119 -4.6279302 7
-0.07164 4.634521 -4.648438 7
-0.071625002 4.6199951 -4.6591802 7
-0.061728999 4.5852051 -4.6425781 7
-0.066657998 4.580811 -4.6679692 7
-0.074928001 4.5830078 -4.7001948 7
-0.083176002 4.585083 -4.735352 7
-0.093056001 4.590332 -4.773438 7
-0.089752004 4.5688481 -4.7753911 7
-0.093039997 4.5606689 -4.7949219 7
-0.084793001 4.5292969 -4.7832031 7
-0.078185998 4.5014648 -4.7744141 7
-0.081467003 4.4931641 -4.795898 7
-0.084778003 4.4847412 -4.8144531 7
-0.24700899 -4.4865718 -5.1337891 7
-0.248787 -4.5048828 -5.1269531 7
-0.25398299 -4.5300288 -5.1298828 7
-0.24542201 -4.5294189 -5.094727 7
-0.24547599 -4.5447998 -5.0849609 7
-0.24380501 -4.5570068 -5.0693359 7
-0.24556699 -4.575562 -5.063477 7
-0.24733 -4.5938721 -5.0566411 7
-0.247375 -4.6092529 -5.045898 7
-0.247421 -4.6245122 -5.0351558 7
-0.247467 -4.639648 -5.0244141 7
-0.24752 -4.6549072 -5.0136719 7
-0.25102201 -4.6765141 -5.0117192 7
-0.25106001 -4.6916499 -5 7
-0.25283799 -4.710083 -4.9931641 7
-0.26320601 -4.7453609 -5.0087891 7
-0.26324499 -4.7602539 -4.9970698 7
-0.26673099 -4.782104 -4.9951172 7
-0.26335099 -4.790771 -4.9755859 7
-0.30116299 -5.114502 7.5400391 7
-0.29420501 -5.0854492 7.5341802 7
-0.30641201 -5.0960689 7.5761719 7
-0.29944599 -5.0672612 7.5722661 7
-0.29944599 -5.0526118 7.5839839 7
-0.29424301 -5.0273442 7.5820308 7
-0.29772201 -5.0197749 7.6025391 7
-0.28901699 -4.9876709 7.592773 7
-0.294258 -4.983398 7.6181641 7
-0.29425001 -4.9686279 7.6289058 7
-0.294258 -4.9538569 7.641602 7
-0.29079399 -4.9321289 7.6455078 7
-0.29080999 -4.9172359 7.657227 7
-0.296051 -4.9128418 7.6826172 7
-0.29430401 -4.8945308 7.6894531 7
-0.294319 -4.8796391 7.7011719 7
-0.30301699 -4.8818359 7.733398 7
-0.29432699 -4.849731 7.7236328 7
-0.29085499 -4.8280029 7.726562 7
-0.29084799 -4.8129878 7.7373052 7
-0.079567 -1.913574 8.4345703 7
-0.081276 -1.898193 8.4443359 7
-0.081276 -1.881592 8.4482422 7
-0.081253 -1.86499 8.453125 7
-0.077751003 -1.845459 8.4462891 7
-0.079490997 -1.830322 8.4570312 7
-0.082947001 -1.8162839 8.4716797 7
-0.082938999 -1.799561 8.4765615 7
-0.081184 -1.781494 8.4746094 7
-0.074202999 -1.759277 8.4580078 7
-0.065505996 -1.73584 8.4365234 7
-0.067238003 -1.720459 8.4462891 7
-0.067222998 -1.7038569 8.4501953 7
-0.063721001 -1.684692 8.4433594 7
-0.060226001 -1.665283 8.4365234 7
-0.063689999 -1.651245 8.4511719 7
-0.068901002 -1.638306 8.4716797 7
-0.067130998 -1.620361 8.4697266 7
-0.065453 0.969971 8.6005859 7
-0.051521 0.98095697 8.5537109 7
-0.049743999 0.99719203 8.5458984 7
-0.046248998 1.012329 8.5322266 7
-0.047951002 1.0300291 8.5361328 7
-0.047905002 1.046875 8.5332031 7
-0.051369 1.065308 8.5419922 7
-0.051323 1.082275 8.5390615 7
-0.049568001 1.098389 8.53125 7
-0.051270001 1.115845 8.5341797 7
-0.051224001 1.132812 8.53125 7
-0.051201001 1.149658 8.5283203 7
-0.059852999 1.1711431 8.5537109 7
-0.061562002 1.188843 8.5556641 7
-0.054581001 1.202026 8.5302734 7
-0.059753001 1.22168 8.5449219 7
-0.061462 1.239624 8.5478516 7
-0.061423998 1.25647 8.5449219 7
-0.064865001 1.275146 8.5527344 7
-0.095900998 4.7984619 -4.2519531 7
-0.099312 4.7919922 -4.2724609 7
-0.095894001 4.7713618 -4.2744141 7
-0.095894001 4.757812 -4.2851558 7
-0.092460997 4.737061 -4.2880859 7
-0.087341003 4.712646 -4.2861328 7
-0.075355999 4.6741939 -4.266602 7
-0.071921997 4.653687 -4.2685552 7
-0.070206001 4.6364751 -4.2753911 7
-0.070183001 4.6229248 -4.2861328 7
-0.066765003 4.6022949 -4.2880859 7
-0.070168003 4.595459 -4.3085942 7
-0.075309999 4.5922852 -4.3310552 7
-0.085556 4.5993652 -4.3701172 7
-0.090674996 4.5959468 -4.3945308 7
-0.088959001 4.5784912 -4.4003911 7
-0.092377 4.5716548 -4.4199219 7
-0.085541002 4.5438228 -4.4130859 7
-0.083816998 4.5264888 -4.4179692 7
-0.082092002 4.5091548 -4.4248052 7
-0.083801001 4.4985352 -4.4404302 7
-0.083801001 4.4847412 -4.4501948 7
-0.090636998 4.4841309 -4.4794922 7
-0.25254101 -4.4949951 -4.7939448 7
-0.24903101 -4.5030522 -4.7724609 7
-0.256172 -4.5307622 -4.78125 7
-0.25266999 -4.5388179 -4.7607422 7
-0.25449401 -4.5567632 -4.7558589 7
-0.25455499 -4.5712891 -4.7441411 7
-0.24925999 -4.5756841 -4.71875 7
-0.249313 -4.5900879 -4.7080078 7
-0.24935199 -4.6044922 -4.6972661 7
-0.25295299 -4.625854 -4.695312 7
-0.25299099 -4.6402588 -4.6845698 7
-0.24948899 -4.6477051 -4.6650391 7
-0.247757 -4.6585689 -4.648438 7
-0.25134301 -4.679688 -4.6464839 7
-0.26561701 -4.721436 -4.671875 7
-0.25501299 -4.71521 -4.632812 7
-0.26040599 -4.739624 -4.6347661 7
-0.25865901 -4.7504878 -4.6191411 7
-0.25692701 -4.761353 -4.6035161 7
-0.26944 -4.7998052 -4.6230469 7
-0.34538999 -6.2059331 -3.5185549 7
-0.34544399 -6.2175288 -3.503906 7
-0.34192699 -6.2205811 -3.483398 7
-0.34555101 -6.2407231 -3.4736331 7
-0.34737399 -6.2568359 -3.4638669 7
-0.36348 -6.3079829 -3.4785161 7
-0.36175501 -6.315186 -3.460938 7
-0.35111201 -6.3000488 -3.4238279 7
-0.352943 -6.3157959 -3.4121089 7
-0.35120401 -6.3227539 -3.394531 7
-0.347702 -6.3251948 -3.3730471 7
-0.34953299 -6.3409419 -3.3613279 7
-0.34780899 -6.3476558 -3.342773 7
-0.35498801 -6.376709 -3.3408201 7
-0.349693 -6.3743901 -3.3154299 7
-0.355095 -6.3991699 -3.3105471 7
-0.30952501 -4.9050288 7.375 7
-0.302338 -4.8768311 7.3691411 7
-0.30053699 -4.8591309 7.375977 7
-0.295151 -4.8344731 7.375977 7
-0.29157299 -4.813354 7.3789058 7
-0.085891999 -1.914062 8.1845703 7
-0.089469999 -1.901001 8.1992188 7
-0.084053002 -1.880615 8.1875 7
-0.084045 -1.864502 8.1923828 7
-0.084053002 -1.848389 8.1972656 7
-0.084022999 -1.832275 8.2011719 7
-0.084014997 -1.816162 8.2060547 7
-0.091209002 -1.805786 8.2314453 7
-0.083999999 -1.784058 8.2148438 7
-0.069580004 -1.756714 8.1757812 7
-0.071381003 -1.741943 8.1855469 7
-0.071358003 -1.725952 8.1894531 7
-0.071350001 -1.7099611 8.1933594 7
-0.071335003 -1.693848 8.1972656 7
-0.071327001 -1.677856 8.2011719 7
-0.067711003 -1.658936 8.1953115 7
-0.067695998 -1.642822 8.1992188 7
-0.069489002 -1.628052 8.2080078 7
-0.069466002 -1.612061 8.2119141 7
-0.053482 0.96289098 8.3017578 7
-0.060623001 0.98242199 8.3212891 7
-0.060600001 0.998779 8.3193359 7
-0.051589999 1.011108 8.2890615 7
-0.056945998 1.029785 8.3027344 7
-0.058701001 1.046875 8.3056641 7
-0.058669999 1.0632319 8.3027344 7
-0.053261001 1.0769041 8.2851562 7
-0.055031002 1.094116 8.2880859 7
-0.056800999 1.1112061 8.2910156 7
-0.056786001 1.127563 8.2890615 7
-0.060332999 1.14563 8.296875 7
-0.054924 1.15918 8.2773438 7
-0.054878 1.175537 8.2753906 7
-0.045891002 1.18689 8.2451172 7
-0.067397997 1.2146 8.3085938 7
-0.056595001 1.225098 8.2724609 7
-0.052956 1.23938 8.2578115 7
-0.060120001 1.259521 8.2773438 7
-0.111613 -1.954296 14.024942 7
-0.076958999 0.965119 13.728039 7
-0.124455 0.80890101 12.162014 7
-0.28911799 -4.9919729 10.566111 7
-0.072972 -1.726095 10.122911 7
-0.13816001 4.2447381 9.5927219 7
-0.109935 4.3309531 9.2409744 7
-0.35277399 -5.008534 9.5639524 7
-0.367906 -4.8332658 9.8400774 7
-0.13125999 -1.812737 9.5438805 7
-0.102454 1.014963 9.535964 7
-0.123363 1.277168 9.6362514 7
-0.320274 -4.977571 8.5890751 7
-0.097893 -1.822486 8.8858776 7
-0.095103003 -1.61176 8.9364891 7
-0.30805999 -5.109436 7.6507778 7
-0.296352 -4.8856311 7.808845 7
-0.075396001 -1.837944 8.3718805 7
-0.063882999 -1.6294301 8.3752651 7
-0.056451999 1.018778 8.5088444 7
-0.070124999 1.227159 8.5464535 7
-0.27456 -5.0308418 6.7237129 7
-0.26884499 -4.8746581 6.9086361 7
-0.059225999 -1.85402 7.9499602 7
-0.041956 -1.649013 7.9292388 7
-0.042272002 1.109236 8.1157217 7
-0.29080001 -4.832973 5.8859549 7
-0.304856 -4.8099952 6.1112518 7
-0.087595001 -1.862165 7.5795722 7
-0.073794998 -1.681198 7.5874729 7
-0.062396001 1.0140491 7.7674942 7
-0.075439997 1.189514 7.7880259 7
-0.083365001 -1.893505 7.3028598 7
-0.068813004 -1.7213579 7.3138041 7
-0.057014 1.0997961 7.5071101 7
-0.067179002 1.261049 7.5069962 7
-0.065425001 -1.756477 7.0685301 7
-0.056706 -1.771374 6.8218961 7
-0.043178 -1.622689 6.839788 7
0.117042 -1.265636 -13.28963 7
0.13282301 -1.218456 -10.264555 7
-0.179279 -1.956673 13.962264 7
0.040676001 -1.514858 -5.614428 7
-0.19512101 -4.5871429 -6.5642252 7
-0.126094 -1.8320791 12.553656 7
0.041228998 -1.46806 -4.802762 7
-0.182116 -4.5823178 -5.409555 7
-0.281773 -6.2414322 -5.120008 7
-0.20349599 -2.0991559 11.594103 7
-0.162855 -1.72799 11.396522 7
-0.024323 -1.422271 -4.0343571 7
-0.26344299 -4.5741792 -4.4653659 7
-0.158525 -1.983528 10.70871 7
0.0059369998 -1.380965 -3.3063469 7
-0.32490599 -6.308075 -2.722584 7
-0.116545 -1.885465 9.957201 7
0.028355001 -1.347894 -2.72418 7
-0.32125899 -5.005857 9.2035027 7
-0.10066 -1.818715 9.4477119 7
0.023668 -1.327581 -2.373785 7
0.017526001 -1.5627609 -2.3601999 7
-0.36313701 -4.9083052 8.563344 7
-0.120798 -1.740877 8.8598738 7
-0.251275 -4.6064329 -1.566936 7
-0.37022099 -5.119617 7.964529 7
-0.34707299 -4.8611751 8.061594 7
-0.085842997 -1.68016 8.3931065 7
-0.31413901 -4.9270978 7.3791008 7
-0.087420002 -1.848071 8.0889702 7
-0.060970001 -1.6313781 8.0186195 7
0.0022100001 -1.45608 -1.295133 7
-0.310727 -5.0368328 6.8369932 7
-0.29331401 -4.8377328 6.95928 7
-0.064593002 -1.79061 7.757041 7
0.012429 -1.429719 -1.028759 7
-0.33281299 -5.0427752 6.2098389 7
-0.32198799 -4.888154 6.3552108 7
-0.099101998 -1.743983 7.4941101 7
-0.018181 -1.403198 -0.77008498 7
-0.038713999 -1.5798 -0.81648701 7
-0.30153799 -4.8944921 5.8566442 7
-0.080871999 -1.865019 7.1982541 7
-0.079033002 -1.699555 7.2371721 7
-0.0090199998 -1.3826129 -0.56181198 7
-0.031527001 -1.55124 -0.61470199 7
-0.069099002 -1.8207459 6.994113 7
-0.062857002 -1.661028 7.0145121 7
-0.001722 -1.36431 -0.376816 7
-0.018678 -1.522107 -0.40798 7
-0.23384801 -4.5735178 1.047873 7
-0.24282899 -4.680418 1.189155 7
-0.057854999 -1.780192 6.807076 7
-0.046868999 -1.625541 6.8092952 7
0.0062199999 -1.347188 -0.20351601 7
-0.0063359998 -1.495445 -0.218695 7
0.019344 -1.329681 -0.025167 7
-2e-06 -1.4734989 -0.063513003 7
-0.27670899 -4.702888 1.748789 7
-0.280285 -4.7659879 1.903792 7
-0.26348901 -4.5356441 1.816179 7
-0.266996 -4.5960202 1.9641269 7
-0.27586499 -4.6661181 2.109683 7
-0.270008 -4.6874399 2.2703061 7
-0.27499101 -4.734313 2.423511 7
-0.268837 -4.7420158 2.5847819 7
-0.277253 -4.7869182 2.73932 7
-0.26886201 -4.7828951 3.257998 7
-0.26755199 -4.7722778 3.4161651 7
-0.25869599 -4.7329111 3.5715251 7
-0.271878 -4.7533669 3.7325399 7
-0.25532201 -4.4839292 2.1659551 7
-0.262346 -4.5405779 2.3088961 7
-0.263578 -4.5751181 2.4583149 7
-0.26657999 -4.6088371 2.6080251 7
-0.26569 -4.625402 2.7606599 7
-0.25677201 -4.6201668 3.257194 7
-0.25153801 -4.5986538 3.4080329 7
-0.248062 -4.5764179 3.5575819 7
-0.250184 -4.564537 3.707725 7
-0.014499 4.7872939 -8.2221661 7
-0.089939997 4.5950031 -5.20051 7
-0.168892 4.338542 9.9100885 7
-0.15093701 4.3001051 9.1979055 7
-0.063587002 1.024111 9.7617874 7
-0.078509003 1.018273 8.7425632 7
-0.086373001 1.24819 8.7371988 7
-0.056705002 1.016904 8.341095 7
-0.065176003 1.230252 8.3418531 7
-0.043768 1.015661 8.0207882 7
-0.049392 1.215149 8.0104713 7
-0.076213002 1.012962 7.7133889 7
-0.082647003 1.199809 7.7091112 7
-0.063913003 1.012067 7.4634218 7
-0.062921003 1.187351 7.4309678 7
-0.079049997 4.8779049 -16.432255 7
-0.035066001 -0.98833799 -10.098265 7
-0.050776999 -1.183753 -8.881567 7
-0.090026997 4.7295289 -8.5130873 7
-0.015709 -1.474655 -7.2888041 7
-0.000164 -1.4746211 -6.3233309 7
-0.117983 4.641077 -5.4576979 7
-0.042465001 -1.4855061 -5.6374722 7
-0.25087699 -4.6734848 -6.2782202 7
-0.101714 4.7304459 -4.2523098 7
-0.101093 4.5617628 -4.422996 7
-0.035337999 -1.461602 -5.1398249 7
-0.241201 -4.5971332 -5.414113 7
-0.355804 -6.2381039 -5.237699 7
-0.33783001 -6.302824 -4.9124951 7
-0.017162001 -1.291943 -4.6764798 7
-0.025516 -1.4670841 -4.6878238 7
-0.232803 -4.5045109 -4.674243 7
-0.23104499 -4.6613698 -4.491807 7
-0.28982201 -6.1415038 -3.243727 7
-0.290914 -6.3891139 -2.7457709 7
-0.0028329999 -1.291787 -4.264987 7
-0.018362001 -1.472066 -4.3173742 7
-0.033115 -1.3142051 -3.9769349 7
-0.040959001 -1.457513 -3.969485 7
-0.047766 -1.599649 -3.949985 7
-0.020119 -1.309233 -3.682554 7
-0.031484999 -1.450858 -3.689395 7
-0.031975999 -1.561514 -3.635046 7
-0.013162 -1.313886 -3.4495699 7
-0.013846 -1.41451 -3.4010119 7
-0.021712 -1.536347 -3.3813529 7
-0.007584 -1.3169841 -3.245635 7
-0.0083790002 -1.409428 -3.196909 7
-0.014551 -1.517379 -3.1670339 7
-0.022537 -1.303032 -3.0417969 7
-0.024757 -1.390704 -2.9980869 7
-0.036573999 -1.506088 -2.985713 7
-0.014542 -1.2947969 -2.8705261 7
-0.013126 -1.3649139 -2.8136539 7
-0.031904999 -1.493516 -2.8219969 7
-0.029067 -1.557339 -2.7528191 7
-0.0088799996 -1.356962 -2.6691501 7
-0.011364 -1.4304 -2.6221471 7
-0.016438 -1.510617 -2.5795181 7
-0.003727 -1.3435709 -2.532676 7
-0.0077689998 -1.415906 -2.4897921 7
-0.022743 -1.5213701 -2.4730451 7
-0.018378999 -1.5654939 -2.4001501 7
-0.003633 -1.342165 -2.4198811 7
-0.010956 -1.359655 -2.3321731 7
-0.028809 -1.464494 -2.3190191 7
-0.034662999 -1.534032 -2.2724869 7
-0.011084 -1.304721 -2.28424 7
-0.0064110002 -1.573429 -1.558908 7
-0.017434999 -1.4714299 -1.598587 7
-0.022853 -1.509549 -1.541834 7
-0.024736 -1.534511 -1.48035 7
-0.017918 -1.529428 -1.4128259 7
-0.018076999 -1.543679 -1.349121 7
-0.025137 -1.577567 -1.286549 7
-0.023897 -1.5876319 -0.93674397 7
-0.025781 -1.5876451 -0.86863202 7
-0.026017001 -1.5794311 -0.80133998 7
0.011693 -1.333391 -1.556667 7
0.00055 -1.385916 -1.5098391 7
0.0038729999 -1.3932199 -1.4500819 7
-0.0089880005 -1.4474829 -1.3986911 7
-0.019990001 -1.4943219 -1.342585 7
-0.014872 -1.489035 -1.278841 7
-0.031171 -1.547943 -1.218636 7
-0.026048999 -1.537423 -1.15378 7
-0.024519 -1.53543 -1.0894541 7
-0.021249 -1.52526 -1.025774 7
-0.016231 -1.506929 -0.963548 7
-0.01801 -1.505507 -0.88311601 7
0.011484 -1.405266 -0.84002697 7
0.002752 -1.312886 -1.5501879 7
-0.00133 -1.343472 -1.498666 7
0.003858 -1.345029 -1.439572 7
0.0053500002 -1.354895 -1.3828011 7
-0.004284 -1.395537 -1.3298759 7
-0.0064929998 -1.4119689 -1.27212 7
-0.001332 -1.40382 -1.2124031 7
-0.0054060002 -1.421067 -1.153561 7
-0.003947 -1.419118 -1.0941091 7
0.0011230001 -1.403723 -1.035764 7
0.00068 -1.40256 -0.97649902 7
0.000239 -1.398883 -0.91714102 7
0.0036820001 -1.37878 -0.84565598 7
0.0033789999 -1.285175 -1.483459 7
-0.0090370001 -1.292291 -1.427827 7
-0.015443 -1.323488 -1.376924 7
-0.010057 -1.319942 -1.3198121 7
-0.012532 -1.335943 -1.26522 7
-0.02087 -1.366251 -1.210261 7
-0.01552 -1.355688 -1.153028 7
-0.016066 -1.359382 -1.096071 7
-0.012724 -1.349684 -1.0397559 7
-0.00942 -1.337724 -0.98415601 7
-0.017751999 -1.356194 -0.92379397 7
-0.010374 -1.325814 -0.856942 7
-0.010988 -1.295206 -1.2070971 7
