# .PCD v0.7 - Point Cloud Data file format
VERSION 0.7
FIELDS x y z intensity
SIZE 4 4 4 4
TYPE F F F F
COUNT 1 1 1 1
WIDTH 1289
HEIGHT 1
VIEWPOINT 0 0 0 1 0 0 0
POINTS 1289
DATA ascii
0.248253 -1.657593 -72.359375 7
0.216621 5.2150879 -72.773438 7
0.183723 -1.6856689 -66.46875 7
0.227478 -1.805908 -64.973633 7
0.17791 -2.0128169 -66.641602 7
0.155457 4.9553218 -66.759766 7
0.106827 4.9078369 -68.400391 7
0.30657199 1.4343261 -61.683594 7
0.086296 -1.726318 -62.057617 7
0.15338901 -1.816406 -60.018555 7
0.20597801 -1.911011 -58.416016 7
0.139595 -2.121582 -60.412109 7
0.186409 5.066895 -58.449219 7
0.25988799 4.7431641 -56.25 7
0.20121799 4.7463379 -58.018555 7
0.115883 4.8031011 -60.583984 7
0.103722 -1.92688 -54.754883 7
0.143852 -2.150269 -53.651367 7
0.132164 -2.293457 -53.957031 7
0.165344 -2.3852539 -53.050781 7
0.223351 4.941772 -51.033203 7
0.179932 4.9237061 -52.205078 7
0.24501801 4.6402588 -50.467773 7
0.19940899 4.6229248 -51.696289 7
0.166618 4.5709229 -52.583008 7
0.083701998 -2.1274409 -49.955078 7
0.107666 -2.223145 -49.359375 7
0.14479101 -2.3013921 -48.442383 7
0.091507003 -2.4825439 -49.733398 7
-0.85592699 -3.0570071 67.741211 7
-0.902596 -2.944458 68.771484 7
-0.84417701 -0.538086 67.633789 7
-0.78189802 -0.373169 66.279297 7
-0.79718 -0.220459 66.620117 7
0.19426 4.7764888 -46.814453 7
0.15694401 4.7489009 -47.728516 7
0.122284 4.7113042 -48.579102 7
0.181862 4.4595952 -47.138672 7
0.148605 4.4160161 -47.953125 7
0.090874001 4.4205322 -49.362305 7
0.212303 1.0919189 -46.951172 7
0.035477001 -2.1776121 -45.796875 7
0.073296003 -2.2796631 -45.419922 7
0.095337003 -2.3562009 -44.875977 7
0.14002199 -2.4129641 -43.87793 7
0.088142 -2.5838621 -45.016602 7
0.105652 -2.6712649 -44.620117 7
0.185165 4.7628169 -42.457031 7
0.151978 4.7357178 -43.196289 7
0.119041 4.7045898 -43.928711 7
0.18292999 4.4544678 -42.529297 7
0.151062 4.419189 -43.239258 7
0.116257 4.3867192 -44.011719 7
0.068503998 4.3774409 -45.071289 7
0.0079500005 -2.263916 -43.067383 7
0.035255 -2.3392329 -42.500977 7
0.070946001 -2.5046389 -41.754883 7
0.079071 -2.5965581 -41.579102 7
0.040596001 -2.7476809 -42.354492 7
0.06617 -2.8170171 -41.822266 7
0.120644 -2.844116 -40.702148 7
-0.67076898 -0.179199 54.560547 7
-0.63427001 0.071898997 53.888672 7
0.127647 4.7259521 -40.234375 7
0.104904 4.677856 -40.704102 7
0.079865001 4.632812 -41.220703 7
0.045090001 4.6062012 -41.93457 7
0.106255 4.3742681 -40.701172 7
0.073486 4.3415532 -41.375 7
0.044991001 4.296875 -41.960938 7
0.160934 1.035645 -40.079102 7
0.176193 0.93029797 -39.764648 7
0.159958 0.74084502 -40.09668 7
-0.002869 -2.845825 -39.296875 7
0.045745999 -2.9707029 -38.373047 7
0.064735003 -3.037354 -38.010742 7
-0.59778601 -2.9719241 48.792969 7
-0.62468702 -2.887573 49.260742 7
-0.638924 -2.788208 49.512695 7
-0.53945899 0.064331003 48.03418 7
-0.54851502 0.175293 48.191406 7
0.082047001 4.7703862 -37.357422 7
0.065398999 4.7220459 -37.705078 7
0.050528999 4.6612549 -37.988281 7
0.025002001 4.6221919 -38.470703 7
0.18085501 1.199707 -35.740234 7
0.192375 1.10498 -35.527344 7
0.172447 1.0274661 -35.898438 7
0.147469 0.95031703 -36.361328 7
0.168373 0.58532703 -35.97168 7
0.19089501 0.49096701 -35.550781 7
0.16527601 0.40820301 -36.026367 7
0.19409201 0.314697 -35.488281 7
-0.0041350001 -3.0714109 -36.131836 7
-0.55188 -2.817261 44.691406 7
-0.57457697 -2.737427 45.05957 7
-0.60616302 -2.664185 45.567383 7
-0.51494598 0.05957 44.322266 7
-0.48757201 0.15942401 43.889648 7
-0.510948 0.26232901 44.263672 7
-0.483574 0.36047399 43.830078 7
0.081276 4.8366699 -34.357422 7
0.064873002 4.7886958 -34.647461 7
0.045731001 4.7452388 -34.982422 7
0.022179 4.7099609 -35.393555 7
-0.010559 4.6922612 -35.960938 7
0.040001001 4.497314 -35.108398 7
0.171829 1.1943361 -33.02832 7
0.15095501 1.124146 -33.387695 7
0.13141599 1.051514 -33.723633 7
0.151657 0.37707499 -33.663086 7
0.166779 0.29199201 -33.400391 7
0.167908 0.126831 -33.378906 7
0.157974 -0.105835 -30.373047 7
-0.039528001 -3.1915281 -33.529297 7
-0.034485001 -3.266602 -33.44043 7
-0.021652 -3.3295901 -33.229492 7
-0.0088200001 -3.391479 -33.017578 7
-0.008591 -3.4724121 -33.003906 7
-0.45864901 -2.784668 39.962891 7
-0.50128198 -2.736938 40.594727 7
-0.50795001 -2.650635 40.699219 7
-0.46083799 0.32983401 40.210938 7
0.076370001 4.907959 -31.374023 7
0.059218999 4.8692632 -31.650391 7
0.013077 4.814209 -32.390625 7
-0.015205 4.7952881 -32.841797 7
-0.029747 4.744873 -33.080078 7
0.16693901 1.549561 -30.230469 7
0.15645599 1.482056 -30.398438 7
0.13370501 1.422119 -30.757812 7
0.16256 1.326782 -30.305664 7
0.124214 1.2750241 -30.910156 7
0.120125 0.199829 -30.973633 7
0.16078199 0.045044001 -30.332031 7
0.115089 -0.032837 -29.15625 7
0.139534 -0.103882 -28.793945 7
0.105774 -0.17834499 -29.290039 7
0.128639 -0.248413 -28.950195 7
0.13842 -0.318726 -28.803711 7
-0.043793 -3.2188721 -31.268555 7
-0.071296997 -3.336792 -31.662109 7
-0.053947002 -3.3886721 -31.398438 7
-0.042877 -3.4542241 -31.244141 7
-0.031502001 -3.5133059 -31.068359 7
0.075218 4.9581299 -29.197266 7
0.073951997 4.8881841 -29.225586 7
0.058417998 4.8505859 -29.462891 7
0.038910002 4.8209229 -29.756836 7
0.0086979996 4.8135991 -30.207031 7
-0.011612 4.7824712 -30.512695 7
0.156166 1.5263669 -28.303711 7
0.121124 1.480957 -28.821289 7
0.15081801 1.3887939 -28.386719 7
0.133652 1.328979 -28.641602 7
0.128647 -0.48999 -26.453125 7
-0.077774003 -3.458374 -29.235352 7
-0.082184002 -3.5375979 -29.285156 7
-0.068153001 -3.587769 -29.084961 7
-0.055847 -3.639771 -28.908203 7
-0.046546999 -3.695801 -28.771484 7
-0.071540996 -3.809448 -29.099609 7
-0.378883 0.58947802 34.189453 7
-0.378304 0.66699201 34.182617 7
-0.37271899 0.743164 34.111328 7
0.066101 5.008667 -26.952148 7
0.053176999 4.9711909 -27.135742 7
0.041115001 4.9309082 -27.308594 7
0.030746 4.8859859 -27.458008 7
0.0075380001 4.8692632 -27.782227 7
-0.013962 4.8470459 -28.080078 7
0.118294 1.638916 -26.591797 7
0.145668 1.551392 -26.223633 7
0.114586 1.44165 -26.648438 7
0.101448 -0.34265101 -25.155273 7
0.106873 -0.404663 -25.083984 7
0.117302 -0.46484399 -24.949219 7
0.086502001 -0.535034 -25.337891 7
0.10154 -0.59411597 -25.144531 7
-0.09127 -3.6599121 -27.327148 7
-0.084030002 -3.7159419 -27.226562 7
-0.059372 -3.7424321 -26.904297 7
-0.059951998 -3.8101809 -26.901367 7
-0.36253399 0.62292498 31.975586 7
0.03743 4.9942632 -25.375 7
0.0298 4.9526372 -25.495117 7
0.018723 4.9136958 -25.644531 7
0.0053630001 4.879272 -25.822266 7
-0.017616 4.8651118 -26.12207 7
-0.027327999 4.8206792 -26.253906 7
0.125633 1.5869139 -24.628906 7
0.11821 1.530396 -24.726562 7
0.088721998 -0.49609399 -23.402344 7
0.086173996 -0.55529797 -23.428711 7
0.102783 -0.66760302 -23.227539 7
0.091232002 -0.78845203 -23.357422 7
0.091643997 -0.84704602 -23.350586 7
-0.069862001 -3.8648679 -24.947266 7
-0.065017998 -3.918457 -24.880859 7
-0.070572004 -3.990479 -24.93457 7
0.025351999 5.0206299 -23.532227 7
0.017898999 4.978394 -23.629883 7
0.0089570004 4.9388428 -23.745117 7
-0.0034479999 4.9066162 -23.900391 7
-0.016341999 4.8751221 -24.05957 7
-0.034187 4.853394 -24.27832 7
0.105515 1.894653 -22.982422 7
0.108406 1.834106 -22.951172 7
0.111305 1.77356 -22.920898 7
0.096404999 1.728027 -23.099609 7
0.122528 1.6488039 -22.793945 7
0.109108 1.601562 -22.956055 7
0.094208002 1.554688 -23.134766 7
0.064262003 -0.69018602 -22.018555 7
0.080025002 -0.73999 -21.841797 7
0.082572997 -0.79394501 -21.80957 7
0.058738999 -0.85876501 -22.070312 7
0.070266999 -0.90917999 -21.94043 7
0.006325 5.0646968 -22.015625 7
0.0073170001 5.0064702 -22.015625 7
-0.0032879999 4.974854 -22.141602 7
-0.0091479998 4.9318848 -22.21582 7
-0.019249 4.8980708 -22.335938 7
-0.038322002 4.8835449 -22.552734 7
-0.040504001 4.8309331 -22.586914 7
0.089057997 1.8927 -21.536133 7
0.088469997 1.838501 -21.546875 7
0.074653998 1.795532 -21.702148 7
0.102074 1.717896 -21.40332 7
0.095131002 1.669312 -21.483398 7
0.080788001 1.6257319 -21.644531 7
0.068947002 -0.64379901 -20.455078 7
0.063231997 -0.69738799 -20.510742 7
0.057991002 -0.803101 -20.561523 7
0.069199003 -0.850586 -20.441406 7
0.070831001 -0.90148902 -20.422852 7
0.0024870001 5.0587158 -20.467773 7
-0.0031969999 5.0197749 -20.537109 7
-0.012276 4.9880371 -20.640625 7
-0.015717 4.9432368 -20.686523 7
-0.034393001 4.9321289 -20.884766 7
-0.044043999 4.9000239 -20.994141 7
-0.037888002 4.833252 -20.942383 7
0.075774997 1.8843991 -20.179688 7
0.083626002 1.8262939 -20.101562 7
0.086952001 1.772217 -20.071289 7
0.078979 1.7275389 -20.157227 7
0.065330997 1.687134 -20.299805 7
0.081115998 1.623291 -20.142578 7
0.047157001 -1.003906 -19.331055 7
0.033714 -1.158325 -19.451172 7
0.039641999 -1.204102 -19.388672 7
-0.021423001 5.103394 -19.303711 7
-0.027458001 5.067749 -19.374023 7
-0.034706 5.0345459 -19.454102 7
-0.040153999 4.9971919 -19.516602 7
-0.070862003 4.9649658 -19.829102 7
-0.063689999 4.8986821 -19.772461 7
0.043427002 1.896729 -19.180664 7
0.069801003 1.824829 -18.929688 7
0.063744001 1.781372 -18.993164 7
0.060676999 1.735352 -19.025391 7
0.056396 1.690186 -19.070312 7
0.066565998 1.633545 -18.975586 7
0.025336999 -0.954956 -18.264648 7
0.039101001 -0.99169898 -18.128906 7
0.025543001 -1.090942 -18.246094 7
0.015876999 -1.1424561 -18.331055 7
0.028580001 -1.182251 -18.210938 7
0.054198999 1.906616 -17.797852 7
0.057342999 1.858032 -17.773438 7
0.053452 1.815552 -17.8125 7
0.052749999 1.7705081 -17.822266 7
0.056549001 1.721558 -17.791992 7
0.060332999 1.672974 -17.760742 7
0.057723999 1.629272 -17.788086 7
0.01545 -0.990601 -17.239258 7
0.015388 -1.03479 -17.237305 7
0.0044940002 -1.084229 -17.328125 7
-0.01181 -1.136963 -17.463867 7
0.0097660003 -1.169922 -17.275391 7
0.0042719999 -1.217285 -17.319336 7
0.018417001 -1.253296 -17.194336 7
0.074630998 1.442627 -16.580078 7
0.0031590001 -0.98083502 -16.270508 7
0.009544 -1.019653 -16.21582 7
0.015205 -1.058472 -16.166992 7
0.020873999 -1.097168 -16.118164 7
-0.0049899998 -1.152222 -16.324219 7
0.001389 -1.190796 -16.269531 7
0.002045 -1.232056 -16.260742 7
0.0084380005 -1.270264 -16.206055 7
-0.043404002 5.0517578 -15.865234 7
-0.032692 4.9864502 -15.793945 7
-0.040610999 4.9632568 -15.867188 7
-0.048523001 4.9394531 -15.94043 7
-0.053557999 4.9091802 -15.991211 7
-0.075828999 4.9160161 -16.176758 7
-0.072304003 4.824707 -16.171875 7
0.039253 1.588379 -15.819336 7
0.037772998 1.54834 -15.833984 7
0.045600999 1.501709 -15.774414 7
0.054161001 1.4552 -15.707031 7
0.056976002 1.4124759 -15.6875 7
0.043945 1.339111 -15.797852 7
0.053245999 1.29248 -15.726562 7
0.011932 -0.96203601 -15.226562 7
-0.004799 -1.009155 -15.351562 7
0.010284 -1.041626 -15.233398 7
0.014778 -1.078613 -15.196289 7
0.012444 -1.119019 -15.210938 7
-0.0020290001 -1.166016 -15.317383 7
-0.0051350002 -1.207397 -15.336914 7
-0.00063299999 -1.2442631 -15.299805 7
0.002319 -1.282104 -15.273438 7
0.037177999 1.269287 -14.897461 7
0.042442001 1.227417 -14.859375 7
0.053780001 1.182495 -14.776367 7
0.059792001 1.140625 -14.732422 7
0.063552998 1.100098 -14.707031 7
0.055144999 1.06604 -14.772461 7
0.049789 1.030151 -14.81543 7
0.058083002 0.98767102 -14.753906 7
0.066382997 0.94543499 -14.691406 7
0.070122004 0.90539598 -14.665039 7
0.073859997 0.86572301 -14.637695 7
0.066215999 0.83044398 -14.697266 7
0.016068 -0.98107898 -14.273438 7
0.0095899999 -1.02124 -14.317383 7
0.011948 -1.057251 -14.297852 7
0.018302999 -1.091187 -14.249023 7
0.015830999 -1.129517 -14.263672 7
0.00135 -1.174438 -14.365234 7
-0.005142 -1.21521 -14.408203 7
0.0068359999 -1.245728 -14.318359 7
0.0019759999 -1.285889 -14.350586 7
0.0059199999 -1.3206789 -14.318359 7
0.059234999 0.60546899 -13.862305 7
0.066422001 0.56701702 -13.810547 7
0.070389003 0.52990699 -13.78418 7
0.077568002 0.491943 -13.732422 7
0.078308001 0.45581099 -13.728516 7
0.080665998 0.419312 -13.711914 7
0.071785003 0.38488799 -13.776367 7
0.067718998 0.349365 -13.805664 7
-0.049011 4.9179692 -13.06543 7
-0.050719999 4.8873291 -13.087891 7
-0.049896002 4.8508301 -13.09375 7
-0.049072001 4.8144531 -13.099609 7
0.053452 0.507568 -13.129883 7
0.059714999 0.470581 -13.22168 7
0.066413999 0.43457001 -13.176758 7
0.070587002 0.39929199 -13.148438 7
0.068007998 0.365356 -13.166016 7
0.06459 0.33129901 -13.19043 7
0.053824998 -0.011475 -12.399414 7
0.057319999 -0.044312 -12.376953 7
0.059059002 -0.077147998 -12.365234 7
0.059882998 -0.109863 -12.358398 7
0.052749999 -0.143066 -12.404297 7
0.047371 -0.176636 -12.439453 7
0.047309998 -0.209473 -12.4375 7
0.053482 -0.241577 -12.396484 7
0.057877 -0.27417001 -12.368164 7
0.057831001 -0.30676299 -12.367188 7
-0.087073997 5.0826421 -12.458008 7
-0.083549 5.0418701 -12.448242 7
-0.06498 4.967896 -12.344727 7
-0.052581999 4.9077148 -12.279297 7
-0.054382 4.8790278 -12.301758 7
-0.061492998 4.8616939 -12.357422 7
-0.064171001 4.8347168 -12.385742 7
-0.067749001 4.8093262 -12.417969 7
-0.000114 -0.97692901 -12.158203 7
0.0063479999 -1.005981 -12.115234 7
0.0025859999 -1.039917 -12.135742 7
0.00060299999 -1.104858 -12.141602 7
0.0052490002 -1.168213 -12.112305 7
-0.011063 -1.3000489 -11.514648 7
-0.010147 -1.329834 -11.504883 7
0.015968001 -0.64880401 -10.837891 7
0.01387 -0.67834502 -10.84668 7
0.0076979999 -0.70947301 -10.879883 7
0.0066300002 -0.73889202 -10.883789 7
0.013748 -0.76525903 -10.842773 7
0.018798999 -0.79247999 -10.811523 7
0.018761 -0.82141101 -10.80957 7
0.020752 -0.84924299 -10.794922 7
0.0094529996 -0.88281202 -10.856445 7
-0.0038680001 -0.91747999 -10.928711 7
0.0022130001 -0.943726 -10.892578 7
0.0083010001 -0.97021502 -10.855469 7
0.0092770001 -0.99865699 -10.847656 7
0.0092240004 -1.027588 -10.844727 7
0.003059 -1.059692 -10.876953 7
0.015602 -0.97473103 -10.21875 7
0.0091249999 -1.005249 -10.250977 7
0.003731 -1.0354 -10.277344 7
-0.0070500001 -1.068115 -10.331055 7
-0.006027 -1.095459 -10.323242 7
-0.0039289999 -1.12207 -10.308594 7
0.00031999999 -1.1474611 -10.283203 7
0.000275 -1.175171 -10.28125 7
-0.0051350002 -1.205811 -10.306641 7
-0.0041049998 -1.23291 -10.298828 7
-0.017036 -1.267822 -10.363281 7
-0.13997699 -1.901611 13.411133 7
-0.141022 -1.874146 13.419922 7
-0.137688 -1.8430181 13.408203 7
-0.133255 -1.811157 13.389648 7
-0.128822 -1.779297 13.371094 7
-0.128769 -1.751099 13.375 7
-0.12984499 -1.723511 13.385742 7
-0.124321 -1.69104 13.361328 7
-0.119873 -1.659668 13.341797 7
-0.063873 4.8569341 -9.5839844 7
-0.0043950002 -0.96740699 -9.8134766 7
-0.0022430001 -1.019531 -9.796875 7
0.001038 -1.0706789 -9.7753906 7
-0.013611 -1.131104 -9.84375 7
-0.0082240002 -1.182861 -9.8154297 7
-0.010559 -1.237061 -9.8203115 7
-0.061721999 4.7912598 -9.0253906 7
-0.062827997 4.7686772 -9.0429688 7
-0.063965 4.7460942 -9.0595703 7
-0.063988 4.7210689 -9.0703115 7
-0.068458997 4.7053218 -9.1025391 7
-0.072936997 4.6896968 -9.1347656 7
-0.086387999 4.6922612 -9.2080078 7
-0.086387999 4.6669922 -9.2197266 7
-0.081917003 4.6324458 -9.2099609 7
-0.075240999 4.5935059 -9.1884766 7
-0.075232998 4.5681152 -9.2001953 7
-0.070777997 4.533936 -9.1894531 7
-0.067420997 4.5018311 -9.1845703 7
-0.011086 -0.97888201 -9.3564453 7
-0.011131 -1.004395 -9.3535156 7
-0.012344 -1.030396 -9.3574219 7
-0.019393999 -1.0593261 -9.3896484 7
-0.018265 -1.084229 -9.3808594 7
-0.011292 -1.105957 -9.34375 7
-0.01133 -1.13147 -9.3417969 7
-0.010201 -1.156494 -9.3330078 7
-0.012589 -1.182983 -9.3417969 7
-0.012627 -1.208252 -9.3388672 7
-0.013832 -1.234375 -9.3417969 7
-0.017402999 -1.2618411 -9.3554688 7
-0.063835002 4.7775879 -8.4941406 7
-0.073181003 4.77356 -8.546875 7
-0.070862003 4.7449951 -8.546875 7
-0.070877001 4.721313 -8.5585938 7
-0.073211998 4.7023931 -8.5800781 7
-0.086387999 4.7823491 -8.0927734 7
-0.090042002 4.7672119 -8.1191406 7
-0.094910003 4.7546391 -8.1503906 7
-0.099792004 4.7419429 -8.1826172 7
-0.094933003 4.7089839 -8.1728516 7
-0.098595001 4.693604 -8.1992188 7
-0.092537001 4.6583252 -8.1835938 7
-0.084030002 4.6181641 -8.1582031 7
-0.084037997 4.5950928 -8.1699219 7
-0.073105 4.550293 -8.1337891 7
-0.091353998 4.564209 -8.2216797 7
-0.086487003 4.5314941 -8.2128906 7
0.0026469999 -0.98217797 -8.3720703 7
-0.0037839999 -1.031372 -8.3964844 7
-0.0038300001 -1.054565 -8.3935547 7
-0.006393 -1.078979 -8.4023438 7
-0.0064389999 -1.102173 -8.3994141 7
-0.0077900002 -1.14917 -8.4003906 7
-0.0078429999 -1.172363 -8.3964844 7
-0.0040890002 -1.216797 -8.375 7
-0.0041350001 -1.239746 -8.3720703 7
-0.0041809999 -1.262817 -8.3691406 7
-0.21705601 -4.438477 -8.4169922 7
-0.213295 -4.4544678 -8.390625 7
-0.21462999 -4.47998 -8.3857422 7
-0.103951 -1.901978 11.286133 7
-0.100029 -1.875366 11.274414 7
-0.101318 -1.853027 11.285156 7
-0.098678999 -1.827637 11.277344 7
-0.096054003 -1.802002 11.270508 7
-0.093429998 -1.776611 11.263672 7
-0.093406998 -1.753296 11.267578 7
-0.086875997 -1.7249759 11.244141 7
-0.089446999 -1.7038569 11.258789 7
-0.086829998 -1.678467 11.250977 7
-0.084190004 -1.65332 11.244141 7
-0.084167004 -1.630005 11.248047 7
-0.081528001 -1.604858 11.242188 7
-0.085303999 0.65515101 11.388672 7
-0.085274003 0.678711 11.387695 7
-0.090430997 0.70397902 11.40918 7
-0.073494002 0.72228998 11.333008 7
-0.073471002 0.74585003 11.331055 7
-0.073425002 0.76916498 11.329102 7
-0.074676998 0.79321301 11.333008 7
-0.074638002 0.81677198 11.332031 7
-0.073302999 0.83947802 11.323242 7
-0.074553996 0.86352497 11.327148 7
-0.075813003 0.887573 11.331055 7
-0.075774997 0.91101098 11.329102 7
-0.075722001 0.934448 11.326172 7
-0.075699002 0.95800799 11.325195 7
-0.010635 -1.238403 -7.999023 7
-0.122368 -1.908569 10.956055 7
-0.125053 -1.888184 10.972656 7
-0.120964 -1.862183 10.959961 7
-0.116898 -1.836426 10.947266 7
-0.110092 -1.808472 10.923828 7
-0.104668 -1.781738 10.905273 7
-0.103302 -1.7581789 10.904297 7
-0.108673 -1.739746 10.930664 7
-0.122162 -1.727295 10.991211 7
-0.114021 -1.69873 10.960938 7
-0.089676 -1.658325 10.864258 7
-0.089644998 -1.635986 10.868164 7
-0.074759997 -1.602905 10.811523 7
-0.100487 0.65600598 11.054688 7
-0.100449 0.67883301 11.052734 7
-0.105835 0.70349097 11.075195 7
-0.104431 0.72595203 11.067383 7
-0.101685 0.74792498 11.054688 7
-0.104347 0.77172899 11.064453 7
-0.104309 0.79443401 11.061523 7
-0.104279 0.81738299 11.060547 7
-0.105568 0.84057599 11.064453 7
-0.105522 0.86352497 11.0625 7
-0.108192 0.88732898 11.072266 7
-0.108162 0.91027802 11.069336 7
-0.100014 0.92980999 11.032227 7
-0.095923997 0.95080602 11.013672 7
-0.33300799 -6.0881348 -6.9794922 7
-0.333069 -6.1080322 -6.9648442 7
-0.33868399 -6.1413569 -6.969727 7
-0.33596799 -6.1542969 -6.9462891 7
-0.33742499 -6.1774902 -6.936523 7
-0.34026301 -6.2038569 -6.929688 7
-0.32923901 -6.1964111 -6.8789058 7
-0.32929999 -6.2159419 -6.8642578 7
-0.33491501 -6.249146 -6.867188 7
-0.33496901 -6.2687988 -6.8525391 7
-0.33502999 -6.2883301 -6.8378911 7
-0.33787501 -6.3146968 -6.8310552 7
-0.336555 -6.330688 -6.8105469 7
-0.342163 -6.3640141 -6.8154302 7
-0.100037 -1.9198 10.454102 7
-0.097182997 -1.895996 10.447266 7
-0.10421 -1.880371 10.479492 7
-0.104195 -1.858765 10.484375 7
-0.10276 -1.8363039 10.483398 7
-0.098517999 -1.811401 10.47168 7
-0.091461003 -1.784302 10.447266 7
-0.085814998 -1.758545 10.429688 7
-0.085785002 -1.737305 10.433594 7
-0.085762002 -1.715942 10.436523 7
-0.101212 -1.706055 10.50293 7
-0.092743002 -1.678223 10.473633 7
-0.094154 -1.657837 10.483398 7
-0.094123997 -1.636353 10.487305 7
-0.091293 -1.612793 10.480469 7
-0.229683 -4.491333 -7.0507808 7
-0.31512499 -5.0869141 9.6972656 7
-0.315117 -5.0476069 9.7207031 7
-0.31220201 -5.0023189 9.734375 7
-0.31075299 -4.9796138 9.7421885 7
-0.31220999 -4.962646 9.7587891 7
-0.31510901 -4.9290771 9.7910156 7
-0.30635101 -4.8719478 9.7851562 7
-0.31364399 -4.8465581 9.8330078 7
-0.30635101 -4.8122559 9.8193359 7
-0.097786002 -1.907593 10.09375 7
-0.097755 -1.886963 10.098633 7
-0.103546 -1.850464 10.129883 7
-0.090378001 -1.798828 10.087891 7
-0.087425001 -1.755371 10.084961 7
-0.083038002 -1.731445 10.073242 7
-0.087379001 -1.714111 10.09375 7
-0.090255998 -1.675293 10.113281 7
-0.081473999 -1.627686 10.087891 7
-0.148407 4.1616211 9.5546885 7
-0.13524599 4.1766362 9.4902344 7
-0.133682 4.2121582 9.4648438 7
-0.13504 4.252686 9.4501953 7
-0.13636801 4.293457 9.4345703 7
-0.133362 4.3260498 9.4042969 7
-0.15397599 4.4008789 9.4541016 7
-0.15387 4.4388428 9.4335938 7
-0.240761 -4.4873052 -6.672852 7
-0.239319 -4.5036621 -6.657227 7
-0.245323 -4.533813 -6.6669922 7
-0.24241599 -4.5473628 -6.6455078 7
-0.236504 -4.5550542 -6.6142578 7
-0.24101999 -4.582397 -6.6191411 7
-0.23957799 -4.5985112 -6.6035161 7
-0.245598 -4.6289058 -6.6123052 7
-0.24565101 -4.6478271 -6.601562 7
-0.239746 -4.655273 -6.570312 7
-0.25320399 -4.6999512 -6.6035161 7
-0.26219201 -4.7362061 -6.6220698 7
-0.25629401 -4.7435298 -6.5908198 7
-0.256363 -4.7624512 -6.579102 7
-0.25640899 -4.7813721 -6.5683589 7
-0.33904299 -6.0845952 -6.0097661 7
-0.342094 -6.1092529 -6.0039058 7
-0.34066001 -6.1231689 -5.985352 7
-0.35264599 -6.1696782 -6.0068359 7
-0.34376499 -6.1654048 -5.9648442 7
-0.34831199 -6.193604 -5.9638672 7
-0.35581201 -6.2294922 -5.9716802 7
-0.35736799 -6.2506099 -5.960938 7
-0.34549701 -6.2385249 -5.9101558 7
-0.34257501 -6.248291 -5.8876948 7
-0.33368701 -6.2434082 -5.8466802 7
-0.34120199 -6.2789311 -5.8535161 7
-0.33829501 -6.2886958 -5.829102 7
-0.33535799 -6.2983398 -5.8066411 7
-0.34736601 -6.3453369 -5.8242192 7
-0.34593999 -6.358521 -5.8056641 7
-0.348984 -6.3831792 -5.7988281 7
-0.103592 -1.917236 9.7597656 7
-0.102066 -1.89624 9.7587891 7
-0.096008003 -1.87146 9.7421885 7
-0.103554 -1.857788 9.7744141 7
-0.112617 -1.845459 9.8115234 7
-0.097450003 -1.813354 9.7607422 7
-0.095923997 -1.792358 9.7597656 7
-0.082291 -1.761963 9.7138672 7
-0.089836001 -1.748291 9.7451172 7
-0.083770998 -1.723877 9.7275391 7
-0.080711 -1.701782 9.7207031 7
-0.089767002 -1.688965 9.7578115 7
-0.100327 -1.677002 9.8007812 7
-0.088202998 -1.648315 9.7597656 7
-0.088188 -1.62854 9.7636719 7
-0.082122996 -1.60437 9.7460938 7
-0.158043 4.1650391 9.1933594 7
-0.159492 4.1861572 9.1884766 7
-0.150414 4.188354 9.1484385 7
-0.139816 4.1876221 9.1035156 7
-0.13826001 4.203125 9.0888672 7
-0.13822199 4.221436 9.0800781 7
-0.129135 4.2228999 9.0400391 7
-0.12605999 4.235352 9.0195312 7
-0.129021 4.2587891 9.0195312 7
-0.131981 4.2823491 9.0195312 7
-0.12741099 4.2921138 8.9941406 7
-0.124359 4.3044429 8.9755859 7
-0.133324 4.3391109 8.9941406 7
-0.13479599 4.3598628 8.9892578 7
-0.130219 4.3691411 8.9638672 7
-0.149727 4.4240718 9.0166016 7
-0.15721101 4.4564209 9.03125 7
-0.078933999 4.7868652 -5.7275391 7
-0.068565004 4.7478032 -5.7060552 7
-0.074478 4.7431641 -5.7363281 7
-0.068549998 4.7137451 -5.7285161 7
-0.070045002 4.699707 -5.7441411 7
-0.074486002 4.691895 -5.7695308 7
-0.070037998 4.6655269 -5.766602 7
-0.06707 4.6422119 -5.7675781 7
-0.06707 4.625 -5.7783198 7
-0.065582 4.6047359 -5.7851558 7
-0.083388999 4.6237788 -5.8535161 7
-0.089317001 4.6186519 -5.882812 7
-0.081894003 4.5861821 -5.8710942 7
-0.089317001 4.5838618 -5.9042969 7
-0.084876999 4.557251 -5.9013672 7
-0.077468999 4.5249019 -5.8876948 7
-0.075974002 4.5046391 -5.8935552 7
-0.072998002 4.4813228 -5.8955078 7
-0.090797 4.499023 -5.9638672 7
-0.247963 -4.4858398 -6.3212891 7
-0.24493399 -4.4984131 -6.3007808 7
-0.238831 -4.505127 -6.2705078 7
-0.23893 -4.5413818 -6.249023 7
-0.243622 -4.5679932 -6.2519531 7
-0.240585 -4.5804439 -6.2324219 7
-0.242226 -4.6193848 -6.2158198 7
-0.24074601 -4.6343989 -6.1992192 7
-0.242332 -4.655396 -6.1933589 7
-0.25784299 -4.7209468 -6.21875 7
-0.25635499 -4.7358398 -6.202148 7
-0.26411399 -4.769165 -6.2167969 7
-0.34205601 -6.105957 -5.5517578 7
-0.34526101 -6.1462402 -5.53125 7
-0.35458401 -6.1850591 -5.5419922 7
-0.350014 -6.190186 -5.5136719 7
-0.35168499 -6.226685 -5.4882808 7
-0.35482001 -6.2506099 -5.4824219 7
-0.34561899 -6.2441411 -5.4423828 7
-0.34727499 -6.2800288 -5.4169922 7
-0.34887701 -6.3000488 -5.40625 7
-0.34584799 -6.3084722 -5.382812 7
-0.34445199 -6.3365479 -5.3476558 7
-0.34456599 -6.3684082 -5.3183589 7
-0.312401 -5.0887451 8.84375 7
-0.31082201 -5.0681152 8.8505859 7
-0.30612901 -5.040771 8.8476562 7
-0.29829401 -5.0074458 8.8359385 7
-0.30300099 -4.999146 8.8623047 7
-0.306137 -4.987793 8.8837891 7
-0.307693 -4.9733891 8.9003906 7
-0.30770901 -4.9555659 8.9121094 7
-0.30615199 -4.9345698 8.9199219 7
-0.30458099 -4.9136958 8.9267578 7
-0.30770901 -4.9021001 8.9472656 7
-0.092147999 -1.91626 9.4101562 7
-0.095252998 -1.899902 9.4257812 7
-0.093673997 -1.879639 9.4248047 7
-0.095221996 -1.861938 9.4345703 7
-0.101448 -1.848022 9.4599609 7
-0.098305002 -1.8262939 9.4541016 7
-0.098274 -1.807251 9.4580078 7
-0.074799001 -1.769897 9.3798828 7
-0.081032 -1.755859 9.4052734 7
-0.084145002 -1.73938 9.4208984 7
-0.088821001 -1.723877 9.4423828 7
-0.079406999 -1.697876 9.4121094 7
-0.087233998 -1.684692 9.4453115 7
-0.087227002 -1.665527 9.4501953 7
-0.082503997 -1.643188 9.4365234 7
-0.077789001 -1.62085 9.4238281 7
-0.15383901 4.168457 8.8222656 7
-0.158463 4.1943359 8.8271484 7
-0.13507099 4.1697998 8.7431641 7
-0.130348 4.178833 8.71875 7
-0.128731 4.1929932 8.703125 7
-0.13179 4.2158198 8.703125 7
-0.133301 4.2359619 8.6982422 7
-0.137909 4.2617192 8.703125 7
-0.144104 4.2905269 8.7128906 7
-0.14559899 4.3105469 8.7070312 7
-0.14866599 4.3334961 8.7070312 7
-0.148605 4.350708 8.6962891 7
-0.145439 4.3621831 8.6757812 7
-0.145409 4.379395 8.6660156 7
-0.140671 4.3876948 8.6416016 7
-0.14528701 4.4135742 8.6445312 7
-0.15141299 4.4595952 8.6435547 7
-0.074669003 4.7689209 -5.344727 7
-0.071602002 4.7463379 -5.3457031 7
-0.062392998 4.710815 -5.329102 7
-0.057776999 4.6850591 -5.327148 7
-0.059326001 4.6722412 -5.3417969 7
-0.062378 4.662231 -5.3632808 7
-0.068520002 4.658813 -5.3925781 7
-0.063910998 4.6331792 -5.389648 7
-0.065436997 4.6201172 -5.405273 7
-0.065453 4.6037598 -5.4160161 7
-0.066986002 4.5904541 -5.4316411 7
-0.074646004 4.5898442 -5.4658198 7
-0.076172002 4.576416 -5.4824219 7
-0.091522001 4.5908198 -5.539062 7
-0.085381001 4.5618901 -5.53125 7
-0.080779999 4.5358891 -5.5283198 7
-0.077721 4.5134282 -5.5283198 7
-0.077728003 4.4968262 -5.539062 7
-0.079268999 4.4831538 -5.554688 7
-0.245148 -4.493896 -5.891602 7
-0.24520899 -4.51123 -5.8808589 7
-0.24205799 -4.5223389 -5.860352 7
-0.237305 -4.5305181 -5.835938 7
-0.240555 -4.5537109 -5.8349609 7
-0.237404 -4.5646968 -5.8144531 7
-0.24065401 -4.587769 -5.813477 7
-0.243919 -4.6108398 -5.811523 7
-0.240768 -4.6218262 -5.7910161 7
-0.240807 -4.638916 -5.780273 7
-0.237671 -4.6497798 -5.7587891 7
-0.24570499 -4.6821289 -5.7724609 7
-0.256973 -4.7207031 -5.7939448 7
-0.257027 -4.7376709 -5.782227 7
-0.257065 -4.7546391 -5.7714839 7
-0.26032299 -4.777832 -5.7695308 7
-0.26198599 -4.797729 -5.7617192 7
-0.336395 -6.0978999 -5.0341802 7
-0.33485401 -6.1091309 -5.015625 7
-0.33651701 -6.1281738 -5.0048828 7
-0.336586 -6.143188 -4.9902339 7
-0.33822599 -6.162354 -4.9804692 7
-0.341492 -6.1853032 -4.9736328 7
-0.34477201 -6.2081299 -4.9658198 7
-0.34643599 -6.2270508 -4.9550781 7
-0.35291299 -6.257935 -4.9560552 7
-0.346542 -6.2572021 -4.9257808 7
-0.343391 -6.2641602 -4.9033198 7
-0.33864599 -6.2670898 -4.875977 7
-0.33391601 -6.269897 -4.8486328 7
-0.33717301 -6.2927251 -4.8417969 7
-0.33081099 -6.2913818 -4.811523 7
-0.32927701 -6.302124 -4.7919922 7
-0.33895901 -6.3409419 -4.8007808 7
-0.33580801 -6.3475342 -4.7783198 7
-0.343887 -6.3824458 -4.782227 7
-0.34233901 -6.3928218 -4.7636719 7
-0.31610101 -5.1169429 8.4111328 7
-0.30959299 -5.0870361 8.4042969 7
-0.30960101 -5.0705571 8.4160156 7
-0.301498 -5.037354 8.4052734 7
-0.29662299 -5.0108638 8.4042969 7
-0.301826 -5.004395 8.4296885 7
-0.30023199 -4.984375 8.4375 7
-0.30184901 -4.9709468 8.4541016 7
-0.30185699 -4.9542241 8.4658203 7
-0.305107 -4.9439702 8.4873047 7
-0.29699701 -4.9110112 8.4755859 7
-0.306732 -4.9136958 8.5146484 7
-0.30349699 -4.8903809 8.5175781 7
-0.30674699 -4.8798828 8.5380859 7
-0.30836499 -4.8660889 8.5546885 7
-0.303505 -4.8397222 8.5517578 7
-0.30513 -4.8260498 8.5683594 7
-0.089775003 -1.912109 9.0732422 7
-0.086502001 -1.891479 9.0664062 7
-0.086493999 -1.873291 9.0712891 7
-0.089729004 -1.85791 9.0859385 7
-0.092964001 -1.842285 9.1015615 7
-0.092941001 -1.823853 9.1054688 7
-0.096175998 -1.80835 9.1220703 7
-0.086418003 -1.7824709 9.0927734 7
-0.079910003 -1.759277 9.0751953 7
-0.081496999 -1.74231 9.0839844 7
-0.074988998 -1.719238 9.0664062 7
-0.071732 -1.698608 9.0595703 7
-0.073334001 -1.6817631 9.0693359 7
-0.079810999 -1.668457 9.0947266 7
-0.081421003 -1.651245 9.1044922 7
-0.074890003 -1.62854 9.0859385 7
-0.074874997 -1.610352 9.0898438 7
-0.055962 0.97106898 9.1533203 7
-0.057556 0.98999 9.1572266 7
-0.051018 1.005615 9.1318359 7
-0.052620001 1.024536 9.1347656 7
-0.059067 1.045776 9.1552734 7
-0.054168999 1.0617681 9.1357422 7
-0.062224999 1.083984 9.1611328 7
-0.075149998 1.1086431 9.2041016 7
-0.063781999 1.121582 9.1621094 7
-0.068595998 1.142212 9.1757812 7
-0.068558 1.160645 9.1728516 7
-0.063666999 1.176392 9.1533203 7
-0.063629001 1.194702 9.1503906 7
-0.071693003 1.2175291 9.1757812 7
-0.071663 1.235962 9.1728516 7
-0.071625002 1.25415 9.1699219 7
-0.071586996 1.2724611 9.1669922 7
-0.081359997 4.7784419 -4.9619141 7
-0.071792997 4.7431641 -4.9462891 7
-0.059052002 4.7012939 -4.9199219 7
-0.060623001 4.6894531 -4.936523 7
-0.062210001 4.6774902 -4.952148 7
-0.062224999 4.6621089 -4.9628911 7
-0.062217999 4.6469731 -4.9746089 7
-0.057434 4.6218262 -4.9707031 7
-0.057434 4.6065669 -4.9824219 7
-0.060623001 4.5977778 -5.0019531 7
-0.062201999 4.5855708 -5.0175781 7
-0.062194999 4.57019 -5.0292969 7
-0.076560996 4.5838618 -5.079102 7
-0.082924001 4.5812988 -5.108398 7
-0.079750001 4.5593262 -5.110352 7
-0.081329003 4.5469971 -5.1269531 7
-0.073357001 4.5152588 -5.1142578 7
-0.082915999 4.5187988 -5.1523442 7
-0.074959002 4.4871831 -5.139648 7
-0.25724801 -4.5067139 -5.5419922 7
-0.25565299 -4.52002 -5.5253911 7
-0.25238001 -4.530273 -5.5048828 7
-0.24417099 -4.5472412 -5.460938 7
-0.24424 -4.563477 -5.4501948 7
-0.245979 -4.598999 -5.4335942 7
-0.249367 -4.62146 -5.4306641 7
-0.25441 -4.6472168 -5.4326172 7
-0.241173 -4.6378169 -5.3857422 7
-0.246246 -4.6793208 -5.3769531 7
-0.25957501 -4.7210689 -5.4023442 7
-0.26300001 -4.759644 -5.3886719 7
-0.271355 -4.7919922 -5.4013672 7
-0.33531201 -6.088501 -4.5556641 7
-0.33543399 -6.1165771 -4.5273442 7
-0.34213299 -6.146729 -4.5273442 7
-0.34883901 -6.177002 -4.5292969 7
-0.33892801 -6.166626 -4.4912109 7
-0.34568 -6.2106929 -4.4775391 7
-0.34408599 -6.220459 -4.4580078 7
-0.34585601 -6.2523189 -4.4335942 7
-0.35420999 -6.2866211 -4.4375 7
-0.352615 -6.2962651 -4.4179692 7
-0.34104201 -6.2811279 -4.3769531 7
-0.34115601 -6.3083501 -4.3476558 7
-0.34120899 -6.322021 -4.3320308 7
-0.34130901 -6.348999 -4.3017578 7
-0.34305599 -6.3665771 -4.289062 7
-0.34310901 -6.3800049 -4.2744141 7
-0.341499 -6.3892822 -4.2558589 7
-0.310844 -5.117065 7.9755859 7
-0.31086001 -5.101562 7.9873052 7
-0.30918899 -5.082397 7.9951172 7
-0.30750301 -5.0632319 8.0029297 7
-0.29910299 -5.0307622 7.9931641 7
-0.29910299 -5.0151372 8.0048828 7
-0.30247501 -5.0062261 8.0253906 7
-0.30079699 -4.9871831 8.0322266 7
-0.29405999 -4.9578862 8.0263672 7
-0.29576099 -4.9455571 8.0429688 7
-0.295753 -4.9299321 8.0537109 7
-0.295753 -4.914185 8.0664062 7
-0.292404 -4.891602 8.0683594 7
-0.30754101 -4.9056401 8.1210938 7
-0.31764999 -4.9095459 8.1601562 7
-0.30923501 -4.8770752 8.1494141 7
-0.29576901 -4.8349609 8.1230469 7
-0.29914099 -4.825562 8.1445312 7
-0.086571001 -1.906616 8.7519531 7
-0.088234 -1.890625 8.7626953 7
-0.093268998 -1.877319 8.7832031 7
-0.089890003 -1.857056 8.7763672 7
-0.086525001 -1.837036 8.7705078 7
-0.093239002 -1.8249511 8.796875 7
-0.088180996 -1.803223 8.7851562 7
-0.089844003 -1.787109 8.7949219 7
-0.076370001 -1.759277 8.7558594 7
-0.078033 -1.743042 8.7646484 7
-0.083061002 -1.7294919 8.7851562 7
-0.078002997 -1.708252 8.7734385 7
-0.071266003 -1.685791 8.7558594 7
-0.076270998 -1.671997 8.7753906 7
-0.081321999 -1.658325 8.7958984 7
-0.081298999 -1.640869 8.7998047 7
-0.077918999 -1.620972 8.7929688 7
-0.077887997 -1.603394 8.796875 7
-0.061843999 0.97204602 8.8730469 7
-0.061820999 0.98962402 8.8710938 7
-0.051711999 1.002808 8.8359385 7
-0.055038001 1.0218509 8.8447266 7
-0.053321999 1.0386961 8.8369141 7
-0.061684001 1.060303 8.8623047 7
-0.061652999 1.077759 8.859375 7
-0.066650003 1.098022 8.8740234 7
-0.063254997 1.113892 8.859375 7
-0.066574 1.133301 8.8681641 7
-0.063193999 1.14917 8.8544922 7
-0.059799001 1.164917 8.8398438 7
-0.056403998 1.180908 8.8261719 7
-0.061409 1.20105 8.8398438 7
-0.066413999 1.221558 8.8544922 7
-0.066359997 1.238892 8.8505859 7
-0.073036 1.260254 8.8701172 7
-0.073005997 1.277832 8.8671885 7
-0.081848003 4.7705078 -4.585938 7
-0.070289999 4.7320561 -4.5654302 7
-0.058738999 4.693481 -4.545898 7
-0.063689999 4.6895752 -4.5693359 7
-0.065346003 4.6787109 -4.5849609 7
-0.062019002 4.6575928 -4.5878911 7
-0.064438 4.6464839 -4.6025391 7
-0.064444996 4.6320801 -4.6132808 7
-0.061142001 4.6107178 -4.6152339 7
-0.062781997 4.5996089 -4.6318359 7
-0.066086002 4.592041 -4.6503911 7
-0.072685003 4.5908198 -4.679688 7
-0.072685003 4.576416 -4.6914058 7
-0.079300001 4.5751948 -4.719727 7
-0.084251001 4.5705571 -4.7431641 7
-0.082580999 4.5523682 -4.75 7
-0.072678 4.5177002 -4.734375 7
-0.082580999 4.5228271 -4.7714839 7
-0.084229 4.5114751 -4.7861328 7
-0.082572997 4.4931641 -4.7929692 7
-0.092476003 4.4979248 -4.8310552 7
-0.246696 -4.5053711 -5.125 7
-0.248459 -4.5239258 -5.1191411 7
-0.25193799 -4.545898 -5.1181641 7
-0.24340101 -4.545166 -5.0839839 7
-0.24687999 -4.566895 -5.0830078 7
-0.241776 -4.5723882 -5.0585942 7
-0.243553 -4.5909419 -5.0517578 7
-0.241882 -4.6030269 -5.0361328 7
-0.24191999 -4.6182861 -5.0253911 7
-0.247131 -4.643311 -5.0283198 7
-0.245461 -4.6550288 -5.0117192 7
-0.24379 -4.6668701 -4.9970698 7
-0.25243399 -4.6986079 -5.007812 7
-0.25763699 -4.7237549 -5.0107422 7
-0.26285601 -4.7487788 -5.0117192 7
-0.264626 -4.767334 -5.0048828 7
-0.26123801 -4.7758789 -4.984375 7
-0.30750301 -5.1140141 7.5693359 7
-0.30750999 -5.0993652 7.5820308 7
-0.30229899 -5.0594478 7.59375 7
-0.29883599 -5.0377202 7.5966802 7
-0.29536399 -5.0012212 7.6123052 7
-0.29538 -4.9716802 7.6357422 7
-0.29711899 -4.9605708 7.6513672 7
-0.28842199 -4.9134521 7.6533198 7
-0.29713401 -4.901001 7.6982422 7
-0.30585501 -4.9033198 7.733398 7
-0.298897 -4.8746338 7.726562 7
-0.298897 -4.8597412 7.7373052 7
-0.29716501 -4.841187 7.7451172 7
-0.28673601 -4.8059082 7.7294922 7
-0.080794998 -1.8980711 8.4462891 7
-0.080802999 -1.881348 8.4521484 7
-0.080765001 -1.848145 8.4599609 7
-0.087723002 -1.8369139 8.4863281 7
-0.084197998 -1.8006589 8.4833984 7
-0.080704004 -1.7644041 8.4824219 7
-0.071967997 -1.740967 8.4580078 7
-0.070197999 -1.706177 8.4609385 7
-0.066696003 -1.68689 8.4541016 7
-0.075370997 -1.659912 8.4892578 7
-0.078818999 -1.629028 8.5078115 7
-0.073578 -1.608398 8.4951172 7
-0.051949002 0.96582001 8.5625 7
-0.055381998 0.984375 8.5712891 7
-0.048393 0.998169 8.546875 7
-0.051849 1.016724 8.5556641 7
-0.051819 1.033691 8.5537109 7
-0.053513002 1.05127 8.5566406 7
-0.055213999 1.06897 8.5595703 7
-0.060387 1.088379 8.5732422 7
-0.053429 1.102051 8.5488281 7
-0.058600999 1.12146 8.5625 7
-0.058577999 1.138306 8.5605469 7
-0.055069 1.153564 8.546875 7
-0.055046 1.17041 8.5449219 7
-0.049796999 1.18457 8.5253906 7
-0.061928 1.2080081 8.5615234 7
-0.060150001 1.223877 8.5527344 7
-0.061859 1.241699 8.5556641 7
-0.061820999 1.258667 8.5527344 7
-0.068726003 1.2794189 8.5712891 7
-0.24520899 -4.485352 -4.7783198 7
-0.24524701 -4.4998779 -4.7675781 7
-0.245308 -4.5144038 -4.7568359 7
-0.25245699 -4.5423579 -4.764648 7
-0.25605801 -4.563477 -4.7626948 7
-0.25432599 -4.574585 -4.7470698 7
-0.249046 -4.5792241 -4.7226558 7
-0.25085399 -4.5970459 -4.7167969 7
-0.25092301 -4.6115718 -4.7050781 7
-0.25096101 -4.625977 -4.6943359 7
-0.24745899 -4.6334229 -4.6748052 7
-0.25283799 -4.657959 -4.6767578 7
-0.25466201 -4.6759028 -4.670898 7
-0.25294501 -4.6867681 -4.6542969 7
-0.252983 -4.7011719 -4.6435552 7
-0.258362 -4.7255859 -4.6455078 7
-0.25486001 -4.7330322 -4.625977 7
-0.25312001 -4.743896 -4.610352 7
-0.258499 -4.7684331 -4.6123052 7
-0.30876201 -5.1138921 7.1972661 7
-0.31596401 -5.1148682 7.2255859 7
-0.31417099 -5.09729 7.233398 7
-0.30158201 -5.0578609 7.2167969 7
-0.30160499 -5.0439448 7.2294922 7
-0.305206 -5.0375981 7.25 7
-0.29441801 -5.0019531 7.2363281 7
-0.303413 -5.006104 7.2685552 7
-0.29623401 -4.9779048 7.264648 7
-0.29622701 -4.9641109 7.2753911 7
-0.296242 -4.9500728 7.2871089 7
-0.29445601 -4.9324951 7.295898 7
-0.296249 -4.9221191 7.311523 7
-0.296249 -4.9082031 7.3222661 7
-0.29626501 -4.894043 7.3349609 7
-0.30345899 -4.894165 7.3632808 7
-0.314293 -4.901123 7.4013672 7
-0.29988101 -4.8590088 7.3779302 7
-0.29990399 -4.8448491 7.389648 7
-0.296303 -4.8234859 7.3925781 7
-0.087188996 -1.899292 8.1962891 7
-0.087173 -1.8831789 8.2001953 7
-0.083557002 -1.8642581 8.1933594 7
-0.085341997 -1.849609 8.2041016 7
-0.083518997 -1.832031 8.203125 7
-0.096115001 -1.82605 8.2460938 7
-0.085297003 -1.80127 8.2167969 7
-0.076278999 -1.7780761 8.1943359 7
-0.076270998 -1.762085 8.1982422 7
-0.072655 -1.7431639 8.1914062 7
-0.072632 -1.727173 8.1953115 7
-0.074440002 -1.712402 8.2050781 7
-0.070808001 -1.693481 8.1982422 7
-0.074394003 -1.680298 8.2138672 7
-0.070785999 -1.661377 8.2070312 7
-0.079773001 -1.651855 8.2373047 7
-0.077941999 -1.6343991 8.2353516 7
-0.076149002 -1.616943 8.2353516 7
-0.061127 0.968018 8.3310547 7
-0.061096001 0.984375 8.3291016 7
-0.055679001 0.99829102 8.3095703 7
-0.057449002 1.015381 8.3125 7
-0.05381 1.030151 8.2998047 7
-0.057381 1.0480959 8.3085938 7
-0.057349999 1.0643311 8.3056641 7
-0.055519 1.079834 8.2978516 7
-0.053688001 1.095337 8.2890615 7
-0.055458002 1.112427 8.2919922 7
-0.057204999 1.129639 8.2949219 7
-0.064361997 1.149536 8.3144531 7
-0.060745001 1.164062 8.3017578 7
-0.060699001 1.18042 8.2988281 7
-0.055289999 1.1937259 8.2792969 7
-0.048080001 1.206177 8.2539062 7
-0.060608 1.229126 8.2890615 7
-0.058784001 1.244507 8.28125 7
-0.064139999 1.263672 8.2949219 7
-0.060509 1.277954 8.28125 7
-0.19341099 -1.972059 12.673246 7
-0.108195 -1.611136 11.098043 7
-0.096827999 0.78094 11.132219 7
-0.099895 -1.720917 10.353844 7
-0.123221 4.2273412 9.4523716 7
-0.38418999 -5.0973029 9.7804356 7
-0.12568399 -1.742931 9.5240879 7
-0.33873001 -4.9656458 8.7718945 7
-0.121092 -1.823697 9.0461149 7
-0.081699997 0.97142798 9.0114746 7
-0.085473001 1.236362 8.9825935 7
-0.31075099 -4.914279 7.9131188 7
-0.086916 -1.819295 8.4549665 7
-0.084844999 -1.6279401 8.5114985 7
-0.057163998 1.11317 8.4924698 7
-0.27915901 -4.8939981 6.9890161 7
-0.062449001 -1.820563 7.9849849 7
-0.050172001 -1.626146 7.988996 7
-0.036481999 1.015602 8.1042719 7
-0.045033999 1.198889 8.1084814 7
-0.31628501 -4.840724 6.184433 7
-0.088927001 -1.827912 7.604075 7
-0.078497 -1.653958 7.6258931 7
-0.066690996 1.09807 7.767827 7
-0.076314002 1.269262 7.768064 7
-0.26854199 -4.7142701 5.0361099 7
-0.076480001 -1.842424 7.2927108 7
-0.054802001 -1.655635 7.2706132 7
-0.052491002 1.020799 7.5071211 7
-0.061517 1.179237 7.5052862 7
-0.074708 -1.874209 7.0502882 7
-0.064372003 -1.722077 7.0818291 7
-0.033528998 1.0783 7.2107959 7
-0.050480001 1.238566 7.2380209 7
-0.075558998 -1.905599 6.8351321 7
-0.065996997 -1.763653 6.8741241 7
-0.04857 -1.6048861 6.8765159 7
-0.103719 -1.9110889 6.6074572 7
-0.083283998 -1.754594 6.6153302 7
-0.072708003 -1.622085 6.6483679 7
-0.076382004 -1.7664 6.4150162 7
-0.062392 -1.634307 6.4405122 7
0.035085 -1.265589 -6.7440262 7
-0.215391 -4.744945 -6.6737781 7
0.039241001 -1.552283 -4.7982721 7
-0.17569 -4.6455388 -5.3075151 7
-0.27881101 -6.306736 -5.030323 7
-0.021484001 0.83221197 11.249435 7
-0.122267 -1.621557 11.126453 7
-0.017352 -1.494305 -3.966713 7
-0.242522 -4.587769 -4.2861738 7
-0.382994 -6.209527 -4.180346 7
-0.12893 -1.883629 10.534892 7
-0.230142 -4.5763712 -3.5180089 7
-0.32073501 -4.9381728 9.8228922 7
-0.083305001 -1.7921619 9.7711353 7
-0.219726 -4.5605969 -2.8560369 7
-0.298356 -5.1073298 8.9572487 7
-0.050562002 -1.720753 9.1753769 7
-0.32030401 -4.9359012 8.2611828 7
-0.106516 -1.902463 8.7425528 7
-0.098375 -1.669331 8.7590075 7
-0.32559901 -5.1182871 7.672853 7
-0.29898101 -4.8587379 7.7588301 7
-0.079736002 -1.83439 8.3234806 7
-0.074144997 -1.620203 8.3488388 7
-0.27846801 -4.9376898 7.1367249 7
-0.070252001 -1.7855819 8.0242653 7
-0.25807101 -4.641448 -0.76538002 7
-0.25966001 -4.8433318 6.736805 7
-0.037634 -1.725383 7.6525121 7
-0.255582 -4.6112309 -0.412532 7
-0.32917801 -5.0901618 6.1146049 7
-0.300625 -4.885282 6.221159 7
-0.078980997 -1.859177 7.3791161 7
-0.059861001 -1.675415 7.3503098 7
-0.026354 -1.448187 -0.79468101 7
-0.28600001 -4.6395378 0.127748 7
-0.28369299 -4.7878809 5.9017258 7
-0.285117 -4.6818509 6.064898 7
-0.059278999 -1.807892 7.1295319 7
-0.048602998 -1.639977 7.1324949 7
-0.011597 -1.423057 -0.56405997 7
-0.037071999 -1.594142 -0.62633902 7
-0.282893 -4.5948529 0.41769299 7
-0.26707101 -4.6536632 0.611494 7
-0.26993099 -4.759171 0.76768398 7
-0.26598501 -4.5881109 5.7611609 7
-0.055939998 -1.772478 6.9582191 7
-0.04668 -1.612675 6.965559 7
-0.0042989999 -1.402805 -0.37916401 7
-0.022821 -1.562011 -0.41427299 7
-0.25640801 -4.574151 0.88944399 7
-0.250779 -4.6439471 1.056581 7
-0.241841 -4.6965981 1.230599 7
-0.23754001 -4.7559018 1.397838 7
-0.25309199 -4.7737942 4.9906631 7
-0.055208001 -1.887715 6.7639871 7
-0.047474001 -1.7361439 6.78195 7
-0.27127999 -4.5109868 1.330804 7
-0.26987499 -4.5764322 1.485177 7
-0.2701 -4.6402488 1.6394 7
-0.26313099 -4.6766849 1.804076 7
-0.25779 -4.711102 1.967118 7
-0.26646 -4.7810922 2.1176791 7
-0.27857301 -4.753757 4.436728 7
-0.27680001 -4.5725121 4.8973312 7
-0.073951997 -1.836906 6.5632858 7
-0.066051997 -1.693803 6.579412 7
-0.24576899 -4.498538 1.873745 7
-0.247393 -4.5513191 2.0219309 7
-0.25437599 -4.6137948 2.167351 7
-0.25575101 -4.65415 2.3200049 7
-0.25558901 -4.690506 2.513907 7
-0.260351 -4.7272921 2.6676259 7
-0.26503599 -4.7578282 2.8231471 7
-0.279138 -4.7899451 3.616606 7
-0.27750799 -4.7644048 3.774159 7
-0.271736 -4.6490431 4.2369189 7
-0.26586401 -4.5875111 4.3836479 7
-0.24121 -4.517921 2.509532 7
-0.25020701 -4.5719118 2.6914711 7
-0.25492299 -4.6015062 2.8404651 7
-0.269164 -4.6334729 3.6010079 7
-0.26552001 -4.6032128 3.751235 7
-0.047063001 4.6307759 -5.8017788 7
-0.033642001 4.5552182 -4.6410122 7
-0.105028 0.78226 11.12431 7
-0.17376 4.1928649 9.4581127 7
-0.18588001 4.4586539 9.3339825 7
-0.097228996 1.081797 9.1616316 7
-0.060476001 1.07481 8.6383762 7
-0.038601 1.069329 8.2428246 7
-0.051658001 1.279755 8.2644596 7
-0.022071 1.064675 7.9113069 7
-0.036203001 1.261507 7.9390988 7
-0.057534002 1.05902 7.6272912 7
-0.065210998 1.242516 7.6268849 7
-0.041407 1.055457 7.3660798 7
-0.050205 1.228305 7.3717642 7
-0.030234 1.052367 7.1455321 7
-0.032930002 1.214873 7.1288109 7
0.061335001 0.060823001 -12.779421 7
-0.050386 -1.115775 -10.366101 7
-0.032816 -1.221212 -8.6035948 7
-0.103264 4.6684871 -8.7641821 7
-0.0086759999 -1.259873 -7.2301641 7
0.0044030002 -1.295908 -6.305882 7
-0.099845 4.647377 -5.1993899 7
-0.115055 4.5655012 -5.4775071 7
-0.03159 -1.3125221 -5.5768671 7
-0.045875002 -1.543741 -5.6545658 7
-0.23009001 -4.5956769 -6.0880361 7
-0.023729 -1.344015 -5.0715432 7
-0.227791 -4.559382 -5.2911549 7
-0.33722901 -6.14779 -5.0871739 7
-0.32758 -6.270823 -4.8048868 7
-0.011375 -1.350722 -4.6106329 7
-0.025591999 -1.543139 -4.6613522 7
-0.229709 -4.526998 -4.6159959 7
-0.219476 -4.6242819 -4.3924789 7
-0.003825 -1.361299 -4.2474608 7
-0.012064 -1.520028 -4.2489738 7
-0.200682 -4.65905 -3.364959 7
-0.19077601 -4.7038841 -3.149245 7
-0.022351 -1.344972 -3.8913679 7
-0.039372999 -1.513396 -3.932976 7
-0.018805001 -1.332845 -3.6632969 7
-0.028169001 -1.4684139 -3.658726 7
-0.027655 -1.5746861 -3.5986879 7
-0.01994 -1.573507 -0.92189002 7
-0.023533 -1.57839 -0.85322499 7
-0.011874 -1.490991 -0.933788 7
-0.01045 -1.480015 -0.87170702 7
0.001501 -1.397887 -0.94729298 7
-0.000787 -1.398525 -0.88699502 7
0.0041749999 -1.374895 -0.83139497 7
-0.0086089997 -1.333241 -0.95630503 7
-0.011168 -1.33426 -0.89871299 7
