# .PCD v0.7 - Point Cloud Data file format
VERSION 0.7
FIELDS x y z intensity
SIZE 4 4 4 4
TYPE F F F F
COUNT 1 1 1 1
WIDTH 1190
HEIGHT 1
VIEWPOINT 0 0 0 1 0 0 0
POINTS 1190
DATA ascii
0.24470501 -1.656006 -71.950195 7
0.290649 -1.7861331 -70.195312 7
0.263924 5.190918 -72.482422 7
0.317947 1.589722 -69.387695 7
0.17928299 -1.685913 -66.164062 7
0.211998 -1.815552 -65.048828 7
0.163902 5.1844478 -67.688477 7
0.189491 4.9564209 -66.820312 7
0.15766101 4.8708501 -67.916992 7
0.32917801 1.440308 -62.083008 7
0.143242 -1.821167 -59.952148 7
0.190468 -1.920898 -58.521484 7
0.233978 -2.0175779 -57.200195 7
0.290977 4.7382808 -56.223633 7
0.22679099 4.7572021 -58.1875 7
0.197418 4.6846919 -59.091797 7
0.324249 1.286743 -55.289062 7
0.089417003 -2.06897 -54.820312 7
0.151695 -2.136353 -53.136719 7
0.172829 -2.2418211 -52.558594 7
0.136627 -2.4119871 -53.517578 7
0.16169 -2.510864 -52.833984 7
0.25367001 4.9307861 -50.894531 7
0.206779 4.9232178 -52.175781 7
0.175751 4.8709722 -53.027344 7
0.225189 4.6243901 -51.738281 7
0.195923 4.565063 -52.542969 7
0.131905 4.579834 -54.291016 7
0.06498 -2.140991 -50.152344 7
0.11306 -2.2116699 -48.972656 7
0.14601099 -2.2935791 -48.162109 7
0.095092997 -2.470947 -49.389648 7
0.115044 -2.5661621 -48.890625 7
0.232941 4.7408452 -46.477539 7
0.193306 4.7210689 -47.461914 7
0.1539 4.6959229 -48.439453 7
0.204964 4.4621582 -47.192383 7
0.174545 4.4133301 -47.948242 7
0.143204 4.3631592 -48.728516 7
0.219543 1.077637 -46.553711 7
0.047561999 -2.3071289 -46.108398 7
0.100906 -2.344116 -44.537109 7
0.128777 -2.4198 -43.913086 7
0.079819001 -2.58728 -44.981445 7
0.104004 -2.665894 -44.4375 7
0.136673 -2.7307129 -43.708008 7
0.180733 -2.776123 -42.726562 7
0.207855 4.663208 -42.462891 7
0.176117 4.6322021 -43.176758 7
0.14386 4.5987549 -43.90332 7
0.201309 4.364502 -42.633789 7
0.177681 4.3104248 -43.167969 7
0.104897 4.3570561 -44.797852 7
0.029541001 -2.4433589 -42.418945 7
0.053748999 -2.5184331 -41.916992 7
0.083717003 -2.5838621 -41.297852 7
0.030121 -2.7532959 -42.37793 7
0.055190999 -2.8236079 -41.856445 7
0.085739002 -2.8837891 -41.226562 7
0.1091 -2.9511721 -40.740234 7
0.12817401 -3.0228269 -40.34375 7
0.140793 4.7431641 -40.40332 7
0.127396 4.6741939 -40.686523 7
0.099274002 4.6365972 -41.274414 7
0.067169003 4.6048579 -41.942383 7
0.121216 4.3867192 -40.84082 7
0.103844 4.3222661 -41.207031 7
0.072288997 4.2850342 -41.861328 7
0.215363 0.90417498 -38.805664 7
0.19832601 0.815552 -39.15332 7
0.219055 0.71203601 -38.728516 7
0.030556001 -2.889282 -38.50293 7
0.045173999 -2.9633789 -38.22168 7
0.059486002 -3.036499 -37.946289 7
0.076614 -3.1043701 -37.618164 7
-0.64217401 -2.906616 49.546875 7
-0.64648402 -2.7967529 49.629883 7
-0.55641901 0.062011998 48.239258 7
-0.57747698 0.17419399 48.600586 7
-0.55267298 0.28369099 48.179688 7
0.104446 4.7692871 -37.311523 7
0.083847001 4.7235112 -37.705078 7
0.067276001 4.6668701 -38.025391 7
0.037361 4.6378169 -38.59375 7
0.066513002 4.480957 -38.058594 7
0.193123 1.2023931 -35.880859 7
0.19085699 1.1151119 -35.924805 7
0.190468 1.026489 -35.933594 7
0.160179 0.951904 -36.501953 7
0.176323 0.586914 -36.200195 7
0.198036 0.49206501 -35.791016 7
0.170555 0.40942401 -36.307617 7
0.014801 -3.036865 -35.666016 7
0.014626 -3.1247561 -35.658203 7
-0.570328 -2.837158 44.970703 7
-0.59820598 -2.7615969 45.421875 7
-0.61246502 -2.6711431 45.655273 7
-0.55036902 0.053467002 44.825195 7
-0.51010102 0.154175 44.1875 7
-0.53131098 0.25769001 44.526367 7
-0.502464 0.355957 44.069336 7
0.081795 4.789917 -34.647461 7
0.060493 4.7518311 -35.023438 7
0.047302 4.693481 -35.27832 7
0.0091629997 4.688477 -35.945312 7
-0.0074160001 4.634644 -36.240234 7
0.179024 1.199463 -33.22168 7
0.167816 1.123291 -33.416992 7
0.137383 1.0562741 -33.946289 7
0.146118 0.372803 -33.639648 7
0.17352299 0.285889 -33.166992 7
0.15060399 0.20629901 -33.55957 7
0.16542099 0.122559 -33.302734 7
0.18602 0.040038999 -32.946289 7
0.16037799 -0.108398 -30.608398 7
-0.032042999 -3.2550049 -33.27832 7
-0.024398999 -3.325439 -33.147461 7
-0.0067059998 -3.3795171 -32.860352 7
0.0065310001 -3.4394529 -32.643555 7
-0.482315 -2.718262 40.307617 7
-0.53242499 -2.581665 41.055664 7
-0.55867797 -2.5118411 41.445312 7
-0.508156 0.33325201 40.841797 7
0.113052 4.9414058 -31.043945 7
0.099753998 4.8953862 -31.263672 7
0.077575997 4.7902832 -31.633789 7
0.053978 4.7645259 -32.015625 7
0.026695 4.7449951 -32.454102 7
-0.0027920001 4.728271 -32.928711 7
0.18072499 1.474854 -30.277344 7
0.147835 1.345947 -30.803711 7
0.14740001 1.269653 -30.811523 7
0.123032 1.207397 -31.201172 7
0.125626 0.12207 -31.163086 7
0.11525 -0.036010999 -29.0625 7
0.13855 -0.106934 -28.717773 7
0.154305 -0.177002 -28.483398 7
0.119644 -0.25195301 -28.991211 7
0.140953 -0.32067901 -28.674805 7
0.13448299 -0.39306599 -28.768555 7
-0.062339999 -3.392822 -31.410156 7
-0.036369 -3.5067141 -31.009766 7
-0.50695002 -2.487793 38.270508 7
-0.468124 0.218384 37.881836 7
-0.43486801 0.301025 37.424805 7
-0.466194 0.39111301 37.856445 7
-0.43125901 0.47119099 37.37793 7
0.064133003 5.019043 -29.567383 7
0.084549002 4.897583 -29.27832 7
0.070716999 4.8564448 -29.492188 7
0.055312999 4.817749 -29.728516 7
0.029282 4.8016362 -30.12207 7
0.0076449998 4.773438 -30.462891 7
0.16707601 1.528564 -28.374023 7
0.130363 1.484253 -28.919922 7
0.16064499 1.391235 -28.474609 7
0.14601099 1.329834 -28.694336 7
0.123077 1.272339 -29.035156 7
0.10891 -0.29748499 -26.935547 7
0.131859 -0.36083999 -26.618164 7
0.134773 -0.42688 -26.577148 7
0.115936 -0.497803 -26.832031 7
0.13718399 -0.55932599 -26.540039 7
-0.076599002 -3.520752 -29.110352 7
-0.071158998 -3.5839839 -29.026367 7
-0.059264999 -3.636719 -28.855469 7
-0.045219 -3.684814 -28.65625 7
0.078560002 4.9473882 -26.979492 7
0.055121999 4.934082 -27.307617 7
0.043106001 4.8243408 -27.493164 7
-0.00080899999 4.782959 -28.109375 7
0.017021 4.6743159 -27.87793 7
0.143585 1.562744 -26.444336 7
0.14217401 1.431152 -26.46875 7
0.114075 -0.71630901 -24.908203 7
-0.38085201 0.62182599 32.15625 7
0.041634001 5.0187988 -25.489258 7
0.042502999 4.9526372 -25.490234 7
0.030151 4.9168701 -25.65625 7
0.016891001 4.8824458 -25.835938 7
-0.0050130002 4.8662109 -26.12207 7
-0.012825 4.817749 -26.231445 7
0.13195799 1.591064 -24.723633 7
0.123222 1.535522 -24.836914 7
0.104927 1.4862061 -25.075195 7
0.105728 1.410156 -25.033203 7
0.12808201 1.3330081 -24.75 7
0.109787 -0.66650403 -23.082031 7
0.089905001 -0.731323 -23.313477 7
0.088303 -0.79040498 -23.328125 7
0.100563 -0.84399402 -23.180664 7
0.102432 -0.90112299 -23.155273 7
0.036919001 5.0245361 -23.539062 7
0.031479001 4.9777832 -23.613281 7
0.019669 4.94519 -23.761719 7
0.008835 4.9095459 -23.900391 7
-0.0059199999 4.8823242 -24.083984 7
-0.025101 4.8640141 -24.319336 7
0.116333 1.836792 -23.004883 7
0.123161 1.772949 -22.927734 7
0.126991 1.653931 -22.889648 7
0.118103 1.603027 -22.99707 7
0.069724999 -0.68920898 -21.901367 7
0.078110002 -0.74133301 -21.806641 7
0.088600002 -0.79235798 -21.688477 7
0.080544002 -0.85022002 -21.773438 7
0.067222998 -0.91088903 -21.916992 7
0.014435 5.074585 -22.049805 7
0.017548 5.0114751 -22.027344 7
0.0085749999 4.9763179 -22.135742 7
0.001198 4.9370122 -22.227539 7
-0.010391 4.9066162 -22.364258 7
-0.027779 4.8884282 -22.56543 7
-0.030433999 4.8371582 -22.605469 7
0.095406003 1.8963619 -21.594727 7
0.099570997 1.8380131 -21.552734 7
0.081649996 1.798584 -21.754883 7
0.107368 1.72229 -21.474609 7
0.099968001 1.6737061 -21.55957 7
0.085716002 1.630127 -21.720703 7
0.056396 -0.856323 -20.524414 7
0.066657998 -1.109985 -20.401367 7
0.066543996 -1.161743 -20.398438 7
0.012741 5.0612788 -20.46875 7
0.0059810001 5.0247798 -20.548828 7
-0.001358 4.9892578 -20.634766 7
-0.007553 4.9506841 -20.708984 7
-0.022194 4.9307861 -20.868164 7
-0.035705999 4.9073491 -21.016602 7
-0.027306 4.8356929 -20.942383 7
0.083678998 1.885986 -20.208984 7
0.075759999 1.841553 -20.294922 7
0.093704 1.774536 -20.113281 7
0.086356997 1.7294919 -20.191406 7
0.072815001 1.688965 -20.334961 7
0.085701004 1.627197 -20.206055 7
0.053268 -1.000854 -19.226562 7
0.044151001 -1.054077 -19.310547 7
0.027824 -1.111572 -19.464844 7
0.038543999 -1.1550291 -19.357422 7
0.042068001 -1.202026 -19.319336 7
0.035973001 -1.2548831 -19.375 7
-0.031982001 5.1030269 -19.509766 7
-0.023041001 5.032959 -19.436523 7
-0.029030001 4.9969478 -19.505859 7
-0.032035999 4.9538569 -19.544922 7
-0.044617001 4.9316411 -19.675781 7
-0.060173001 4.9155269 -19.835938 7
-0.054832 4.853394 -19.794922 7
0.066924997 1.884033 -19.054688 7
0.050735001 1.8494869 -19.21582 7
0.066840999 1.786621 -19.063477 7
0.068595998 1.73645 -19.049805 7
0.067351997 1.6887209 -19.06543 7
0.057151999 1.647827 -19.167969 7
0.037742998 -0.992432 -18.099609 7
0.041489001 -1.036743 -18.061523 7
0.04335 -1.081787 -18.042969 7
0.019562 -1.140503 -18.254883 7
0.029099001 -1.181641 -18.166016 7
0.030929999 -1.226807 -18.145508 7
0.021233 -1.278809 -18.229492 7
0.063796997 1.862915 -17.802734 7
0.064392 1.816895 -17.801758 7
0.059891 1.77478 -17.84668 7
0.061127 1.728027 -17.838867 7
0.066817999 1.67749 -17.791016 7
0.073798999 1.626465 -17.731445 7
0.023314999 -0.986938 -17.134766 7
0.017821999 -1.033325 -17.178711 7
0.027907999 -1.072144 -17.088867 7
0.011551 -1.12439 -17.226562 7
0.0067369998 -1.1711431 -17.263672 7
0.012756 -1.211792 -17.208984 7
0.020126 -1.251709 -17.141602 7
-0.020988001 5.0224609 -16.885742 7
-0.022353999 4.9819341 -16.908203 7
-0.02169 4.9368901 -16.915039 7
0.018355999 -0.97387701 -16.113281 7
0.013977 -1.017334 -16.146484 7
0.023933001 -1.053955 -16.0625 7
0.028899999 -1.092896 -16.019531 7
0.012306 -1.1427 -16.150391 7
0.00073199999 -1.190552 -16.241211 7
0.0092700003 -1.227417 -16.167969 7
0.013512 -1.266602 -16.130859 7
-0.059227001 5.1072998 -16.049805 7
-0.029983999 4.9997559 -15.832031 7
-0.033562001 4.9666748 -15.87207 7
-0.038573999 4.936646 -15.922852 7
-0.039299 4.8969731 -15.94043 7
-0.052170001 4.8837891 -16.052734 7
-0.066459998 4.8731689 -16.176758 7
-0.063629001 4.8251948 -16.166016 7
0.046241999 1.588745 -15.830078 7
0.048347 1.5461431 -15.816406 7
0.039749 1.51123 -15.889648 7
0.046859998 1.465088 -15.835938 7
0.053252999 1.4198 -15.786133 7
0.068947002 1.36853 -15.663086 7
0.065323003 1.330322 -15.694336 7
0.048859 1.299561 -15.831055 7
0.075188003 1.161743 -15.625977 7
0.078743003 1.119385 -15.599609 7
0.020035001 -0.997437 -15.131836 7
0.016937001 -1.0380861 -15.152344 7
0.02066 -1.075317 -15.120117 7
0.010628 -1.158813 -15.189453 7
-8.3999999e-05 -1.2038569 -15.267578 7
0.0081860004 -1.238403 -15.201172 7
0.0058439998 -1.279175 -15.21582 7
0.047538999 1.267212 -14.880859 7
0.046744999 1.229004 -14.889648 7
0.039909001 1.193848 -14.944336 7
0.049706001 1.14978 -14.87207 7
0.057976 1.106689 -14.810547 7
0.067780003 1.0632319 -14.738281 7
0.067734003 1.024658 -14.741211 7
0.062424 0.98840302 -14.78418 7
0.075866997 0.828857 -14.685547 7
0.077347003 0.790039 -14.676758 7
0.075026996 0.75268602 -14.695312 7
0.022675 -0.97802699 -14.198242 7
0.019401999 -1.016602 -14.21875 7
0.01532 -1.055298 -14.245117 7
0.024871999 -1.087646 -14.173828 7
0.024010001 -1.124878 -14.176758 7
0.022330999 -1.162598 -14.185547 7
0.0030139999 -1.210083 -14.321289 7
0.003731 -1.2468261 -14.3125 7
0.072486997 0.603149 -13.822266 7
0.075645 0.56603998 -13.799805 7
0.073211998 0.53039598 -13.818359 7
0.070770003 0.494629 -13.837891 7
0.073944002 0.457764 -13.816406 7
0.079506002 0.42041001 -13.776367 7
0.082680002 0.38366699 -13.754883 7
0.082626 0.34765601 -13.754883 7
-0.041870002 4.9177251 -13.060547 7
-0.042732 4.8851318 -13.076172 7
-0.046944 4.8597412 -13.115234 7
-0.00065599999 -1.294312 -12.788086 7
-0.193626 -4.382935 -13.422852 7
-0.19103201 -4.413208 -13.395508 7
-0.192902 -4.451416 -13.395508 7
-0.078735001 4.7801509 -12.544922 7
-0.081398003 4.752563 -12.573242 7
0.019989001 -0.648193 -11.367188 7
0.025826 -0.67663598 -11.332031 7
0.032616001 -0.704346 -11.290039 7
0.036476001 -0.733154 -11.265625 7
0.032501001 -0.764404 -11.286133 7
0.023643 -0.79772902 -11.335938 7
0.0098879999 -0.83313 -11.415039 7
0.015709 -0.861206 -11.378906 7
0.021515001 -0.888794 -11.342773 7
0.023414999 -0.91833502 -11.328125 7
0.022376999 -0.94885302 -11.331055 7
0.013512 -0.98290998 -11.381836 7
0.00856 -1.015381 -11.407227 7
0.0026469999 -1.048462 -11.439453 7
-0.00132 -1.080811 -11.460938 7
-0.002419 -1.14209 -11.460938 7
0.004379 -1.168945 -11.417969 7
0.004311 -1.1993411 -11.414062 7
0.0042420002 -1.2294919 -11.411133 7
-0.0026700001 -1.2637939 -11.448242 7
-0.00103 -0.97399902 -10.888672 7
-0.0021210001 -1.003662 -10.892578 7
0.0039670002 -1.029907 -10.855469 7
0.0080180001 -1.0567631 -10.831055 7
0.0089870002 -1.085327 -10.822266 7
0.0038069999 -1.116699 -10.848633 7
-0.001373 -1.148438 -10.874023 7
0.00063299999 -1.176392 -10.860352 7
-0.0024870001 -1.207153 -10.875 7
-0.001534 -1.235474 -10.866211 7
-0.018974001 -1.274536 -10.961914 7
0.0028530001 -0.98022503 -10.269531 7
0.015686 -1.001953 -10.199219 7
0.015633 -1.0294189 -10.197266 7
0.011284 -1.05896 -10.216797 7
0.0026400001 -1.0905761 -10.259766 7
-0.0081479996 -1.1237791 -10.314453 7
-0.0028309999 -1.1488039 -10.283203 7
0.0046160002 -1.172241 -10.240234 7
0.0034940001 -1.200439 -10.244141 7
0.000237 -1.229736 -10.257812 7
-0.0019680001 -1.258545 -10.266602 7
-0.209999 -4.5762939 -10.557617 7
-0.31590301 -6.098145 -10.472656 7
-0.31382 -6.1210942 -10.447266 7
-0.30851001 -6.1357422 -10.408203 7
-0.30427599 -6.1530762 -10.373047 7
-0.30651101 -6.1861572 -10.368164 7
-0.31199601 -6.227417 -10.378906 7
-0.32070899 -6.276978 -10.404297 7
-0.32549301 -6.3200679 -10.414062 7
-0.33636501 -6.3753662 -10.450195 7
-0.053162001 4.8178711 -9.5644531 7
-0.049973 4.7849121 -9.5605469 7
-0.052101001 4.7633061 -9.5820312 7
-0.051041 4.7347412 -9.5878906 7
0.0049439999 -0.96289098 -9.7509766 7
0.001541 -0.99084502 -9.765625 7
-0.0041200002 -1.019897 -9.7919922 7
-0.005287 -1.046875 -9.7949219 7
-0.0064699999 -1.073853 -9.7978516 7
-0.0020290001 -1.098145 -9.7724609 7
0.001282 -1.122681 -9.7529297 7
-0.001022 -1.150391 -9.7617188 7
-0.0055539999 -1.179199 -9.78125 7
-0.003357 -1.204468 -9.7675781 7
-0.005653 -1.232056 -9.7753906 7
-0.010208 -1.260986 -9.7949219 7
-0.31880999 -6.0838618 -9.8447266 7
-0.324516 -6.1242681 -9.8554688 7
-0.32572201 -6.153564 -9.8457031 7
-0.32129699 -6.1690669 -9.8105469 7
-0.313492 -6.176147 -9.7617188 7
-0.31018099 -6.1940918 -9.7324219 7
-0.31927499 -6.2427979 -9.7568359 7
-0.32386801 -6.2805181 -9.7617188 7
-0.32393599 -6.3068848 -9.7470703 7
-0.328522 -6.344727 -9.7519531 7
-0.33873001 -6.3969731 -9.7822266 7
-0.056526002 4.789917 -9.0205078 7
-0.058738999 4.7697749 -9.0429688 7
-0.059859999 4.7471919 -9.0595703 7
-0.056503002 4.7150879 -9.0546885 7
-0.060966 4.6994629 -9.0869141 7
-0.076591 4.6817632 -9.1826172 7
-0.078827001 4.6610112 -9.2041016 7
-0.075470001 4.6289058 -9.1992188 7
-0.063202001 4.5533452 -9.1630859 7
-0.063202001 4.5280762 -9.1738281 7
-0.067665003 4.5118408 -9.2060547 7
8e-06 -0.97387701 -9.2880859 7
-0.009544 -1.07959 -9.3242188 7
-0.011993 -1.131348 -9.3300781 7
-0.0026779999 -1.151855 -9.2822266 7
-0.0085829999 -1.180298 -9.3066406 7
-0.013313 -1.2080081 -9.3271484 7
-0.0099029997 -1.2568361 -9.3037109 7
-0.060157999 4.7783198 -8.4941406 7
-0.065986998 4.7672119 -8.5302734 7
-0.065986998 4.7434082 -8.5419922 7
-0.065971002 4.719727 -8.5537109 7
-0.069466002 4.703125 -8.5800781 7
-0.22052801 -4.4587402 -8.4023438 7
-0.214195 -4.4699712 -8.3642578 7
-0.112473 -1.908691 11.320312 7
-0.107262 -1.881104 11.302734 7
-0.104599 -1.832031 11.300781 7
-0.103279 -1.8076169 11.298828 7
-0.101952 -1.783203 11.296875 7
-0.099335 -1.757812 11.291016 7
-0.099280998 -1.71106 11.298828 7
-0.094054997 -1.6837161 11.280273 7
-0.090095997 -1.634033 11.271484 7
-0.087479003 -1.609009 11.264648 7
-0.092231996 0.65527302 11.412109 7
-0.089599997 0.678101 11.399414 7
-0.094756998 0.70324701 11.420898 7
-0.076499999 0.74450701 11.336914 7
-0.076453999 0.76806599 11.334961 7
-0.076430999 0.79162598 11.333008 7
-0.076401003 0.81518602 11.331055 7
-0.077652 0.83911097 11.334961 7
-0.076309003 0.86206102 11.327148 7
-0.076278999 0.88549799 11.325195 7
-0.077529997 0.90942401 11.328125 7
-0.077491999 0.93298298 11.326172 7
-0.077454001 0.95654303 11.324219 7
-0.010063 -1.080811 -8.0029297 7
-0.011475 -1.125854 -8.0039062 7
-0.012909 -1.171021 -8.0029297 7
-0.019569 -1.1968991 -8.0292969 7
-0.022247 -1.2205811 -8.0380859 7
-0.011795 -1.28125 -7.9824219 7
-0.011848 -1.303467 -7.9794922 7
-0.014542 -1.327148 -7.9873052 7
-0.030486999 -1.359253 -8.0517578 7
-0.027884999 -1.3798831 -8.0371094 7
-0.030579001 -1.403931 -8.0449219 7
-0.020020001 -1.419556 -7.9970698 7
-0.02272 -1.443481 -8.0048828 7
-0.024094 -1.466553 -8.0078115 7
-0.024139 -1.48877 -8.0029297 7
-0.029479999 -1.514648 -8.0224609 7
-0.046730001 -1.548828 -8.0917969 7
-0.050765999 -1.574097 -8.1044922 7
-0.049484 -1.595703 -8.0957031 7
-0.237701 -4.4858398 -7.9863281 7
-0.233025 -4.5018311 -7.9599609 7
-0.230446 -4.5189209 -7.938477 7
-0.227837 -4.5361328 -7.9169922 7
-0.230553 -4.5631099 -7.9169922 7
-0.231949 -4.5875239 -7.9111328 7
-0.230667 -4.6071782 -7.8955078 7
-0.238701 -4.6445308 -7.9150391 7
-0.240105 -4.6690669 -7.9091802 7
-0.252121 -4.7142329 -7.9433589 7
-0.25218201 -4.7363281 -7.9326172 7
-0.252251 -4.7581792 -7.920898 7
-0.25097701 -4.777832 -7.9042969 7
-0.237938 -4.4892578 -7.5029302 7
-0.22831 -4.492188 -7.4560552 7
-0.225594 -4.5080571 -7.4355469 7
-0.225677 -4.5289311 -7.4238281 7
-0.22849999 -4.55481 -7.422852 7
-0.23133101 -4.5809331 -7.421875 7
-0.234154 -4.6071782 -7.420898 7
-0.236984 -4.6333008 -7.4199219 7
-0.243965 -4.6673579 -7.4345698 7
-0.245415 -4.690918 -7.4287109 7
-0.24750499 -4.7182622 -7.4267578 7
-0.247574 -4.7392578 -7.4160161 7
-0.24764299 -4.7601318 -7.4042969 7
-0.25046501 -4.786377 -7.4033198 7
-0.140274 -2.127197 10.571289 7
-0.10775 -1.904541 10.486328 7
-0.11335 -1.887573 10.512695 7
-0.113335 -1.865967 10.517578 7
-0.107674 -1.840088 10.5 7
-0.103455 -1.815063 10.488281 7
-0.094985999 -1.787109 10.458008 7
-0.092147999 -1.763428 10.451172 7
-0.099166997 -1.747437 10.483398 7
-0.096329004 -1.723755 10.476562 7
-0.101936 -1.706543 10.50293 7
-0.097686999 -1.6817631 10.489258 7
-0.094848998 -1.658325 10.482422 7
-0.100464 -1.640747 10.508789 7
-0.099045001 -1.6181639 10.507812 7
-0.238976 -4.482666 -7.0820308 7
-0.23759501 -4.5001221 -7.0664058 7
-0.231911 -4.5093989 -7.0351558 7
-0.231979 -4.5291748 -7.0244141 7
-0.230591 -4.5465088 -7.0087891 7
-0.232086 -4.5690918 -7.0029302 7
-0.23214 -4.5889888 -6.992188 7
-0.23651101 -4.6168208 -6.9960942 7
-0.23944101 -4.642334 -6.9951172 7
-0.240936 -4.664917 -6.9892578 7
-0.245308 -4.6929932 -6.9931641 7
-0.25109899 -4.7241211 -7.0029302 7
-0.251167 -4.743896 -6.9902339 7
-0.254089 -4.7694092 -6.9892578 7
-0.254143 -4.789185 -6.9785161 7
-0.34016401 -6.236084 -6.3779302 7
-0.33879101 -6.250854 -6.358398 7
-0.33454099 -6.2584229 -6.3300781 7
-0.33892101 -6.287354 -6.328125 7
-0.34187299 -6.3129878 -6.3232422 7
-0.34480301 -6.3383789 -6.3173828 7
-0.34055299 -6.3458252 -6.2880859 7
-0.347801 -6.3820801 -6.295898 7
-0.102898 -1.911499 10.110352 7
-0.104324 -1.891968 10.120117 7
-0.104309 -1.871338 10.125 7
-0.111588 -1.856689 10.157227 7
-0.108643 -1.833618 10.150391 7
-0.102783 -1.808228 10.132812 7
-0.094031997 -1.780762 10.103516 7
-0.091095001 -1.758057 10.09668 7
-0.091063999 -1.737427 10.100586 7
-0.091041997 -1.716675 10.104492 7
-0.092483997 -1.697266 10.114258 7
-0.099770002 -1.682129 10.146484 7
-0.095360003 -1.658203 10.133789 7
-0.092430003 -1.635376 10.126953 7
-0.095321998 -1.6168211 10.141602 7
-0.149414 4.17981 9.5449219 7
-0.14645401 4.1939702 9.5244141 7
-0.137688 4.197144 9.484375 7
-0.12893701 4.200439 9.4443359 7
-0.124535 4.2115479 9.4189453 7
-0.12884501 4.2385249 9.4248047 7
-0.127335 4.2547612 9.4091797 7
-0.127281 4.2736821 9.3994141 7
-0.133049 4.3033452 9.4091797 7
-0.127174 4.3114009 9.3789062 7
-0.13150001 4.338501 9.3847656 7
-0.14015201 4.3736572 9.4042969 7
-0.14879601 4.4090581 9.4238281 7
-0.15019999 4.4306641 9.4179688 7
-0.15159599 4.452271 9.4121094 7
-0.153 4.473999 9.4072266 7
-0.245102 -4.4866939 -6.672852 7
-0.240685 -4.4975591 -6.6474609 7
-0.248962 -4.5340581 -6.6660161 7
-0.24304201 -4.5421138 -6.6357422 7
-0.241615 -4.558228 -6.6201172 7
-0.24614 -4.5856929 -6.6230469 7
-0.250671 -4.6131592 -6.6279302 7
-0.24028 -4.6123052 -6.5820308 7
-0.238846 -4.6282959 -6.5664058 7
-0.24039499 -4.650146 -6.5605469 7
-0.25537899 -4.6975098 -6.5976558 7
-0.250954 -4.7077641 -6.5722661 7
-0.25696599 -4.7381592 -6.5810552 7
-0.26596799 -4.7744141 -6.5986328 7
-0.34588599 -6.0919189 -6.0185552 7
-0.35044101 -6.1203609 -6.0175781 7
-0.35051 -6.137939 -6.0029302 7
-0.34757999 -6.1481929 -5.9794922 7
-0.35063201 -6.172852 -5.9736328 7
-0.35517099 -6.201416 -5.9716802 7
-0.362701 -6.2371831 -5.9794922 7
-0.362762 -6.2545171 -5.9648442 7
-0.35086101 -6.2425542 -5.9150391 7
-0.353912 -6.2672119 -5.9091802 7
-0.34950301 -6.273315 -5.8818359 7
-0.342087 -6.2719731 -5.844727 7
-0.342163 -6.289062 -5.829102 7
-0.343712 -6.3100591 -5.8193359 7
-0.35273701 -6.3493652 -5.829102 7
-0.346825 -6.35144 -5.796875 7
-0.34838101 -6.372314 -5.7861328 7
-0.102768 -1.91626 9.7539062 7
-0.102753 -1.896484 9.7587891 7
-0.099708997 -1.8742681 9.7519531 7
-0.108772 -1.861938 9.7890615 7
-0.111771 -1.8444819 9.8046885 7
-0.105705 -1.819824 9.7871094 7
-0.11174 -1.804565 9.8134766 7
-0.099639997 -1.775269 9.7753906 7
-0.093558997 -1.750977 9.7558594 7
-0.092026003 -1.72998 9.7548828 7
-0.087456003 -1.706787 9.7421885 7
-0.098038003 -1.6949461 9.7851562 7
-0.101059 -1.677246 9.8007812 7
-0.093451999 -1.651978 9.7763672 7
-0.093429998 -1.63208 9.7802734 7
-0.102493 -1.6187741 9.8173828 7
-0.077835001 0.97534198 9.8427734 7
-0.077820003 0.99536097 9.8408203 7
-0.074767999 1.0137939 9.8271484 7
-0.082282998 1.037354 9.8535156 7
-0.079231001 1.055786 9.8398438 7
-0.082222 1.077271 9.8486328 7
-0.092750996 1.102295 9.8847656 7
-0.092712 1.122314 9.8818359 7
-0.076064996 1.134033 9.8183594 7
-0.085083 1.158569 9.8486328 7
-0.086571001 1.179199 9.8515615 7
-0.092574999 1.2023931 9.8710938 7
-0.098563999 1.22583 9.890625 7
-0.089484997 1.240845 9.8544922 7
-0.097007997 1.264771 9.8798828 7
-0.167824 4.177002 9.2197266 7
-0.15573899 4.1740718 9.1699219 7
-0.14514901 4.1733398 9.125 7
-0.137566 4.177856 9.0898438 7
-0.140541 4.2015381 9.0898438 7
-0.131447 4.2032471 9.0498047 7
-0.12838 4.2158198 9.0292969 7
-0.135849 4.2476811 9.0449219 7
-0.134308 4.262939 9.0302734 7
-0.126724 4.2669678 8.9951172 7
-0.132713 4.2961431 9.0048828 7
-0.123619 4.2972412 8.9648438 7
-0.13110401 4.3293462 8.9794922 7
-0.134064 4.3526611 8.9794922 7
-0.132507 4.3677979 8.9638672 7
-0.15203901 4.422729 9.0175781 7
-0.161018 4.4578862 9.0371094 7
-0.15645599 4.4672852 9.0117188 7
-0.151886 4.476562 8.9863281 7
-0.076714002 4.7701421 -5.7392578 7
-0.069305003 4.7376709 -5.726562 7
-0.061882 4.7049561 -5.7138672 7
-0.067809999 4.700439 -5.7441411 7
-0.061859 4.6707759 -5.7373052 7
-0.069266997 4.6690669 -5.7714839 7
-0.066298999 4.645874 -5.7724609 7
-0.060355999 4.6165771 -5.765625 7
-0.069228999 4.6175542 -5.804688 7
-0.069228999 4.6003418 -5.8154302 7
-0.070694 4.58606 -5.8310552 7
-0.076606996 4.5805659 -5.8613281 7
-0.081046999 4.5723882 -5.8876948 7
-0.084014997 4.560791 -5.907227 7
-0.069182999 4.5136719 -5.8691411 7
-0.067695998 4.4931641 -5.875 7
-0.079535998 4.4993901 -5.9257808 7
-0.079535998 4.4820561 -5.9355469 7
-0.246841 -4.495728 -6.2949219 7
-0.246887 -4.5140381 -6.2841802 7
-0.243843 -4.5263672 -6.2636719 7
-0.243965 -4.5627441 -6.242188 7
-0.23938 -4.572021 -6.217773 7
-0.247162 -4.6046138 -6.2304692 7
-0.24259201 -4.61377 -6.204102 7
-0.24417099 -4.6347661 -6.1982422 7
-0.242744 -4.6677251 -6.172852 7
-0.253609 -4.706543 -6.1933589 7
-0.256744 -4.7304692 -6.1923828 7
-0.26296201 -4.760376 -6.202148 7
-0.26148999 -4.775269 -6.1855469 7
-0.264633 -4.7993159 -6.1835942 7
-0.34624499 -6.2528081 -5.4189448 7
-0.34790799 -6.2888179 -5.3935552 7
-0.34185001 -6.3054199 -5.3466802 7
-0.35278299 -6.364502 -5.3457031 7
-0.349823 -6.3883061 -5.3066411 7
-0.096015997 -1.919189 9.4208984 7
-0.103798 -1.887573 9.4570312 7
-0.102188 -1.848145 9.4599609 7
-0.108444 -1.834229 9.4863281 7
-0.094345003 -1.803955 9.4414062 7
-0.080231003 -1.755005 9.4003906 7
-0.089615002 -1.7431639 9.4375 7
-0.088013001 -1.723145 9.4355469 7
-0.092666999 -1.688599 9.4609385 7
-0.095794998 -1.671631 9.4765615 7
-0.083251998 -1.643433 9.4355469 7
-0.084793001 -1.606689 9.4492188 7
-0.078254998 0.96032703 9.546875 7
-0.081344999 0.98107898 9.5556641 7
-0.075034998 1.016602 9.5283203 7
-0.073448002 1.035156 9.5205078 7
-0.070297003 1.052856 9.5068359 7
-0.078033 1.0949709 9.5302734 7
-0.076439001 1.113403 9.5214844 7
-0.074851997 1.131958 9.5136719 7
-0.079467997 1.1726069 9.5253906 7
-0.087233998 1.195923 9.5507812 7
-0.085639998 1.214355 9.5419922 7
-0.082457997 1.250977 9.5253906 7
-0.080856003 1.269287 9.5166016 7
-0.154503 4.1682129 8.8212891 7
-0.156013 4.1885991 8.8164062 7
-0.137299 4.1724849 8.7470703 7
-0.123184 4.1818848 8.6835938 7
-0.121574 4.196167 8.6679688 7
-0.124626 4.2189941 8.6679688 7
-0.123039 4.2332759 8.6533203 7
-0.121429 4.247437 8.6376953 7
-0.129181 4.2790532 8.6533203 7
-0.121353 4.2817378 8.6191406 7
-0.116585 4.3070068 8.5839844 7
-0.124321 4.338501 8.5976562 7
-0.124275 4.3554692 8.5878906 7
-0.13817599 4.4160161 8.6103516 7
-0.14123499 4.4389648 8.609375 7
-0.141197 4.4559331 8.5996094 7
-0.075638004 4.7921138 -5.342773 7
-0.061836001 4.7468262 -5.3125 7
-0.063354 4.7340088 -5.328125 7
-0.055686999 4.7019038 -5.3164058 7
-0.057204999 4.6889648 -5.3320308 7
-0.057190001 4.672852 -5.342773 7
-0.057181999 4.6566162 -5.3535161 7
-0.063293003 4.6530762 -5.3837891 7
-0.060233999 4.6306152 -5.3847661 7
-0.061774999 4.61731 -5.3994141 7
-0.058692999 4.5949712 -5.4013672 7
-0.061737001 4.5848389 -5.421875 7
-0.066338003 4.5778809 -5.4462891 7
-0.072440997 4.57373 -5.476562 7
-0.084693998 4.5822749 -5.5263672 7
-0.078567997 4.5532231 -5.516602 7
-0.080086 4.5395508 -5.532227 7
-0.069358997 4.501709 -5.5097661 7
-0.069343999 4.4851069 -5.5205078 7
-0.243706 -4.485229 -5.8769531 7
-0.245369 -4.5054932 -5.8710942 7
-0.24382 -4.5197749 -5.8554692 7
-0.243874 -4.5368652 -5.844727 7
-0.24232499 -4.5507808 -5.829102 7
-0.23435999 -4.552979 -5.7949219 7
-0.24240901 -4.585083 -5.8076172 7
-0.24408001 -4.6052251 -5.8007808 7
-0.244133 -4.6221919 -5.7900391 7
-0.245773 -4.6422119 -5.7841802 7
-0.24263801 -4.6530762 -5.7636719 7
-0.245895 -4.676147 -5.7626948 7
-0.25556201 -4.7116699 -5.7792969 7
-0.257202 -4.731689 -5.773438 7
-0.26527399 -4.7642822 -5.7861328 7
-0.26374099 -4.7781978 -5.7685552 7
-0.097007997 -1.9180911 9.09375 7
-0.093727 -1.897217 9.0869141 7
-0.100204 -1.884277 9.1142578 7
-0.093696997 -1.86084 9.0966797 7
-0.096938998 -1.845093 9.1123047 7
-0.103432 -1.832031 9.1396484 7
-0.103401 -1.813843 9.1435547 7
-0.100143 -1.792969 9.1367188 7
-0.085525997 -1.763306 9.0917969 7
-0.083878003 -1.743896 9.0898438 7
-0.083855003 -1.725708 9.09375 7
-0.082222 -1.7062989 9.0927734 7
-0.074097 -1.682129 9.0693359 7
-0.083809003 -1.671021 9.1064453 7
-0.085410997 -1.654053 9.1152344 7
-0.085395999 -1.6357419 9.1191406 7
-0.082138002 -1.615234 9.1123047 7
-0.0625 0.97167999 9.1689453 7
-0.060844 0.98925799 9.1611328 7
-0.059211999 1.00708 9.1542969 7
-0.062424 1.026978 9.1630859 7
-0.060768001 1.044556 9.1542969 7
-0.062369999 1.063599 9.1582031 7
-0.070427001 1.085815 9.1835938 7
-0.072013997 1.10498 9.1865234 7
-0.075218 1.125 9.1953115 7
-0.071938001 1.141724 9.1806641 7
-0.068672001 1.158447 9.1669922 7
-0.075111002 1.1800539 9.1865234 7
-0.081557997 1.202026 9.2060547 7
-0.078299999 1.218872 9.1923828 7
-0.076637 1.236084 9.1835938 7
-0.081473999 1.257324 9.1982422 7
-0.076568998 1.272949 9.1777344 7
-0.14505 4.1734619 8.3994141 7
-0.141762 4.184082 8.3789062 7
-0.141716 4.200562 8.3691406 7
-0.14167 4.217041 8.359375 7
-0.143227 4.2363281 8.3535156 7
-0.146423 4.258667 8.3535156 7
-0.14315 4.2692871 8.3349609 7
-0.14632399 4.2915039 8.3330078 7
-0.14469101 4.30481 8.3203115 7
-0.073112004 4.7655029 -4.9443359 7
-0.060364 4.7235112 -4.9189448 7
-0.053993002 4.6950679 -4.9121089 7
-0.050811999 4.6732178 -4.9130859 7
-0.052375998 4.661499 -4.9287109 7
-0.055557001 4.652832 -4.9492192 7
-0.052361 4.631104 -4.9511719 7
-0.055542 4.622437 -4.9707031 7
-0.057114001 4.6104741 -4.9863281 7
-0.055504002 4.5919189 -4.9931641 7
-0.055511001 4.5765381 -5.0039058 7
-0.058669999 4.567627 -5.023438 7
-0.065025002 4.565186 -5.0527339 7
-0.07457 4.5690918 -5.0908198 7
-0.071364999 4.5469971 -5.092773 7
-0.080902003 4.5506592 -5.1308589 7
-0.069756001 4.5126948 -5.109375 7
-0.071341999 4.5003662 -5.125 7
-0.24902301 -4.5020752 -5.4970698 7
-0.250732 -4.5214839 -5.4912109 7
-0.24911501 -4.5345459 -5.476562 7
-0.25582099 -4.563354 -5.483398 7
-0.25088501 -4.57019 -5.4589839 7
-0.24430799 -4.5739751 -5.429688 7
-0.246002 -4.5932622 -5.4238281 7
-0.25104499 -4.6186519 -5.4257808 7
-0.24777199 -4.62854 -5.40625 7
-0.24948099 -4.6478271 -5.4003911 7
-0.251221 -4.6669922 -5.3925781 7
-0.25630999 -4.7087402 -5.3837891 7
-0.25967401 -4.7312012 -5.3818359 7
-0.26305401 -4.7536621 -5.3798828 7
-0.269806 -4.7987061 -5.375977 7
-0.25657699 -4.7885742 -5.327148 7
-0.344154 -6.184814 -4.4794922 7
-0.347534 -6.2069092 -4.4726558 7
-0.344322 -6.22644 -4.4355469 7
-0.351044 -6.2567139 -4.436523 7
-0.34777799 -6.262207 -4.4130859 7
-0.35447699 -6.29248 -4.414062 7
-0.35286701 -6.302002 -4.3955078 7
-0.354599 -6.3199458 -4.3837891 7
-0.33972901 -6.3096919 -4.320312 7
-0.34150699 -6.3409419 -4.2939448 7
-0.344955 -6.3762212 -4.2714839 7
-0.345009 -6.389648 -4.2558589 7
-0.296745 -5.008667 7.9951172 7
-0.28498799 -4.9691162 7.976562 7
-0.234505 -4.8370361 7.8642578 7
-0.090645 -1.892212 8.7675781 7
-0.090622 -1.874756 8.7724609 7
-0.090584002 -1.8399661 8.78125 7
-0.090576001 -1.82251 8.7851562 7
-0.102333 -1.8143311 8.8271484 7
-0.092216 -1.788818 8.7988281 7
-0.085472003 -1.748657 8.7861328 7
-0.082099997 -1.728394 8.7802734 7
-0.078712001 -1.691162 8.7773438 7
-0.087096997 -1.67981 8.8085938 7
-0.093810998 -1.667358 8.8349609 7
-0.078658998 -1.638672 8.7890615 7
-0.080306999 -1.604858 8.8017578 7
-0.066803001 0.97204602 8.8837891 7
-0.063385002 1.005981 8.8681641 7
-0.061684001 1.022949 8.8613281 7
-0.061661001 1.040527 8.8583984 7
-0.064994998 1.059692 8.8671885 7
-0.068291001 1.096802 8.8730469 7
-0.064902999 1.112793 8.859375 7
-0.066513002 1.1488039 8.8603516 7
-0.074867003 1.170776 8.8847656 7
-0.073158003 1.1875 8.8769531 7
-0.069770999 1.203247 8.8632812 7
-0.069710001 1.238647 8.8574219 7
-0.067985997 1.255249 8.8486328 7
-0.083472997 4.7772222 -4.594727 7
-0.083457999 4.7628169 -4.6054692 7
-0.086731002 4.7553711 -4.625977 7
-0.083411999 4.7338872 -4.6289058 7
-0.083420001 4.7194819 -4.639648 7
-0.088348001 4.7154541 -4.664062 7
-0.096580997 4.717896 -4.6982422 7
-0.083374001 4.6759028 -4.672852 7
-0.068512 4.630981 -4.6435552 7
-0.068512 4.616333 -4.6542969 7
-0.066855997 4.5983891 -4.6601558 7
-0.063522004 4.577148 -4.6630859 7
-0.068466 4.5726318 -4.6875 7
-0.080848999 4.5822749 -4.7294922 7
-0.082480997 4.5708008 -4.7441411 7
-0.079177998 4.549561 -4.7460942 7
-0.069260001 4.5150151 -4.7294922 7
-0.070891999 4.50354 -4.7441411 7
-0.074196003 4.4953609 -4.7636719 7
-0.25161001 -4.4934082 -5.139648 7
-0.246483 -4.4993901 -5.1162109 7
-0.251701 -4.524292 -5.1191411 7
-0.25174001 -4.5396729 -5.108398 7
-0.25524899 -4.561523 -5.1064448 7
-0.25012201 -4.5672612 -5.0820308 7
-0.24501801 -4.5727539 -5.0576172 7
-0.241631 -4.581665 -5.0380859 7
-0.24340799 -4.5999761 -5.03125 7
-0.24344601 -4.6152339 -5.0205078 7
-0.24695601 -4.6369629 -5.0185552 7
-0.245277 -4.6488042 -5.0029302 7
-0.24533799 -4.664062 -4.9912109 7
-0.252251 -4.6922612 -4.999023 7
-0.248863 -4.7006841 -4.9785161 7
-0.255806 -4.729248 -4.985352 7
-0.255844 -4.7442632 -4.9746089 7
-0.26965299 -4.7861328 -4.999023 7
-0.26628101 -4.7944341 -4.976562 7
-0.31375101 -5.0958252 7.6064448 7
-0.322487 -5.0987549 7.640625 7
-0.318993 -5.0767822 7.6435552 7
-0.31726801 -5.0583501 7.6513672 7
-0.30856299 -5.026123 7.641602 7
-0.30857801 -5.01123 7.6533198 7
-0.30684701 -4.993042 7.6611328 7
-0.31207299 -4.988647 7.686523 7
-0.30162799 -4.9528809 7.671875 7
-0.306862 -4.9482422 7.6972661 7
-0.30339101 -4.9267578 7.7001948 7
-0.29816401 -4.9013672 7.6992192 7
-0.30513799 -4.900146 7.7285161 7
-0.31559801 -4.9057622 7.766602 7
-0.30515301 -4.8702388 7.750977 7
-0.30689999 -4.858398 7.766602 7
-0.30515301 -4.8400879 7.773438 7
-0.305161 -4.8250728 7.7861328 7
-0.095444001 -1.9100339 8.4892578 7
-0.091941997 -1.890381 8.4824219 7
-0.088454999 -1.870605 8.4765615 7
-0.088440001 -1.854004 8.4804688 7
-0.088431999 -1.837158 8.4853516 7
-0.091895998 -1.823364 8.5 7
-0.097130001 -1.810425 8.5224609 7
-0.100594 -1.796387 8.5371094 7
-0.095344998 -1.7755131 8.5253906 7
-0.088363998 -1.753296 8.5078115 7
-0.081382997 -1.7312011 8.4902344 7
-0.077887997 -1.711792 8.4824219 7
-0.079620004 -1.696167 8.4931641 7
-0.077858001 -1.678345 8.4912109 7
-0.074363999 -1.658936 8.484375 7
-0.079581998 -1.645996 8.5048828 7
-0.083053999 -1.631592 8.5195312 7
-0.081290998 -1.613647 8.5175781 7
-0.25012201 -4.4890141 -4.782227 7
-0.24662 -4.4969478 -4.7626948 7
-0.24488799 -4.5081792 -4.7470698 7
-0.24848901 -4.5292969 -4.7460942 7
-0.25566101 -4.557251 -4.7529302 7
-0.26280999 -4.5849609 -4.7597661 7
-0.257523 -4.5896001 -4.7363281 7
-0.24867199 -4.5874019 -4.703125 7
-0.248741 -4.601685 -4.6914058 7
-0.25233501 -4.6229248 -4.6894531 7
-0.24527 -4.6237788 -4.6611328 7
-0.25244099 -4.6516109 -4.6669922 7
-0.25248 -4.665894 -4.657227 7
-0.25609601 -4.6870122 -4.6542969 7
-0.254356 -4.697998 -4.6386719 7
-0.259758 -4.7226558 -4.640625 7
-0.250893 -4.719604 -4.608398 7
-0.250954 -4.7338872 -4.5966802 7
-0.26345101 -4.7720952 -4.6152339 7
-0.26528901 -4.789917 -4.608398 7
-0.31698599 -5.1149902 7.2255859 7
-0.309807 -5.0866699 7.2216802 7
-0.31161499 -5.076416 7.2373052 7
-0.320595 -5.0809331 7.2705078 7
-0.31342301 -5.0523682 7.265625 7
-0.30622101 -5.0240479 7.2607422 7
-0.308029 -5.0137939 7.2763672 7
-0.31165299 -5.006958 7.297852 7
-0.308052 -4.9858398 7.3007808 7
-0.31166801 -4.9790039 7.3212891 7
-0.308083 -4.9578862 7.3251948 7
-0.30809 -4.9438481 7.3369141 7
-0.308083 -4.92981 7.3486328 7
-0.304497 -4.9084468 7.3525391 7
-0.311699 -4.9085689 7.3808589 7
-0.30450401 -4.880249 7.375 7
-0.31170699 -4.880127 7.4033198 7
-0.32252499 -4.8869629 7.4423828 7
-0.31353 -4.8553472 7.4316411 7
-0.306328 -4.8270259 7.4248052 7
-0.308144 -4.8162842 7.4414058 7
-0.095115997 -1.9055181 8.2167969 7
-0.095115997 -1.889282 8.2226562 7
-0.096892998 -1.874756 8.2324219 7
-0.091476001 -1.854248 8.2207031 7
-0.087867998 -1.835205 8.2138672 7
-0.091438003 -1.822021 8.2285156 7
-0.100426 -1.812988 8.2607422 7
-0.095039003 -1.792358 8.2490234 7
-0.095016003 -1.7763669 8.2529297 7
-0.082405001 -1.750244 8.21875 7
-0.087784 -1.738403 8.2392578 7
-0.082374997 -1.7180181 8.2275391 7
-0.082359001 -1.7019041 8.2314453 7
-0.082336001 -1.685913 8.2353516 7
-0.075134002 -1.6644289 8.2177734 7
-0.082314 -1.653564 8.2431641 7
-0.087707996 -1.641235 8.2626953 7
-0.087684996 -1.625 8.2675781 7
-0.076880999 -1.601318 8.2382812 7
-0.059128001 0.96533197 8.3193359 7
-0.057289001 0.99707001 8.3095703 7
-0.059029002 1.0305181 8.3095703 7
-0.057220001 1.046021 8.3027344 7
-0.057190001 1.0625 8.2998047 7
-0.057151999 1.078735 8.2978516 7
-0.055335999 1.093994 8.2900391 7
-0.058906998 1.112061 8.2988281 7
-0.058867998 1.128418 8.2958984 7
-0.051651001 1.140991 8.2705078 7
-0.049828 1.156372 8.2617188 7
-0.062355001 1.179077 8.2978516 7
-0.062332001 1.195312 8.2949219 7
-0.058715999 1.209717 8.2822266 7
-0.060486 1.227051 8.2851562 7
-0.065842003 1.246338 8.2988281 7
-0.065811001 1.2624511 8.2949219 7
-0.056800999 1.27356 8.2646484 7
-0.145052 -1.917153 11.370686 7
-0.141258 -1.600847 11.405416 7
-0.115116 0.647228 11.309534 7
-0.093111001 -1.640377 10.316093 7
-0.108973 4.2110639 9.3174772 7
-0.10203 4.2386079 8.5278749 7
-0.13421801 -1.702947 9.5982494 7
-0.123307 0.98263901 9.689579 7
-0.138449 1.241093 9.7517328 7
-0.104581 -1.73492 8.9620781 7
-0.093942001 1.092347 9.0700521 7
-0.094796002 -1.790786 8.517478 7
-0.30684 -4.964251 7.173821 7
-0.30696899 -4.819725 7.3722992 7
-0.068804003 -1.793997 8.0361443 7
-0.059530001 -1.604655 8.0547762 7
-0.042521998 1.066884 8.1276989 7
-0.053073 1.255061 8.140687 7
-0.33235899 -4.9915552 6.0659022 7
-0.33007699 -4.8817148 6.2635479 7
-0.33981499 -4.8207459 6.4838891 7
-0.089273997 -1.79109 7.623764 7
-0.075439997 -1.609759 7.6280189 7
-0.070534997 0.98558003 7.8174062 7
-0.072339997 1.1455359 7.7844028 7
-0.065002002 -1.780934 7.2624321 7
-0.056322001 -1.624894 7.2936258 7
-0.051348001 1.055383 7.4915948 7
-0.055610001 1.205911 7.4665089 7
-0.041464001 0.98907697 7.2761722 7
-0.037312999 1.1172481 7.2163382 7
-0.048013002 1.267784 7.2150331 7
0.0082989996 -1.426122 -8.2833843 7
-0.316156 -6.2457252 -9.8172264 7
0.031119 -1.3706861 -6.757988 7
0.054515999 -1.3262171 -5.5312428 7
-0.194089 -4.488636 -6.613524 7
-0.29506099 -6.338727 -6.3571482 7
0.068461999 -1.2926821 -4.6083851 7
-0.311566 -6.2842751 -5.3888969 7
-0.15984599 -1.810015 11.353905 7
-0.030212 -1.575808 -4.0417442 7
-0.25154501 -4.760004 -4.2404099 7
-0.14356899 -2.046555 10.589254 7
-0.116989 -1.725144 10.494537 7
-0.233696 -4.7170148 -3.4415779 7
-0.076707996 -1.653047 9.7636909 7
-0.217081 -4.6694398 -2.7505651 7
-0.078129999 -1.864676 9.3017921 7
-0.0559 -1.600763 9.2354946 7
-0.120961 -1.798918 8.8462591 7
-0.32541099 -4.8919668 7.8961692 7
-0.096450999 -1.740375 8.4313297 7
-0.30520001 -4.9810591 7.2635031 7
-0.31277299 -4.8398042 7.4608021 7
-0.094746001 -1.903924 8.108181 7
-0.057119999 -1.678283 7.9892578 7
-0.309221 -5.1029081 6.7443991 7
-0.280974 -4.873364 6.839334 7
-0.057833001 -1.8318321 7.715097 7
-0.035812002 -1.632906 7.667305 7
-0.34372699 -5.1060061 6.190649 7
-0.32106099 -4.9163752 6.3109808 7
-0.32799 -4.810061 6.4945488 7
-0.084423997 -1.7774431 7.4247222 7
-0.284446 -4.5746069 0.051286001 7
-0.27731699 -4.6731968 0.23002701 7
-0.30665699 -4.9361711 5.8252392 7
-0.303527 -4.819622 5.984467 7
-0.075511001 -1.738396 7.2130761 7
-0.004067 -1.341495 -0.549941 7
-0.018274 -1.465398 -0.58159202 7
-0.25771201 -4.6753478 0.711178 7
-0.26198801 -4.7812018 0.86526901 7
-0.304555 -5.045979 5.2213278 7
-0.285786 -4.9046712 5.359302 7
0.0064190002 -1.324193 -0.35345501 7
-0.0050849998 -1.440632 -0.374497 7
-0.019018 -1.597541 -0.39115199 7
-0.240612 -4.4837708 0.84315097 7
-0.25131699 -4.6033268 0.97701299 7
-0.242327 -4.659369 1.150369 7
-0.243044 -4.737309 1.3087389 7
-0.261971 -4.8359241 4.9227791 7
-0.27418101 -4.5546489 1.402434 7
-0.27800399 -4.632122 1.551208 7
-0.27286899 -4.6775742 1.7140681 7
-0.271157 -4.7264032 1.873824 7
-0.30957901 -4.9250388 4.1809111 7
-0.296866 -4.8440232 4.3336968 7
-0.25410199 -4.4956961 1.789646 7
-0.26382101 -4.6938539 2.3918109 7
-0.27054799 -4.74121 2.54444 7
-0.248928 -4.4939861 2.2820361 7
-0.248281 -4.5243011 2.430783 7
-0.06899 4.6021099 -4.975863 7
-0.146469 4.1748452 9.2658939 7
-0.13516501 4.3633881 9.0225534 7
-0.054327 1.15863 9.6735334 7
-0.130987 4.346818 8.4781733 7
-0.091039002 1.142761 9.1149635 7
-0.048698999 1.122381 8.2826118 7
-0.030028 1.114026 7.9396691 7
-0.063285001 1.105163 7.6440992 7
-0.047268 1.0988621 7.382967 7
-0.058965001 1.273188 7.3982682 7
-0.028858 1.092961 7.1340742 7
-0.050758999 1.259212 7.1892948 7
-0.056832001 5.0015168 -15.756251 7
-0.033236999 -1.172455 -10.051893 7
-0.0055869999 -1.228717 -8.1868563 7
-0.238636 -4.502295 -11.114527 7
-0.087255001 4.7902641 -8.4386044 7
-0.117499 4.6962652 -8.9925718 7
-0.211955 -4.4437408 -9.1271 7
0.022397 -1.297809 -6.0939608 7
-0.174532 -4.545454 -7.3316302 7
-0.018943001 4.5965691 -4.990015 7
-0.037978001 4.5730052 -5.3075171 7
-0.027484 -1.3483551 -5.5288548 7
-0.241376 -4.4924579 -6.2921028 7
-0.24466901 -4.7512312 -6.1489868 7
-0.34668499 -6.2175779 -6.229372 7
-0.022683 -1.382885 -5.051178 7
-0.225502 -4.5934801 -5.2351141 7
-0.011748 -1.388845 -4.6010742 7
-0.029650999 -1.594014 -4.6762691 7
-0.21989501 -4.6672831 -4.350203 7
-0.0082869995 -1.407846 -4.2642941 7
-0.015681 -1.565271 -4.2583442 7
-0.204393 -4.593379 -3.5134721 7
-0.20421 -4.7135429 -3.3305891 7
-0.027512999 -1.389026 -3.907619 7
-0.038051002 -1.539409 -3.911449 7
-0.233789 -4.502038 -2.5787561 7
-0.023052 -1.3990721 -3.659559 7
-0.025532 -1.514448 -3.61725 7
