# .PCD v0.7 - Point Cloud Data file format
VERSION 0.7
FIELDS x y z intensity
SIZE 4 4 4 4
TYPE F F F F
COUNT 1 1 1 1
WIDTH 1033
HEIGHT 1
VIEWPOINT 0 0 0 1 0 0 0
POINTS 1033
DATA ascii
0.247749 -1.676392 -72.59375 7
0.21347 5.0623779 -72.873047 7
0.183006 -1.703369 -66.667969 7
0.226418 -1.823975 -65.178711 7
0.176376 -2.0319819 -66.865234 7
0.155678 5.2709961 -66.566406 7
0.159317 4.938477 -66.457031 7
0.107285 4.8997798 -68.208984 7
0.29802701 1.455566 -61.966797 7
0.091316 -1.887817 -62.036133 7
0.149902 -1.980835 -60.24707 7
0.195961 -2.078491 -58.838867 7
0.13642099 -2.2874761 -60.629883 7
0.17860401 -2.3839109 -59.336914 7
0.186409 5.0595698 -58.30957 7
0.25931501 4.737915 -56.133789 7
0.204842 4.590332 -57.77832 7
0.288513 1.170898 -55.425781 7
0.102516 -2.0753169 -54.885742 7
0.142487 -2.1660161 -53.792969 7
0.18400601 -2.2498779 -52.65918 7
0.132263 -2.4390869 -54.044922 7
0.21698 4.8267822 -51.104492 7
0.184799 4.778687 -51.972656 7
0.242874 4.516602 -50.426758 7
0.20327 4.4827881 -51.493164 7
0.16104101 4.449707 -52.62793 7
0.021323999 -2.0787351 -51.579102 7
0.076958001 -2.1473391 -50.207031 7
0.147873 -2.3109131 -48.449219 7
0.083405003 -2.5057371 -50.014648 7
0.119942 -2.5814209 -49.108398 7
0.19977599 4.7575679 -46.587891 7
0.162407 4.7307129 -47.501953 7
0.220222 4.4824219 -46.110352 7
0.178993 4.4611821 -47.116211 7
0.15722699 4.3927002 -47.651367 7
0.10022 4.411377 -49.124023 7
0.21328001 0.97009301 -47.037109 7
0.063522004 -2.292969 -45.65918 7
0.094383001 -2.3692629 -44.964844 7
0.136833 -2.428467 -44.012695 7
0.081321999 -2.604614 -45.233398 7
0.105865 -2.683105 -44.677734 7
0.15334301 -2.728271 -43.615234 7
-0.72171801 -0.205566 59.621094 7
-0.75011402 -0.068359002 60.193359 7
0.17791 4.6787109 -42.591797 7
0.15397599 4.62854 -43.125977 7
0.122093 4.5936279 -43.835938 7
0.17466 4.37146 -42.686523 7
0.15229 4.3139648 -43.185547 7
0.111923 4.291748 -44.081055 7
0.25006101 0.97192401 -41.140625 7
0.00605 -2.382324 -43.15625 7
0.029823 -2.4605711 -42.65918 7
0.064758003 -2.5230711 -41.936523 7
0.01371 -2.6887209 -42.967773 7
0.030075001 -2.772583 -42.623047 7
0.055 -2.843384 -42.103516 7
0.082236998 -2.908325 -41.536133 7
0.111183 -2.968384 -40.93457 7
0.124146 4.630127 -40.245117 7
0.099945001 4.5843511 -40.744141 7
0.074074 4.5526118 -41.335938 7
0.091911003 4.3123779 -40.990234 7
0.068007998 4.259644 -41.484375 7
0.15638 0.93335003 -40.25293 7
0.166168 0.830688 -40.048828 7
0.152054 0.73754901 -40.338867 7
0.20396399 0.62231398 -39.268555 7
0.215477 0.52282703 -39.030273 7
-0.009811 -2.9619141 -39.459961 7
0.024460001 -3.0106201 -38.811523 7
-0.60071599 -2.9863279 48.915039 7
-0.63100398 -2.9051509 49.44043 7
-0.541412 0.056885 48.074219 7
-0.54702801 0.16784699 48.173828 7
-0.54581499 0.27856401 48.155273 7
0.101395 4.8206792 -36.962891 7
0.081184 4.7750239 -37.34668 7
0.062560998 4.7242432 -37.700195 7
0.043281998 4.6732178 -38.066406 7
0.017715 4.6340332 -38.546875 7
0.18718 1.116333 -35.621094 7
0.16537499 1.039551 -36.026367 7
0.155663 0.59765601 -36.206055 7
0.16172799 0.41784701 -36.09082 7
0.18364 0.325073 -35.682617 7
-0.0091249999 -3.177124 -36.243164 7
0.018173 -3.22522 -35.762695 7
0.015297 -3.3175049 -35.801758 7
-0.56822199 -2.8443601 45.010742 7
-0.58795202 -2.760864 45.332031 7
-0.59810603 -2.666626 45.501953 7
-0.52223998 0.052611999 44.444336 7
-0.490807 0.152832 43.947266 7
-0.51602203 0.25610399 44.349609 7
-0.48275799 0.353394 43.823242 7
0.083405003 4.8276372 -34.270508 7
0.059502002 4.7966309 -34.688477 7
0.042045999 4.7495122 -34.995117 7
0.014046 4.7237549 -35.481445 7
-0.010536 4.6885991 -35.911133 7
0.043488 4.4864502 -34.999023 7
0.162476 1.207886 -33.1875 7
0.146255 0.372192 -33.810547 7
0.16505399 0.28601101 -33.484375 7
0.139854 0.206055 -33.916992 7
0.162056 0.121094 -33.532227 7
0.162918 0.038086001 -33.513672 7
0.161385 -0.022826999 -30.321289 7
0.12858599 -0.099976003 -30.836914 7
0.14929999 -0.174927 -30.507812 7
0.159233 -0.249268 -30.349609 7
-0.043030001 -3.2054441 -33.612305 7
-0.047646001 -3.2948 -33.673828 7
-0.026711 -3.345947 -33.334961 7
-0.51274902 -2.850708 40.801758 7
-0.46670499 -2.7105711 40.137695 7
-0.514862 -2.66626 40.849609 7
-0.52748901 -2.585083 41.041992 7
-0.495529 0.32824701 40.724609 7
-0.45355999 0.414673 40.110352 7
0.105919 4.9182129 -30.881836 7
0.097305 4.8613281 -31.027344 7
0.079796001 4.8242192 -31.310547 7
0.059303001 4.79248 -31.639648 7
0.039191999 4.7585449 -31.962891 7
0.010918 4.7407231 -32.415039 7
-0.018105 4.7224121 -32.875977 7
0.055656001 4.485352 -31.735352 7
0.177269 1.467407 -30.038086 7
0.169655 1.322876 -30.161133 7
0.114838 1.204712 -31.025391 7
0.107216 -0.11145 -29.310547 7
0.13472 -0.18176299 -28.899414 7
0.134735 -0.396851 -28.891602 7
-0.51074201 -2.411499 38.385742 7
-0.41055301 0.38293499 37.144531 7
-0.41634399 0.46862799 37.224609 7
0.081696004 4.9389648 -29.064453 7
0.069724999 4.894165 -29.25 7
0.054977 4.8547359 -29.474609 7
0.033057999 4.8304439 -29.803711 7
0.011566 4.8035889 -30.126953 7
0.15725701 1.603027 -28.28418 7
0.14523301 1.541382 -28.460938 7
0.12727401 1.483398 -28.728516 7
0.149452 1.396484 -28.405273 7
0.126312 1.340698 -28.746094 7
0.097167999 -0.28906199 -26.888672 7
0.11985 -0.352539 -26.580078 7
0.132652 -0.41626 -26.402344 7
0.096465997 -0.49084499 -26.891602 7
0.115273 -0.553101 -26.633789 7
0.13064601 -0.61511201 -26.420898 7
-0.38184401 0.50817901 34.264648 7
-0.374405 0.584351 34.169922 7
-0.37747201 0.66296399 34.209961 7
-0.366402 0.73754901 34.068359 7
0.069182999 5.0029302 -26.894531 7
0.071266003 4.930542 -26.87793 7
0.056198001 4.8978271 -27.089844 7
0.041556999 4.8631592 -27.297852 7
0.025215 4.8314209 -27.52832 7
0.0071259998 4.8024902 -27.78125 7
-0.0036770001 4.7563481 -27.936523 7
0.114105 1.576172 -26.625977 7
0.14407299 1.4875489 -26.22168 7
0.106995 1.380615 -26.729492 7
0.108971 -0.34667999 -25.085938 7
0.092841998 -0.412476 -25.290039 7
0.092262 -0.47582999 -25.293945 7
0.108154 -0.535034 -25.088867 7
0.108955 -0.597534 -25.075195 7
0.103691 -0.72460902 -25.136719 7
0.094414003 -0.79101598 -25.250977 7
-0.45481899 -3.77124 32.787109 7
0.030685 5.01123 -25.443359 7
0.039329998 4.9274902 -25.34668 7
0.027809 4.889648 -25.501953 7
0.017639 4.8483891 -25.639648 7
0.002441 4.8175049 -25.839844 7
-0.017829999 4.796875 -26.105469 7
0.124886 1.531372 -24.639648 7
0.107361 1.481934 -24.864258 7
0.088783003 1.425171 -25.348633 7
0.090225004 -0.67688 -23.397461 7
0.101448 -0.73156703 -23.261719 7
0.072761998 -0.80090302 -23.599609 7
0.081528001 -0.85644501 -23.492188 7
0.092735 -0.91052198 -23.354492 7
0.031677 5.0664058 -23.435547 7
0.031638999 5.0073242 -23.448242 7
0.02317 4.9674072 -23.556641 7
0.012741 4.9316411 -23.688477 7
-0.0021210001 4.9051509 -23.87207 7
-0.022445999 4.8901372 -24.117188 7
-0.029891999 4.8457031 -24.21582 7
0.103729 1.8963619 -22.982422 7
0.117012 1.826538 -22.829102 7
0.107559 1.7771 -22.945312 7
0.116814 1.653687 -22.841797 7
0.103386 1.606323 -23.003906 7
0.094420999 1.55481 -23.112305 7
0.067893997 -1.025879 -21.976562 7
0.067801997 -1.081177 -21.973633 7
0.0078959996 5.1176758 -21.975586 7
0.019470001 5.0350342 -21.861328 7
0.0088649997 5.0040278 -21.987305 7
0.0024570001 4.9628911 -22.067383 7
-0.006577 4.9272461 -22.176758 7
-0.027283 4.860352 -22.421875 7
-0.035797 4.822144 -22.524414 7
0.095306002 1.887085 -21.449219 7
0.087302998 1.839844 -21.541016 7
0.087775998 1.784546 -21.540039 7
0.097236998 1.722168 -21.438477 7
0.089240998 1.674316 -21.53125 7
0.076462001 1.629517 -21.673828 7
0.0087740002 5.0452881 -20.394531 7
0.0064699999 4.9985352 -20.428711 7
0.00077099999 4.959229 -20.49707 7
-0.0094299996 4.9300542 -20.612305 7
-0.024155 4.9102778 -20.772461 7
-0.037200999 4.8861079 -20.914062 7
-0.037795998 4.834229 -20.931641 7
0.084937997 1.876343 -20.068359 7
0.063385002 1.843994 -20.294922 7
0.089348003 1.770386 -20.03125 7
0.082503997 1.724854 -20.104492 7
0.076233 1.6787111 -20.172852 7
0.067107998 1.6343991 -20.270508 7
0.036545001 -0.96398902 -19.450195 7
0.040626999 -1.01123 -19.407227 7
0.030936999 -1.06543 -19.498047 7
0.018851999 -1.121094 -19.612305 7
0.026543001 -1.166626 -19.533203 7
0.034866001 -1.211426 -19.449219 7
0.017348999 -1.270996 -19.615234 7
-0.73622102 -19.013428 20.494141 7
-0.73249102 -18.943359 20.515625 7
-0.04837 5.0665278 -19.573242 7
-0.057425998 5.0368652 -19.668945 7
-0.055656001 4.982666 -19.664062 7
-0.058715999 4.939209 -19.704102 7
-0.053939998 4.878418 -19.670898 7
0.060524002 1.881592 -19.000977 7
0.043632999 1.847656 -19.168945 7
0.063538 1.786377 -18.992188 7
0.064673997 1.736938 -18.985352 7
0.060417 1.69165 -19.029297 7
0.062758997 1.641235 -19.009766 7
0.029410999 -1.000366 -18.228516 7
0.033790998 -1.044556 -18.186523 7
0.027953999 -1.093994 -18.235352 7
0.0067830002 -1.151489 -18.423828 7
0.020767 -1.190796 -18.293945 7
0.021300999 -1.236938 -18.285156 7
0.011818 -0.99609399 -17.28125 7
0.010368 -1.0411381 -17.290039 7
0.017647 -1.125854 -17.22168 7
-0.0040739998 -1.181396 -17.40332 7
-0.000107 -1.223755 -17.366211 7
-0.002907 -1.269653 -17.385742 7
-0.039871 5.0882568 -16.953125 7
-0.028403999 5.0185552 -16.870117 7
-0.037918001 4.99646 -16.959961 7
-0.039992999 4.957397 -16.987305 7
-0.044089999 4.9223628 -17.033203 7
-0.051552001 4.8947749 -17.106445 7
-0.044144001 4.8344731 -17.056641 7
0.0084690005 -0.98193401 -16.236328 7
0.0090939999 -1.023438 -16.228516 7
0.011887 -1.0637209 -16.203125 7
0.017532 -1.1025389 -16.154297 7
0.000252 -1.153198 -16.290039 7
-0.002693 -1.196655 -16.310547 7
9.2000002e-05 -1.237061 -16.285156 7
0.0036009999 -1.276733 -16.253906 7
-0.060112 5.090332 -15.988281 7
-0.054398 5.0360112 -15.956055 7
-0.053725999 4.993042 -15.961914 7
-0.056625001 4.9580078 -15.996094 7
-0.054489002 4.9119868 -15.992188 7
-0.05883 4.8798828 -16.036133 7
-0.071754001 4.8660889 -16.148438 7
0.059944 1.32959 -15.660156 7
0.067101002 1.284546 -15.605469 7
0.064025998 1.124023 -15.638672 7
0.075478002 1.077515 -15.549805 7
0.073273003 1.03833 -15.569336 7
0.063896 1.002319 -15.647461 7
-0.0073620002 -1.251709 -15.360352 7
-0.19577 -4.2454829 -16.292969 7
-0.197395 -4.2900391 -16.293945 7
-0.191422 -4.3209229 -16.239258 7
-0.19000199 -4.3599849 -16.217773 7
-0.190117 -4.4016109 -16.207031 7
-0.199333 -4.4604492 -16.264648 7
0.063950002 0.911865 -14.712891 7
0.050232001 0.87927198 -14.818359 7
0.056267001 0.838135 -14.774414 7
0.063804999 0.79675299 -14.71875 7
0.069793999 0.71789598 -14.675781 7
0.075026996 0.67797899 -14.635742 7
0.071944997 0.64050299 -14.660156 7
-0.011566 -1.2219239 -14.460938 7
-0.002106 -1.291504 -14.385742 7
0.001816 -1.326416 -14.353516 7
-0.193565 -4.1646729 -15.260742 7
-0.20170601 -4.2183838 -15.307617 7
-0.204216 -4.262085 -15.314453 7
-0.196281 -4.2871089 -15.248047 7
-0.197998 -4.3293462 -15.249023 7
-0.191643 -4.3570561 -15.194336 7
-0.190147 -4.3934331 -15.171875 7
-0.19828001 -4.4476318 -15.217773 7
-0.19653299 -4.1834722 -14.381836 7
-0.202003 -4.3419189 -14.375 7
-0.202942 -4.3807368 -14.370117 7
-0.204842 -4.4584961 -14.360352 7
-0.044799998 4.9433589 -13.020508 7
-0.040596001 4.8999019 -13.004883 7
-0.046516001 4.878418 -13.054688 7
-0.048225001 4.8476558 -13.078125 7
-0.050774001 4.818604 -13.105469 7
-0.203262 -4.1617432 -13.583984 7
-0.206017 -4.2019038 -13.59082 7
-0.21323401 -4.2498779 -13.625 7
-0.218742 -4.330688 -13.637695 7
-0.212715 -4.3905029 -13.578125 7
-0.21102899 -4.4226069 -13.556641 7
-0.21111301 -4.4580078 -13.545898 7
-0.080986001 4.7718511 -12.518555 7
0.039894 -0.33105499 -11.955078 7
0.042617999 -0.36206099 -11.936523 7
0.033264 -0.39538601 -11.993164 7
0.021118 -0.42956501 -12.067383 7
0.030365 -0.459351 -12.008789 7
0.030296 -0.49108899 -12.006836 7
0.036736 -0.52124 -11.96582 7
0.03669 -0.55285603 -11.964844 7
0.030113 -0.586182 -12.00293 7
0.019805999 -0.62072802 -12.063477 7
-0.214729 -4.4543462 -12.795898 7
0.019028001 -0.650635 -11.398438 7
0.010185 -0.68359399 -11.448242 7
0.012077 -0.71325701 -11.435547 7
0.022758 -0.74011201 -11.370117 7
0.022713 -0.77026403 -11.368164 7
0.024605 -0.79980499 -11.355469 7
0.012817 -0.83447301 -11.421875 7
0.002022 -0.86901897 -11.483398 7
0.003914 -0.89892602 -11.470703 7
0.011665 -0.92590302 -11.421875 7
0.012581 -0.95581102 -11.414062 7
0.010567 -0.98718297 -11.422852 7
0.0066069998 -1.019043 -11.443359 7
-0.001274 -1.053345 -11.486328 7
-0.0034099999 -1.145874 -11.490234 7
-0.001534 -1.175171 -11.476562 7
-0.0055010002 -1.207886 -11.496094 7
-0.0045779999 -1.237793 -11.488281 7
0.006081 -0.82849097 -10.885742 7
-0.002136 -0.86084002 -10.929688 7
0.0059659998 -0.88671899 -10.881836 7
0.0088499999 -0.97228998 -10.857422 7
-0.0076069999 -1.038208 -10.944336 7
-0.01075 -1.0687259 -10.958008 7
-0.0077289999 -1.096558 -10.938477 7
-0.002686 -1.123047 -10.907227 7
-0.0068359999 -1.154297 -10.926758 7
-0.010017 -1.214355 -10.938477 7
-0.0080340002 -1.24231 -10.924805 7
-0.0085530002 -0.98803699 -10.351562 7
0.0021210001 -1.010864 -10.291992 7
0.0031280001 -1.037964 -10.28418 7
-0.001228 -1.067749 -10.303711 7
-0.000206 -1.0949709 -10.295898 7
-0.010979 -1.128052 -10.350586 7
-0.014259 -1.157593 -10.364258 7
-0.0068049999 -1.181396 -10.322266 7
-0.011154 -1.2113039 -10.341797 7
-0.010139 -1.238647 -10.333008 7
-0.010201 -1.266479 -10.330078 7
-0.32385299 -6.1248779 -10.525391 7
-0.32177699 -6.1477051 -10.500977 7
-0.32509601 -6.18396 -10.501953 7
-0.33596 -6.238647 -10.538086 7
-0.33713499 -6.2695308 -10.527344 7
-0.34154499 -6.3084722 -10.532227 7
-0.350243 -6.358521 -10.558594 7
-0.35356101 -6.3947749 -10.558594 7
-0.048537999 4.797852 -9.5175781 7
-0.051750001 4.778687 -9.5449219 7
-0.052841 4.7547612 -9.5615234 7
-0.052848998 4.7286382 -9.5732422 7
-0.048592001 4.693604 -9.5625 7
-0.006172 -0.97033697 -9.8261719 7
-0.0084610004 -0.99792498 -9.8349609 7
-0.0085140001 -1.0244139 -9.8330078 7
-0.013039 -1.053345 -9.8525391 7
-0.017563 -1.0819089 -9.8740234 7
-0.010918 -1.105347 -9.8359385 7
-0.009842 -1.131348 -9.828125 7
-0.012123 -1.159058 -9.8378906 7
-0.01107 -1.184937 -9.828125 7
-0.011131 -1.21167 -9.8261719 7
-0.012306 -1.23877 -9.828125 7
-0.019073 -1.269165 -9.8603516 7
-0.022499001 -1.297852 -9.8730469 7
-0.019188 -1.32251 -9.8535156 7
-0.024826 -1.3525389 -9.8789062 7
-0.025993001 -1.3798831 -9.8818359 7
-0.030556001 -1.4094239 -9.8994141 7
-0.029495001 -1.435303 -9.890625 7
-0.035133 -1.46582 -9.9150391 7
-0.332809 -6.174561 -9.8886719 7
-0.331772 -6.1983638 -9.8681641 7
-0.33972901 -6.2446289 -9.8896484 7
-0.34206399 -6.2767329 -9.8837891 7
-0.341034 -6.3006592 -9.8642578 7
-0.345604 -6.3387451 -9.8691406 7
-0.35357699 -6.3851318 -9.8886719 7
-0.053490002 4.7736821 -8.9853516 7
-0.055732999 4.7536621 -9.0068359 7
-0.056876998 4.7313228 -9.0224609 7
-0.054634001 4.7015381 -9.0234385 7
-0.056876998 4.681396 -9.0449219 7
-0.062492002 4.6679692 -9.0830078 7
-0.071448997 4.661377 -9.1347656 7
-0.078178003 4.650146 -9.1777344 7
-0.078171 4.6248779 -9.1894531 7
-0.067009002 4.5767822 -9.1474609 7
-0.067016996 4.5516362 -9.1582031 7
-0.055840001 4.5037842 -9.1162109 7
-0.062560998 4.492065 -9.1582031 7
-0.0071720001 -0.97924799 -9.3408203 7
-0.013046 -1.007324 -9.3671885 7
-0.011948 -1.032349 -9.359375 7
-0.013161 -1.058228 -9.3613281 7
-0.015541 -1.084717 -9.3710938 7
-0.021438999 -1.113281 -9.3964844 7
-0.023833999 -1.140015 -9.4052734 7
-0.019203 -1.163208 -9.3798828 7
-0.011086 -1.1843261 -9.3378906 7
-0.012314 -1.210449 -9.3398438 7
-0.015869001 -1.237671 -9.3544922 7
-0.018242 -1.2644041 -9.3623047 7
-0.087906003 4.7808838 -8.6191406 7
-0.084389001 4.7496338 -8.6152344 7
-0.083244003 4.7233891 -8.6210938 7
-0.080902003 4.694458 -8.6230469 7
-0.016975001 -1.283325 -8.8955078 7
-0.027984999 -1.3143311 -8.9423828 7
-0.028175 -1.386719 -8.9335938 7
-0.034325 -1.4150389 -8.9589844 7
-0.030777 -1.46167 -8.9345703 7
-0.025978001 -1.482788 -8.9082031 7
-0.0078199999 -1.289795 -8.3828115 7
-0.015503 -1.317505 -8.4140615 7
-0.024436999 -1.346191 -8.4511719 7
-0.029572001 -1.372559 -8.4697266 7
-0.027084 -1.3944089 -8.4550781 7
-0.018227 -1.4119869 -8.4130859 7
-0.018294999 -1.435181 -8.4091797 7
-0.020865999 -1.460083 -8.4179688 7
-0.023468001 -1.4851069 -8.4248047 7
-0.033707 -1.515015 -8.4667969 7
-0.041382 -1.543823 -8.4960938 7
-0.040160999 -1.5662839 -8.4873047 7
-0.047858998 -1.595093 -8.5166016 7
-0.232079 -4.4848628 -8.4589844 7
-0.22831 -4.5010991 -8.4335938 7
-0.22966801 -4.526978 -8.4277344 7
-0.231003 -4.5524902 -8.4228516 7
-0.22979701 -4.5732422 -8.40625 7
-0.229866 -4.596436 -8.3955078 7
-0.238884 -4.6367192 -8.4199219 7
-0.244049 -4.6697998 -8.4306641 7
-0.24539199 -4.6955571 -8.4238281 7
-0.248009 -4.7236328 -8.4238281 7
-0.24808501 -4.7469478 -8.4121094 7
-0.25453901 -4.7825928 -8.4257812 7
-0.016785 -1.286865 -8.0175781 7
-0.020812999 -1.311401 -8.0322266 7
-0.023483001 -1.335327 -8.0410156 7
-0.034134001 -1.364136 -8.0810547 7
-0.038155001 -1.389038 -8.0947266 7
-0.035560999 -1.40979 -8.0800781 7
-0.027672 -1.427002 -8.0429688 7
-0.034332 -1.453735 -8.0673828 7
-0.034378 -1.4761961 -8.0644531 7
-0.034430999 -1.498413 -8.0605469 7
-0.042412002 -1.526245 -8.0917969 7
-0.047768001 -1.5526119 -8.109375 7
-0.057082999 -1.581421 -8.1455078 7
-0.256432 -4.4805908 -8.0898438 7
-0.25253299 -4.495728 -8.0634766 7
-0.245949 -4.5057368 -8.0283203 7
-0.24337 -4.5231929 -8.0068359 7
-0.246094 -4.550293 -8.0058594 7
-0.247482 -4.5750728 -8.0009766 7
-0.25153399 -4.60498 -8.0048828 7
-0.2463 -4.6169429 -7.9736328 7
-0.25564599 -4.6569819 -7.999023 7
-0.26104 -4.6894531 -8.0078115 7
-0.26641101 -4.7216802 -8.0166016 7
-0.26647899 -4.744019 -8.0058594 7
-0.26655599 -4.7662349 -7.9941411 7
-0.26926401 -4.7938228 -7.9941411 7
-0.245323 -4.4862061 -7.5488281 7
-0.23853301 -4.515625 -7.5029302 7
-0.24412499 -4.5471191 -7.5126948 7
-0.24696399 -4.5733638 -7.5107422 7
-0.242889 -4.5865479 -7.485352 7
-0.24849699 -4.6179199 -7.4941411 7
-0.248558 -4.6390381 -7.483398 7
-0.252785 -4.6678472 -7.4863281 7
-0.261208 -4.7260742 -7.4941411 7
-0.26403001 -4.7523189 -7.4931641 7
-0.26686901 -4.778687 -7.4912109 7
-0.26416799 -4.7944341 -7.4707031 7
-0.25191501 -4.4880371 -7.1445308 7
-0.250534 -4.5056152 -7.1289058 7
-0.244865 -4.5151372 -7.0976558 7
-0.244911 -4.5352778 -7.0878911 7
-0.24641401 -4.558105 -7.0820308 7
-0.24649 -4.578125 -7.0712891 7
-0.24942 -4.6035161 -7.0693359 7
-0.25092301 -4.6262212 -7.063477 7
-0.25241899 -4.6489258 -7.0576172 7
-0.25822401 -4.6800542 -7.0664058 7
-0.26403001 -4.71106 -7.0751948 7
-0.26409101 -4.730957 -7.063477 7
-0.26988199 -4.762207 -7.0722661 7
-0.26995799 -4.7823491 -7.061523 7
-0.107216 -1.914795 10.125977 7
-0.107193 -1.894165 10.130859 7
-0.115921 -1.880615 10.167969 7
-0.115898 -1.859863 10.172852 7
-0.120255 -1.8425291 10.194336 7
-0.10128 -1.8067631 10.125977 7
-0.096878 -1.782715 10.113281 7
-0.095406003 -1.761108 10.112305 7
-0.095389999 -1.740356 10.116211 7
-0.092453003 -1.7175291 10.110352 7
-0.102631 -1.704468 10.152344 7
-0.099678002 -1.681641 10.144531 7
-0.104034 -1.664185 10.165039 7
-0.096717998 -1.638062 10.141602 7
-0.092339002 -1.61438 10.129883 7
-0.074286997 4.794189 -6.1210942 7
-0.061423998 4.7489009 -6.0888672 7
-0.055716999 4.7191162 -6.0810552 7
-0.052864 4.69519 -6.0820308 7
-0.060005002 4.6922612 -6.117188 7
-0.052855998 4.6591802 -6.1044922 7
-0.051437002 4.6384282 -6.110352 7
-0.057174999 4.6324458 -6.139648 7
-0.055732999 4.6112061 -6.1464839 7
-0.052894998 4.5872798 -6.1474609 7
-0.060028002 4.5838618 -6.1816411 7
-0.068604 4.5831299 -6.2216802 7
-0.068611003 4.5648189 -6.233398 7
-0.068604 4.5466309 -6.2441411 7
-0.070037998 4.5311279 -6.2597661 7
-0.067176998 4.5070801 -6.2607422 7
-0.067176998 4.48877 -6.2714839 7
-0.262321 -4.4842529 -6.7607422 7
-0.25940701 -4.4979248 -6.7402339 7
-0.25948301 -4.5172119 -6.7285161 7
-0.25952899 -4.536499 -6.717773 7
-0.25512701 -4.5472412 -6.6923828 7
-0.253708 -4.5635991 -6.6767578 7
-0.25525701 -4.5855708 -6.670898 7
-0.26425901 -4.621582 -6.6894531 7
-0.256874 -4.6264648 -6.6542969 7
-0.25396001 -4.639771 -6.632812 7
-0.26445001 -4.6787109 -6.65625 7
-0.27493301 -4.717773 -6.679688 7
-0.270531 -4.7281489 -6.6533198 7
-0.27207899 -4.7501221 -6.6474609 7
-0.27661899 -4.7780762 -6.6494141 7
-0.35682699 -6.1025391 -6.0712891 7
-0.36138201 -6.1308589 -6.0683589 7
-0.36592901 -6.1593022 -6.0673828 7
-0.37493899 -6.19873 -6.078125 7
-0.369057 -6.2017822 -6.045898 7
-0.37806699 -6.2412109 -6.0576172 7
-0.37812799 -6.2589111 -6.0429692 7
-0.364777 -6.2436519 -5.9892578 7
-0.36334199 -6.2573242 -5.969727 7
-0.36042801 -6.2674561 -5.9472661 7
-0.36348 -6.2922359 -5.9404302 7
-0.35459101 -6.287231 -5.8994141 7
-0.36213699 -6.3231201 -5.90625 7
-0.37265 -6.366333 -5.920898 7
-0.37271899 -6.383667 -5.905273 7
-0.368301 -6.389771 -5.8779302 7
-0.105865 -1.918457 9.7636719 7
-0.110374 -1.9024661 9.7851562 7
-0.113388 -1.88501 9.8007812 7
-0.110329 -1.862915 9.7939453 7
-0.10276 -1.8369139 9.7705078 7
-0.104256 -1.8182369 9.78125 7
-0.108772 -1.802124 9.8017578 7
-0.098159999 -1.774048 9.7675781 7
-0.095123 -1.751709 9.7617188 7
-0.098122001 -1.734253 9.7763672 7
-0.099609002 -1.715698 9.7861328 7
-0.095039003 -1.692505 9.7724609 7
-0.096534997 -1.6737061 9.7822266 7
-0.095016003 -1.65271 9.78125 7
-0.096496999 -1.634033 9.7900391 7
-0.094971001 -1.6131589 9.7890615 7
-0.077598996 0.97570801 9.8476562 7
-0.082084998 0.99780297 9.8613281 7
-0.082047001 1.017822 9.859375 7
-0.074478 1.034302 9.8291016 7
-0.075934999 1.054932 9.8320312 7
-0.084937997 1.079224 9.8632812 7
-0.087929003 1.100708 9.8720703 7
-0.090911999 1.12207 9.8808594 7
-0.086333998 1.139771 9.8613281 7
-0.093856998 1.1636961 9.8867188 7
-0.095321998 1.184692 9.8886719 7
-0.090751998 1.202148 9.8691406 7
-0.081665002 1.217407 9.8339844 7
-0.083145 1.238281 9.8369141 7
-0.093673997 1.26416 9.8730469 7
-0.081557997 1.277222 9.8251953 7
-0.147911 4.1818848 9.1376953 7
-0.135818 4.1785889 9.0878906 7
-0.125221 4.1776118 9.0439453 7
-0.12515999 4.1958008 9.0341797 7
-0.119102 4.2026372 9.0048828 7
-0.123589 4.2290039 9.0107422 7
-0.126534 4.252563 9.0097656 7
-0.118958 4.2564702 8.9755859 7
-0.126434 4.2883301 8.9892578 7
-0.124878 4.3034668 8.9736328 7
-0.115807 4.3044429 8.9355469 7
-0.120277 4.3305659 8.9404297 7
-0.121712 4.3513179 8.9345703 7
-0.142738 4.4090581 8.9921885 7
-0.142685 4.427002 8.9814453 7
-0.144142 4.4476318 8.9755859 7
-0.064704999 4.7563481 -5.6816411 7
-0.061737001 4.7332759 -5.6835942 7
-0.057280999 4.7070308 -5.679688 7
-0.054329 4.6837158 -5.6816411 7
-0.063216999 4.6854248 -5.7207031 7
-0.060249001 4.6621089 -5.7226558 7
-0.054329 4.63269 -5.7148442 7
-0.055817001 4.6187739 -5.7304692 7
-0.055808999 4.601685 -5.7412109 7
-0.064713001 4.6027832 -5.780273 7
-0.064696997 4.5855708 -5.7919922 7
-0.070648 4.5803218 -5.8212891 7
-0.082503997 4.5871582 -5.8701172 7
-0.081000999 4.566895 -5.8769531 7
-0.072121002 4.5314941 -5.858398 7
-0.063231997 4.4962158 -5.8398442 7
-0.26561701 -4.4954829 -6.3818359 7
-0.26413 -4.5108638 -6.3662109 7
-0.259583 -4.520752 -6.3408198 7
-0.25963601 -4.53894 -6.3300781 7
-0.25816301 -4.5543208 -6.3144531 7
-0.259758 -4.575562 -6.3085942 7
-0.25672901 -4.5878911 -6.2880859 7
-0.26141399 -4.6147461 -6.2919922 7
-0.25994101 -4.630127 -6.2763672 7
-0.25691199 -4.6422119 -6.2548828 7
-0.25698099 -4.6603999 -6.2441411 7
-0.26166499 -4.6873779 -6.2480469 7
-0.26942399 -4.7203369 -6.2607422 7
-0.27566499 -4.7502441 -6.2675781 7
-0.28342399 -4.7834468 -6.28125 7
-0.28041101 -4.7955322 -6.2597661 7
-0.105339 -1.907593 9.4570312 7
-0.10376 -1.887207 9.4550781 7
-0.108444 -1.87207 9.4775391 7
-0.108421 -1.853027 9.4814453 7
-0.109947 -1.835083 9.4912109 7
-0.102135 -1.809692 9.4677734 7
-0.098968998 -1.788208 9.4609385 7
-0.089576997 -1.7618411 9.4326172 7
-0.092681997 -1.745239 9.4472656 7
-0.097342998 -1.729736 9.4677734 7
-0.095764004 -1.709717 9.4667969 7
-0.094169997 -1.6893311 9.4648438 7
-0.094169997 -1.670288 9.4697266 7
-0.098839 -1.654663 9.4892578 7
-0.101967 -1.637695 9.5058594 7
-0.089423999 -1.609619 9.4658203 7
-0.14614099 4.1719971 8.7851562 7
-0.14920001 4.1949458 8.7851562 7
-0.128922 4.1759028 8.7119141 7
-0.124199 4.1846919 8.6875 7
-0.12727401 4.20752 8.6875 7
-0.117897 4.2076421 8.6494141 7
-0.120949 4.2305908 8.6484385 7
-0.114677 4.236084 8.6191406 7
-0.117744 4.2589111 8.6191406 7
-0.116127 4.2730708 8.6035156 7
-0.117638 4.2929692 8.5986328 7
-0.114479 4.3041992 8.5791016 7
-0.111305 4.315186 8.5585938 7
-0.112831 4.3349609 8.5537109 7
-0.115883 4.3577881 8.5537109 7
-0.12515999 4.3924561 8.5703115 7
-0.137566 4.4329829 8.5986328 7
-0.135979 4.447021 8.5839844 7
-0.076828003 4.7893071 -5.3369141 7
-0.066086002 4.7504878 -5.3164058 7
-0.059944 4.7216802 -5.3095698 7
-0.053801998 4.6925049 -5.3017578 7
-0.049194001 4.6668701 -5.2998052 7
-0.056853998 4.6668701 -5.3339839 7
-0.053780001 4.6444092 -5.335938 7
-0.058394998 4.6376948 -5.360352 7
-0.055312999 4.6151118 -5.3623052 7
-0.053780001 4.5958252 -5.3681641 7
-0.055305 4.5827641 -5.3837891 7
-0.05838 4.5726318 -5.4042969 7
-0.059921 4.5595698 -5.4189448 7
-0.066063002 4.5556641 -5.4492192 7
-0.082938999 4.5732422 -5.5117192 7
-0.076805003 4.5444341 -5.5029302 7
-0.070662998 4.515625 -5.4951172 7
-0.067580998 4.4929199 -5.4970698 7
-0.260178 -4.4824219 -5.953125 7
-0.25862899 -4.4969478 -5.938477 7
-0.26188701 -4.52002 -5.936523 7
-0.25873601 -4.5314941 -5.9169922 7
-0.260414 -4.5516362 -5.9101558 7
-0.25727099 -4.5631099 -5.889648 7
-0.25412801 -4.5742192 -5.8691411 7
-0.257431 -4.614624 -5.8574219 7
-0.25749201 -4.6317139 -5.8457031 7
-0.26075 -4.6550288 -5.844727 7
-0.25601199 -4.6628418 -5.8193359 7
-0.25927699 -4.6860352 -5.8173828 7
-0.26413 -4.7124019 -5.8212891 7
-0.275406 -4.7510991 -5.842773 7
-0.281937 -4.797852 -5.8378911 7
-0.098624997 -1.919067 9.0986328 7
-0.100212 -1.884155 9.1132812 7
-0.100174 -1.8475339 9.1220703 7
-0.098540999 -1.827881 9.1210938 7
-0.105003 -1.814819 9.1474609 7
-0.104988 -1.796509 9.1513672 7
-0.083870001 -1.761597 9.0839844 7
-0.087081999 -1.727905 9.1035156 7
-0.078925997 -1.685425 9.0849609 7
-0.082176 -1.669312 9.0996094 7
-0.091881 -1.658203 9.1367188 7
-0.090240002 -1.638916 9.1347656 7
-0.085358001 -1.617065 9.1220703 7
-0.078552 0.96093798 9.2333984 7
-0.068801999 0.97522002 9.1972656 7
-0.065528996 0.99206501 9.1835938 7
-0.055785999 1.0062259 9.1474609 7
-0.060616001 1.026733 9.1621094 7
-0.060570002 1.0450439 9.1591797 7
-0.070206001 1.086548 9.1884766 7
-0.078239001 1.127197 9.2109385 7
-0.074965999 1.144043 9.1972656 7
-0.071693003 1.160645 9.1835938 7
-0.078093998 1.200928 9.2001953 7
-0.084541 1.222778 9.21875 7
-0.082847998 1.2587889 9.2080078 7
-0.073105 1.2718509 9.171875 7
-0.139687 4.1647949 8.3828115 7
-0.142876 4.1871338 8.3837891 7
-0.13470501 4.2054439 8.3398438 7
-0.131439 4.216064 8.3203115 7
-0.062835999 4.7237549 -4.9189448 7
-0.050101999 4.6821289 -4.8935552 7
-0.048492 4.6635742 -4.9003911 7
-0.051674001 4.6400151 -4.9316411 7
-0.051674001 4.6097412 -4.953125 7
-0.050064001 4.5759282 -4.9716802 7
-0.058029 4.5769038 -5.0048828 7
-0.062812999 4.5712891 -5.0283198 7
-0.077147998 4.569458 -5.0908198 7
-0.070770003 4.5255132 -5.094727 7
-0.070777997 4.4943848 -5.1152339 7
-0.267883 -4.505249 -5.577148 7
-0.26961499 -4.5249019 -5.5712891 7
-0.26467901 -4.532104 -5.545898 7
-0.26141399 -4.5423579 -5.5263672 7
-0.261475 -4.5588379 -5.515625 7
-0.26319101 -4.578125 -5.5097661 7
-0.25826299 -4.585083 -5.484375 7
-0.259987 -4.6043701 -5.4775391 7
-0.26667801 -4.6334229 -5.4863281 7
-0.266747 -4.6495361 -5.4746089 7
-0.256836 -4.6468511 -5.436523 7
-0.25856 -4.6661382 -5.429688 7
-0.25862101 -4.682251 -5.4179692 7
-0.26532 -4.7111821 -5.4248052 7
-0.27035499 -4.7368159 -5.4267578 7
-0.273727 -4.759521 -5.4257808 7
-0.28375199 -4.7949219 -5.4414058 7
-0.090721004 -1.909302 8.7617188 7
-0.10247 -1.901733 8.8037109 7
-0.099097997 -1.881348 8.7978516 7
-0.090674996 -1.856934 8.7753906 7
-0.095711 -1.843628 8.7958984 7
-0.100739 -1.830322 8.8173828 7
-0.104073 -1.81543 8.8320312 7
-0.097328 -1.79248 8.8144531 7
-0.092278004 -1.771118 8.8017578 7
-0.082168996 -1.74585 8.7744141 7
-0.085518003 -1.730957 8.7890615 7
-0.08213 -1.710938 8.7822266 7
-0.082115002 -1.693481 8.7861328 7
-0.078727998 -1.67334 8.7792969 7
-0.080406003 -1.657227 8.7890615 7
-0.083747998 -1.642212 8.8037109 7
-0.082053997 -1.623413 8.8017578 7
-0.085395999 -1.608276 8.8173828 7
-0.070137002 0.97448701 8.9003906 7
-0.058357 0.98681599 8.859375 7
-0.056641001 1.003662 8.8515615 7
-0.056602001 1.0213619 8.8486328 7
-0.05658 1.039062 8.8466797 7
-0.054878 1.0556639 8.8388672 7
-0.053153999 1.0723881 8.8300781 7
-0.066536002 1.096558 8.8720703 7
-0.074897997 1.118408 8.8974609 7
-0.068161003 1.132812 8.8730469 7
-0.066436999 1.149536 8.8642578 7
-0.064719997 1.166382 8.8564453 7
-0.071404003 1.1875 8.8759766 7
-0.064658999 1.201538 8.8505859 7
-0.076362997 1.225342 8.8867188 7
-0.071312003 1.240356 8.8671885 7
-0.072936997 1.258911 8.8691406 7
-0.076263003 1.278564 8.8779297 7
-0.26095599 -4.4807129 -5.1914058 7
-0.25415 -4.483398 -5.1621089 7
-0.26279399 -4.5148931 -5.1748052 7
-0.259415 -4.5241699 -5.1542969 7
-0.26807401 -4.555542 -5.1660161 7
-0.259514 -4.5549321 -5.132812 7
-0.254417 -4.560791 -5.108398 7
-0.25447801 -4.5762939 -5.0976558 7
-0.25797999 -4.598022 -5.0957031 7
-0.25630999 -4.6101069 -5.0800781 7
-0.25635499 -4.6253662 -5.070312 7
-0.25642401 -4.6407471 -5.0585942 7
-0.25818601 -4.6591802 -5.0527339 7
-0.25824699 -4.674438 -5.0410161 7
-0.261742 -4.6962891 -5.039062 7
-0.27037799 -4.7280269 -5.0507808 7
-0.273895 -4.7501221 -5.047852 7
-0.2705 -4.7585449 -5.0273442 7
-0.27400199 -4.7805181 -5.0253911 7
-0.274048 -4.7955322 -5.0136719 7
-0.093773 -1.908203 8.4824219 7
-0.092018001 -1.890137 8.4814453 7
-0.097221002 -1.877563 8.5029297 7
-0.091995001 -1.856567 8.4912109 7
-0.093727 -1.841187 8.5019531 7
-0.104149 -1.832764 8.5380859 7
-0.100632 -1.8132319 8.53125 7
-0.100624 -1.796265 8.5351562 7
-0.088425003 -1.769897 8.5019531 7
-0.081444003 -1.747925 8.484375 7
-0.081436001 -1.730957 8.4892578 7
-0.077941999 -1.711548 8.4824219 7
-0.074455 -1.692139 8.4755859 7
-0.074432001 -1.675415 8.4794922 7
-0.079627998 -1.662598 8.4990234 7
-0.086571001 -1.650879 8.5253906 7
-0.081329003 -1.630127 8.5117188 7
-0.079575002 -1.612183 8.5107422 7
-0.263504 -4.4851069 -4.8417969 7
-0.26355699 -4.4998779 -4.8310552 7
-0.26537299 -4.5179439 -4.8251948 7
-0.25476801 -4.512939 -4.7871089 7
-0.27260599 -4.5604248 -4.8212891 7
-0.27622199 -4.5817871 -4.820312 7
-0.26915699 -4.5831299 -4.7900391 7
-0.267441 -4.5944819 -4.7753911 7
-0.26215401 -4.598999 -4.7519531 7
-0.26222199 -4.6135249 -4.7402339 7
-0.26225999 -4.6279302 -4.7294922 7
-0.262321 -4.6424561 -4.717773 7
-0.26769301 -4.6671138 -4.7207031 7
-0.26775399 -4.6816411 -4.7089839 7
-0.26780701 -4.6960449 -4.6982422 7
-0.26785299 -4.7103271 -4.686523 7
-0.273247 -4.7351069 -4.6894531 7
-0.26975301 -4.7425542 -4.6689448 7
-0.278694 -4.7740479 -4.679688 7
-0.28231001 -4.7952881 -4.6767578 7
-0.057425998 0.96508801 8.3183594 7
-0.059165999 0.99865699 8.3193359 7
-0.055534001 1.013428 8.3056641 7
-0.059105001 1.03125 8.3154297 7
-0.057280999 1.046875 8.3076172 7
-0.053649999 1.061401 8.2939453 7
-0.057204999 1.079468 8.3017578 7
-0.060775999 1.0975339 8.3105469 7
-0.053543001 1.1101069 8.2851562 7
-0.053520001 1.126343 8.2832031 7
-0.055275001 1.143555 8.2851562 7
-0.055259999 1.159912 8.2841797 7
-0.049828 1.173218 8.2636719 7
-0.049789 1.1893311 8.2607422 7
-0.051566999 1.206543 8.2636719 7
-0.055121999 1.224854 8.2714844 7
-0.065857001 1.246948 8.3017578 7
-0.058655001 1.259277 8.2773438 7
-0.06041 1.2763669 8.2792969 7
-0.122273 4.1931791 8.7673922 7
-0.103842 4.2977018 8.4961853 7
-0.137815 -1.885402 9.5693798 7
-0.112985 -1.602137 9.4716969 7
-0.104035 -1.88796 8.9050846 7
-0.101275 -1.676144 8.958499 7
-0.077908002 1.121508 8.9571438 7
-0.083838999 -1.904237 8.4007511 7
-0.077091999 -1.704254 8.4341354 7
-0.048974 -1.706028 7.949532 7
-0.032375 1.094225 8.0609694 7
-0.037887 1.2714289 8.0451832 7
-0.02084 1.169203 7.7250538 7
-0.31349799 -5.1245689 5.4613328 7
-0.061445002 1.012765 7.7628121 7
-0.077099003 -1.774927 7.331636 7
-0.066064999 -1.6114089 7.3521061 7
-0.038224999 1.072096 7.4205432 7
-0.044884 1.223868 7.4056592 7
-0.057989001 -1.770674 7.021317 7
-0.048829999 -1.623493 7.0529928 7
-0.031445 1.008832 7.2223792 7
-0.029782999 1.138517 7.172595 7
-0.048939999 -1.781877 6.7754078 7
-0.032813001 -1.628683 6.7843051 7
-0.069863997 -1.198607 -9.2879515 7
-0.22012401 -4.6111312 -8.0789957 7
-0.016082 -1.544488 -6.1503119 7
-0.216178 -4.6510272 -6.7401471 7
-0.0076069999 -1.491133 -5.2218628 7
-0.1981 -4.6312881 -5.5286942 7
-0.065173998 -1.438447 -4.3307438 7
-0.291574 -4.6545391 -4.6399441 7
-0.024278 -1.392019 -3.509779 7
-0.27237201 -4.6323352 -3.803014 7
-0.081919 -1.858269 9.7450523 7
-0.012263 -1.36169 -2.979223 7
-0.25255701 -4.596549 -3.0697019 7
-0.071772002 -1.797478 9.2817497 7
-0.089520998 -1.7205189 8.7001934 7
-0.386785 -6.4904432 -0.12927499 7
-0.052650001 -1.821236 7.9310369 7
-0.048590001 -1.6241601 7.9617939 7
-0.326107 -5.1697569 5.5603852 7
-0.060185999 -1.848624 7.1210942 7
-0.046448998 -1.678781 7.1142259 7
-0.31402501 -5.055182 5.2788501 7
-0.28878 -4.8921628 5.4056358 7
-0.038276002 -1.797344 6.8838568 7
-0.027427999 -1.6393991 6.8863282 7
-0.30271301 -5.0123892 4.8519688 7
-0.283586 -4.8846378 4.9930182 7
-0.308355 -4.743566 4.7439098 7
-0.292577 -4.7894902 3.899812 7
-0.29627201 -4.7685852 4.0602198 7
-0.295371 -4.6338201 4.5256519 7
-0.28373301 -4.5453172 4.6641321 7
-0.28293401 -4.634356 3.8727419 7
-0.28291801 -4.6038828 4.0243101 7
0.02571 4.79178 -12.565888 7
-0.078023002 4.5646629 -6.2074361 7
-0.073615998 4.5404849 -5.071537 7
-0.14775001 4.2349272 9.2271461 7
-0.133136 4.2543678 8.5766058 7
-0.074134 1.200974 9.0091925 7
-0.031573001 0.96499401 8.2260323 7
-0.031677 1.172317 8.1890087 7
-0.018781001 0.967071 7.9117579 7
-0.016842 1.161085 7.8692222 7
-0.049052 0.967664 7.6048541 7
-0.051265001 1.149516 7.5854878 7
-0.035681002 0.96942198 7.3550611 7
-0.026094999 1.1395431 7.2905221 7
-0.024538999 0.97095197 7.1345029 7
-0.015447 1.132027 7.0758581 7
0.024424 -1.265996 -13.831847 7
-0.071776003 4.9786339 -16.201847 7
-0.067267001 -1.353012 -10.652456 7
-0.037949 -1.3929501 -8.6617785 7
-0.27762201 -4.4022222 -11.770266 7
-0.021366 -1.425963 -7.372376 7
-0.25813401 -4.459486 -9.7825565 7
-0.024377 4.5707521 -6.1700211 7
-0.010067 -1.449675 -6.4455581 7
-0.205148 -4.5380292 -7.7460809 7
-0.080876 4.5391212 -5.0223241 7
-0.055280998 -1.473894 -5.7637849 7
-0.276806 -4.5286579 -6.6746058 7
-0.034604002 -1.2881989 -5.1822228 7
-0.04425 -1.487689 -5.210947 7
-0.24802101 -4.5901561 -5.4979701 7
-0.024646999 -1.31204 -4.7312598 7
-0.038915999 -1.5072449 -4.784534 7
-0.225611 -4.583715 -4.509449 7
-0.015719 -1.3274471 -4.3508382 7
-0.029611001 -1.506393 -4.391119 7
-0.21690001 -4.6150889 -3.6482201 7
-0.20546301 -4.662344 -3.426682 7
-0.36948499 -6.4179268 -0.294193 7
-0.045150999 -1.3460259 -4.0452619 7
-0.055741999 -1.500182 -4.0518808 7
-0.030960999 -1.338555 -3.7391601 7
-0.047208 -1.496896 -3.7698159 7
-0.027759001 -1.354079 -3.519763 7
-0.029421 -1.460616 -3.4742191 7
-0.033103 -1.572378 -3.433567 7
-0.016378 -1.341543 -3.284621 7
-0.016051 -1.4323159 -3.2300689 7
-0.023294 -1.545104 -3.2037959 7
-0.0077490001 -1.3317389 -3.083863 7
-0.027201001 -1.397656 -3.0073011 7
-0.045056999 -1.531613 -3.0167389 7
