# .PCD v0.7 - Point Cloud Data file format
VERSION 0.7
FIELDS x y z intensity
SIZE 4 4 4 4
TYPE F F F F
COUNT 1 1 1 1
WIDTH 1113
HEIGHT 1
VIEWPOINT 0 0 0 1 0 0 0
POINTS 1113
DATA ascii
0.117973 -1.89856 -68.150391 7
0.142876 -2.0380859 -67.297852 7
0.126205 4.8867192 -68.232422 7
0.097884998 4.7858891 -69.195312 7
0.013947 -1.933594 -63.791016 7
0.087890998 -2.016602 -61.557617 7
0.13479599 -2.117188 -60.136719 7
0.081336997 -2.321655 -61.728516 7
0.15715 4.874146 -59.722656 7
0.224411 4.5717769 -57.696289 7
0.162376 4.5710449 -59.574219 7
0.076774999 4.6134028 -62.165039 7
0.038406 -2.1160891 -56.148438 7
0.086815 -2.201416 -54.838867 7
0.12759399 -2.28894 -53.734375 7
0.076964997 -2.4790039 -55.079102 7
-0.83708203 -2.8009031 73.306641 7
-0.82198298 -0.92138702 73.057617 7
0.207504 4.7562261 -51.801758 7
0.160431 4.7397461 -53.078125 7
0.227982 4.4562988 -51.264648 7
0.175598 4.4404302 -52.652344 7
0.143822 4.3798828 -53.513672 7
0.030128 -2.2980959 -50.967773 7
0.089821003 -2.3547361 -49.504883 7
0.033576999 -2.665283 -50.849609 7
-0.77869397 -2.9755859 65.993164 7
-0.84820598 -2.8887939 67.520508 7
0.17685699 4.7200928 -47.496094 7
0.139946 4.6882319 -48.405273 7
0.107803 4.641479 -49.195312 7
0.160667 4.4058838 -47.912109 7
0.127579 4.3586431 -48.727539 7
0.068213999 4.3615718 -50.183594 7
0.17884099 0.86865199 -47.518555 7
0.018173 -2.3188479 -46.34375 7
0.035126001 -2.4156489 -45.963867 7
0.095115997 -2.457031 -44.631836 7
0.031807002 -2.643677 -46.016602 7
0.060256999 -2.7193601 -45.378906 7
-0.64735401 -0.056396 58.077148 7
0.168549 4.6202388 -43.108398 7
0.13290399 4.5942378 -43.904297 7
0.106758 4.543457 -44.491211 7
0.15741 4.3261719 -43.37793 7
0.13415501 4.2680659 -43.901367 7
0.101402 4.226685 -44.632812 7
-0.043761998 -2.4182129 -43.910156 7
-0.010635 -2.4876709 -43.225586 7
0.019638 -2.5576169 -42.601562 7
-0.033417001 -2.726562 -43.668945 7
-0.016655 -2.8118899 -43.318359 7
0.013908 -2.8769529 -42.686523 7
-0.58522803 0.070189998 52.928711 7
-0.633461 0.19567899 53.829102 7
0.111786 4.5767822 -40.755859 7
0.082557999 4.5395508 -41.360352 7
0.055328 4.4951172 -41.922852 7
0.025818 4.4528809 -42.532227 7
0.080208004 4.23877 -41.431641 7
0.052115999 4.191895 -42.011719 7
0.0243 4.1418462 -42.586914 7
0.123627 0.747437 -40.664062 7
0.122314 0.64807099 -40.689453 7
0.17891701 0.53320301 -39.533203 7
-0.59433699 -2.7449951 48.789062 7
-0.60378301 -2.6418459 48.958984 7
-0.50077099 0.172729 47.337891 7
-0.499237 0.28149399 47.313477 7
0.085320003 4.7880859 -37.49707 7
0.075530998 4.7174072 -37.6875 7
0.050117001 4.6800542 -38.169922 7
0.033447001 4.6217041 -38.488281 7
0.001778 4.5935059 -39.085938 7
0.156921 1.213745 -36.336914 7
0.14082301 1.132935 -36.637695 7
0.15510599 1.035278 -36.371094 7
0.14904 0.498169 -36.480469 7
0.136383 0.41064501 -36.714844 7
0.166237 0.226074 -36.15625 7
-0.53187603 -2.797729 44.404297 7
-0.55532801 -2.719238 44.785156 7
-0.57325 -2.633667 45.076172 7
0.070350997 4.793457 -34.698242 7
0.049605999 4.75354 -35.063477 7
0.031913999 4.7053218 -35.376953 7
0.0025859999 4.6765141 -35.875977 7
-0.024955999 4.6456299 -36.356445 7
0.134773 1.132568 -33.796875 7
0.093773 0.29821801 -34.529297 7
0.123581 0.21008299 -34.015625 7
0.114952 0.126587 -34.163086 7
0.12654901 -0.035278 -30.981445 7
0.093833998 -0.114014 -31.495117 7
0.109291 -0.190796 -31.248047 7
0.129913 -0.26574701 -30.920898 7
-0.45074499 -2.6862791 39.882812 7
-0.53303498 -2.488281 41.108398 7
-0.40436599 0.32299799 39.358398 7
-0.40331301 0.50292999 39.344727 7
0.091766 4.8939209 -31.274414 7
0.088371001 4.8239751 -31.337891 7
0.075005002 4.776123 -31.557617 7
0.053130999 4.74646 -31.911133 7
0.024986001 4.7287598 -32.362305 7
-0.0053790002 4.713501 -32.847656 7
-0.027626 4.6793208 -33.206055 7
0.143356 1.416016 -30.716797 7
0.116608 1.357178 -31.140625 7
0.11602 1.202759 -31.15332 7
0.085205004 1.14209 -31.639648 7
0.074828997 -0.109741 -29.654297 7
0.083045997 -0.182495 -29.530273 7
0.094977997 -0.39990199 -29.34668 7
0.111534 -0.46899399 -29.100586 7
-0.46007499 -2.615967 37.646484 7
-0.42673501 0.30542001 37.337891 7
-0.40312999 0.471558 37.014648 7
0.028418999 5.0838618 -29.988281 7
0.070633002 4.9110112 -29.382812 7
0.05751 4.8677979 -29.583008 7
0.045586001 4.8208008 -29.768555 7
-0.001572 4.7753911 -30.478516 7
0.0071640001 4.677124 -30.351562 7
0.13146199 1.545898 -28.764648 7
0.119499 1.48291 -28.942383 7
0.111877 1.415894 -29.057617 7
0.115746 1.340942 -29.00293 7
0.090714 1.283936 -29.374023 7
0.067078002 -0.30480999 -27.384766 7
0.084122002 -0.37023899 -27.150391 7
0.103287 -0.43395999 -26.886719 7
0.068924002 -0.509399 -27.351562 7
0.082970001 -0.57397503 -27.15918 7
0.103409 -0.63549799 -26.875977 7
0.052161999 4.9925542 -27.256836 7
0.063629001 4.8978271 -27.114258 7
0.046913002 4.8679199 -27.348633 7
0.033188 4.8303218 -27.543945 7
-0.005814 4.7774658 -28.091797 7
-0.0097200004 4.7155762 -28.155273 7
0.104767 1.583618 -26.864258 7
0.110672 1.512085 -26.786133 7
0.120857 1.437988 -26.650391 7
0.101509 1.384033 -26.915039 7
0.089455001 1.3243411 -27.082031 7
0.055755999 -0.479736 -25.662109 7
0.089530997 -0.59814501 -25.226562 7
0.010719 5.0098882 -25.816406 7
0.031257998 4.89856 -25.571289 7
0.021576 4.855957 -25.702148 7
0.011467 4.8138428 -25.839844 7
-0.0091709998 4.7940669 -26.109375 7
-0.027992001 4.7689209 -26.357422 7
-0.02713 4.7011719 -26.357422 7
0.072150998 1.435425 -25.458984 7
0.050903 -0.68469203 -23.776367 7
0.069595002 -0.73779303 -23.552734 7
0.070992 -0.79626501 -23.533203 7
0.044654999 -0.86596698 -23.84082 7
0.060874999 -0.918823 -23.646484 7
0.069678999 -0.97387701 -23.539062 7
0.025536001 5.0371089 -23.612305 7
0.024513001 4.9797359 -23.635742 7
0.015602 4.9403081 -23.751953 7
0.0057140002 4.9025879 -23.87793 7
-0.0091399997 4.8754878 -24.060547 7
-0.034843002 4.809937 -24.380859 7
0.084908001 1.915283 -23.290039 7
0.093727 1.848755 -23.189453 7
0.083221003 1.740234 -23.321289 7
0.100914 1.667236 -23.114258 7
0.093924999 1.6142581 -23.201172 7
0.079535998 1.566406 -23.373047 7
0.077995002 1.508423 -23.394531 7
0.001434 5.0919189 -22.141602 7
0.015076 5.004395 -22.00293 7
0.0044940002 4.9728999 -22.129883 7
-0.0039900001 4.935791 -22.233398 7
-0.032012999 4.8848882 -22.55957 7
0.069527 1.912109 -21.80957 7
0.080527999 1.847046 -21.691406 7
0.067267999 1.803467 -21.841797 7
0.077232003 1.739746 -21.735352 7
0.075516 1.630981 -21.759766 7
0.027527001 -0.91979998 -20.819336 7
0.040442999 -0.96679699 -20.683594 7
0.044289 -1.016968 -20.638672 7
0.031562999 -1.180298 -20.758789 7
-0.16091201 -4.0614009 -22.361328 7
-0.151382 -4.1008301 -22.25293 7
-0.143555 -4.1425781 -22.163086 7
-1.087715 -26.203857 19.886719 7
-1.0812531 -26.107544 19.912109 7
-1.071815 -25.987793 19.918945 7
-0.0053710002 5.0919189 -20.609375 7
0.0081179999 5.0081792 -20.485352 7
0.000191 4.9742432 -20.577148 7
-0.0066149998 4.9371338 -20.657227 7
-0.015106 4.903564 -20.753906 7
-0.025847999 4.8745122 -20.875 7
-0.041106999 4.8546138 -21.039062 7
-0.043953001 4.807251 -21.079102 7
0.073409997 1.890259 -20.259766 7
0.068855003 1.840698 -20.304688 7
0.049621999 1.805298 -20.506836 7
0.073242001 1.733887 -20.266602 7
0.065848999 1.687866 -20.34668 7
0.056754999 1.643188 -20.443359 7
0.0030980001 -0.97412097 -19.717773 7
0.011421 -1.020264 -19.633789 7
0.014351 -1.068481 -19.601562 7
-0.0092010004 -1.130371 -19.827148 7
0.000336 -1.175415 -19.730469 7
0.002052 -1.2244869 -19.708984 7
-0.007065 -1.279663 -19.793945 7
-0.18309 -4.1733398 -21.088867 7
-0.17414901 -4.2104492 -20.993164 7
-0.17063101 -4.2568359 -20.948242 7
-0.176193 -4.3198242 -20.990234 7
-0.18837699 -4.3951421 -21.094727 7
0.047028001 1.89502 -19.192383 7
0.045768999 1.847168 -19.208984 7
0.03492 1.807007 -19.318359 7
0.052269001 1.74353 -19.15332 7
0.047409002 1.698486 -19.204102 7
0.045531999 1.650757 -19.224609 7
0.046089001 1.6011961 -19.222656 7
0.000298 -0.961182 -18.445312 7
0.0033420001 -1.007935 -18.415039 7
0.0077360002 -1.0526119 -18.371094 7
0.012146 -1.09729 -18.328125 7
-0.018044 -1.159668 -18.598633 7
-0.0040440001 -1.199463 -18.467773 7
-0.0041279998 -1.24646 -18.464844 7
-0.19567101 -4.188477 -19.772461 7
-0.18806501 -4.224854 -19.693359 7
-0.181091 -4.2619629 -19.621094 7
-0.174133 -4.2988281 -19.547852 7
-0.177467 -4.3543701 -19.566406 7
-0.195564 -4.4377441 -19.714844 7
0.048873998 1.7325439 -17.915039 7
0.059668999 1.678223 -17.819336 7
0.051865 1.546631 -17.899414 7
0.065208003 1.4912111 -17.78125 7
0.051757999 1.45459 -17.907227 7
-0.010155 -1.002075 -17.425781 7
-0.01973 -1.05127 -17.504883 7
-0.01236 -1.092163 -17.4375 7
-0.002266 -1.131714 -17.348633 7
-0.027419999 -1.189453 -17.560547 7
-0.026138 -1.233398 -17.545898 7
-0.025551001 -1.2780761 -17.537109 7
-0.212952 -4.22229 -18.691406 7
-0.210335 -4.2648931 -18.658203 7
-0.20702399 -4.306396 -18.619141 7
-0.20238499 -4.3449712 -18.569336 7
-0.203163 -4.3937988 -18.564453 7
-0.21210501 -4.4572749 -18.628906 7
-0.037574999 5.0513921 -16.998047 7
-0.030846 4.9924321 -16.955078 7
-0.036277998 4.9606929 -17.010742 7
-0.045761 4.9378662 -17.101562 7
-0.049164001 4.9012451 -17.140625 7
-0.066742003 4.89502 -17.298828 7
-0.080940001 4.881104 -17.428711 7
0.036476001 1.556641 -16.939453 7
0.045189001 1.5068361 -16.866211 7
0.033638 1.471191 -16.967773 7
0.026161 1.432495 -17.035156 7
0.031525001 1.38501 -16.992188 7
0.050391998 1.32959 -16.833008 7
0.054389998 1.283691 -16.800781 7
-0.020248 -1.075439 -16.422852 7
-0.015427 -1.199219 -16.375 7
-0.021255 -1.244629 -16.417969 7
-0.20867901 -4.1967769 -17.459961 7
-0.21526299 -4.2530522 -17.500977 7
-0.210327 -4.2885742 -17.451172 7
-0.20693199 -4.3712158 -17.40332 7
-0.20701601 -4.415771 -17.392578 7
0.039398 1.260132 -15.874023 7
0.049377002 1.213257 -15.795898 7
0.054336999 1.169312 -15.758789 7
0.044975001 1.133423 -15.836914 7
0.036324002 1.0969239 -15.908203 7
0.04631 1.050781 -15.830078 7
0.054862998 1.005615 -15.763672 7
0.063385002 0.96081501 -15.694336 7
-0.010757 -1.05127 -15.368164 7
-0.01387 -1.0925291 -15.388672 7
-0.018646 -1.214111 -15.414062 7
-0.030113 -1.260376 -15.498047 7
-0.217216 -4.1907959 -16.4375 7
-0.22570001 -4.2479248 -16.489258 7
-0.231895 -4.3009028 -16.524414 7
-0.225899 -4.33252 -16.469727 7
-0.222183 -4.3677979 -16.430664 7
-0.223061 -4.4116211 -16.424805 7
-0.22543301 -4.4580078 -16.431641 7
0.033882 0.920654 -14.972656 7
0.039145999 0.87951702 -14.93457 7
0.039848 0.84021002 -14.930664 7
0.044289 0.76074201 -14.898438 7
0.041205999 0.72302198 -14.923828 7
0.043419 0.68335003 -14.907227 7
-0.0058439998 -0.99072301 -14.407227 7
-0.008316 -1.0294189 -14.422852 7
-0.016487001 -1.108276 -14.475586 7
-0.006912 -1.140869 -14.40332 7
-0.006172 -1.177856 -14.395508 7
-0.023910999 -1.224854 -14.518555 7
-0.026404999 -1.264038 -14.533203 7
-0.227943 -4.2166748 -15.469727 7
-0.23448201 -4.2679439 -15.503906 7
-0.23214699 -4.3037109 -15.477539 7
-0.22903401 -4.337769 -15.444336 7
-0.224289 -4.368896 -15.400391 7
-0.22126 -4.4423828 -15.357422 7
0.059402 0.31298801 -13.893555 7
0.056953002 0.27673301 -13.912109 7
0.054497 0.240723 -13.929688 7
0.052032001 0.20422401 -13.947266 7
0.056807999 0.16748001 -13.913086 7
0.059158001 0.13073701 -13.896484 7
0.059096999 0.094360001 -13.896484 7
0.061469998 0.057739001 -13.879883 7
0.052588999 0.021484001 -13.943359 7
0.045981999 -0.050170999 -13.297852 7
0.04081 -0.119995 -13.332031 7
0.036529999 -0.15527301 -13.360352 7
0.041533999 -0.189575 -13.326172 7
0.044792 -0.25891101 -13.301758 7
-0.030494999 -1.310059 -13.75 7
-0.02887 -1.344727 -13.735352 7
-0.224289 -4.1873779 -14.548828 7
-0.23455 -4.243042 -14.605469 7
-0.239822 -4.3277588 -14.618164 7
-0.23575599 -4.395874 -14.569336 7
-0.23339801 -4.4666748 -14.533203 7
-0.040465999 4.908813 -13.038086 7
-0.037124999 4.867065 -13.026367 7
-0.043030001 4.8457031 -13.076172 7
-0.044723999 4.8146968 -13.099609 7
0.020439001 -0.34802201 -12.631836 7
0.022179 -0.380981 -12.619141 7
0.028328 -0.41332999 -12.577148 7
0.030052001 -0.446289 -12.564453 7
0.019370999 -0.48193401 -12.632812 7
0.010445 -0.517456 -12.69043 7
0.013947 -0.55029303 -12.666016 7
0.019211 -0.58227497 -12.629883 7
0.02005 -0.61547899 -12.62207 7
-0.228508 -4.1630859 -13.727539 7
-0.233955 -4.208252 -13.750977 7
-0.23848701 -4.2519531 -13.768555 7
-0.24482 -4.2988281 -13.797852 7
-0.248482 -4.341064 -13.808594 7
-0.24944299 -4.3786621 -13.804688 7
-0.245079 -4.4066162 -13.766602 7
-0.242477 -4.4376221 -13.739258 7
-0.24079099 -4.4702148 -13.717773 7
-0.01104 -0.81054699 -11.544922 7
-0.01622 -0.965698 -11.5625 7
-0.018227 -0.99719203 -11.572266 7
-0.012405 -1.025269 -11.535156 7
-0.0095370002 -1.054565 -11.515625 7
-0.0095899999 -1.085083 -11.513672 7
-0.016487001 -1.119141 -11.550781 7
-0.027321 -1.155151 -11.610352 7
-0.019554 -1.181885 -11.560547 7
-0.019608 -1.2125241 -11.558594 7
-0.024567001 -1.245972 -11.583984 7
-0.022933999 -0.98400903 -11.017578 7
-0.012764 -1.008545 -10.957031 7
-0.011795 -1.037231 -10.949219 7
-0.0098040001 -1.0656739 -10.935547 7
-0.015991 -1.0979 -10.966797 7
-0.034453999 -1.136475 -11.067383 7
-0.032462999 -1.1650389 -11.053711 7
-0.028434999 -1.192139 -11.027344 7
-0.025413999 -1.219849 -11.007812 7
-0.027512001 -1.250488 -11.016602 7
-0.023468001 -1.277344 -10.990234 7
-0.056740001 4.8756099 -10.224609 7
-0.044525001 4.8214111 -10.171875 7
-0.043526001 4.791748 -10.176758 7
-0.049660001 4.7773442 -10.220703 7
-0.047623001 4.7449951 -10.22168 7
-0.048636999 4.719604 -10.237305 7
-0.018005 -0.961914 -10.387695 7
-0.019119 -0.99023402 -10.390625 7
-0.02774 -1.022095 -10.435547 7
-0.029960999 -1.051147 -10.443359 7
-0.023567 -1.075928 -10.407227 7
-0.019332999 -1.101807 -10.380859 7
-0.019370999 -1.129639 -10.378906 7
-0.020500001 -1.1580811 -10.381836 7
-0.024894999 -1.216309 -10.399414 7
-0.027100001 -1.245239 -10.407227 7
-0.029297 -1.2744139 -10.415039 7
-0.031502001 -1.303467 -10.422852 7
-0.033707 -1.332886 -10.431641 7
-0.040199 -1.364746 -10.462891 7
-0.039191999 -1.39209 -10.453125 7
-0.044654999 -1.4519041 -10.475586 7
-0.053307001 -1.4855959 -10.517578 7
-0.063141003 -1.576782 -10.558594 7
-0.049812 4.7817378 -9.5546885 7
-0.046615999 4.7486572 -9.5498047 7
-0.047676001 4.724731 -9.5673828 7
-0.049842998 4.7030029 -9.5888672 7
-0.051987 4.681396 -9.609375 7
-0.059494 4.6707759 -9.6582031 7
-0.068047002 4.6621089 -9.7109385 7
-0.073409997 4.6464839 -9.75 7
-0.070212997 4.6132808 -9.7441406 7
-0.062720999 4.5715332 -9.7177734 7
-0.057395998 4.5340581 -9.7021484 7
-0.060623001 4.5141602 -9.7285156 7
-0.034965999 -1.1418459 -9.9414062 7
-0.028587 -1.2987061 -9.8896484 7
-0.036591001 -1.3837889 -9.9199219 7
-0.250893 -4.4815669 -10.227539 7
-0.249832 -4.5070801 -10.210938 7
-0.25214401 -4.5386958 -10.211914 7
-0.25559199 -4.5725098 -10.216797 7
-0.257927 -4.604248 -10.21582 7
-0.262573 -4.6677251 -10.21582 7
-0.26825699 -4.7059331 -10.231445 7
-0.27058399 -4.737793 -10.231445 7
-0.058426 4.766479 -9.0380859 7
-0.057319999 4.7391362 -9.0449219 7
-0.056221001 4.711792 -9.0498047 7
-0.053986002 4.682251 -9.0507812 7
-0.055114999 4.6595459 -9.0664062 7
-0.061836001 4.648438 -9.109375 7
-0.070777997 4.6417241 -9.1621094 7
-0.075249001 4.6256099 -9.1943359 7
-0.075255997 4.6004639 -9.2041016 7
-0.061852001 4.5479741 -9.1523438 7
-0.062996 4.5250239 -9.1679688 7
-0.061882 4.4975591 -9.1738281 7
-0.033890001 -1.296387 -9.421875 7
-0.043288998 -1.327515 -9.4638672 7
-0.056212999 -1.360962 -9.5234385 7
-0.051566999 -1.384033 -9.4970703 7
-0.043465 -1.4044189 -9.453125 7
-0.044670001 -1.430908 -9.4560547 7
-0.049400002 -1.459717 -9.4746094 7
-0.042427 -1.4805911 -9.4375 7
-0.063538 -1.52063 -9.5361328 7
-0.065940998 -1.548218 -9.5429688 7
-0.067153998 -1.574707 -9.5458984 7
-0.021622 -1.2956541 -8.4345703 7
-0.020393001 -1.3182369 -8.4257812 7
-0.035721 -1.35083 -8.4902344 7
-0.040848002 -1.377319 -8.5097656 7
-0.043457001 -1.4024661 -8.5175781 7
-0.033202998 -1.419189 -8.4677734 7
-0.033248998 -1.442627 -8.4648438 7
-0.035835002 -1.467651 -8.4726562 7
-0.038445 -1.492798 -8.4804688 7
-0.041046001 -1.5177 -8.4882812 7
-0.056389 -1.5517581 -8.5517578 7
-0.052611999 -1.572632 -8.53125 7
-0.25947601 -4.5325928 -8.5634766 7
-0.258255 -4.5535889 -8.546875 7
-0.258324 -4.577148 -8.5361328 7
-0.257103 -4.5982671 -8.5205078 7
-0.259727 -4.6265869 -8.5195312 7
-0.27384201 -4.6767578 -8.5654297 7
-0.272614 -4.697876 -8.5488281 7
-0.27522999 -4.7263179 -8.5488281 7
-0.27787799 -4.7548828 -8.5458984 7
-0.28176901 -4.785645 -8.5507812 7
-0.034743998 -1.295166 -8.0849609 7
-0.037445001 -1.319214 -8.0927734 7
-0.034828 -1.340088 -8.0791016 7
-0.049454 -1.37146 -8.1376953 7
-0.057472002 -1.398926 -8.1679688 7
-0.05883 -1.422363 -8.1699219 7
-0.044303998 -1.4356689 -8.1054688 7
-0.047005001 -1.459839 -8.1123047 7
-0.052352998 -1.48584 -8.1318359 7
-0.051070999 -1.507568 -8.1230469 7
-0.056412 -1.533691 -8.1416016 7
-0.065734997 -1.562744 -8.1777344 7
-0.077728003 -1.59375 -8.2236328 7
-0.28196701 -4.5020752 -8.1933594 7
-0.278038 -4.517334 -8.1669922 7
-0.27410901 -4.5324712 -8.140625 7
-0.27284199 -4.552856 -8.125 7
-0.27556601 -4.5802002 -8.1240234 7
-0.27694699 -4.605103 -8.1191406 7
-0.27569601 -4.6251221 -8.1025391 7
-0.27707699 -4.650269 -8.0966797 7
-0.28246301 -4.6827388 -8.1064453 7
-0.290512 -4.720459 -8.1269531 7
-0.293228 -4.7479248 -8.125 7
-0.29594401 -4.7756348 -8.125 7
-0.294678 -4.7955322 -8.1074219 7
-0.27577201 -4.4970698 -7.6767578 7
-0.274445 -4.5159912 -7.6611328 7
-0.26895899 -4.5272222 -7.6308589 7
-0.267654 -4.545898 -7.6142578 7
-0.269104 -4.5698242 -7.6074219 7
-0.271988 -4.6176758 -7.5966802 7
-0.26928699 -4.633667 -7.5751948 7
-0.277641 -4.6705322 -7.594727 7
-0.279091 -4.694458 -7.5878911 7
-0.28468299 -4.7263179 -7.5976558 7
-0.28891 -4.7556152 -7.6005859 7
-0.291733 -4.7823491 -7.5996089 7
-0.38887 -6.372437 -7.03125 7
-0.39032 -6.395752 -7.0205078 7
-0.062362999 4.7771001 -6.507812 7
-0.052719001 4.737915 -6.485352 7
-0.044472001 4.7015381 -6.467773 7
-0.049995001 4.6943359 -6.4970698 7
-0.051360998 4.6784668 -6.5136719 7
-0.052733999 4.662354 -6.5292969 7
-0.052726999 4.6434331 -6.5400391 7
-0.054108001 4.6270752 -6.5556641 7
-0.056853998 4.61377 -6.5761719 7
-0.059608001 4.6004639 -6.5976558 7
-0.055473 4.5727539 -6.59375 7
-0.059593 4.5620122 -6.6201172 7
-0.058228001 4.539917 -6.625 7
-0.058228001 4.520874 -6.6357422 7
-0.058219999 4.5015869 -6.6464839 7
-0.27891499 -4.4946289 -7.2558589 7
-0.28040299 -4.5179439 -7.250977 7
-0.27616099 -4.530396 -7.2246089 7
-0.27333799 -4.5454102 -7.204102 7
-0.26909599 -4.5578609 -7.1777339 7
-0.27490199 -4.5887451 -7.1875 7
-0.277832 -4.614624 -7.1855469 7
-0.280754 -4.6403809 -7.1855469 7
-0.27938101 -4.657959 -7.1689448 7
-0.280884 -4.6810298 -7.1621089 7
-0.290977 -4.7202148 -7.186523 7
-0.289612 -4.737915 -7.1699219 7
-0.29397601 -4.766479 -7.1738281 7
-0.294029 -4.7866211 -7.1630859 7
-0.378059 -6.0852051 -6.6894531 7
-0.37955499 -6.1077881 -6.6806641 7
-0.38249201 -6.1337891 -6.6748052 7
-0.38686401 -6.163208 -6.6738281 7
-0.388374 -6.185791 -6.664062 7
-0.39563799 -6.222168 -6.671875 7
-0.389938 -6.2272949 -6.6386719 7
-0.38712299 -6.2392578 -6.6152339 7
-0.384323 -6.2513428 -6.5908198 7
-0.38150799 -6.263062 -6.5673828 7
-0.377251 -6.2713618 -6.539062 7
-0.37731901 -6.2902832 -6.5244141 7
-0.381699 -6.3197021 -6.5224609 7
-0.38320199 -6.3416748 -6.5117192 7
-0.38901499 -6.3747559 -6.514648 7
-0.38908401 -6.3935552 -6.499023 7
-0.107399 -1.915771 10.131836 7
-0.105927 -1.894043 10.130859 7
-0.105911 -1.873413 10.135742 7
-0.105896 -1.852661 10.140625 7
-0.104424 -1.830811 10.138672 7
-0.102951 -1.80896 10.137695 7
-0.100014 -1.786011 10.131836 7
-0.095619 -1.761963 10.119141 7
-0.099982999 -1.744629 10.140625 7
-0.092681997 -1.718384 10.116211 7
-0.095565997 -1.700073 10.131836 7
-0.096984997 -1.68042 10.140625 7
-0.095527999 -1.658691 10.139648 7
-0.088202998 -1.632812 10.115234 7
-0.080894001 -1.606934 10.091797 7
-0.062576003 4.7750239 -6.0917969 7
-0.051155001 4.7329102 -6.0644531 7
-0.044022001 4.7000728 -6.0517578 7
-0.045456 4.6851811 -6.0673828 7
-0.045448001 4.6672359 -6.079102 7
-0.046867002 4.6523442 -6.094727 7
-0.049720999 4.6402588 -6.1142578 7
-0.045433 4.6135249 -6.1113281 7
-0.049713001 4.604248 -6.1367192 7
-0.049697999 4.5863042 -6.1474609 7
-0.049706001 4.5681152 -6.1582031 7
-0.063971996 4.579102 -6.217773 7
-0.066849001 4.5666499 -6.2373052 7
-0.071129002 4.5571289 -6.2626948 7
-0.068268001 4.5330811 -6.264648 7
-0.056839 4.4916992 -6.235352 7
-0.290268 -4.4943848 -6.8701172 7
-0.28437799 -4.5030522 -6.8398442 7
-0.27996099 -4.5144038 -6.813477 7
-0.28448501 -4.5418701 -6.8183589 7
-0.286026 -4.5640869 -6.811523 7
-0.277145 -4.5670171 -6.7714839 7
-0.28166199 -4.594727 -6.7763672 7
-0.27873999 -4.608398 -6.7548828 7
-0.28626299 -4.6417241 -6.7685552 7
-0.28780401 -4.6638179 -6.7626948 7
-0.28636199 -4.6802979 -6.7470698 7
-0.29984999 -4.7250981 -6.780273 7
-0.30139899 -4.747314 -6.7724609 7
-0.29995701 -4.7636719 -6.7568359 7
-0.303009 -4.7886958 -6.7548828 7
-0.386406 -6.2772222 -6.0644531 7
-0.386475 -6.2949219 -6.0488281 7
-0.391022 -6.3234859 -6.046875 7
-0.39704099 -6.3557129 -6.0498052 7
-0.39710999 -6.3734131 -6.0341802 7
-0.391197 -6.375977 -6.0019531 7
-0.32839999 -5.0678711 9.3232422 7
-0.33898199 -5.0705571 9.3681641 7
-0.332939 -5.0395508 9.3613281 7
-0.32536301 -5.0056152 9.3486328 7
-0.32989499 -4.9958501 9.375 7
-0.328392 -4.973877 9.3828115 7
-0.32990301 -4.9578862 9.3994141 7
-0.32990301 -4.9389648 9.4111328 7
-0.32990301 -4.9200439 9.4228516 7
-0.34805301 -4.9362788 9.4921885 7
-0.32990301 -4.8820801 9.4462891 7
-0.32383001 -4.85144 9.4375 7
-0.31629199 -4.817627 9.4267578 7
-0.325371 -4.815918 9.4667969 7
-0.33445001 -4.814209 9.5068359 7
-0.11512 -1.9074709 9.8085938 7
-0.10601 -1.880127 9.7802734 7
-0.109016 -1.8625489 9.7958984 7
-0.11657 -1.848877 9.8271484 7
-0.115044 -1.827759 9.8261719 7
-0.096863002 -1.793579 9.7646484 7
-0.098366 -1.774902 9.7744141 7
-0.102875 -1.758545 9.7949219 7
-0.099822998 -1.736328 9.7880859 7
-0.092247002 -1.710938 9.7636719 7
-0.098274 -1.6956789 9.7900391 7
-0.101273 -1.677979 9.8056641 7
-0.10125 -1.6580811 9.8085938 7
-0.1073 -1.6427 9.8359385 7
-0.090636998 -1.61084 9.7783203 7
-0.105743 -1.60144 9.8378906 7
-0.072113 4.7773442 -5.7138672 7
-0.049888998 4.713501 -5.655273 7
-0.048386 4.6933589 -5.6621089 7
-0.054306 4.6888428 -5.6914058 7
-0.055785999 4.6750488 -5.7080078 7
-0.051346 4.6488042 -5.704102 7
-0.055778999 4.6411128 -5.7294922 7
-0.049865998 4.6118159 -5.719727 7
-0.054297999 4.6036382 -5.7460942 7
-0.054297999 4.5865479 -5.7568359 7
-0.054283001 4.5695801 -5.7675781 7
-0.067635 4.5794678 -5.8212891 7
-0.076514997 4.5802002 -5.8613281 7
-0.067635 4.5449219 -5.842773 7
-0.067626998 4.5274658 -5.8535161 7
-0.064658999 4.5041499 -5.8544922 7
-0.069099002 4.495605 -5.8798828 7
-0.28498799 -4.4924321 -6.4619141 7
-0.28968799 -4.5192871 -6.4648442 7
-0.28510299 -4.5294189 -6.4404302 7
-0.28361499 -4.545166 -6.4248052 7
-0.28212699 -4.5609131 -6.4091802 7
-0.27755001 -4.5706792 -6.382812 7
-0.282242 -4.5976558 -6.3867192 7
-0.280754 -4.6132808 -6.3710942 7
-0.28544599 -4.6402588 -6.375 7
-0.28086099 -4.6497798 -6.3496089 7
-0.27474201 -4.6563721 -6.3193359 7
-0.28097501 -4.686523 -6.327148 7
-0.293365 -4.728271 -6.3544922 7
-0.296509 -4.752563 -6.3525391 7
-0.30120099 -4.7797852 -6.3554692 7
-0.38530001 -6.101562 -5.75 7
-0.385353 -6.1184082 -5.735352 7
-0.38542199 -6.1352539 -5.7207031 7
-0.38702399 -6.1557622 -5.710938 7
-0.39326501 -6.1875 -5.7128911 7
-0.39641601 -6.211792 -5.7070308 7
-0.398018 -6.2321782 -5.6962891 7
-0.401169 -6.2564702 -5.6904302 7
-0.40431201 -6.2808838 -5.6835942 7
-0.39665201 -6.2788091 -5.6474609 7
-0.390526 -6.280273 -5.6162109 7
-0.389038 -6.2929692 -5.5966802 7
-0.381378 -6.2905269 -5.561523 7
-0.387611 -6.3223882 -5.563477 7
-0.39077801 -6.346436 -5.5556641 7
-0.39701101 -6.3780522 -5.5585942 7
-0.39864299 -6.398315 -5.545898 7
-0.39250201 -6.3995361 -5.514648 7
-0.34005699 -5.0926509 8.9628906 7
-0.336914 -5.0683589 8.9648438 7
-0.33850101 -5.0535889 8.9824219 7
-0.329117 -5.0169678 8.9658203 7
-0.32597399 -4.9927979 8.96875 7
-0.32598901 -4.974854 8.9804688 7
-0.327553 -4.9599609 8.9970703 7
-0.324417 -4.9359131 8.9990234 7
-0.32597399 -4.920898 9.015625 7
-0.33067301 -4.9121089 9.0419922 7
-0.32910901 -4.8908691 9.0488281 7
-0.333794 -4.8818359 9.0742188 7
-0.33223 -4.8607178 9.0810547 7
-0.32443199 -4.8273931 9.0693359 7
-0.324417 -4.8092041 9.0800781 7
-0.102524 -1.90625 9.4521484 7
-0.105644 -1.889771 9.4677734 7
-0.102493 -1.868286 9.4609385 7
-0.105598 -1.851562 9.4765615 7
-0.113434 -1.838623 9.5097656 7
-0.110283 -1.817261 9.5029297 7
-0.103996 -1.792969 9.484375 7
-0.094604 -1.766602 9.4560547 7
-0.094573997 -1.747681 9.4599609 7
-0.094535999 -1.728516 9.4638672 7
-0.096092001 -1.7105711 9.4736328 7
-0.096077003 -1.691406 9.4775391 7
-0.099197 -1.674683 9.4931641 7
-0.099182002 -1.6555181 9.4970703 7
-0.089767002 -1.629639 9.4667969 7
-0.092880003 -1.612671 9.4824219 7
-0.104164 4.1816411 8.6044922 7
-0.101006 4.1931152 8.5859385 7
-0.097838998 4.204102 8.5654297 7
-0.099349998 4.223999 8.5605469 7
-0.099303998 4.2409668 8.5507812 7
-0.094581999 4.249023 8.5263672 7
-0.106979 4.289185 8.5546885 7
-0.096038997 4.2853999 8.5097656 7
-0.097548999 4.3054199 8.5058594 7
-0.092841998 4.3132319 8.4814453 7
-0.099022001 4.3416748 8.4902344 7
-0.095863 4.3525391 8.4707031 7
-0.112923 4.401978 8.5126953 7
-0.123764 4.4396968 8.5361328 7
-0.125267 4.4595952 8.5302734 7
-0.123672 4.4732671 8.5146484 7
-0.075432003 4.791748 -5.3417969 7
-0.073890999 4.7722168 -5.3476558 7
-0.070800997 4.7495122 -5.3505859 7
-0.067726001 4.7270508 -5.3525391 7
-0.046271998 4.6660161 -5.2988281 7
-0.046257 4.6497798 -5.3105469 7
-0.047798 4.637085 -5.3251948 7
-0.05085 4.6271968 -5.3466802 7
-0.049323998 4.6079102 -5.351562 7
-0.047775 4.588623 -5.358398 7
-0.053916998 4.5848389 -5.3876948 7
-0.050827 4.5623779 -5.389648 7
-0.056961 4.5585942 -5.4189448 7
-0.060028002 4.5484619 -5.438477 7
-0.064629003 4.5413818 -5.4638672 7
-0.073821999 4.543335 -5.5029302 7
-0.070739999 4.520752 -5.5048828 7
-0.063072003 4.4890141 -5.4912109 7
-0.27696201 -4.4943848 -6.0117192 7
-0.28183001 -4.5206299 -6.015625 7
-0.285072 -4.544189 -6.0136719 7
-0.28353101 -4.5585942 -5.999023 7
-0.27718401 -4.5640869 -5.967773 7
-0.27403301 -4.5758061 -5.9482422 7
-0.27407101 -4.5930181 -5.9375 7
-0.27893099 -4.6193848 -5.9404302 7
-0.282188 -4.6428218 -5.9394531 7
-0.282249 -4.6601558 -5.9277339 7
-0.28389701 -4.6806641 -5.921875 7
-0.27914399 -4.6887212 -5.8964839 7
-0.284004 -4.7149658 -5.8994141 7
-0.29046601 -4.744751 -5.907227 7
-0.29052699 -4.7619629 -5.8955078 7
-0.298599 -4.7945561 -5.907227 7
-0.38639799 -6.256104 -5.108398 7
-0.39447001 -6.2913818 -5.1142578 7
-0.389725 -6.2949219 -5.0869141 7
-0.39299801 -6.3181152 -5.079102 7
-0.38501701 -6.3137212 -5.0449219 7
-0.378654 -6.3131099 -5.014648 7
-0.38513899 -6.3439941 -5.014648 7
-0.386803 -6.3632808 -5.0039058 7
-0.38845801 -6.3823242 -4.9931641 7
-0.33711201 -4.9058838 8.6494141 7
-0.340363 -4.8951421 8.6699219 7
-0.34198001 -4.881104 8.6855469 7
-0.32734701 -4.8355708 8.6552734 7
-0.32737699 -4.801147 8.6787109 7
-0.100586 -1.903442 9.1152344 7
-0.102196 -1.886597 9.125 7
-0.102188 -1.868286 9.1298828 7
-0.095679998 -1.844849 9.1123047 7
-0.1054 -1.8343509 9.1494141 7
-0.113495 -1.8223881 9.1816406 7
-0.102097 -1.795166 9.1464844 7
-0.090714 -1.749756 9.1171885 7
-0.087456003 -1.729004 9.109375 7
-0.085808001 -1.709473 9.1083984 7
-0.084174998 -1.690186 9.1064453 7
-0.082526997 -1.6706541 9.1054688 7
-0.090622 -1.658203 9.1367188 7
-0.084137 -1.635376 9.1191406 7
-0.074211001 0.96020502 9.2158203 7
-0.064452998 0.97424299 9.1806641 7
-0.056327999 0.98913598 9.1503906 7
-0.056290001 1.0074461 9.1484385 7
-0.056258999 1.025879 9.1455078 7
-0.056189999 1.0625 9.140625 7
-0.064254999 1.084717 9.1669922 7
-0.069077 1.105347 9.1796885 7
-0.072273001 1.125366 9.1884766 7
-0.069022998 1.14209 9.1748047 7
-0.072219998 1.162109 9.1835938 7
-0.068947002 1.178833 9.1689453 7
-0.075378001 1.219116 9.1865234 7
-0.075332999 1.2375489 9.1835938 7
-0.073692001 1.255005 9.1748047 7
-0.073654003 1.273315 9.171875 7
-0.128517 4.1932368 8.3212891 7
-0.120392 4.1948242 8.2871094 7
-0.110626 4.2095952 8.2382812 7
-0.100876 4.2080078 8.1992188 7
-0.094375998 4.2120361 8.1708984 7
-0.094337001 4.2280269 8.1601562 7
-0.091049001 4.237915 8.1416016 7
-0.090995997 4.2536621 8.1308594 7
-0.095810004 4.278687 8.1357422 7
-0.094093002 4.3074951 8.1113281 7
-0.092437997 4.320312 8.0957031 7
-0.090790004 4.3330078 8.0810547 7
-0.089111 4.345459 8.0664062 7
-0.098739997 4.3798828 8.0839844 7
-0.111633 4.4205322 8.1123047 7
-0.124489 4.4614258 8.1386719 7
-0.28180701 -4.496582 -5.6367192 7
-0.29184699 -4.5314941 -5.6533198 7
-0.29188499 -4.5480962 -5.6425781 7
-0.285294 -4.5524902 -5.6123052 7
-0.27703899 -4.5537109 -5.578125 7
-0.28206599 -4.5793462 -5.5820308 7
-0.27880099 -4.5897222 -5.561523 7
-0.28050199 -4.6092529 -5.5556641 7
-0.285561 -4.6350098 -5.5576172 7
-0.285606 -4.6514888 -5.546875 7
-0.28733101 -4.6711431 -5.5400391 7
-0.28239399 -4.6781011 -5.514648 7
-0.28078499 -4.69104 -5.5 7
-0.28416401 -4.7138672 -5.4970698 7
-0.29583699 -4.7524409 -5.5185552 7
-0.297562 -4.7719731 -5.5117192 7
-0.29928601 -4.7915039 -5.5048828 7
-0.097832002 -1.916382 8.7900391 7
-0.104553 -1.9044189 8.8173828 7
-0.096123002 -1.879761 8.7939453 7
-0.096106999 -1.862305 8.7978516 7
-0.096084997 -1.844849 8.8027344 7
-0.096069001 -1.8273931 8.8066406 7
-0.097732998 -1.8112791 8.8164062 7
-0.096038997 -1.792358 8.8154297 7
-0.101067 -1.778687 8.8369141 7
-0.084251001 -1.748291 8.7861328 7
-0.082549997 -1.7294919 8.7851562 7
-0.082534999 -1.7119139 8.7890615 7
-0.084190004 -1.695801 8.7978516 7
-0.082503997 -1.677002 8.796875 7
-0.087523997 -1.663208 8.8173828 7
-0.080771998 -1.640747 8.7988281 7
-0.092522003 -1.631592 8.8417969 7
-0.079062998 -1.6044919 8.8017578 7
-0.060516 0.97119099 8.8671885 7
-0.058807001 0.98803699 8.859375 7
-0.057105999 1.0048831 8.8515615 7
-0.053711001 1.020996 8.8388672 7
-0.053665001 1.038452 8.8359385 7
-0.051956002 1.055298 8.828125 7
-0.056968998 1.075195 8.8427734 7
-0.058600999 1.09375 8.8457031 7
-0.050179001 1.107056 8.8144531 7
-0.065261997 1.132202 8.8613281 7
-0.066886999 1.150757 8.8642578 7
-0.065192997 1.167603 8.8574219 7
-0.066826001 1.185913 8.859375 7
-0.066803001 1.203613 8.8574219 7
-0.078529 1.227783 8.8925781 7
-0.080169998 1.246338 8.8945312 7
-0.066719003 1.25647 8.8496094 7
-0.070037998 1.276001 8.8564453 7
-0.28552201 -4.4934082 -5.2773442 7
-0.28385201 -4.506104 -5.2617192 7
-0.28217301 -4.5185552 -5.2470698 7
-0.289116 -4.5469971 -5.2539058 7
-0.29434201 -4.572144 -5.2568359 7
-0.294388 -4.5878911 -5.2460942 7
-0.28239399 -4.5812988 -5.203125 7
-0.28072399 -4.5935059 -5.188477 7
-0.279053 -4.605957 -5.172852 7
-0.27910599 -4.62146 -5.1611328 7
-0.28087601 -4.6401372 -5.155273 7
-0.28435501 -4.6621089 -5.1533198 7
-0.282684 -4.6743159 -5.1376948 7
-0.284462 -4.6931152 -5.1308589 7
-0.28966501 -4.7183838 -5.1337891 7
-0.29489899 -4.7436519 -5.1347661 7
-0.30011001 -4.7689209 -5.1367192 7
-0.30360401 -4.7910161 -5.1347661 7
-0.295059 -4.7897949 -5.1005859 7
-0.102928 -1.9169919 8.5166016 7
-0.099434003 -1.897095 8.5107422 7
-0.095931999 -1.877563 8.5039062 7
-0.092453003 -1.85791 8.4980469 7
-0.090691 -1.8396 8.4970703 7
-0.102852 -1.832642 8.5380859 7
-0.102844 -1.8156739 8.5429688 7
-0.095863 -1.793579 8.5253906 7
-0.092354 -1.7738039 8.5185547 7
-0.087119997 -1.75293 8.5068359 7
-0.087104999 -1.7362061 8.5107422 7
-0.083603002 -1.716797 8.5039062 7
-0.081855997 -1.698608 8.5029297 7
-0.085335001 -1.68457 8.5175781 7
-0.080092996 -1.6636961 8.5058594 7
-0.083557002 -1.649536 8.5205078 7
-0.080048002 -1.630249 8.5126953 7
-0.090484999 -1.62085 8.5498047 7
-0.066192999 0.971802 8.6064453 7
-0.052253999 0.98266602 8.5595703 7
-0.052216001 0.99975598 8.5566406 7
-0.050468002 1.015747 8.5498047 7
-0.046959002 1.031006 8.5371094 7
-0.053879 1.051147 8.5566406 7
-0.053856 1.068115 8.5546885 7
-0.050345998 1.083374 8.5410156 7
-0.050308 1.100098 8.5380859 7
-0.058975 1.121338 8.5634766 7
-0.055458002 1.136719 8.5498047 7
-0.058899 1.155151 8.5576172 7
-0.058860999 1.172119 8.5546885 7
-0.055367 1.187134 8.5410156 7
-0.058807001 1.205811 8.5488281 7
-0.058777001 1.2229 8.5458984 7
-0.065681003 1.24353 8.5644531 7
-0.058701001 1.25647 8.5400391 7
-0.067359999 1.278442 8.5644531 7
-0.28167701 -4.5028081 -4.8974609 7
-0.27996099 -4.5145259 -4.882812 7
-0.28356901 -4.5357671 -4.8798828 7
-0.285393 -4.5539551 -4.874023 7
-0.285431 -4.5688481 -4.8632808 7
-0.294388 -4.5999761 -4.875 7
-0.28553799 -4.5982671 -4.8417969 7
-0.28735399 -4.616333 -4.8349609 7
-0.28740701 -4.6312261 -4.8242192 7
-0.28744501 -4.645752 -4.813477 7
-0.28750601 -4.660522 -4.8017578 7
-0.28754401 -4.6750488 -4.7919922 7
-0.287613 -4.6898189 -4.780273 7
-0.28766599 -4.7044678 -4.7685552 7
-0.29304501 -4.729248 -4.7714839 7
-0.29130599 -4.740479 -4.7558589 7
-0.293152 -4.7584229 -4.7480469 7
-0.29854599 -4.7832031 -4.75 7
-0.090278998 -1.902222 8.2060547 7
-0.102867 -1.896484 8.2480469 7
-0.099251002 -1.877441 8.2412109 7
-0.104645 -1.865723 8.2626953 7
-0.101044 -1.846436 8.2568359 7
-0.102829 -1.831665 8.2666016 7
-0.113609 -1.824219 8.3017578 7
-0.104591 -1.800781 8.2802734 7
-0.088386998 -1.7718509 8.2363281 7
-0.091964997 -1.758423 8.2509766 7
-0.09375 -1.743652 8.2597656 7
-0.086533003 -1.7219239 8.2431641 7
-0.091941997 -1.709717 8.2636719 7
-0.081123002 -1.685425 8.2353516 7
-0.082901001 -1.6706541 8.2451172 7
-0.082886003 -1.654663 8.2490234 7
-0.099068001 -1.6500241 8.3017578 7
-0.079254001 -1.619507 8.2451172 7
-0.075638004 -1.600708 8.2382812 7
-0.050705001 0.96325701 8.296875 7
-0.057861 0.98266602 8.3173828 7
-0.061432 1.00061 8.3261719 7
-0.054198999 1.013672 8.3007812 7
-0.054184001 1.029907 8.2988281 7
-0.05954 1.048828 8.3125 7
-0.054115001 1.062622 8.2949219 7
-0.063049003 1.0830081 8.3173828 7
-0.059432998 1.097778 8.3056641 7
-0.061188001 1.114868 8.3085938 7
-0.053993002 1.127686 8.2841797 7
-0.048569001 1.141235 8.2646484 7
-0.046744999 1.15625 8.2558594 7
-0.052101001 1.175415 8.2695312 7
-0.050278001 1.190796 8.2617188 7
-0.050255001 1.207031 8.2607422 7
-0.057404 1.227051 8.2783203 7
-0.071754001 1.251343 8.3193359 7
-0.060936 1.261475 8.2832031 7
-0.059105001 1.276855 8.2753906 7
-0.096330002 4.2080641 8.4957504 7
-0.071965002 4.2649059 8.1946459 7
-0.147605 -1.7306401 9.6881514 7
-0.348627 -5.0134668 8.8171759 7
-0.36819199 -4.890543 9.1060781 7
-0.141947 -1.816608 9.1924191 7
-0.075779997 1.015529 8.9640427 7
-0.092078999 1.246907 9.0244942 7
-0.114842 -1.836589 8.6312294 7
-0.101428 -1.614813 8.622921 7
-0.063281 1.122295 8.5287228 7
-0.093125001 -1.851576 8.1634378 7
-0.083870001 -1.656832 8.1843452 7
-0.036947001 1.016253 8.1068592 7
-0.032435998 1.178313 8.0391712 7
-0.124362 -1.87184 7.7839818 7
-0.109427 -1.68133 7.786211 7
-0.055957999 1.0824749 7.7153111 7
-0.066716999 1.253346 7.7216921 7
-0.101933 -1.868163 7.4187951 7
-0.087366 -1.692575 7.4278979 7
-0.03999 1.003589 7.4491749 7
-0.046664 1.155899 7.4373002 7
-0.085304998 -1.867909 7.1106062 7
-0.086127996 -1.738768 7.1864629 7
-0.027888 1.069882 7.186276 7
-0.029916 1.204123 7.1499238 7
-0.080141999 -1.887211 6.870904 7
-0.066667996 -1.735229 6.8942661 7
0.000314 -1.4294209 -8.3782187 7
0.027119 -1.3721451 -6.8001962 7
-0.25088999 -4.475677 -8.5002966 7
0.045173001 -1.3292609 -5.6199389 7
-0.232797 -4.5035949 -6.9978142 7
-0.218207 -4.518795 -5.7886038 7
-0.32194799 -6.2446671 -5.5294962 7
-0.023968 -1.572399 -3.996655 7
-0.30714101 -4.5426149 -4.8384471 7
-0.26235899 -4.7379351 -3.64921 7
-0.085675001 -1.726259 9.8026981 7
-0.238207 -4.6747341 -2.9035399 7
-0.33158299 -4.9175568 9.3449001 7
-0.067227997 -1.669657 9.286521 7
-0.39510301 -4.891551 8.781004 7
-0.111037 -1.849136 8.780858 7
-0.092812002 -1.609146 8.7435226 7
-0.098802999 -1.795552 8.4290628 7
-0.060665999 -1.729665 7.9932861 7
-0.062734 -1.881869 7.7230029 7
-0.043302 -1.683421 7.688736 7
-0.085368998 -1.821242 7.4164681 7
-0.067616001 -1.637408 7.391479 7
-0.028062001 -1.322652 -0.825216 7
-0.034542002 -1.493735 -0.81876701 7
-0.071943 -1.776786 7.1884809 7
-0.055296998 -1.603408 7.167624 7
-0.016601 -1.305593 -0.60521799 7
-0.027355 -1.469408 -0.61643398 7
-0.076949999 -1.90437 6.9982519 7
-0.055303 -1.73362 6.9667282 7
-0.0036520001 -1.289503 -0.39710101 7
-0.019088 -1.446546 -0.426 7
-0.049802002 -1.847054 6.7572188 7
-0.032494999 -1.689678 6.7403641 7
-0.068990998 4.6215549 -6.0611329 7
-0.098971002 4.2510042 8.3272266 7
-0.068861 1.140321 8.9932976 7
-0.043499 1.129285 8.5394669 7
-0.022797 1.119927 8.1556463 7
-0.010177 1.1122741 7.8473101 7
-0.040164001 1.103385 7.5465131 7
-0.025942 1.097327 7.296978 7
-0.031830002 1.2667 7.2896929 7
-0.0080899997 1.09156 7.0539341 7
-0.019528 1.252108 7.0696678 7
0.069137 -0.53795302 -12.5554 7
0.018851999 -1.146718 -13.996765 7
-0.046879001 -1.20462 -10.295973 7
-0.35080299 -4.386415 -15.399705 7
-0.12193 4.7320509 -9.0522957 7
-0.012842 -1.3359669 -7.2737169 7
-0.049683001 4.6146379 -6.5494852 7
-0.0023749999 -1.37061 -6.3710132 7
-0.219328 -4.5570712 -7.9245968 7
-0.041797999 4.6597519 -5.2980132 7
-0.053807002 4.556232 -5.5614562 7
-0.052554999 -1.417136 -5.7519698 7
-0.29595301 -4.580368 -6.8585582 7
-0.045341 -1.4472671 -5.2325702 7
-0.29043001 -4.5862122 -5.974175 7
-0.401519 -6.2452421 -5.8282971 7
-0.386612 -6.3627558 -5.512486 7
-0.054793 4.567091 -2.8168719 7
-0.027441001 -1.434659 -4.7147479 7
-0.281239 -4.5363731 -5.1831498 7
-0.268787 -4.6463099 -4.9445648 7
-0.045641001 4.386971 -1.958617 7
-0.045596 4.3194871 -2.1348741 7
-0.243159 -4.583508 -4.0172029 7
-0.234699 -4.668241 -3.8048279 7
-0.040015999 -1.301615 -4.0283451 7
-0.045127999 -1.438807 -4.006269 7
-0.274142 -4.572104 -3.0350881 7
-0.032366 -1.314324 -3.758966 7
-0.039820999 -1.44724 -3.7457869 7
-0.048106998 -1.584288 -3.730799 7
-0.030812001 -1.494133 -0.91699499 7
-0.036692999 -1.50445 -0.85035402 7
-0.039149001 -1.417991 -0.928491 7
-0.033936001 -1.396173 -0.87165302 7
-0.022241 -1.325653 -0.94294202 7
-0.026952 -1.3316031 -0.88445503 7
