# .PCD v0.7 - Point Cloud Data file format
VERSION 0.7
FIELDS x y z intensity
SIZE 4 4 4 4
TYPE F F F F
COUNT 1 1 1 1
WIDTH 1281
HEIGHT 1
VIEWPOINT 0 0 0 1 0 0 0
POINTS 1281
DATA ascii
2.5298769 -1.421021 -10.424805 7
0.13652 -1.90625 -68.274414 7
0.16780099 -2.039551 -67.199219 7
0.14559899 -2.2263179 -67.942383 7
0.14312001 5.0301509 -67.805664 7
0.17652901 4.785522 -66.672852 7
0.14167 4.7034912 -67.857422 7
0.28922299 1.305908 -62.793945 7
0.117355 -2.0114751 -61.272461 7
0.15208399 -2.1234131 -60.208008 7
0.199387 -2.2163091 -58.764648 7
0.297203 4.5532231 -55.609375 7
0.23219299 4.5697021 -57.580078 7
0.19416 4.5153809 -58.734375 7
0.281654 1.169556 -56.064453 7
0.050011002 -2.1269529 -56.342773 7
0.108009 -2.202271 -54.764648 7
0.137894 -2.3013921 -53.947266 7
0.100105 -2.4772949 -54.957031 7
0.131073 -2.571655 -54.109375 7
0.259781 4.7713618 -50.492188 7
0.207794 4.7731929 -51.902344 7
0.168106 4.739502 -52.979492 7
0.224419 4.4810791 -51.462891 7
0.19249 4.426147 -52.331055 7
0.135719 4.4206538 -53.869141 7
0.033752002 -2.315552 -51.289062 7
0.105896 -2.3581541 -49.512695 7
0.056122001 -2.5379641 -50.722656 7
0.082801998 -2.7498779 -50.049805 7
-0.85826898 -2.7384031 67.625 7
-0.84393299 -0.38134801 67.44043 7
-0.80026197 -0.221558 66.495117 7
0.17789499 4.6151118 -47.56543 7
0.150787 4.5592041 -48.235352 7
0.214203 4.3024902 -46.689453 7
0.167061 4.2880859 -47.84668 7
0.130417 4.24646 -48.749023 7
0.19779199 0.97912598 -47.393555 7
0.02166 -2.3382571 -46.625 7
0.063362002 -2.4047849 -45.691406 7
0.101379 -2.470947 -44.838867 7
0.206833 4.6512451 -42.329102 7
0.17176799 4.6278081 -43.113281 7
0.144554 4.5827641 -43.723633 7
0.110504 4.5499272 -44.484375 7
0.168861 4.3156738 -43.197266 7
0.14163999 4.2662349 -43.807617 7
0.095764004 4.2520752 -44.830078 7
0.229965 0.98461902 -41.876953 7
0.242691 0.87597698 -41.59375 7
0.243553 0.77343798 -41.572266 7
-0.038093999 -2.430542 -44.092773 7
-0.0071109999 -2.5029299 -43.450195 7
-0.0020979999 -2.602905 -43.338867 7
-0.716995 -0.055054002 55.28418 7
-0.62109399 0.070312001 53.507812 7
-0.670982 0.197266 54.436523 7
-0.59586298 0.31457499 53.043945 7
0.129219 4.650269 -40.459961 7
0.111977 4.5887451 -40.820312 7
0.084464997 4.5476069 -41.389648 7
0.057533 4.502563 -41.947266 7
0.035140999 4.4458008 -42.411133 7
0.075699002 4.2593989 -41.588867 7
0.049881 4.2077641 -42.123047 7
0.18085501 0.92346197 -39.732422 7
0.19274101 0.82092297 -39.489258 7
0.178085 0.72949201 -39.788086 7
-0.615318 -2.7679441 49.103516 7
-0.617203 -2.6569819 49.143555 7
-0.54373199 0.173706 47.99707 7
-0.52424598 0.39172399 47.668945 7
0.096732996 4.6834722 -37.357422 7
0.072242998 4.6451421 -37.821289 7
0.053679999 4.5915532 -38.174805 7
0.027327999 4.5527339 -38.672852 7
0.0081409998 4.4971919 -39.039062 7
0.178101 0.31799299 -35.952148 7
0.182449 0.140259 -35.864258 7
-0.58716601 -2.7529299 45.25 7
-0.59770203 -2.6591799 45.425781 7
-0.490601 0.460327 43.844727 7
0.30981401 20.492676 24.15918 7
0.310242 20.600098 24.061523 7
0.30973101 20.661499 24.020508 7
0.078468002 4.788208 -34.618164 7
0.053520001 4.6711431 -35.063477 7
0.039856002 4.613647 -35.306641 7
0.00083899999 4.608398 -35.984375 7
0.0081479996 4.5041499 -35.868164 7
0.14724 1.213623 -33.601562 7
0.158966 1.123657 -33.400391 7
0.140839 1.050415 -33.711914 7
0.115921 0.97863799 -34.140625 7
0.124771 0.29321301 -34.174805 7
0.15338901 0.122803 -33.678711 7
0.147881 0.039795 -33.772461 7
0.13019601 -0.031493999 -30.928711 7
0.146706 -0.107422 -30.666016 7
0.12249 -0.185669 -31.044922 7
0.143089 -0.260254 -30.717773 7
-0.50522602 -2.6503911 40.651367 7
-0.52428401 -2.575562 40.938477 7
-0.56369799 -2.5180659 41.521484 7
-0.44432101 0.32385299 39.911133 7
-0.438858 0.50537097 39.833008 7
0.108238 4.8677979 -31.067383 7
0.092635997 4.826416 -31.321289 7
0.074828997 4.7886958 -31.609375 7
0.051865 4.761353 -31.980469 7
0.024826 4.7412109 -32.414062 7
0.0044169999 4.7047119 -32.743164 7
0.063652001 4.497437 -31.822266 7
0.168556 1.478516 -30.334961 7
0.151131 1.262817 -30.613281 7
0.121796 1.203735 -31.078125 7
0.088600002 -0.111084 -29.584961 7
0.112617 -0.182495 -29.228516 7
0.123932 -0.32580599 -29.057617 7
-0.49374399 -2.3903811 38.099609 7
-0.428543 0.389893 37.3125 7
-0.43735501 0.47668499 37.43457 7
0.072296001 4.9194341 -29.405273 7
0.081267998 4.825439 -29.28418 7
0.064583004 4.789917 -29.538086 7
0.050285 4.7480469 -29.756836 7
0.028076001 4.72229 -30.092773 7
0.0090100002 4.688477 -30.379883 7
0.141747 1.54248 -28.630859 7
0.136871 1.474609 -28.705078 7
0.118149 1.415894 -28.982422 7
0.142143 1.328003 -28.629883 7
0.104698 1.206787 -29.18457 7
0.089607 -0.36584499 -27.073242 7
0.113884 -0.42834499 -26.740234 7
0.121468 -0.49340799 -26.633789 7
0.094352998 -0.56738299 -27.000977 7
0.1092 -0.63037097 -26.793945 7
0.036956999 5.108521 -27.491211 7
0.080338001 4.9376221 -26.916992 7
0.067443997 4.900146 -27.100586 7
0.05201 4.86731 -27.321289 7
0.039535999 4.8270259 -27.499023 7
0.016837999 4.8084722 -27.814453 7
-0.002014 4.7801509 -28.080078 7
0.13063 1.638062 -26.535156 7
0.107857 1.588989 -26.84668 7
0.138947 1.499023 -26.424805 7
0.123863 1.4432369 -26.632812 7
0.098945998 1.393311 -26.974609 7
0.122696 1.307007 -26.638672 7
0.096863002 -0.66296399 -25.231445 7
0.0076219998 5.0938721 -25.884766 7
0.041297998 4.9510498 -25.472656 7
0.034813002 4.9016109 -25.564453 7
0.024231 4.8612061 -25.708008 7
0.0095210001 4.8292241 -25.904297 7
-0.0097430004 4.806396 -26.15625 7
-0.018509001 4.7593989 -26.277344 7
0.111168 1.665405 -24.900391 7
0.115974 1.536621 -24.842773 7
0.102127 1.484131 -25.021484 7
0.087181002 1.426514 -25.356445 7
0.103119 1.352783 -25.15625 7
0.117218 1.281128 -24.977539 7
0.068878002 -0.74218798 -23.65332 7
0.084091 -0.79577601 -23.47168 7
0.070229001 -0.86022902 -23.631836 7
-0.103836 -3.9912109 -25.361328 7
-0.099480003 -4.0466309 -25.299805 7
-0.100067 -4.1107178 -25.295898 7
0.0088419998 5.086792 -23.841797 7
0.038741998 4.95752 -23.503906 7
0.029327 4.9195561 -23.625 7
0.021865999 4.876709 -23.72168 7
0.0095060002 4.8443599 -23.87793 7
-0.01075 4.8286128 -24.123047 7
0.111343 1.778687 -22.99707 7
0.109566 1.605835 -23.026367 7
-0.109222 -3.853394 -23.62793 7
-0.13150001 -3.950439 -23.861328 7
-0.13159899 -4.0102539 -23.851562 7
-0.121635 -4.0524902 -23.732422 7
-0.116982 -4.1035161 -23.670898 7
-0.112328 -4.1541748 -23.608398 7
0.002289 5.1005859 -22.163086 7
0.025359999 4.9909668 -21.923828 7
0.018959001 4.9499512 -22.003906 7
0.0099489996 4.9144292 -22.112305 7
0.0035629999 4.8726811 -22.192383 7
-0.011253 4.8491211 -22.365234 7
-0.026581001 4.8259282 -22.541992 7
0.077362001 1.908447 -21.733398 7
0.091491997 1.840942 -21.581055 7
0.076637 1.79895 -21.748047 7
0.080238 1.740845 -21.711914 7
0.089653 1.678223 -21.611328 7
0.082686998 1.6287839 -21.69043 7
0.067299001 1.585327 -21.864258 7
0.047394 -0.968018 -20.68457 7
0.055785999 -1.016235 -20.594727 7
0.038810998 -1.07666 -20.766602 7
0.031982001 -1.13269 -20.833984 7
0.041512001 -1.180176 -20.731445 7
0.042564001 -1.231689 -20.717773 7
-0.124596 -3.9616699 -22.108398 7
-0.14218099 -4.047852 -22.276367 7
-0.14227299 -4.1037598 -22.266602 7
-0.130501 -4.1385498 -22.136719 7
-1.108894 -26.700684 19.670898 7
-1.09951 -26.580566 19.680664 7
-1.093086 -26.484497 19.708008 7
-1.0819089 -26.350098 19.706055 7
-1.07254 -26.230225 19.716797 7
-1.063171 -26.110229 19.726562 7
-1.05674 -26.014526 19.750977 7
0.013748 5.0571289 -20.446289 7
0.011986 5.0089111 -20.474609 7
0.0074229999 4.9671631 -20.532227 7
5.3e-05 4.9316411 -20.617188 7
-0.011253 4.9042969 -20.743164 7
-0.027634 4.8876948 -20.919922 7
-0.032776002 4.8455811 -20.983398 7
0.081772 1.8868411 -20.185547 7
0.07209 1.843994 -20.287109 7
0.066367999 1.797241 -20.350586 7
0.079254001 1.734863 -20.220703 7
0.072959997 1.6882319 -20.289062 7
0.060470998 1.64624 -20.420898 7
0.013168 -0.97399902 -19.683594 7
0.028099 -1.016602 -19.536133 7
0.031052001 -1.064697 -19.504883 7
0.0063860002 -1.126953 -19.740234 7
0.0099330004 -1.175171 -19.702148 7
0.01046 -1.224609 -19.693359 7
0.014 -1.272583 -19.65625 7
-0.170441 -4.169189 -21.061523 7
-0.162109 -4.2071528 -20.97168 7
-0.159798 -4.2558589 -20.938477 7
-0.153877 -4.2976069 -20.871094 7
-0.163582 -4.3684082 -20.952148 7
-0.17748301 -4.4472661 -21.073242 7
0.055725001 1.890625 -19.117188 7
0.057449002 1.84021 -19.105469 7
0.04837 1.799072 -19.195312 7
0.056090999 1.743652 -19.125 7
0.058394998 1.692749 -19.105469 7
0.058318999 1.643921 -19.110352 7
0.0052260002 -1.011108 -18.458008 7
0.017937001 -1.05188 -18.338867 7
0.021706 -1.09668 -18.301758 7
-6.0999999e-05 -1.154907 -18.496094 7
0.0037 -1.199829 -18.458008 7
0.0030060001 -1.24707 -18.459961 7
-0.17280599 -4.1656489 -19.65332 7
-0.178642 -4.2258301 -19.695312 7
-0.169128 -4.2583008 -19.599609 7
-0.163445 -4.2974849 -19.539062 7
-0.16033199 -4.341187 -19.499023 7
-0.17128 -4.4110112 -19.585938 7
0.044334002 1.601685 -17.972656 7
0.057014 1.546265 -17.860352 7
0.062674999 1.496338 -17.8125 7
0.073440999 1.443359 -17.716797 7
0.056770001 1.408569 -17.871094 7
0.061165001 1.359985 -17.833008 7
0.062355001 1.313477 -17.825195 7
-0.0084760003 -1.005005 -17.461914 7
-0.011223 -1.050903 -17.483398 7
-0.00046499999 -1.090332 -17.388672 7
0.0041959998 -1.132324 -17.344727 7
-0.0032879999 -1.1806639 -17.40625 7
-0.026314 -1.238037 -17.600586 7
-0.012192 -1.274658 -17.475586 7
-0.19091 -4.3409419 -18.547852 7
-0.190308 -4.3869629 -18.532227 7
-0.19445001 -4.4416499 -18.555664 7
-0.036850002 5.0587158 -17.015625 7
-0.022102 4.9815669 -16.90332 7
-0.024840999 4.9439702 -16.936523 7
-0.034317002 4.9211431 -17.027344 7
-0.039085001 4.8876948 -17.079102 7
-0.047897 4.862793 -17.163086 7
0.047104001 1.4646 -16.859375 7
0.055808999 1.415283 -16.787109 7
0.055054002 1.372437 -16.795898 7
0.042160001 1.337036 -16.910156 7
0.046806 1.2906491 -16.87207 7
-0.0083079999 -1.199585 -16.365234 7
-0.0097890003 -1.242432 -16.374023 7
0.00079299998 -1.361816 -16.277344 7
-0.190918 -4.1812739 -17.388672 7
-0.205345 -4.2514648 -17.491211 7
-0.19895899 -4.2844238 -17.430664 7
-0.19696 -4.3696289 -17.393555 7
-0.195602 -4.4112549 -17.371094 7
0.04335 1.259766 -15.84668 7
0.036835 1.2225339 -15.901367 7
0.038910002 1.179932 -15.886719 7
0.047417 1.1343991 -15.819336 7
0.055229001 1.089233 -15.757812 7
0.063042 1.044434 -15.697266 7
0.049346998 1.010254 -15.80957 7
0.054221999 0.92614698 -15.773438 7
0.064177997 0.88110399 -15.694336 7
0.072701 0.836914 -15.626953 7
0.074059002 0.79602098 -15.617188 7
0.067551002 0.75769001 -15.671875 7
0.063881002 0.71826202 -15.702148 7
0.058098 0.67932099 -15.750977 7
-0.20391101 -4.1824951 -16.400391 7
-0.207039 -4.2298579 -16.412109 7
-0.220001 -4.295166 -16.499023 7
-0.214752 -4.3280029 -16.449219 7
-0.210281 -4.3616939 -16.404297 7
-0.209602 -4.4024658 -16.386719 7
-0.210434 -4.4459229 -16.382812 7
0.058517002 0.60327101 -14.795898 7
0.055411998 0.56542999 -14.820312 7
0.055344 0.52685499 -14.821289 7
0.063606001 0.486206 -14.758789 7
0.066565998 0.447144 -14.736328 7
0.068764001 0.40820301 -14.720703 7
0.072486997 0.36914101 -14.692383 7
0.069389001 0.33129901 -14.716797 7
0.0022430001 -1.102173 -14.37793 7
0.001411 -1.140015 -14.381836 7
0.00056499999 -1.177734 -14.384766 7
-0.21048 -4.1607671 -15.413086 7
-0.21376801 -4.2061772 -15.425781 7
-0.221939 -4.3000488 -15.461914 7
-0.218872 -4.374023 -15.418945 7
-0.21331801 -4.403564 -15.369141 7
-0.21178401 -4.4403081 -15.347656 7
0.047164999 0.31652799 -13.981445 7
0.04631 0.280029 -13.988281 7
0.05587 0.24231 -13.919922 7
0.060593002 0.205322 -13.885742 7
0.066932999 0.16821299 -13.838867 7
0.061981 0.095825002 -13.874023 7
0.060302999 0.059691999 -13.885742 7
0.057831001 0.023193 -13.90332 7
0.044128001 -0.016235 -13.34082 7
0.040725999 -0.051024999 -13.364258 7
0.051612999 -0.120361 -13.289062 7
0.049842998 -0.19018599 -13.298828 7
0.045547001 -0.26013201 -13.327148 7
0.041320998 -0.29553199 -13.355469 7
-0.019791 -1.343262 -13.708008 7
-0.016502 -1.4124759 -13.678711 7
-0.027504001 -1.455322 -13.75 7
-0.22133601 -4.2332759 -14.568359 7
-0.230766 -4.325439 -14.609375 7
-0.229141 -4.360229 -14.587891 7
-0.22332001 -4.3873291 -14.539062 7
-0.220917 -4.4580078 -14.500977 7
-0.034752 4.8691411 -13.027344 7
-0.033103999 4.8311772 -13.02832 7
-0.044066999 4.8205571 -13.110352 7
-0.041618001 4.7458501 -13.116211 7
0.030479001 -0.34472701 -12.563477 7
0.025078001 -0.37890601 -12.59668 7
0.018790999 -0.41332999 -12.636719 7
0.017852999 -0.44702101 -12.641602 7
0.017775999 -0.480591 -12.640625 7
0.025696 -0.51220697 -12.586914 7
0.028305 -0.54467797 -12.568359 7
0.029114 -0.57788098 -12.561523 7
0.022826999 -0.61279303 -12.599609 7
-0.221405 -4.16394 -13.729492 7
-0.222351 -4.201416 -13.725586 7
-0.222427 -4.237061 -13.714844 7
-0.23403201 -4.2932129 -13.777344 7
-0.236763 -4.3339839 -13.78418 7
-0.242157 -4.3795171 -13.806641 7
-0.23867799 -4.4090581 -13.773438 7
-0.231644 -4.4318848 -13.71875 7
-0.23082 -4.4659419 -13.703125 7
-0.22821 -4.4969478 -13.675781 7
-0.23273499 -4.540771 -13.692383 7
-0.241669 -4.5933838 -13.737305 7
0.00069399999 -0.658081 -12.185547 7
0.0034330001 -0.689331 -12.166992 7
0.0089720003 -0.71960402 -12.130859 7
0.016380001 -0.74890101 -12.083008 7
0.012604 -0.78210402 -12.103516 7
0.0097960001 -0.81518602 -12.120117 7
0.0050960002 -0.84899902 -12.146484 7
-0.00052599999 -0.88342297 -12.178711 7
-0.001488 -0.91589397 -12.182617 7
0.0086899996 -0.94348103 -12.116211 7
-0.005173 -0.87158197 -11.532227 7
0.0063780001 -0.98877001 -11.454102 7
-0.0053710002 -1.024658 -11.520508 7
-0.017151 -1.060913 -11.585938 7
-0.011337 -1.088623 -11.548828 7
-0.0074689998 -1.11731 -11.523438 7
-0.0065230001 -1.147339 -11.514648 7
-0.011452 -1.18042 -11.540039 7
-0.012451 -1.211548 -11.543945 7
-0.012512 -1.242188 -11.540039 7
-0.019386001 -1.276733 -11.577148 7
-0.235603 -4.532959 -12.142578 7
-0.018036 -0.98413098 -11.013672 7
-0.016075 -1.0419919 -10.99707 7
-0.0089490004 -1.067749 -10.955078 7
-0.0059739999 -1.124512 -10.932617 7
-0.01622 -1.159302 -10.987305 7
-0.029541001 -1.195801 -11.058594 7
-0.018348999 -1.218872 -10.993164 7
-0.020462001 -1.278564 -10.998047 7
-0.24327099 -4.5273442 -11.515625 7
-0.24437 -4.5596919 -11.509766 7
-0.239326 -4.580688 -11.47168 7
-0.24551401 -4.6228032 -11.493164 7
-0.251724 -4.6650391 -11.514648 7
-0.041420002 4.7932129 -10.176758 7
-0.042442001 4.7680659 -10.193359 7
-0.045524999 4.7467041 -10.22168 7
-0.013161 -0.96203601 -10.384766 7
-0.013199 -0.98986799 -10.381836 7
-0.015381 -1.018555 -10.391602 7
-0.016479 -1.047119 -10.394531 7
-0.018684 -1.076172 -10.40332 7
-0.018707 -1.104004 -10.400391 7
-0.011253 -1.128052 -10.358398 7
-0.013428 -1.1569819 -10.366211 7
-0.012398 -1.184204 -10.358398 7
-0.01458 -1.213257 -10.366211 7
-0.017844999 -1.24292 -10.379883 7
-0.020020001 -1.2718509 -10.388672 7
-0.027550001 -1.304199 -10.425781 7
-0.025451999 -1.330933 -10.411133 7
-0.031920999 -1.362915 -10.442383 7
-0.031952001 -1.390869 -10.438477 7
-0.034134001 -1.420288 -10.447266 7
-0.036316 -1.449585 -10.455078 7
-0.049231999 -1.486328 -10.519531 7
-0.051406998 -1.515869 -10.527344 7
-0.050368998 -1.543457 -10.518555 7
-0.055785999 -1.575317 -10.542969 7
-0.35594201 -6.100708 -10.758789 7
-0.35495001 -6.1269531 -10.738281 7
-0.35610199 -6.1582031 -10.728516 7
-0.34971601 -6.1711431 -10.682617 7
-0.354103 -6.2102051 -10.688477 7
-0.35202 -6.233521 -10.664062 7
-0.35747501 -6.2755132 -10.674805 7
-0.36290699 -6.3173828 -10.686523 7
-0.366211 -6.354126 -10.686523 7
-0.044617001 4.7762451 -9.5390615 7
-0.042502999 4.745605 -9.5390615 7
-0.046806 4.7286382 -9.5712891 7
-0.044677999 4.697876 -9.5722656 7
-0.046844002 4.676147 -9.59375 7
-0.029228 -1.167969 -9.9296885 7
-0.020470001 -1.296387 -9.8691406 7
-0.028411999 -1.38147 -9.8994141 7
-0.029564001 -1.408813 -9.9023438 7
-0.034134001 -1.46521 -9.9169922 7
-0.023224 -1.292847 -9.3896484 7
-0.01976 -1.316406 -9.3691406 7
-0.041992001 -1.355103 -9.4736328 7
-0.046691999 -1.383911 -9.4931641 7
-0.042061001 -1.406738 -9.4667969 7
-0.036247 -1.428467 -9.4355469 7
-0.040955 -1.457275 -9.4541016 7
-0.040993001 -1.48291 -9.4511719 7
-0.043358002 -1.510132 -9.4589844 7
-0.053916998 -1.5430911 -9.5068359 7
-0.056281999 -1.570557 -9.5136719 7
-0.053986002 -1.594604 -9.4990234 7
-0.027023001 -1.289307 -8.9472656 7
-0.030746 -1.340454 -8.9589844 7
-0.015784999 -1.294556 -8.4248047 7
-0.018355999 -1.319458 -8.4326172 7
-0.022209 -1.3449709 -8.4462891 7
-0.034965999 -1.376099 -8.4990234 7
-0.042617999 -1.404297 -8.53125 7
-0.032501001 -1.421265 -8.4804688 7
-0.027442999 -1.4412839 -8.4550781 7
-0.032561999 -1.467896 -8.4736328 7
-0.032593001 -1.491455 -8.4707031 7
-0.032639001 -1.514526 -8.4667969 7
-0.041556999 -1.544189 -8.5039062 7
-0.051773001 -1.574707 -8.5439453 7
-0.051810998 -1.598145 -8.5410156 7
-0.25440201 -4.5097661 -8.5761719 7
-0.250633 -4.5263672 -8.5498047 7
-0.25196099 -4.5522461 -8.5439453 7
-0.25073999 -4.5732422 -8.5283203 7
-0.25080901 -4.5968022 -8.5175781 7
-0.25342599 -4.625 -8.515625 7
-0.26113099 -4.6630859 -8.5351562 7
-0.26627299 -4.6962891 -8.5449219 7
-0.267616 -4.72229 -8.5390615 7
-0.27278101 -4.7554932 -8.5478516 7
-0.27284199 -4.7790532 -8.5371094 7
-0.025146 -1.291626 -8.0576172 7
-0.031799 -1.318115 -8.0830078 7
-0.030502001 -1.3396 -8.0742188 7
-0.037147999 -1.366089 -8.0986328 7
-0.0504 -1.3968509 -8.1533203 7
-0.054412998 -1.421875 -8.1660156 7
-0.043846 -1.437622 -8.1181641 7
-0.037269998 -1.455933 -8.0859385 7
-0.041267 -1.481079 -8.0996094 7
-0.046599999 -1.506958 -8.1191406 7
-0.047958001 -1.5305181 -8.1210938 7
-0.057250999 -1.5593261 -8.1572266 7
-0.067855999 -1.589355 -8.1982422 7
-0.27320901 -4.4954829 -8.1796885 7
-0.27326199 -4.5180659 -8.1689453 7
-0.272003 -4.5383301 -8.1523438 7
-0.26807401 -4.5534668 -8.1259766 7
-0.269447 -4.5784912 -8.1210938 7
-0.27084401 -4.6035161 -8.1152344 7
-0.26956901 -4.6235352 -8.0996094 7
-0.27094299 -4.64856 -8.09375 7
-0.27497101 -4.6785889 -8.0986328 7
-0.27903 -4.7086182 -8.1015615 7
-0.28703299 -4.7462158 -8.1210938 7
-0.28444701 -4.7636719 -8.0996094 7
-0.289803 -4.7965088 -8.1083984 7
-0.271126 -4.4978032 -7.6777339 7
-0.26847801 -4.535645 -7.6464839 7
-0.25887299 -4.539185 -7.6005859 7
-0.258926 -4.5601811 -7.5888672 7
-0.26312301 -4.5892329 -7.59375 7
-0.26316801 -4.6105962 -7.5830078 7
-0.261848 -4.6290278 -7.5673828 7
-0.27570301 -4.6767578 -7.6064448 7
-0.279953 -4.7271729 -7.5986328 7
-0.282776 -4.7537842 -7.5976558 7
-0.28282899 -4.7750239 -7.585938 7
-0.280128 -4.790771 -7.5654302 7
-0.37097201 -6.2824712 -7.0361328 7
-0.38222501 -6.369751 -7.0273442 7
-0.066138998 4.789917 -6.5273442 7
-0.053787 4.744873 -6.4951172 7
-0.045547001 4.708374 -6.4775391 7
-0.041435 4.6809082 -6.4736328 7
-0.048317 4.6766362 -6.5087891 7
-0.052444 4.6661382 -6.5351558 7
-0.053824998 4.650146 -6.5507808 7
-0.046967 4.6166992 -6.5371089 7
-0.049713001 4.6035161 -6.5576172 7
-0.04834 4.581665 -6.5644531 7
-0.051102001 4.5682368 -6.5839839 7
-0.059349 4.5657959 -6.625 7
-0.063454002 4.5550542 -6.6513672 7
-0.066215999 4.5412598 -6.671875 7
-0.059356999 4.5083008 -6.657227 7
-0.27170601 -4.490356 -7.2480469 7
-0.27606201 -4.5187988 -7.2519531 7
-0.27612299 -4.539185 -7.2412109 7
-0.269005 -4.5462651 -7.2060552 7
-0.26906601 -4.5666499 -7.1943359 7
-0.26911899 -4.5870361 -7.1835942 7
-0.27204099 -4.6126709 -7.1826172 7
-0.269234 -4.627563 -7.1621089 7
-0.27787799 -4.664062 -7.1806641 7
-0.27935001 -4.6870122 -7.1748052 7
-0.280846 -4.710083 -7.1679692 7
-0.286621 -4.741333 -7.1777339 7
-0.292404 -4.772583 -7.1855469 7
-0.29248801 -4.7928472 -7.172852 7
-0.37322199 -6.085815 -6.6914058 7
-0.37472501 -6.108521 -6.6816411 7
-0.37621301 -6.131104 -6.671875 7
-0.376266 -6.150146 -6.6582031 7
-0.37921101 -6.176147 -6.6513672 7
-0.38501701 -6.2089839 -6.655273 7
-0.39082301 -6.2418208 -6.6582031 7
-0.38371301 -6.2435298 -6.6210942 7
-0.380898 -6.2554932 -6.5976558 7
-0.37951699 -6.270874 -6.578125 7
-0.376717 -6.2825928 -6.5537109 7
-0.37246701 -6.290894 -6.5263672 7
-0.375404 -6.316772 -6.5195308 7
-0.37833399 -6.3424072 -6.5136719 7
-0.381271 -6.3682861 -6.507812 7
-0.382759 -6.3905029 -6.4970698 7
-0.33451799 -5.1062012 9.7695312 7
-0.33305401 -5.083374 9.7773438 7
-0.32868201 -5.054565 9.7744141 7
-0.32868201 -5.0349121 9.7861328 7
-0.328697 -5.0148931 9.7988281 7
-0.32431799 -4.9863281 9.7958984 7
-0.32431 -4.9663091 9.8076172 7
-0.327225 -4.952271 9.8291016 7
-0.330147 -4.9379878 9.8505859 7
-0.32724801 -4.912354 9.8535156 7
-0.32141101 -4.881104 9.8447266 7
-0.31993899 -4.8581538 9.8515615 7
-0.315559 -4.8295898 9.8476562 7
-0.31411001 -4.8068848 9.8544922 7
-0.062247999 4.7789311 -6.0966802 7
-0.049408 4.7337651 -6.0654302 7
-0.042296998 4.7009282 -6.0527339 7
-0.042282 4.683105 -6.063477 7
-0.045143001 4.6711431 -6.0839839 7
-0.043731999 4.650146 -6.0898442 7
-0.045150999 4.635376 -6.1054692 7
-0.048018999 4.6234131 -6.125977 7
-0.045173999 4.5993652 -6.1269531 7
-0.048041999 4.5874019 -6.1474609 7
-0.050887998 4.5749512 -6.1679692 7
-0.059448 4.5743408 -6.2080078 7
-0.063727997 4.5648189 -6.233398 7
-0.062302001 4.5437012 -6.2392578 7
-0.060883 4.522583 -6.2451172 7
-0.055183001 4.4929199 -6.2363281 7
-0.282967 -4.4897461 -6.8613281 7
-0.27704599 -4.4984131 -6.8320308 7
-0.27562001 -4.5150151 -6.8164058 7
-0.27419299 -4.5317378 -6.8007808 7
-0.27572599 -4.5539551 -6.7949219 7
-0.275787 -4.5732422 -6.7841802 7
-0.27138501 -4.584229 -6.757812 7
-0.278862 -4.6175542 -6.7714839 7
-0.2789 -4.6368408 -6.7607422 7
-0.273018 -4.644897 -6.7294922 7
-0.27604699 -4.6695561 -6.7285161 7
-0.27907601 -4.6945801 -6.7275391 7
-0.29101601 -4.7364502 -6.7548828 7
-0.28958899 -4.7528081 -6.7382808 7
-0.29113799 -4.7749019 -6.7324219 7
-0.38312501 -6.2991939 -6.0556641 7
-0.389153 -6.331543 -6.0576172 7
-0.38623801 -6.3417969 -6.0332031 7
-0.38330799 -6.3520508 -6.0107422 7
-0.38339201 -6.3695068 -5.9951172 7
-0.33836401 -5.1053472 9.3388672 7
-0.333832 -5.077148 9.3369141 7
-0.33081099 -5.0526118 9.3388672 7
-0.33686101 -5.045898 9.3701172 7
-0.32627901 -5.0056152 9.3486328 7
-0.32929999 -4.9929199 9.3691406 7
-0.33232901 -4.980103 9.3916016 7
-0.32932299 -4.9552002 9.3935547 7
-0.32627901 -4.9302979 9.3955078 7
-0.33233601 -4.9230962 9.4267578 7
-0.32780501 -4.8953862 9.4238281 7
-0.339912 -4.8997798 9.4736328 7
-0.33537301 -4.8719478 9.4716797 7
-0.32933 -4.841187 9.4628906 7
-0.33084899 -4.8249512 9.4794922 7
-0.330841 -4.8057861 9.4912109 7
-0.122505 -1.912964 9.8291016 7
-0.119476 -1.890381 9.8232422 7
-0.120964 -1.8718261 9.8330078 7
-0.13304099 -1.861694 9.8808594 7
-0.133026 -1.841675 9.8857422 7
-0.105759 -1.800171 9.7900391 7
-0.10424 -1.779053 9.7890615 7
-0.098174997 -1.754517 9.7714844 7
-0.107231 -1.741577 9.8085938 7
-0.105698 -1.7205811 9.8066406 7
-0.107201 -1.701782 9.8164062 7
-0.111717 -1.685303 9.8369141 7
-0.116241 -1.668457 9.8583984 7
-0.098067999 -1.635498 9.796875 7
-0.093512997 -1.612305 9.7832031 7
-0.069099002 4.7745361 -5.7099609 7
-0.051323 4.7202148 -5.6650391 7
-0.048377998 4.6968989 -5.6660161 7
-0.046898 4.677002 -5.672852 7
-0.055801 4.6784668 -5.7119141 7
-0.055794001 4.661499 -5.7226558 7
-0.049872998 4.6322021 -5.7158198 7
-0.052841 4.6213379 -5.735352 7
-0.052841 4.604126 -5.7460942 7
-0.049881 4.5809331 -5.7480469 7
-0.052855998 4.5699458 -5.7675781 7
-0.060180999 4.568481 -5.8027339 7
-0.072036996 4.5751948 -5.851562 7
-0.066101 4.5457759 -5.84375 7
-0.069068998 4.5344238 -5.8632808 7
-0.070548996 4.52002 -5.8798828 7
-0.069084004 4.4996338 -5.8847661 7
-0.276474 -4.5030522 -6.438477 7
-0.27961701 -4.5272222 -6.4375 7
-0.276573 -4.5400391 -6.4169922 7
-0.27355999 -4.552856 -6.3955078 7
-0.272064 -4.5683589 -6.3798828 7
-0.27672601 -4.595459 -6.3847661 7
-0.27370501 -4.6080322 -6.3632808 7
-0.27684 -4.6322021 -6.3623052 7
-0.27226299 -4.6417241 -6.3369141 7
-0.27539101 -4.665894 -6.335938 7
-0.275444 -4.684082 -6.3242192 7
-0.280128 -4.7111821 -6.3261719 7
-0.28787199 -4.7443848 -6.3388672 7
-0.29100001 -4.7685552 -6.3378911 7
-0.29567701 -4.7956538 -6.3408198 7
-0.37933299 -6.081665 -5.7617192 7
-0.373276 -6.1008301 -5.7158198 7
-0.373344 -6.1175542 -5.7011719 7
-0.379684 -6.1491699 -5.704102 7
-0.376656 -6.1586909 -5.6806641 7
-0.38287401 -6.190186 -5.6826172 7
-0.38446 -6.2106929 -5.672852 7
-0.389175 -6.2385249 -5.6699219 7
-0.38768801 -6.251709 -5.6513672 7
-0.39237201 -6.279541 -5.648438 7
-0.39397401 -6.3000488 -5.6376948 7
-0.38941199 -6.3054199 -5.610352 7
-0.389458 -6.3218989 -5.5957031 7
-0.38797 -6.3344731 -5.5761719 7
-0.38803899 -6.3510742 -5.5605469 7
-0.39273101 -6.3789058 -5.5585942 7
-0.38815299 -6.3839111 -5.530273 7
-0.383591 -6.3887939 -5.5029302 7
-0.34255201 -5.0961909 8.9667969 7
-0.342545 -5.0782471 8.9785156 7
-0.33629599 -5.047729 8.9716797 7
-0.32846799 -5.0141602 8.9599609 7
-0.32692 -4.9931641 8.9677734 7
-0.328491 -4.978394 8.9833984 7
-0.32692701 -4.9571528 8.9912109 7
-0.32849899 -4.9423828 9.0068359 7
-0.331635 -4.930542 9.0283203 7
-0.33476999 -4.9185791 9.0507812 7
-0.33636501 -4.9034419 9.0673828 7
-0.341057 -4.8942871 9.09375 7
-0.33480099 -4.8640141 9.0859385 7
-0.330109 -4.8369141 9.0820312 7
-0.32698101 -4.8126221 9.0849609 7
-0.111687 -1.913452 9.4785156 7
-0.114807 -1.8968509 9.4941406 7
-0.1101 -1.873901 9.4814453 7
-0.12101 -1.86377 9.5244141 7
-0.121017 -1.8444819 9.5292969 7
-0.11161 -1.817871 9.5 7
-0.102203 -1.79126 9.4716797 7
-0.092789002 -1.764771 9.4433594 7
-0.105293 -1.755249 9.4921885 7
-0.106834 -1.7375489 9.5009766 7
-0.102127 -1.714722 9.4892578 7
-0.105232 -1.697876 9.5039062 7
-0.106789 -1.679932 9.5136719 7
-0.108337 -1.6619869 9.5234385 7
-0.102058 -1.638184 9.5048828 7
-0.100479 -1.61792 9.5029297 7
-0.076782003 4.619751 -5.4736328 7
-0.076782003 4.6030269 -5.485352 7
-0.076782003 4.5866699 -5.4960942 7
-0.078308001 4.5733638 -5.5117192 7
-0.076774999 4.5535889 -5.5175781 7
-0.066055 4.5155029 -5.4960942 7
-0.061462 4.4898682 -5.4912109 7
-0.27795401 -4.5036621 -6.0273442 7
-0.28121901 -4.5272222 -6.0263672 7
-0.27646601 -4.5358891 -6.000977 7
-0.282913 -4.565186 -6.0097661 7
-0.279755 -4.5767822 -5.9892578 7
-0.273399 -4.5822749 -5.9599609 7
-0.273476 -4.5996089 -5.9482422 7
-0.270309 -4.6108398 -5.9277339 7
-0.27035499 -4.6282959 -5.9169922 7
-0.275208 -4.6546631 -5.920898 7
-0.276878 -4.6750488 -5.9130859 7
-0.27372 -4.6861572 -5.8925781 7
-0.27535999 -4.7064209 -5.8867192 7
-0.28183001 -4.7359619 -5.8935552 7
-0.291473 -4.771729 -5.9101558 7
-0.29631001 -4.7980962 -5.9130859 7
-0.346062 -5.1096191 8.5390615 7
-0.35254699 -5.105835 8.5693359 7
-0.34282699 -5.0693359 8.5546885 7
-0.33634201 -5.0393071 8.5488281 7
-0.33309901 -5.0161128 8.5507812 7
-0.339607 -5.0119629 8.5820312 7
-0.33799699 -4.9918208 8.5898438 7
-0.33474001 -4.9682622 8.5917969 7
-0.334755 -4.9512939 8.6035156 7
-0.33801299 -4.9406738 8.625 7
-0.32989499 -4.9075928 8.6132812 7
-0.33152801 -4.8937988 8.6298828 7
-0.339661 -4.892334 8.6650391 7
-0.338043 -4.8718262 8.671875 7
-0.33317599 -4.8453369 8.6689453 7
-0.32992601 -4.822021 8.6708984 7
-0.32993299 -4.804688 8.6826172 7
-0.105156 -1.906616 9.125 7
-0.108383 -1.891113 9.1396484 7
-0.1035 -1.8687741 9.1279297 7
-0.106728 -1.853027 9.1435547 7
-0.108337 -1.8363039 9.1533203 7
-0.118065 -1.825562 9.1904297 7
-0.111557 -1.802002 9.1728516 7
-0.101784 -1.775879 9.1435547 7
-0.088790998 -1.747681 9.1054688 7
-0.093650997 -1.7331541 9.125 7
-0.091995001 -1.713745 9.1230469 7
-0.08873 -1.693115 9.1171885 7
-0.088737004 -1.674927 9.1220703 7
-0.098449998 -1.663818 9.1572266 7
-0.098426998 -1.645386 9.1611328 7
-0.090294003 -1.6212161 9.1386719 7
-0.088661 -1.601685 9.1376953 7
-0.080719002 0.96215802 9.2324219 7
-0.079071 0.97997999 9.2246094 7
-0.067688003 0.99340802 9.1826172 7
-0.066032 1.01123 9.1748047 7
-0.065994002 1.0294189 9.171875 7
-0.064338997 1.047119 9.1640615 7
-0.072411001 1.069214 9.1894531 7
-0.080475003 1.091675 9.2158203 7
-0.077209003 1.108398 9.2021484 7
-0.073913999 1.125366 9.1875 7
-0.073898003 1.143677 9.1855469 7
-0.077095002 1.1636961 9.1933594 7
-0.077072002 1.182129 9.1914062 7
-0.080269001 1.2023931 9.1982422 7
-0.081855997 1.22168 9.2011719 7
-0.086669996 1.242798 9.2148438 7
-0.080154002 1.2574461 9.1894531 7
-0.080123998 1.275879 9.1865234 7
-0.126274 4.2069092 8.3056641 7
-0.114914 4.2023931 8.2617188 7
-0.103561 4.197876 8.21875 7
-0.101906 4.210815 8.2041016 7
-0.098601997 4.2209468 8.1845703 7
-0.098572001 4.236938 8.1748047 7
-0.100136 4.256104 8.1699219 7
-0.100075 4.2720952 8.1591797 7
-0.101639 4.290894 8.1542969 7
-0.098351002 4.3007808 8.1337891 7
-0.099922001 4.3198242 8.1289062 7
-0.096648999 4.3293462 8.109375 7
-0.098197997 4.3483891 8.1035156 7
-0.103012 4.3734131 8.1083984 7
-0.117477 4.4171138 8.1396484 7
-0.127106 4.4516602 8.1572266 7
-0.12867001 4.4707031 8.1513672 7
-0.28136399 -4.5032959 -5.6474609 7
-0.278099 -4.5137939 -5.6269531 7
-0.2798 -4.5334468 -5.6210942 7
-0.27986899 -4.5499272 -5.609375 7
-0.28158599 -4.5695801 -5.6025391 7
-0.27996099 -4.5831299 -5.5869141 7
-0.27835801 -4.596436 -5.5722661 7
-0.27177399 -4.6004639 -5.5419922 7
-0.276802 -4.6262212 -5.545898 7
-0.27851099 -4.645752 -5.539062 7
-0.27854899 -4.662231 -5.5283198 7
-0.27860299 -4.6784668 -5.516602 7
-0.27699301 -4.691772 -5.500977 7
-0.283676 -4.7207031 -5.5087891 7
-0.28704101 -4.7432861 -5.5058589 7
-0.28874999 -4.762939 -5.5 7
-0.29211399 -4.785645 -5.4980469 7
-0.34851801 -5.1140141 8.1308594 7
-0.34179699 -5.0844731 8.1259766 7
-0.33004001 -5.0449219 8.1064453 7
-0.33676901 -5.0423579 8.1367188 7
-0.32837701 -5.009644 8.1269531 7
-0.325012 -4.986938 8.1289062 7
-0.32502699 -4.9711909 8.140625 7
-0.32671401 -4.9584961 8.1582031 7
-0.32841501 -4.9458008 8.1738281 7
-0.32672101 -4.9265141 8.1806641 7
-0.325066 -4.9069819 8.1884766 7
-0.330116 -4.9007568 8.2138672 7
-0.34022501 -4.9041748 8.2519531 7
-0.33686799 -4.8815918 8.2558594 7
-0.326767 -4.8457031 8.2392578 7
-0.318367 -4.8135991 8.2275391 7
-0.32846099 -4.8166499 8.2666016 7
-0.100815 -1.918335 8.7939453 7
-0.104156 -1.903687 8.8085938 7
-0.104149 -1.886108 8.8134766 7
-0.100761 -1.865723 8.8066406 7
-0.10244 -1.849609 8.8173828 7
-0.107483 -1.83606 8.8378906 7
-0.110825 -1.821045 8.8544922 7
-0.110802 -1.803467 8.8583984 7
-0.099013999 -1.776733 8.8242188 7
-0.092270002 -1.753906 8.8066406 7
-0.092270002 -1.73645 8.8105469 7
-0.092247002 -1.718872 8.8144531 7
-0.097274996 -1.7049561 8.8349609 7
-0.088844001 -1.6812741 8.8115234 7
-0.088836998 -1.663574 8.8164062 7
-0.093872003 -1.649902 8.8359385 7
-0.092178002 -1.630981 8.8349609 7
-0.088783003 -1.611084 8.8271484 7
-0.079002 0.96057099 8.9238281 7
-0.068893 0.97387701 8.8886719 7
-0.065505996 0.99035603 8.875 7
-0.067146003 1.008667 8.8789062 7
-0.067116 1.026245 8.8759766 7
-0.062035002 1.041626 8.8564453 7
-0.065361001 1.060791 8.8652344 7
-0.073715001 1.08252 8.890625 7
-0.077049002 1.101807 8.8994141 7
-0.075347997 1.118652 8.8916016 7
-0.076987997 1.137329 8.8945312 7
-0.085341997 1.1594239 8.9189453 7
-0.078606002 1.173584 8.8945312 7
-0.076880999 1.190308 8.8857422 7
-0.076843001 1.2080081 8.8828115 7
-0.078483999 1.226685 8.8857422 7
-0.076774999 1.243408 8.8779297 7
-0.083449997 1.2648931 8.8964844 7
-0.124893 4.169312 7.960938 7
-0.136566 4.2059331 7.984375 7
-0.13651299 4.2215581 7.9746089 7
-0.116386 4.2003169 7.907227 7
-0.106293 4.1972661 7.8710942 7
-0.101227 4.2032471 7.8466802 7
-0.101166 4.2185059 7.835938 7
-0.094429001 4.2211909 7.8076172 7
-0.094383001 4.2364502 7.797852 7
-0.102707 4.2670898 7.8125 7
-0.095963001 4.2696528 7.782227 7
-0.095917001 4.28479 7.773438 7
-0.095856003 4.2998052 7.7626948 7
-0.095810004 4.3148189 7.7529302 7
-0.094093002 4.3266602 7.7373052 7
-0.094048001 4.3415532 7.7275391 7
-0.100685 4.3692632 7.7363281 7
-0.120712 4.4224849 7.780273 7
-0.124008 4.4439702 7.7792969 7
-0.120605 4.4527588 7.7587891 7
-0.123901 4.4741211 7.757812 7
-0.117142 4.4760742 7.7285161 7
-0.27509299 -4.4813228 -5.2597661 7
-0.27686301 -4.5002441 -5.2539058 7
-0.278633 -4.519043 -5.2480469 7
-0.28209701 -4.5411382 -5.2470698 7
-0.28044099 -4.5535889 -5.2314448 7
-0.287361 -4.5819092 -5.2392578 7
-0.287415 -4.5976558 -5.2275391 7
-0.270271 -4.5812988 -5.170898 7
-0.275482 -4.6064448 -5.1738281 7
-0.27381101 -4.6187739 -5.157227 7
-0.27558899 -4.6374512 -5.1503911 7
-0.27734399 -4.6561279 -5.1455078 7
-0.27224699 -4.6617432 -5.1191411 7
-0.27401 -4.680542 -5.1123052 7
-0.277504 -4.7023931 -5.1113281 7
-0.28269199 -4.7276611 -5.1142578 7
-0.289619 -4.7563481 -5.1201172 7
-0.29310599 -4.7783198 -5.1181641 7
-0.29486099 -4.7969971 -5.1113281 7
-0.337769 -5.1156011 7.6904302 7
-0.34645799 -5.1184082 7.7236328 7
-0.34299499 -5.096313 7.7275391 7
-0.33952299 -5.0742192 7.7314448 7
-0.339531 -5.0594478 7.7431641 7
-0.33779901 -5.040894 7.750977 7
-0.334335 -5.0189209 7.7539058 7
-0.33434299 -5.0037842 7.765625 7
-0.33609 -4.99231 7.78125 7
-0.33088699 -4.9667969 7.78125 7
-0.32914701 -4.9481201 7.789062 7
-0.32916999 -4.9329829 7.8007808 7
-0.327438 -4.9146729 7.8076172 7
-0.33789101 -4.9196782 7.844727 7
-0.33961499 -4.9078369 7.8613281 7
-0.32223499 -4.8587651 7.829102 7
-0.32746899 -4.8536382 7.8544922 7
-0.32224301 -4.8282471 7.851562 7
-0.322258 -4.8129878 7.8632808 7
-0.33271 -4.8023682 7.9121089 7
-0.097267002 -1.911621 8.4931641 7
-0.102478 -1.89917 8.5136719 7
-0.098976001 -1.879395 8.5078115 7
-0.1007 -1.864014 8.5175781 7
-0.098938003 -1.845825 8.515625 7
-0.111107 -1.838745 8.5585938 7
-0.102394 -1.814941 8.5361328 7
-0.104118 -1.799316 8.5458984 7
-0.098892003 -1.778564 8.5341797 7
-0.084937997 -1.7507319 8.4941406 7
-0.086685002 -1.735229 8.5039062 7
-0.086662002 -1.718628 8.5078115 7
-0.086646996 -1.701782 8.5117188 7
-0.084899999 -1.683594 8.5107422 7
-0.084885001 -1.666626 8.515625 7
-0.081375003 -1.647339 8.5078115 7
-0.086594 -1.6343991 8.5283203 7
-0.079613 -1.6125489 8.5117188 7
-0.086554997 -1.600708 8.5361328 7
-0.071304001 0.97326702 8.6162109 7
-0.062576003 0.98657203 8.5869141 7
-0.059067 1.0018311 8.5732422 7
-0.060768001 1.019653 8.5761719 7
-0.060729999 1.036621 8.5732422 7
-0.055489 1.051147 8.5546885 7
-0.060676999 1.070435 8.5683594 7
-0.062369999 1.088257 8.5712891 7
-0.067574002 1.107788 8.5869141 7
-0.062316999 1.122192 8.5673828 7
-0.065757997 1.140991 8.5751953 7
-0.060532 1.155151 8.5566406 7
-0.065704003 1.174927 8.5703115 7
-0.069130003 1.193604 8.578125 7
-0.058692999 1.2049561 8.5419922 7
-0.069068998 1.227417 8.5722656 7
-0.076003999 1.2481689 8.5917969 7
-0.072486997 1.263306 8.578125 7
-0.27476501 -4.4969478 -4.889648 7
-0.27303299 -4.5085449 -4.874023 7
-0.274872 -4.5266109 -4.867188 7
-0.27314001 -4.538208 -4.8525391 7
-0.27496299 -4.5561519 -4.8466802 7
-0.28744501 -4.5939941 -4.8681641 7
-0.28571299 -4.6055908 -4.8525391 7
-0.280426 -4.610352 -4.828125 7
-0.28047901 -4.6251221 -4.8173828 7
-0.27874801 -4.636353 -4.8007808 7
-0.27880099 -4.651001 -4.789062 7
-0.27883101 -4.6656489 -4.7792969 7
-0.282455 -4.6870122 -4.7763672 7
-0.278938 -4.6948242 -4.7558589 7
-0.28253901 -4.716064 -4.7539058 7
-0.28081501 -4.7271729 -4.7373052 7
-0.28796399 -4.7554932 -4.7451172 7
-0.288017 -4.77002 -4.733398 7
-0.295174 -4.7980962 -4.7392578 7
-0.28810099 -4.7989502 -4.710938 7
-0.345406 -5.1038818 7.3525391 7
-0.34903699 -5.0969238 7.3730469 7
-0.32744601 -5.0395508 7.3339839 7
-0.33464101 -5.0397949 7.3632808 7
-0.33285499 -5.0220952 7.3701172 7
-0.33826399 -5.0187988 7.3955078 7
-0.33287799 -4.993896 7.3945308 7
-0.334694 -4.9832759 7.4101558 7
-0.33829501 -4.9760742 7.4316411 7
-0.32571399 -4.9371338 7.414062 7
-0.334732 -4.9404302 7.4462891 7
-0.33474001 -4.926147 7.4580078 7
-0.33295399 -4.9083252 7.4648442 7
-0.33476299 -4.8973389 7.4804692 7
-0.34376499 -4.9003911 7.514648 7
-0.33476999 -4.8684082 7.5039058 7
-0.327591 -4.84021 7.4980469 7
-0.32580599 -4.8222661 7.5048828 7
-0.32939899 -4.8148189 7.5253911 7
-0.100563 -1.910278 8.2314453 7
-0.104156 -1.8968509 8.2470703 7
-0.105942 -1.882324 8.2568359 7
-0.104141 -1.864502 8.2558594 7
-0.104126 -1.848389 8.2597656 7
-0.107697 -1.835083 8.2753906 7
-0.118477 -1.8273931 8.3115234 7
-0.105888 -1.801147 8.2792969 7
-0.105881 -1.784912 8.2832031 7
-0.096863002 -1.761597 8.2597656 7
-0.093231 -1.742676 8.2529297 7
-0.098618001 -1.730713 8.2734385 7
-0.100418 -1.715698 8.2832031 7
-0.093200997 -1.69397 8.265625 7
-0.089576997 -1.6750489 8.2587891 7
-0.091376998 -1.660156 8.2685547 7
-0.100349 -1.6505131 8.2988281 7
-0.085952997 -1.6237791 8.2607422 7
-0.093139999 -1.6125489 8.2861328 7
-0.072044 0.971802 8.3564453 7
-0.070235997 0.98730499 8.3486328 7
-0.057631999 0.998169 8.3076172 7
-0.059395 1.015259 8.3115234 7
-0.066543996 1.034912 8.3310547 7
-0.066505 1.05127 8.3291016 7
-0.066482998 1.067505 8.3261719 7
-0.061050002 1.0812989 8.3066406 7
-0.070006996 1.102173 8.3320312 7
-0.059195999 1.1131589 8.2958984 7
-0.064552002 1.13208 8.3095703 7
-0.064514004 1.148438 8.3066406 7
-0.064498998 1.164795 8.3046885 7
-0.053672999 1.175415 8.2685547 7
-0.051856998 1.190796 8.2607422 7
-0.060782999 1.211792 8.2851562 7
-0.071533002 1.233765 8.3144531 7
-0.057128999 1.242188 8.2685547 7
-0.060683999 1.260498 8.2763672 7
-0.062461998 1.27771 8.2792969 7
-0.067146003 4.2835178 8.1266289 7
-0.38494 -4.9748478 9.8841705 7
-0.14638799 -1.904952 9.6264019 7
-0.122406 -1.620958 9.5351505 7
-0.35684699 -4.946537 8.9545231 7
-0.105189 -1.684445 8.982708 7
-0.089911997 1.139062 9.033638 7
-0.33698699 -4.9087648 8.1639652 7
-0.087879002 -1.7282521 8.4955883 7
-0.060913999 1.024876 8.5354137 7
-0.070803002 1.228255 8.5504513 7
-0.31217599 -4.9908481 7.1904511 7
-0.31725401 -4.8694959 7.4064012 7
-0.092582002 -1.806839 8.1787777 7
-0.046018999 1.114921 8.1364555 7
-0.34097299 -4.9077172 6.3373518 7
-0.35182601 -4.8485761 6.561727 7
-0.121494 -1.82587 7.7893562 7
-0.103162 -1.629005 7.77354 7
-0.067723997 1.021239 7.7937078 7
-0.069504 1.1802779 7.7591562 7
-0.29636201 -4.8238311 5.1643581 7
-0.30981001 -4.8279762 5.380229 7
-0.102447 -1.833654 7.4395528 7
-0.087866001 -1.657935 7.4468699 7
-0.054322999 1.0958281 7.494709 7
-0.047917001 1.2289259 7.419445 7
-0.089557998 -1.845505 7.1460428 7
-0.070478 -1.671127 7.1405149 7
-0.038387999 1.018554 7.2527571 7
-0.035457 1.147505 7.1970868 7
-0.072896004 -1.839721 6.8632321 7
-0.071107998 -1.715091 6.928309 7
-0.082795002 -1.831412 6.3979902 7
-0.068426996 -1.81566 6.1882629 7
-0.066166997 -1.718171 6.2537289 7
-0.064156003 -1.733577 6.092195 7
-0.044192001 -1.6018521 6.105597 7
0.124987 -1.092248 -13.212344 7
0.115372 -1.078335 -10.596009 7
-0.026541 -1.563958 -8.6588259 7
0.0064829998 -1.485896 -6.9881911 7
0.0080549996 -1.436859 -5.9478378 7
0.034694001 -1.387071 -4.879663 7
-0.026175 -1.347245 -4.06425 7
-0.319516 -5.0634952 9.7201681 7
-0.103632 -1.8753231 9.8780861 7
-0.30373299 -5.0101371 9.0763874 7
-0.082944997 -1.805691 9.3459377 7
-0.34443501 -4.9061079 8.444725 7
-0.123268 -1.742485 8.8724842 7
-0.352743 -5.1126699 7.8576579 7
-0.33213001 -4.8651419 7.963932 7
-0.116527 -1.916604 8.4850807 7
-0.084914997 -1.679589 8.3886232 7
-0.021701001 -1.440789 -1.666728 7
-0.30859199 -4.9511542 7.3179221 7
-0.076499999 -1.839643 8.0393696 7
-0.061225001 -1.6315269 8.0197906 7
-0.0070839999 -1.412661 -1.347931 7
-0.31566301 -5.0879641 6.806479 7
-0.28874499 -4.8607841 6.9038882 7
-0.058357999 -1.786036 7.7300839 7
-0.0077089998 -1.392899 -1.126704 7
-0.025851 -1.5831029 -1.167981 7
-0.335657 -4.928741 6.387888 7
-0.095118001 -1.741327 7.4784098 7
-0.34676 -5.0311432 5.948874 7
-0.315705 -4.8276181 6.051621 7
-0.091586001 -1.87351 7.2382131 7
-0.063040003 -1.6893589 7.1768298 7
-0.34856501 -5.0745249 5.507525 7
-0.313483 -4.8749642 5.6141801 7
-0.061682999 -1.815116 6.967587 7
-0.041621 -1.648064 6.9376798 7
-0.04324 -1.6497819 -0.46955499 7
-0.069651 -1.821804 -0.52111399 7
-0.30795801 -4.8830762 5.192255 7
-0.30857599 -4.8024149 5.3558111 7
-0.038938999 -1.766414 6.7420902 7
-0.063213997 -1.8641371 6.3899708 7
-0.041278001 -1.7863801 6.2267189 7
-0.038860001 -1.660731 6.2574759 7
-0.049743999 -1.9145041 6.0969639 7
-0.035457999 -1.755648 6.1091442 7
-0.023651 -1.629227 6.111558 7
-0.087668002 4.596961 -6.2936831 7
-0.095968999 4.622211 -2.818769 7
-0.089502998 4.2694349 8.2396393 7
-0.082165003 4.234149 7.7616692 7
-0.115145 1.207827 9.2336578 7
-0.089938998 1.191595 8.7680378 7
-0.071139 0.96264499 8.4210548 7
-0.069182999 1.177783 8.3724804 7
-0.046921 0.965437 8.0433712 7
-0.043953001 1.16479 7.995111 7
-0.079947002 0.96594101 7.7358732 7
-0.075600997 1.152457 7.6880131 7
-0.059524 0.96811599 7.4516401 7
-0.059966002 1.1434031 7.4268541 7
-0.049401 0.96961302 7.2308612 7
-0.044879001 1.135195 7.1892371 7
0.039361998 -0.19277699 -13.416086 7
0.0076319999 -1.314357 -14.3161 7
0.015197 0.203521 -14.109136 7
-0.089860998 -0.99232298 -11.08667 7
-0.074821003 4.7068949 -10.036448 7
-0.050299998 -1.4272259 -8.8464947 7
-0.039198998 -1.4783551 -7.600812 7
-0.260791 -4.475894 -9.8143005 7
-0.028092001 4.6055188 -6.2081671 7
-0.049236 4.5460072 -6.5834188 7
-0.028793 -1.506936 -6.654531 7
-0.24719401 -4.500886 -8.3174982 7
-0.063557997 -1.2967 -5.88517 7
-0.074744999 -1.529139 -5.9365301 7
-0.28289399 -4.565877 -6.7199702 7
-0.408362 -6.2768459 -6.9720659 7
-0.38177499 -6.3546171 -6.5670781 7
-0.050464999 -1.329177 -5.3103299 7
-0.062808998 -1.542013 -5.3590522 7
-0.26772201 -4.502584 -5.788033 7
-0.254628 -4.6327519 -5.5382719 7
-0.047850002 4.579452 -2.6601591 7
-0.049401 4.4942961 -2.8439169 7
-0.035169002 -1.340292 -4.8082671 7
-0.047938 -1.534282 -4.8496399 7
-0.245809 -4.5447731 -4.783071 7
-0.238123 -4.7088399 -4.5257878 7
-0.023053 -1.3477401 -4.399693 7
-0.034515999 -1.521361 -4.423275 7
-0.236701 -4.6123891 -3.9025409 7
-0.229734 -4.7020788 -3.695215 7
-0.048027001 -1.353629 -4.0615878 7
-0.065048002 -1.527042 -4.1037469 7
-0.26880699 -4.5888338 -2.9304609 7
-0.26918501 -4.6857429 -2.745611 7
-0.039898001 -1.3627239 -3.785821 7
-0.052198999 -1.51151 -3.7953441 7
-0.019455001 -1.474525 -1.887502 7
-0.03427 -1.554214 -1.847367 7
-0.034260999 -1.586195 -1.783257 7
-0.026017999 -1.588915 -1.708428 7
-0.024047 -1.3730299 -1.85447 7
-0.022472 -1.400159 -1.795758 7
-0.026172001 -1.440336 -1.742362 7
-0.029542999 -1.484089 -1.6712331 7
-0.043680001 -1.5516419 -1.622768 7
-0.036773998 -1.552714 -1.5528949 7
-0.035151999 -1.5672179 -1.487285 7
-0.033495001 -1.5788651 -1.42116 7
-0.030137001 -1.582296 -1.353977 7
-0.023378 -1.290473 -1.881876 7
-0.018216001 -1.308987 -1.82152 7
-0.025800001 -1.360126 -1.777108 7
-0.024243001 -1.3840671 -1.719087 7
-0.0081590004 -1.363622 -1.645105 7
-0.017465999 -1.413871 -1.597136 7
-0.013834 -1.428928 -1.520851 7
-0.024888 -1.480306 -1.468527 7
-0.017896 -1.4747421 -1.40328 7
-0.025305999 -1.5107369 -1.344646 7
-0.046976998 -1.588864 -1.287143 7
-0.031068999 -1.547622 -1.218623 7
-0.033078998 -1.559478 -1.1537631 7
-0.040631 -1.586183 -1.020612 7
-0.011691 -1.302242 -1.685427 7
-0.0083170002 -1.317201 -1.628111 7
-0.019881999 -1.372023 -1.583733 7
-0.010911 -1.366506 -1.519866 7
-0.012802 -1.3937269 -1.449876 7
-0.0038749999 -1.382146 -1.387383 7
-0.0079300003 -1.406401 -1.331237 7
-0.02856 -1.478192 -1.277613 7
-0.019676 -1.459161 -1.214666 7
-0.016325001 -1.454123 -1.153528 7
-0.025842 -1.48552 -1.09126 7
-0.022534 -1.475464 -1.02967 7
-0.026509 -1.484864 -0.96602499 7
-0.0079150004 -1.293239 -1.558813 7
-0.0026100001 -1.2975169 -1.501147 7
-0.010705 -1.336965 -1.452238 7
-0.010879 -1.3554699 -1.382594 7
-0.027651001 -1.36893 -1.325929 7
-0.028132999 -1.37968 -1.268828 7
-0.026665 -1.38258 -1.210921 7
-0.027140001 -1.388541 -1.15298 7
-0.031534001 -1.403182 -1.094172 7
-0.030112 -1.39891 -1.035552 7
-0.036403 -1.413968 -0.974419 7
-0.021842999 -1.3092819 -1.318185 7
-0.018384 -1.308794 -1.2626849 7
-0.012929 -1.300498 -1.20731 7
-0.019562 -1.322893 -1.152779 7
-0.020153999 -1.326515 -1.097199 7
-0.018774001 -1.3224061 -1.0417891 7
-0.021361001 -1.3268141 -0.98525101 7
