# .PCD v0.7 - Point Cloud Data file format
VERSION 0.7
FIELDS x y z intensity
SIZE 4 4 4 4
TYPE F F F F
COUNT 1 1 1 1
WIDTH 1069
HEIGHT 1
VIEWPOINT 0 0 0 1 0 0 0
POINTS 1069
DATA ascii
0.124786 -1.8955081 -68.111328 7
0.14744601 -2.0374761 -67.333984 7
0.116966 4.9445801 -68.916016 7
0.13696299 4.7310791 -68.237305 7
0.112549 4.619751 -69.072266 7
0.093391001 -2.0145259 -61.546875 7
0.13050801 -2.1252439 -60.419922 7
0.182198 -2.2142329 -58.852539 7
0.13087501 -2.4173579 -60.385742 7
0.172989 4.868042 -59.53418 7
0.242798 4.55896 -57.421875 7
0.179131 4.5638428 -59.358398 7
0.14681201 4.4906011 -60.342773 7
0.024360999 -2.1334231 -56.65918 7
0.091193996 -2.200439 -54.852539 7
0.085387997 -2.473511 -54.987305 7
-0.84133899 -2.8197019 73.358398 7
-0.85189098 -2.6585691 73.62207 7
-0.83077198 -0.94042999 73.220703 7
0.21524 4.7581792 -51.785156 7
0.168312 4.742065 -53.060547 7
0.135162 4.6881099 -53.963867 7
0.18865199 4.4375 -52.522461 7
0.155296 4.380981 -53.431641 7
0.02372 -2.308228 -51.231445 7
0.060509 -2.3912351 -50.325195 7
0.089142002 -2.479614 -49.617188 7
-0.85184503 -2.8991699 67.606445 7
-0.82884997 -2.7216799 67.116211 7
-0.78189802 -0.22448701 66.226562 7
0.190804 4.5968022 -47.354492 7
0.15095501 4.57019 -48.338867 7
0.123917 4.5108638 -49.007812 7
0.178452 4.2747798 -47.677734 7
0.137642 4.2425542 -48.68457 7
0.085143998 4.2290039 -49.976562 7
0.180885 0.87036097 -47.541992 7
0.17585 4.6203609 -43.077148 7
0.14003 4.5948491 -43.879883 7
0.114449 4.543335 -44.456055 7
0.16887701 4.3175049 -43.255859 7
0.136742 4.2783198 -43.975586 7
0.114029 4.2165532 -44.487305 7
0.053543001 4.2272949 -45.836914 7
-0.606628 0.066895001 53.332031 7
-0.63158399 0.19165 53.798828 7
-0.56256902 0.30810499 52.517578 7
0.107384 4.6080322 -40.988281 7
0.086502001 4.5526118 -41.422852 7
0.060775999 4.505249 -41.957031 7
0.026802 4.47229 -42.65918 7
0.075294003 4.2692871 -41.674805 7
0.055252001 4.2061772 -42.09375 7
0.031227 4.1489258 -42.591797 7
0.18386801 0.630615 -39.486328 7
0.167137 0.53820801 -39.827148 7
0.17675801 0.43835399 -39.629883 7
-0.59847999 -2.7587891 48.834961 7
-0.60174602 -2.6495359 48.899414 7
-0.523987 0.169678 47.740234 7
-0.54091603 0.28125 48.032227 7
-0.51682299 0.38818401 47.62207 7
0.076187 4.6376948 -37.786133 7
0.051445 4.5976558 -38.254883 7
0.034798 4.5383301 -38.574219 7
0.001633 4.5117192 -39.200195 7
0.160522 1.1307369 -36.375 7
0.15995 0.95153803 -36.384766 7
0.134804 0.87231398 -36.854492 7
0.118011 0.51281703 -37.165039 7
0.16523001 0.32202101 -36.277344 7
0.140099 0.23547401 -36.74707 7
0.147926 -0.123291 -33.630859 7
-0.54485297 -2.7176509 44.59668 7
-0.57054901 -2.6398931 45.011719 7
-0.57887298 -2.5445559 45.152344 7
0.072021 4.7175288 -34.767578 7
0.050980002 4.6777339 -35.138672 7
0.033980999 4.6271968 -35.439453 7
0.010887 4.5881348 -35.84375 7
-0.019608 4.5625 -36.37793 7
0.140526 1.221191 -33.788086 7
0.13700899 1.1394041 -33.849609 7
0.136879 1.055786 -33.851562 7
0.112671 0.21228001 -34.246094 7
0.138725 0.126343 -33.795898 7
0.118195 -0.03064 -31.185547 7
0.140984 -0.106934 -30.822266 7
0.104645 -0.186646 -31.396484 7
0.125595 -0.26196301 -31.0625 7
0.13434599 -0.33764601 -30.920898 7
-0.51222199 -2.4772949 40.786133 7
-0.556427 -2.4230959 41.439453 7
-0.44712099 0.32458499 39.987305 7
-0.42347699 0.41235399 39.642578 7
-0.44885299 0.50793499 40.015625 7
-0.41403201 0.59143102 39.505859 7
-0.48931101 3.5839839 40.523438 7
-0.44896701 3.62146 39.927734 7
0.090117998 4.8331299 -31.383789 7
0.076759003 4.7853999 -31.604492 7
0.056015 4.7529302 -31.939453 7
0.027923999 4.7351069 -32.389648 7
0.00093099999 4.7130132 -32.824219 7
-0.025703 4.6879878 -33.251953 7
0.119171 1.363525 -31.174805 7
0.1203 -0.32287601 -29.010742 7
0.105431 -0.47021499 -29.224609 7
0.111282 -0.54113799 -29.135742 7
-0.46195999 -2.539551 37.662109 7
-0.390358 0.63452101 36.842773 7
-0.51380903 3.5706789 38.441406 7
-0.47975901 3.6123049 37.96875 7
-0.452057 3.6607671 37.582031 7
-0.44216201 3.732666 37.439453 7
0.062889002 4.8681641 -29.571289 7
0.058463998 4.8043208 -29.646484 7
0.045752998 4.758667 -29.842773 7
0.029121 4.7207031 -30.09668 7
0.0037839999 4.7001948 -30.477539 7
-0.0089419996 4.6512451 -30.673828 7
0.035149001 4.4829102 -30.037109 7
0.138016 1.477295 -28.739258 7
0.135033 1.335938 -28.786133 7
0.090163998 1.218506 -29.452148 7
0.075180002 -0.36804199 -27.325195 7
0.099457003 -0.43139601 -26.991211 7
0.113457 -0.495361 -26.797852 7
0.079147004 -0.57177699 -27.262695 7
0.101273 -0.633057 -26.958008 7
-0.356392 0.577393 33.908203 7
0.028091 5.0617681 -27.654297 7
0.064636 4.907959 -27.169922 7
0.033813 4.841064 -27.607422 7
-0.0072329999 4.79248 -28.183594 7
-0.020943001 4.751709 -28.378906 7
0.105049 1.5905761 -26.915039 7
0.12502301 1.508545 -26.645508 7
0.11853 1.446411 -26.736328 7
0.101349 1.391113 -26.973633 7
0.103828 1.3218991 -26.941406 7
0.061737001 -0.54211402 -25.607422 7
0.090019003 -0.66101098 -25.243164 7
0.060555 -0.734375 -25.615234 7
-0.117752 -3.6932371 -27.602539 7
-0.123398 -3.7711179 -27.663086 7
-0.115227 -3.82605 -27.549805 7
-0.101082 -3.8703611 -27.360352 7
-0.091995001 -3.922729 -27.236328 7
-0.108215 -4.0186772 -27.427734 7
-0.010193 5.0700679 -26.131836 7
0.027168 4.919312 -25.672852 7
0.020706 4.8692632 -25.764648 7
0.0083079999 4.8319092 -25.930664 7
-0.0068279998 4.8001709 -26.132812 7
-0.033379 4.7919922 -26.477539 7
-0.032990001 4.7244868 -26.483398 7
0.106232 1.547241 -25.004883 7
0.099280998 1.489502 -25.095703 7
0.071129002 1.435913 -25.490234 7
0.097640999 1.355103 -25.155273 7
0.101692 1.2894289 -25.105469 7
0.059799001 -0.68200701 -23.696289 7
0.063187003 -0.74023402 -23.65332 7
0.074951001 -0.795044 -23.511719 7
0.072890997 -0.85485798 -23.533203 7
0.054039001 -0.92199701 -23.751953 7
0.065819003 -0.97619599 -23.610352 7
0.072639003 -1.0319819 -23.526367 7
-0.126808 -3.889648 -25.570312 7
-0.121986 -3.9449461 -25.50293 7
-0.112167 -3.9914551 -25.378906 7
-0.102875 -4.038208 -25.260742 7
-0.102493 -4.1003418 -25.244141 7
-0.00062599999 5.0491939 -23.985352 7
0.023864999 4.9328609 -23.711914 7
0.013985 4.8952641 -23.837891 7
0.0045850002 4.855957 -23.958008 7
-0.0067750001 4.8205571 -24.100586 7
-0.031403001 4.813354 -24.399414 7
-0.038841002 4.7678218 -24.49707 7
0.079017997 1.691406 -23.417969 7
0.076309003 1.516235 -23.458008 7
0.054839998 -0.97155797 -22.074219 7
-0.112419 -3.8461909 -23.59375 7
-0.12841 -3.932373 -23.756836 7
-0.13912199 -4.0102539 -23.863281 7
-0.130211 -4.0541992 -23.754883 7
-0.119186 -4.0938721 -23.625 7
-0.11821 -4.1512451 -23.604492 7
-0.010269 5.0739751 -22.330078 7
0.0096509997 4.9718022 -22.125 7
0.002235 4.9326172 -22.216797 7
-0.0057219998 4.8939209 -22.313477 7
-0.016288999 4.8608398 -22.439453 7
-0.033179998 4.8408198 -22.632812 7
-0.044204999 4.8066411 -22.75293 7
0.075676002 1.85791 -21.78418 7
0.079285003 1.799683 -21.74707 7
0.060242001 1.760254 -21.960938 7
0.082832001 1.686523 -21.71582 7
0.076439001 1.636475 -21.789062 7
0.037781 -0.968018 -20.730469 7
0.045616001 -1.0168459 -20.646484 7
0.028008001 -1.077881 -20.824219 7
0.023422001 -1.13269 -20.868164 7
0.033516001 -1.179932 -20.761719 7
0.035705999 -1.2312011 -20.735352 7
-0.129494 -4.2347412 -22.042969 7
-0.0027310001 5.0435791 -20.640625 7
-0.005043 4.9962158 -20.674805 7
-0.010712 4.956543 -20.743164 7
-0.016945001 4.91748 -20.817383 7
-0.02713 4.887085 -20.929688 7
-0.045173999 4.8731689 -21.124023 7
-0.046356 4.822144 -21.146484 7
0.069366001 1.897827 -20.330078 7
0.064240001 1.8505861 -20.385742 7
0.051208001 1.809814 -20.523438 7
0.075378001 1.737671 -20.279297 7
0.069107004 1.690918 -20.34668 7
0.059464 1.646729 -20.449219 7
0.020447001 -0.96679699 -19.568359 7
0.0077439998 -1.022339 -19.6875 7
0.019699 -1.0662839 -19.568359 7
0.020843999 -1.115356 -19.554688 7
-0.0026779999 -1.177734 -19.77832 7
0.0032579999 -1.224365 -19.717773 7
0.0031969999 -1.274292 -19.714844 7
-0.175735 -4.2194819 -21.045898 7
-0.167404 -4.2572021 -20.956055 7
-0.16207901 -4.300293 -20.893555 7
-0.156738 -4.3430181 -20.833008 7
-0.161064 -4.4033198 -20.862305 7
0.043083001 1.904541 -19.261719 7
0.046615999 1.852295 -19.231445 7
0.045364 1.804199 -19.24707 7
0.045302998 1.755127 -19.250977 7
0.04882 1.702881 -19.220703 7
0.049355 1.653442 -19.21875 7
0.049293999 1.6044919 -19.223633 7
0.001251 -1.009277 -18.452148 7
0.012703 -1.050537 -18.34375 7
0.014557 -1.096436 -18.324219 7
-0.0053710002 -1.153564 -18.501953 7
-0.001587 -1.198608 -18.463867 7
0.00025899999 -1.244507 -18.443359 7
0.003395 -1.289551 -18.411133 7
-0.178413 -4.164062 -19.654297 7
-0.179794 -4.216187 -19.655273 7
-0.17090601 -4.2496338 -19.56543 7
-0.167152 -4.29248 -19.521484 7
-0.165306 -4.3383789 -19.494141 7
-0.174385 -4.4046631 -19.563477 7
-0.035491999 5.075562 -18.181641 7
-0.013901 4.9798579 -18.000977 7
-0.013298 4.932251 -18.007812 7
-0.022263 4.9057622 -18.097656 7
0.053679999 1.640259 -17.898438 7
0.061919998 1.588257 -17.827148 7
0.056609999 1.4543459 -17.882812 7
0.062927 1.404175 -17.828125 7
0.054572999 1.36377 -17.907227 7
-0.20792399 -4.2189941 -18.675781 7
-0.199173 -4.250854 -18.591797 7
-0.198586 -4.296875 -18.575195 7
-0.188484 -4.3256841 -18.480469 7
-0.193321 -4.3815918 -18.508789 7
-0.18594401 -4.4146729 -18.4375 7
-0.194168 -4.4769292 -18.494141 7
-0.064713001 5.0778809 -17.268555 7
-0.035781998 4.9683838 -17.038086 7
-0.038497999 4.9306641 -17.072266 7
-0.044594001 4.8997798 -17.134766 7
-0.051392 4.8703609 -17.203125 7
-0.059509002 4.8435059 -17.283203 7
-0.076378003 4.8352051 -17.43457 7
0.031929001 1.565063 -17.001953 7
0.025124 1.525879 -17.063477 7
0.02372 1.48291 -17.079102 7
0.035812002 1.430786 -16.977539 7
0.049247999 1.378296 -16.865234 7
0.053238001 1.332275 -16.833008 7
0.034279 1.300293 -16.998047 7
-0.012459 -1.2401119 -16.361328 7
-0.0033110001 -1.3605959 -16.277344 7
-0.19018599 -4.1697998 -17.344727 7
-0.203217 -4.237061 -17.435547 7
-0.209778 -4.2932129 -17.476562 7
-0.201942 -4.3234859 -17.404297 7
-0.197708 -4.3601069 -17.360352 7
-0.196358 -4.401855 -17.338867 7
-0.19931 -4.4516602 -17.350586 7
0.052963 0.92834502 -15.801758 7
0.043609999 0.89123499 -15.878906 7
0.057868998 0.84435999 -15.765625 7
0.069214001 0.75842297 -15.676758 7
0.070572004 0.71728498 -15.666992 7
0.067642003 0.67773402 -15.691406 7
-0.204124 -4.1730962 -16.366211 7
-0.208763 -4.223022 -16.389648 7
-0.215675 -4.2774658 -16.430664 7
-0.21805599 -4.32373 -16.4375 7
-0.211723 -4.3546138 -16.375977 7
-0.21256299 -4.3979492 -16.370117 7
-0.21112099 -4.4371338 -16.348633 7
0.047997002 0.607544 -14.893555 7
0.053993002 0.56713903 -14.848633 7
0.059234999 0.52710003 -14.808594 7
0.057663001 0.48889199 -14.822266 7
0.050788999 0.451538 -14.875977 7
0.055282999 0.41198701 -14.84082 7
0.061271999 0.37231401 -14.794922 7
0.064994998 0.33313 -14.766602 7
0.051430002 -0.012817 -13.96582 7
0.052108999 -0.085937999 -13.959961 7
0.055266999 -0.122314 -13.936523 7
0.056816 -0.158813 -13.924805 7
0.059151001 -0.19494601 -13.90625 7
0.051079001 -0.23242199 -13.963867 7
0.043007001 -0.26989701 -14.020508 7
0.038139001 -0.30737299 -14.054688 7
-0.20548999 -4.182373 -15.335938 7
-0.211189 -4.2319341 -15.365234 7
-0.221733 -4.2902832 -15.428711 7
-0.223419 -4.3328862 -15.429688 7
-0.21787301 -4.3625488 -15.378906 7
-0.215515 -4.3978271 -15.352539 7
-0.213181 -4.433105 -15.325195 7
-0.208435 -4.463623 -15.280273 7
-0.03994 4.8851318 -13.922852 7
-0.037551999 4.8433838 -13.918945 7
-0.042374 4.8170171 -13.962891 7
-0.045593001 4.7875981 -13.99707 7
-0.048827998 4.7575679 -14.029297 7
0.047127001 0.317505 -13.99707 7
0.043076001 0.28125 -14.027344 7
0.044555999 0.20751999 -14.016602 7
0.047699001 0.17077599 -13.994141 7
0.050064001 0.13366701 -13.977539 7
0.056389 0.096802004 -13.930664 7
0.057144001 0.060302999 -13.924805 7
0.057082999 0.023804 -13.924805 7
0.041503999 -0.32897899 -13.331055 7
0.035560999 -0.36486799 -13.370117 7
0.029610001 -0.400879 -13.410156 7
0.034621999 -0.43481401 -13.374023 7
0.036247 -0.46935999 -13.361328 7
0.039581001 -0.50366199 -13.336914 7
0.035324 -0.53955102 -13.365234 7
0.025154 -0.57714802 -13.432617 7
-0.028221 -1.309204 -13.746094 7
-0.021538001 -1.341064 -13.696289 7
-0.024955999 -1.378906 -13.716797 7
-0.019104 -1.410767 -13.672852 7
-0.027618 -1.4519041 -13.726562 7
-0.20990001 -4.1671138 -14.47168 7
-0.207436 -4.2003169 -14.444336 7
-0.21427201 -4.2498779 -14.479492 7
-0.225327 -4.3070068 -14.541992 7
-0.23304 -4.3582759 -14.582031 7
-0.22886699 -4.3885498 -14.542969 7
-0.223015 -4.4154048 -14.494141 7
-0.22309101 -4.453125 -14.483398 7
0.026207 -0.64526403 -12.591797 7
0.010056 -0.71960402 -12.779297 7
0.01535 -0.751221 -12.743164 7
0.019737 -0.78320301 -12.711914 7
0.017906001 -0.81726098 -12.72168 7
0.011658 -0.85302699 -12.759766 7
-0.038741998 -1.317749 -13.049805 7
-0.02636 -1.34436 -12.96582 7
-0.029083 -1.380005 -12.979492 7
-0.027344 -1.412842 -12.964844 7
-0.031830002 -1.449707 -12.990234 7
-0.040787 -1.489624 -13.043945 7
-0.043503001 -1.525879 -13.057617 7
-0.043549001 -1.560059 -13.053711 7
-0.049819998 -1.5986331 -13.09082 7
-0.23930401 -4.365479 -13.761719 7
0.011749 -0.65295398 -12.098633 7
0.0078119999 -0.81396502 -12.113281 7
0.013329 -0.84350598 -12.076172 7
0.0030439999 -0.87976098 -12.137695 7
7.5999997e-05 -1.009155 -12.146484 7
3.7999998e-05 -1.04126 -12.143555 7
-0.0091019999 -0.932495 -11.532227 7
0.001556 -0.98877001 -11.464844 7
0.001518 -1.019165 -11.461914 7
-0.0053940001 -1.0526119 -11.498047 7
-0.022079 -1.091553 -11.594727 7
-0.017235 -1.119751 -11.563477 7
-0.0094450004 -1.1463619 -11.513672 7
-0.013405 -1.179199 -11.53418 7
-0.013451 -1.209595 -11.53125 7
-0.012512 -1.239746 -11.522461 7
-0.016487001 -1.2724611 -11.541992 7
-0.233826 -4.4897461 -12.120117 7
-0.233879 -4.521606 -12.109375 7
-0.23197199 -4.5499272 -12.088867 7
-0.23890699 -4.5948491 -12.115234 7
-0.248795 -4.6456299 -12.15918 7
-0.010544 -0.97888201 -10.956055 7
-0.014687 -1.009766 -10.975586 7
-0.022910999 -1.0430911 -11.020508 7
-0.021934999 -1.072021 -11.011719 7
-0.011757 -1.096191 -10.951172 7
-0.013832 -1.126343 -10.959961 7
-0.010811 -1.154053 -10.94043 7
-0.025177 -1.190918 -11.018555 7
-0.021141 -1.21814 -10.991211 7
-0.021179 -1.247437 -10.989258 7
-0.0243 -1.278442 -11.00293 7
-0.24705499 -4.4353032 -11.546875 7
-0.245079 -4.4622798 -11.525391 7
-0.05204 4.7883301 -10.24707 7
-0.051024999 4.7583008 -10.253906 7
-0.056145001 4.7412109 -10.291992 7
-0.058196999 4.7176509 -10.3125 7
-0.060249001 4.6939702 -10.334961 7
-0.063316002 4.6722412 -10.362305 7
-0.070473 4.6590581 -10.40918 7
-0.082703002 4.6558838 -10.486328 7
-0.083733 4.6296391 -10.50293 7
-0.074577004 4.5826421 -10.463867 7
-0.067466997 4.5400391 -10.4375 7
-0.068503998 4.5137939 -10.453125 7
-0.02169 -1.298462 -10.378906 7
-0.035689998 -1.334717 -10.451172 7
-0.029297 -1.3586431 -10.413086 7
-0.028267 -1.385986 -10.40332 7
-0.031532001 -1.4161381 -10.416992 7
-0.032653999 -1.444702 -10.419922 7
-0.035904001 -1.474731 -10.433594 7
-0.039177001 -1.504761 -10.447266 7
-0.051024999 -1.541016 -10.506836 7
-0.054297999 -1.571533 -10.520508 7
-0.053284001 -1.598877 -10.510742 7
-0.053688001 4.7695308 -9.5976562 7
-0.052620001 4.7409668 -9.6044922 7
-0.053718999 4.6906738 -9.6318359 7
-0.053718999 4.6644292 -9.6425781 7
-0.056953002 4.6445308 -9.6689453 7
-0.077262998 4.6601558 -9.7802734 7
-0.080504999 4.6398931 -9.8066406 7
-0.070900001 4.59375 -9.7705078 7
-0.065559 4.5561519 -9.7548828 7
-0.065598004 4.5029302 -9.7763672 7
-0.031784002 -1.19397 -9.9257812 7
-0.022995001 -1.296021 -9.8681641 7
-0.030998001 -1.407593 -9.8955078 7
-0.025703 -1.292114 -9.3896484 7
-0.022247 -1.315552 -9.3691406 7
-0.044495001 -1.354614 -9.4726562 7
-0.044548001 -1.380127 -9.4697266 7
-0.043427002 -1.405151 -9.4609385 7
-0.038764998 -1.427979 -9.4345703 7
-0.038818002 -1.453491 -9.4316406 7
-0.040031001 -1.479858 -9.4326172 7
-0.035393 -1.502319 -9.4072266 7
-0.054152999 -1.5406491 -9.4951172 7
-0.058876 -1.569824 -9.5136719 7
-0.061255999 -1.59729 -9.5214844 7
-0.024444999 -1.286011 -8.9248047 7
-0.026923999 -1.31189 -8.9326172 7
-0.028175 -1.337158 -8.9355469 7
-0.016731 -1.293335 -8.4189453 7
-0.018044 -1.317261 -8.421875 7
-0.023178 -1.343506 -8.4414062 7
-0.029579001 -1.370728 -8.4658203 7
-0.034720998 -1.397217 -8.484375 7
-0.033500999 -1.419922 -8.4746094 7
-0.025893999 -1.4382319 -8.4375 7
-0.031021001 -1.464722 -8.4570312 7
-0.031059001 -1.4881589 -8.4541016 7
-0.032379001 -1.512207 -8.4550781 7
-0.043869 -1.543457 -8.5019531 7
-0.049004 -1.570435 -8.5214844 7
-0.050322998 -1.5949709 -8.5234385 7
-0.25608799 -4.5070801 -8.5712891 7
-0.252312 -4.52356 -8.5449219 7
-0.251091 -4.5444341 -8.5292969 7
-0.24858899 -4.5632319 -8.5068359 7
-0.249924 -4.5891109 -8.5009766 7
-0.24871799 -4.6098628 -8.4833984 7
-0.25770599 -4.6503911 -8.5097656 7
-0.260315 -4.6787109 -8.5087891 7
-0.26803601 -4.7169189 -8.5283203 7
-0.268089 -4.740479 -8.5175781 7
-0.26686901 -4.761353 -8.5019531 7
-0.27076 -4.7922359 -8.5058594 7
-0.031227 -1.293335 -8.0751953 7
-0.031265002 -1.31604 -8.0722656 7
-0.029975999 -1.3375241 -8.0625 7
-0.031349 -1.36084 -8.0654297 7
-0.051238999 -1.3955081 -8.1464844 7
-0.055259999 -1.4206541 -8.1601562 7
-0.044700999 -1.436523 -8.1123047 7
-0.039436001 -1.455322 -8.0859385 7
-0.042114001 -1.479736 -8.09375 7
-0.047501002 -1.5280761 -8.109375 7
-0.056800999 -1.557007 -8.1445312 7
-0.063460998 -1.5843509 -8.1689453 7
-0.273384 -4.490356 -8.1689453 7
-0.273422 -4.5128169 -8.1591797 7
-0.26551801 -4.520752 -8.1181641 7
-0.26424399 -4.540771 -8.1015615 7
-0.26563299 -4.5656738 -8.0957031 7
-0.26568601 -4.5881348 -8.0849609 7
-0.26441199 -4.6081538 -8.0693359 7
-0.26578501 -4.6331792 -8.0634766 7
-0.26850101 -4.6603999 -8.0625 7
-0.273857 -4.6931152 -8.0722656 7
-0.28321099 -4.7332759 -8.0966797 7
-0.280617 -4.7507319 -8.0751953 7
-0.284637 -4.7807622 -8.0791016 7
-0.067534998 4.7625728 -7.0214839 7
-0.058304001 4.723145 -6.9970698 7
-0.059631001 4.705688 -7.014648 7
-0.060950998 4.6882319 -7.030273 7
-0.058304001 4.6627202 -7.03125 7
-0.058311 4.6425781 -7.0419922 7
-0.056992002 4.6196289 -7.046875 7
-0.059638999 4.6048579 -7.0683589 7
-0.063606001 4.5926509 -7.094727 7
-0.082084998 4.6099849 -7.1757808 7
-0.074180998 4.5734859 -7.15625 7
-0.074173003 4.552979 -7.1679692 7
-0.072852999 4.5296631 -7.172852 7
-0.074180998 4.512085 -7.188477 7
-0.074180998 4.4914551 -7.1992192 7
-0.262833 -4.4985352 -7.6269531 7
-0.26842499 -4.5301509 -7.6357422 7
-0.074890003 0.751221 10.544922 7
-0.074851997 0.77294898 10.542969 7
-0.067795001 0.79187 10.512695 7
-0.069159999 0.81408697 10.516602 7
-0.064925998 0.83410603 10.498047 7
-0.070502996 0.85766602 10.518555 7
-0.067665003 0.87829602 10.505859 7
-0.066215999 0.89929199 10.498047 7
-0.071792997 0.92297399 10.517578 7
-0.074553996 0.94567901 10.527344 7
-0.068916 0.96472198 10.50293 7
-0.068878002 0.98632801 10.500977 7
-0.068832003 1.00769 10.498047 7
-0.071594 1.03064 10.506836 7
-0.068764001 1.050781 10.493164 7
-0.070114002 1.07312 10.496094 7
-0.077102996 1.097778 10.522461 7
-0.075661004 1.1187741 10.513672 7
-0.074202999 1.139648 10.504883 7
-0.085364997 1.188599 10.544922 7
-0.085320003 1.210205 10.541016 7
-0.086692996 1.2325439 10.543945 7
-0.086646996 1.25415 10.541016 7
-0.089400999 1.277344 10.549805 7
-0.078185998 4.7963872 -6.5830078 7
-0.067192003 4.7541499 -6.5556641 7
-0.050696999 4.700562 -6.507812 7
-0.052078001 4.6843262 -6.523438 7
-0.053452 4.668335 -6.539062 7
-0.058945 4.660645 -6.570312 7
-0.057579 4.6387939 -6.5761719 7
-0.057571001 4.619873 -6.5878911 7
-0.057571001 4.6005859 -6.5986328 7
-0.060325999 4.5871582 -6.6191411 7
-0.060318001 4.5678711 -6.6298828 7
-0.067215003 4.5626221 -6.6650391 7
-0.069962002 4.5488281 -6.686523 7
-0.072715998 4.5352778 -6.7060552 7
-0.064467996 4.499146 -6.686523 7
-0.074821003 4.787354 -6.1503911 7
-0.070541002 4.760376 -6.1474609 7
-0.053429 4.7061772 -6.1005859 7
-0.053444002 4.6882319 -6.1113281 7
-0.053429 4.670166 -6.1230469 7
-0.057700999 4.6612549 -6.1474609 7
-0.056281999 4.6402588 -6.1542969 7
-0.053429 4.6162109 -6.15625 7
-0.054848 4.5827641 -6.1826172 7
-0.059128001 4.5734859 -6.2070308 7
-0.061974 4.5610352 -6.2285161 7
-0.077660002 4.5562739 -6.304688 7
-0.070533998 4.523438 -6.2900391 7
-0.067688003 4.499146 -6.2900391 7
-0.31485 -5.0421138 9.2792969 7
-0.075576998 0.65539598 9.8671885 7
-0.084601998 0.678101 9.8984385 7
-0.084572002 0.69812 9.8964844 7
-0.076981001 0.71582001 9.8671885 7
-0.081473999 0.73730499 9.8818359 7
-0.087485999 0.759399 9.9033203 7
-0.079894997 0.77697802 9.8740234 7
-0.075324997 0.79540998 9.8554688 7
-0.072265998 0.814331 9.8417969 7
-0.076782003 0.83581501 9.8564453 7
-0.078247003 0.85644501 9.8603516 7
-0.072182 0.874268 9.8359385 7
-0.072127998 0.89416498 9.8339844 7
-0.069077 0.91272002 9.8203115 7
-0.076583996 0.93579102 9.8466797 7
-0.072036996 0.95397902 9.828125 7
-0.087677002 4.7984619 -5.78125 7
-0.093589999 4.7938228 -5.811523 7
-0.077301003 4.742188 -5.7714839 7
-0.080582 4.730957 -5.7929692 7
-0.067261003 4.6860352 -5.7597661 7
-0.056892 4.6473389 -5.7382808 7
-0.05838 4.6331792 -5.7539058 7
-0.056899998 4.6130371 -5.7597661 7
-0.06134 4.605103 -5.7851558 7
-0.058371998 4.5817871 -5.7861328 7
-0.056892 4.561646 -5.7919922 7
-0.065750003 4.5623779 -5.8320308 7
-0.073158003 4.5600591 -5.8662109 7
-0.071671002 4.5395508 -5.8730469 7
-0.074630998 4.5280762 -5.8925781 7
-0.076118 4.5136719 -5.9082031 7
-0.082053997 4.507935 -5.938477 7
-0.077606 4.481689 -5.9345698 7
-0.324516 -5.098022 8.8896484 7
-0.326096 -5.0834961 8.90625 7
-0.32453901 -5.0625 8.9140615 7
-0.316719 -5.0290532 8.9023438 7
-0.30889899 -4.9954829 8.890625 7
-0.313591 -4.9873052 8.9169922 7
-0.31361401 -4.9694819 8.9296885 7
-0.316742 -4.9577641 8.9501953 7
-0.31360599 -4.9338379 8.953125 7
-0.31673399 -4.9219971 8.9736328 7
-0.318306 -4.907227 8.9912109 7
-0.31831399 -4.8891602 9.0029297 7
-0.31988499 -4.874146 9.0195312 7
-0.31517801 -4.8469238 9.015625 7
-0.307365 -4.8138428 9.0029297 7
-0.315193 -4.8109131 9.0390615 7
-0.110649 -1.914795 9.4785156 7
-0.112175 -1.896973 9.4882812 7
-0.109062 -1.875244 9.4833984 7
-0.112144 -1.858765 9.4980469 7
-0.109016 -1.8369139 9.4921885 7
-0.104301 -1.814209 9.4804688 7
-0.088630997 -1.782837 9.4287109 7
-0.101135 -1.773438 9.4765615 7
-0.102684 -1.755493 9.4863281 7
-0.097969003 -1.73291 9.4746094 7
-0.096390001 -1.712769 9.4726562 7
-0.101051 -1.697021 9.4931641 7
-0.105728 -1.6812741 9.5136719 7
-0.097907998 -1.656372 9.4912109 7
-0.094733998 -1.635132 9.4833984 7
-0.093170002 -1.614746 9.4814453 7
-0.080025002 0.96215802 9.5566406 7
-0.076858997 0.98010302 9.5429688 7
-0.072144002 0.99731398 9.5244141 7
-0.076797001 1.018677 9.5390615 7
-0.075203001 1.037109 9.53125 7
-0.078293003 1.057861 9.5390615 7
-0.082938999 1.079468 9.5537109 7
-0.078217 1.096313 9.5341797 7
-0.082869999 1.117676 9.5488281 7
-0.079712003 1.13562 9.5351562 7
-0.079681002 1.154785 9.5322266 7
-0.076514997 1.172241 9.5185547 7
-0.087417997 1.197266 9.5556641 7
-0.084243998 1.214844 9.5410156 7
-0.088890001 1.236694 9.5546885 7
-0.088859998 1.255859 9.5517578 7
-0.085708998 1.273438 9.5371094 7
-0.081161 4.6940918 -5.4433589 7
-0.079613 4.674561 -5.4492192 7
-0.078079 4.6550288 -5.4560552 7
-0.078071997 4.6385498 -5.4667969 7
-0.084190004 4.634644 -5.4980469 7
-0.074997 4.5993652 -5.4794922 7
-0.081130996 4.5953369 -5.5087891 7
-0.073463 4.563354 -5.4960942 7
-0.078064002 4.5559082 -5.5205078 7
-0.068878002 4.5209961 -5.5029302 7
-0.068862997 4.504395 -5.514648 7
-0.068855003 4.487793 -5.5253911 7
-0.33715799 -5.1112061 8.5039062 7
-0.33554801 -5.091064 8.5126953 7
-0.32582101 -5.054688 8.4970703 7
-0.32093799 -5.0280762 8.4951172 7
-0.31769601 -5.0048828 8.4970703 7
-0.32257801 -4.9978032 8.5234385 7
-0.32421899 -4.9841309 8.5400391 7
-0.31932801 -4.957397 8.5380859 7
-0.319336 -4.9404302 8.5498047 7
-0.31771901 -4.9205322 8.5566406 7
-0.320961 -4.9099121 8.5771484 7
-0.32097599 -4.8928218 8.5888672 7
-0.31772599 -4.8695068 8.5917969 7
-0.31774101 -4.8525391 8.6035156 7
-0.319359 -4.838623 8.6191406 7
-0.309616 -4.8026118 8.6025391 7
-0.319359 -4.8044429 8.6416016 7
-0.09922 -1.903931 9.1083984 7
-0.10083 -1.887085 9.1181641 7
-0.099189997 -1.867432 9.1171885 7
-0.105675 -1.85437 9.1435547 7
-0.112152 -1.841187 9.1699219 7
-0.102394 -1.81543 9.1416016 7
-0.099120997 -1.794556 9.1347656 7
-0.089371003 -1.768555 9.1064453 7
-0.087729998 -1.749146 9.1044922 7
-0.084480003 -1.728516 9.0976562 7
-0.087707996 -1.7125241 9.1132812 7
-0.084449999 -1.692017 9.1064453 7
-0.089286998 -1.677368 9.1259766 7
-0.097382002 -1.6650389 9.1582031 7
-0.094116002 -1.644287 9.1513672 7
-0.095748998 -1.626953 9.1621094 7
-0.087608002 -1.603027 9.1376953 7
-0.079017997 0.96154797 9.2314453 7
-0.069260001 0.97583002 9.1962891 7
-0.072456002 0.99560499 9.2050781 7
-0.065940998 1.011108 9.1816406 7
-0.062668003 1.0280761 9.1679688 7
-0.059386998 1.0450439 9.1542969 7
-0.070708998 1.068604 9.1894531 7
-0.080398999 1.091675 9.2207031 7
-0.070648 1.105469 9.1845703 7
-0.070618004 1.123901 9.1826172 7
-0.073830001 1.144043 9.1914062 7
-0.073784001 1.162354 9.1884766 7
-0.073752999 1.180786 9.1855469 7
-0.073707998 1.199097 9.1826172 7
-0.080162004 1.221069 9.203125 7
-0.078506 1.238403 9.1943359 7
-0.083320998 1.259521 9.2080078 7
-0.080048002 1.276245 9.1943359 7
-0.125046 4.2038569 8.3007812 7
-0.112083 4.1966548 8.2539062 7
-0.11203 4.2128911 8.2441406 7
-0.10714 4.2200928 8.21875 7
-0.103867 4.230103 8.2001953 7
-0.102211 4.243042 8.1855469 7
-0.103767 4.262085 8.1796885 7
-0.103722 4.2780762 8.1699219 7
-0.103668 4.2940669 8.1591797 7
-0.102005 4.3070068 8.1445312 7
-0.100342 4.3198242 8.1289062 7
-0.105148 4.3448491 8.1337891 7
-0.113159 4.3762212 8.1464844 7
-0.124405 4.4135742 8.1689453 7
-0.12759399 4.435791 8.1689453 7
-0.130768 4.4580078 8.1679688 7
-0.330933 -5.1125488 8.0634766 7
-0.33934799 -5.0978999 8.109375 7
-0.32085401 -5.0446782 8.0722656 7
-0.31581101 -5.0189209 8.0712891 7
-0.31075999 -4.9929199 8.0693359 7
-0.31749001 -4.9907231 8.0986328 7
-0.31413999 -4.9680181 8.1015615 7
-0.31413299 -4.952148 8.1132812 7
-0.31583399 -4.9395752 8.1298828 7
-0.31921399 -4.9302979 8.1513672 7
-0.314156 -4.9042969 8.1484385 7
-0.32091501 -4.9013672 8.1787109 7
-0.322586 -4.8886719 8.1953115 7
-0.325966 -4.8791499 8.2158203 7
-0.31922099 -4.8499761 8.2080078 7
-0.30914301 -4.8144531 8.1923828 7
-0.31925201 -4.817627 8.2333984 7
-0.098053001 -1.9180911 8.7890615 7
-0.101418 -1.90332 8.8056641 7
-0.096352004 -1.881592 8.7929688 7
-0.094642997 -1.862671 8.7919922 7
-0.097992003 -1.848145 8.8076172 7
-0.10807 -1.838623 8.84375 7
-0.099647999 -1.8143311 8.8222656 7
-0.097946003 -1.79541 8.8212891 7
-0.097930998 -1.7780761 8.8251953 7
-0.089500003 -1.7537839 8.8017578 7
-0.086127996 -1.733765 8.7949219 7
-0.082764 -1.713745 8.7880859 7
-0.084418997 -1.69751 8.7978516 7
-0.086081997 -1.6812741 8.8066406 7
-0.094475001 -1.669922 8.8388672 7
-0.086043999 -1.64624 8.8144531 7
-0.091086999 -1.632202 8.8349609 7
-0.086014003 -1.6112061 8.8222656 7
-0.067192003 0.97338903 8.8886719 7
-0.060431998 0.98803699 8.8642578 7
-0.062088002 1.00647 8.8681641 7
-0.063727997 1.0250241 8.8701172 7
-0.058662001 1.040161 8.8515615 7
-0.060302999 1.058594 8.8544922 7
-0.078743003 1.085083 8.9130859 7
-0.082061999 1.1044919 8.921875 7
-0.063568003 1.1131589 8.8574219 7
-0.065215997 1.131592 8.8613281 7
-0.071898997 1.152588 8.8808594 7
-0.078575 1.173828 8.9003906 7
-0.070160002 1.187256 8.8701172 7
-0.081871003 1.21106 8.90625 7
-0.081832998 1.2286381 8.9033203 7
-0.083480999 1.247314 8.90625 7
-0.078400001 1.262329 8.8857422 7
-0.14032 4.1965332 8.0048828 7
-0.140259 4.2120361 7.9941411 7
-0.123482 4.1972661 7.938477 7
-0.115082 4.1973882 7.905273 7
-0.111671 4.206543 7.8847661 7
-0.108284 4.2156978 7.8662109 7
-0.10656 4.2277832 7.851562 7
-0.101486 4.2337651 7.827148 7
-0.103119 4.2520752 7.8222661 7
-0.103065 4.2670898 7.811523 7
-0.104706 4.2853999 7.8066411 7
-0.101295 4.294189 7.7861328 7
-0.102928 4.3123779 7.78125 7
-0.106216 4.3337402 7.780273 7
-0.101151 4.3392329 7.7558589 7
-0.101112 4.354248 7.7460942 7
-0.109421 4.3852539 7.7587891 7
-0.117729 4.4162598 7.7714839 7
-0.124374 4.4440918 7.7792969 7
-0.12265 4.4559331 7.7636719 7
-0.124275 4.4741211 7.757812 7
-0.33179501 -5.1060791 7.6777339 7
-0.321358 -5.0554199 7.6748052 7
-0.324844 -5.0473628 7.6962891 7
-0.32138801 -5.010376 7.7119141 7
-0.31791699 -4.9737549 7.726562 7
-0.31965601 -4.9621582 7.742188 7
-0.31792399 -4.9287109 7.7607422 7
-0.31271401 -4.9031978 7.7597661 7
-0.323181 -4.8935552 7.8095698 7
-0.32839999 -4.8734131 7.8457031 7
-0.32492799 -4.8513179 7.8486328 7
-0.096190996 -1.91272 8.4941406 7
-0.096175998 -1.895874 8.4990234 7
-0.094420999 -1.877686 8.4980469 7
-0.092658997 -1.859619 8.4970703 7
-0.099616997 -1.848389 8.5224609 7
-0.099586003 -1.814697 8.53125 7
-0.099564001 -1.797729 8.5351562 7
-0.097815998 -1.779663 8.5341797 7
-0.083878003 -1.752075 8.4951172 7
-0.083870001 -1.735229 8.5 7
-0.083847001 -1.718506 8.5039062 7
-0.082076997 -1.700317 8.5019531 7
-0.078583002 -1.680908 8.4951172 7
-0.087273002 -1.67041 8.5263672 7
-0.085510001 -1.652344 8.5244141 7
-0.080292001 -1.631958 8.5126953 7
-0.087233998 -1.619995 8.5380859 7
-0.060936 0.96899402 8.5888672 7
-0.062652998 0.98669398 8.5927734 7
-0.062614001 1.003662 8.5898438 7
-0.059096999 1.019165 8.5761719 7
-0.059074 1.036255 8.5742188 7
-0.062523 1.054565 8.5830078 7
-0.055519 1.0682369 8.5585938 7
-0.067665003 1.091187 8.5947266 7
-0.065894999 1.1073 8.5859385 7
-0.074553996 1.12854 8.6113281 7
-0.060616001 1.13855 8.5654297 7
-0.069266997 1.159912 8.5888672 7
-0.072715998 1.178833 8.5976562 7
-0.067482002 1.192993 8.5791016 7
-0.072646998 1.212769 8.5917969 7
-0.069145001 1.227783 8.5791016 7
-0.077789001 1.249634 8.6025391 7
-0.076003999 1.265625 8.59375 7
-0.32127401 -5.0854492 7.273438 7
-0.31948099 -5.0678711 7.28125 7
-0.32129699 -5.0577388 7.297852 7
-0.32671401 -5.0544429 7.3232422 7
-0.317711 -5.0223389 7.313477 7
-0.319511 -5.012085 7.329102 7
-0.319527 -4.9980469 7.3408198 7
-0.31954199 -4.9838872 7.3535161 7
-0.32314301 -4.9770508 7.3730469 7
-0.31954199 -4.955688 7.375977 7
-0.32316601 -4.9486079 7.3974609 7
-0.31955701 -4.9273682 7.4003911 7
-0.31957999 -4.913208 7.4121089 7
-0.31598699 -4.8918462 7.4150391 7
-0.32679 -4.8986821 7.452148 7
-0.325012 -4.8807368 7.4599609 7
-0.30701399 -4.831543 7.4277339 7
-0.312408 -4.8278809 7.452148 7
-0.101311 -1.912842 8.2363281 7
-0.099495001 -1.895142 8.2353516 7
-0.101295 -1.880493 8.2460938 7
-0.099480003 -1.862793 8.2451172 7
-0.099457003 -1.84668 8.2490234 7
-0.103043 -1.833374 8.2646484 7
-0.106621 -1.820068 8.2792969 7
-0.092216 -1.792358 8.2421885 7
-0.088592999 -1.773438 8.2353516 7
-0.088592999 -1.757324 8.2392578 7
-0.081367001 -1.7355959 8.2207031 7
-0.088569999 -1.7249759 8.2480469 7
-0.083153002 -1.70459 8.2363281 7
-0.083153002 -1.688477 8.2402344 7
-0.083130002 -1.672241 8.2441406 7
-0.088515997 -1.6600339 8.2636719 7
-0.081298999 -1.638672 8.2460938 7
-0.079490997 -1.6212161 8.2451172 7
-0.075874001 -1.602295 8.2382812 7
-0.072205 0.971802 8.3632812 7
-0.068588004 0.98669398 8.3496094 7
-0.05957 0.99914598 8.3193359 7
-0.061333001 1.0163569 8.3222656 7
-0.057700999 1.031006 8.3085938 7
-0.063065 1.049805 8.3222656 7
-0.064827003 1.067017 8.3251953 7
-0.059418 1.080811 8.3066406 7
-0.066574 1.100708 8.3261719 7
-0.062942997 1.115234 8.3134766 7
-0.053925 1.127075 8.2832031 7
-0.064690001 1.1488039 8.3144531 7
-0.064658999 1.165161 8.3115234 7
-0.05204 1.174927 8.2695312 7
-0.06459 1.197876 8.3056641 7
-0.059165999 1.211182 8.2861328 7
-0.077095002 1.237183 8.3388672 7
-0.06089 1.244751 8.2851562 7
-0.073440999 1.267822 8.3212891 7
-0.064429998 1.279175 8.2910156 7
-0.098535001 0.71422797 10.527864 7
-0.086129002 0.96950501 10.39533 7
-0.108077 1.2698441 10.532285 7
-0.076596998 0.880395 9.8130779 7
-0.137706 -1.826984 9.5869007 7
-0.34152299 -5.0309882 8.7347126 7
-0.34540299 -4.8389912 8.9495773 7
-0.112772 -1.8569469 8.9769373 7
-0.101136 -1.624161 8.9739313 7
-0.106398 1.002558 9.1698275 7
-0.103238 1.211686 9.1071777 7
-0.166034 4.1962862 7.9600339 7
-0.329133 -5.0046368 7.9837818 7
-0.32568899 -4.8094521 8.167387 7
-0.082759999 -1.855649 8.4133224 7
-0.076932997 -1.657674 8.449892 7
-0.074216001 1.090878 8.6043119 7
-0.32022199 -5.1015649 7.1128192 7
-0.309605 -4.9062142 7.2825241 7
-0.063069001 -1.863542 7.9698868 7
-0.052811 -1.673501 7.9865489 7
-0.059629999 1.004088 8.2429647 7
-0.049102001 1.162616 8.1424007 7
-0.33107001 -5.118125 5.7519259 7
-0.331366 -4.8085709 6.4150791 7
-0.095251001 -1.880525 7.6141739 7
-0.082585998 -1.700574 7.6280112 7
-0.072337002 1.066918 7.806129 7
-0.067341998 1.2157021 7.736867 7
-0.078424998 -1.881394 7.2821822 7
-0.076885 -1.739693 7.3483548 7
-0.069333002 -1.8924789 7.0104189 7
-0.062710002 -1.750157 7.0577402 7
-0.053530999 -1.6018699 7.0882692 7
-0.060826 -1.897759 6.7628379 7
-0.052565999 -1.761539 6.8066168 7
-0.010342 -1.31165 -8.5413351 7
0.026019 -1.559701 -4.9114361 7
-0.045727 -1.507671 -4.1720982 7
-0.060617998 0.851987 10.304029 7
-0.062624998 0.72575402 9.8228016 7
-0.29741499 -4.9328542 9.0942345 7
-0.058699001 -1.726252 9.2222481 7
-0.35751501 -4.8920388 8.5410671 7
-0.116821 -1.9107929 8.7947407 7
-0.093011998 -1.666123 8.7315559 7
-0.333408 -5.0078969 7.8357601 7
-0.33622199 -4.8297839 8.0221806 7
-0.090600997 -1.842696 8.375597 7
-0.077904999 -1.622329 8.3670597 7
-0.31698799 -4.9356952 7.3882098 7
-0.076702997 -1.790258 8.053648 7
-0.298738 -4.9995422 6.8036041 7
-0.300392 -4.858943 6.9799409 7
-0.059985001 -1.740782 7.749413 7
-0.330726 -4.8824768 6.4181409 7
-0.093474001 -1.870604 7.4357471 7
-0.072898999 -1.683578 7.401834 7
-0.30619699 -4.6972499 0.077976003 7
-0.066950001 -1.813676 7.1582308 7
-0.051846001 -1.6419179 7.144762 7
-0.28709799 -4.8649659 5.4438429 7
-0.050041001 -1.768217 6.9370532 7
-0.039269 -1.608429 6.9386768 7
-0.26615301 -4.689188 1.029222 7
-0.26530901 -4.7671771 1.1918761 7
-0.28940701 -4.9544611 4.8769741 7
-0.27358401 -4.836144 5.0196972 7
-0.057096001 -1.88929 6.7704091 7
-0.041351002 -1.731901 6.76085 7
-0.030337 -1.688738 -0.25701201 7
-0.051065002 -1.848341 -0.28455701 7
-0.25330001 -4.5142722 1.134107 7
-0.024534 -1.658639 -0.102945 7
-0.040771 -1.807941 -0.115311 7
-0.29006201 -4.6980262 1.61374 7
-0.29372501 -4.7666268 1.768585 7
-0.30726299 -4.7849178 4.6239929 7
-0.30844101 -4.7281928 4.7833061 7
-0.277412 -4.5328012 1.686428 7
-0.27735999 -4.5881338 1.838375 7
-0.28265199 -4.6527028 1.9867671 7
-0.28420901 -4.700603 2.141284 7
-0.27829301 -4.7204051 2.303118 7
-0.28692499 -4.7767739 2.4554939 7
-0.305711 -4.7873039 4.1059642 7
-0.29365599 -4.6155219 4.561965 7
-0.28198999 -4.5256748 4.699326 7
-0.265762 -4.5230079 2.1940849 7
-0.27084899 -4.573029 2.340194 7
-0.277753 -4.622529 2.4875059 7
-0.29204899 -4.717443 2.9452879 7
-0.29467899 -4.7308331 3.1011341 7
-0.29340199 -4.7267332 3.257556 7
-0.29387599 -4.721611 3.4136429 7
-0.290739 -4.6566811 3.8766251 7
-0.285027 -4.6013169 4.0633688 7
-0.27203 -4.53895 2.9594619 7
-0.270753 -4.5409222 3.1082311 7
-0.27327099 -4.54773 3.256711 7
-0.27565199 -4.548306 3.4055369 7
-0.0039070002 4.6939192 -10.275951 7
-0.100218 4.5483718 -6.472909 7
-0.112999 4.5625629 -3.014066 7
-0.093065999 0.72332197 10.490423 7
-0.087748997 1.026596 10.391507 7
-0.071699999 0.74694097 9.8661757 7
-0.084514 4.324615 7.688355 7
-0.108693 1.019848 9.2368879 7
-0.111966 1.269264 9.2021446 7
-0.167906 4.2180982 7.948319 7
-0.08839 1.018211 8.7939339 7
-0.094099998 1.249809 8.7770309 7
-0.063598998 1.01685 8.3750134 7
-0.070955999 1.231388 8.3700638 7
-0.042431999 1.015673 8.0145512 7
-0.045596998 1.214448 7.9928889 7
-0.073404998 1.0129941 7.701499 7
-0.29756501 -4.3883061 -14.411375 7
-0.033498999 -1.459437 -8.5850296 7
-0.26545599 -4.4447899 -11.56324 7
-0.018482 -1.483179 -7.3242602 7
-0.24687099 -4.48452 -9.6124439 7
-0.046222001 4.7114978 -6.4345441 7
-0.064505003 4.6145191 -6.7840562 7
-0.012376 -1.513414 -6.4592972 7
-0.235027 -4.503376 -8.1574144 7
-0.047042999 -1.30481 -5.72613 7
-0.054474 -1.520727 -5.743751 7
0.0039209998 1.4757071 -5.1799932 7
-0.031716 -1.3234169 -5.1474781 7
-0.041324999 -1.522311 -5.1743898 7
-0.056766 4.5062571 -2.957052 7
-0.067662001 4.488822 -3.1721721 7
-0.024497001 -1.349865 -4.7182679 7
-0.031298999 -1.522819 -4.7160711 7
-0.064655997 4.516685 -2.080569 7
-0.070947997 4.4771662 -2.319705 7
-0.051274002 4.2335992 -2.4479699 7
-0.013164 -1.3544689 -4.321661 7
-0.025425 -1.528204 -4.349905 7
-0.040406 -1.364241 -4.0057859 7
-0.056495 -1.533672 -4.041924 7
