# .PCD v0.7 - Point Cloud Data file format
VERSION 0.7
FIELDS x y z intensity
SIZE 4 4 4 4
TYPE F F F F
COUNT 1 1 1 1
WIDTH 1220
HEIGHT 1
VIEWPOINT 0 0 0 1 0 0 0
POINTS 1220
DATA ascii
3.89222 5.3535161 -56.933594 7
0.016014 -1.1387939 -72.850586 7
0.069472998 -1.282104 -71.009766 7
0.023956001 -1.4851069 -72.557617 7
-4.9999999e-05 5.7120361 -72.271484 7
0.030548001 5.4587402 -71.241211 7
-0.028732 5.4311519 -73.245117 7
-0.014526 -1.346069 -65.657227 7
0.015583 -1.484131 -64.728516 7
-0.0030360001 -1.654907 -65.286133 7
-0.028820001 5.3208008 -65.163086 7
-0.057624999 5.229248 -66.033203 7
-0.072861001 -1.633545 -59.016602 7
0.0018729999 -1.753662 -57.941406 7
0.072246999 -1.83313 -56.018555 7
-0.013355 -2.0488279 -58.335938 7
0.010201 5.2235112 -56.958984 7
0.072388001 4.9389648 -55.291992 7
0.020302 4.9223628 -56.697266 7
-0.056529999 4.9537349 -58.767578 7
0.12838 1.783936 -53.802734 7
0.153072 1.503296 -53.132812 7
-0.070891999 -1.771973 -54.121094 7
-0.013805 -1.855347 -52.707031 7
0.018348999 -1.954224 -51.907227 7
-0.029129 -2.125977 -53.06543 7
0.057487 5.1248779 -50.306641 7
0.017806999 5.0950928 -51.280273 7
0.084758997 4.8156738 -49.655273 7
0.033100002 4.8095698 -50.918945 7
0.001289 4.7540278 -51.698242 7
0.040817 1.446045 -51.474609 7
-0.089790002 -1.946655 -48.62207 7
-0.037253998 -2.0174561 -47.454102 7
-0.010468 -2.1074221 -46.853516 7
-0.066715002 -2.2788091 -48.081055 7
-0.51048702 -0.31567401 55.299805 7
-0.45765299 -0.184082 54.24707 7
-0.47733301 -0.059448 54.644531 7
0.061912999 4.9718022 -45.362305 7
0.016914001 4.9633789 -46.364258 7
-0.014675 4.920166 -47.068359 7
0.043896001 4.6766362 -45.782227 7
0.020226 4.6147461 -46.310547 7
-0.039046999 4.6242681 -47.625977 7
-0.116974 -2.0699461 -45.895508 7
-0.077881001 -2.1447749 -45.083008 7
-0.032524001 -2.209595 -44.144531 7
-0.072494999 -2.3592529 -44.957031 7
-0.51156199 -3.019165 51.364258 7
-0.52682501 -2.9173579 51.657227 7
-0.49726099 -0.173462 51.268555 7
-0.43103001 -0.053955 50.041016 7
-0.39499301 0.060547002 49.375 7
0.044094 4.8317871 -42.068359 7
0.0078929998 4.8079829 -42.8125 7
-0.027725 4.7796631 -43.543945 7
0.045513 4.5178218 -42.061523 7
-0.026985001 4.5638428 -43.543945 7
-0.079268999 -2.1574709 -40.999023 7
-0.039790999 -2.218384 -40.251953 7
-0.017798999 -2.2939451 -39.832031 7
-0.068764001 -2.4468989 -40.77832 7
-0.043629002 -2.518311 -40.298828 7
-0.030365 -2.6013179 -40.041992 7
-0.0055430001 -2.669189 -39.568359 7
0.034260001 -2.715698 -38.816406 7
-0.42311499 -3.0002439 45.810547 7
-0.43393299 -2.907227 46.00293 7
-0.451588 -2.8206789 46.313477 7
-0.37551099 0.055542 45.175781 7
0.010151 4.8609619 -38.841797 7
-0.0053630001 4.7990718 -39.136719 7
-0.031521 4.7585449 -39.631836 7
0.019641999 4.552979 -38.689453 7
0.0022470001 4.4934082 -39.019531 7
-0.024551 4.4509282 -39.525391 7
-0.050418999 4.4044189 -40.011719 7
0.073650002 1.175415 -37.798828 7
0.074398004 1.081787 -37.783203 7
0.074215002 0.98864698 -37.787109 7
0.077160001 0.89416498 -37.730469 7
0.113079 0.78759801 -37.05957 7
-0.094517 -2.6547849 -37.917969 7
-0.072323002 -2.720947 -37.527344 7
-0.058594 -2.796021 -37.28125 7
-0.041134 -2.86499 -36.97168 7
-0.373463 -2.8295901 41.861328 7
-0.37702599 -2.7375491 41.925781 7
-0.41485599 -2.6806641 42.533203 7
-0.34455499 0.051146999 41.569336 7
-0.367596 0.147827 41.938477 7
-0.349033 0.242065 41.645508 7
-0.014034 4.893188 -36.106445 7
-0.035216998 4.8499761 -36.476562 7
-0.086075 4.7764888 -37.363281 7
0.062316999 1.2637939 -34.96582 7
0.086612999 1.1636961 -34.548828 7
0.057872999 1.0930181 -35.042969 7
0.069572002 0.82849097 -34.838867 7
0.092883997 0.73413098 -34.438477 7
0.088779002 0.565063 -34.504883 7
-0.105156 -2.8720701 -34.762695 7
-0.096802004 -2.9467771 -34.621094 7
-0.072200999 -2.9992681 -34.223633 7
-0.056090999 -3.0614009 -33.960938 7
-0.057326999 -3.146729 -33.969727 7
-0.32980701 -2.655396 38.12793 7
-0.032471001 4.9359131 -33.216797 7
-0.04961 4.8909912 -33.494141 7
-0.091320001 4.8126221 -34.165039 7
-0.117722 4.7827148 -34.586914 7
0.073963001 1.389038 -31.75293 7
0.066959001 1.235352 -31.863281 7
0.03009 1.176392 -32.444336 7
0.059818 1.001343 -31.977539 7
0.041542001 0.60986298 -32.260742 7
0.059925001 0.52526897 -31.969727 7
0.079781003 0.44177201 -31.655273 7
0.050686002 0.368164 -32.112305 7
0.074988998 0.2854 -31.726562 7
0.070366003 0.207031 -31.797852 7
-0.121048 -2.9416499 -32.582031 7
-0.120773 -3.021606 -32.569336 7
-0.10984 -3.08728 -32.399414 7
-0.099682003 -3.153198 -32.239258 7
-0.698654 -7.8640141 40.166016 7
-0.049011 5.0332031 -31.124023 7
-0.050331 4.9586182 -31.15332 7
-0.075382002 4.935791 -31.529297 7
-0.094910003 4.8991699 -31.823242 7
-0.117596 4.8679199 -32.165039 7
0.059108999 1.529785 -29.783203 7
0.035549 1.471802 -30.129883 7
0.060798999 1.380249 -29.760742 7
0.038020998 1.32019 -30.09668 7
0.012489 1.260132 -30.472656 7
0.039661001 0.192627 -30.389648 7
0.065200999 0.115845 -30.010742 7
0.066028997 -0.16198701 -27.34375 7
-0.137596 -3.189575 -30.211914 7
-0.12788799 -3.2507319 -30.070312 7
-0.116474 -3.308594 -29.905273 7
-0.103348 -3.363281 -29.717773 7
-0.117558 -3.4581299 -29.900391 7
-0.013939 5.0769038 -28.141602 7
-0.0085110003 4.994019 -28.079102 7
-0.025726 4.9622798 -28.320312 7
-0.042934 4.929565 -28.5625 7
-0.060573999 4.896606 -28.811523 7
-0.090176001 4.8883061 -29.220703 7
-0.109966 4.8570561 -29.496094 7
0.074000999 1.609985 -27.241211 7
0.051589999 1.55835 -27.548828 7
0.070735998 1.47583 -27.289062 7
0.061595999 1.4136961 -27.414062 7
0.037041001 1.36084 -27.750977 7
0.049323998 1.284058 -27.584961 7
0.027298 0.182983 -27.881836 7
0.018851999 -0.028564001 -26.303711 7
0.042514998 -0.093262002 -25.999023 7
0.016852999 -0.160034 -26.326172 7
0.035946 -0.22363301 -26.080078 7
-0.158218 -3.283936 -28.326172 7
-0.16655 -3.3662109 -28.422852 7
-0.15202001 -3.415405 -28.230469 7
-0.14206301 -3.4705811 -28.09375 7
-0.046471 5.0756841 -26.53418 7
-0.034690998 4.982666 -26.396484 7
-0.046234 4.941772 -26.551758 7
-0.060993001 4.9074712 -26.74707 7
-0.095412999 4.9145508 -27.191406 7
0.055256002 1.7093509 -25.5625 7
0.057872999 1.643188 -25.530273 7
0.039856002 1.592407 -25.761719 7
0.061283 1.5124511 -25.492188 7
0.053883001 1.457153 -25.839844 7
0.050018001 -0.081177004 -23.700195 7
0.019610999 -0.148315 -24.306641 7
0.028393 -0.20837399 -24.201172 7
0.052406002 -0.26586899 -23.914062 7
-0.133209 -3.5960691 -25.824219 7
-0.126919 -3.6503911 -25.740234 7
-0.034534 5.1168208 -24.31543 7
-0.03413 5.054565 -24.322266 7
-0.047543 5.023315 -24.488281 7
-0.05748 4.9837651 -24.615234 7
-0.072844997 4.9554439 -24.804688 7
-0.093647003 4.9381099 -25.055664 7
-0.084881 4.8560791 -24.964844 7
0.057053 1.645386 -23.606445 7
0.027313 -0.364014 -22.505859 7
0.039859999 -0.41821301 -22.364258 7
0.016037 -0.53662097 -22.625 7
0.029121 -0.589966 -22.477539 7
-0.162056 -3.5809331 -24.303711 7
-0.155304 -3.6313479 -24.220703 7
-0.143803 -3.673584 -24.084961 7
-0.139149 -3.7263179 -24.024414 7
-0.13976701 -3.787354 -24.021484 7
-0.053661 5.106812 -22.755859 7
-0.057964001 5.0588379 -22.814453 7
-0.066494003 5.0201421 -22.916992 7
-0.07502 4.980835 -23.020508 7
-0.090401001 4.9559331 -23.197266 7
-0.106838 4.9328609 -23.386719 7
0.032570001 1.835449 -22.200195 7
0.023479 1.786743 -22.303711 7
0.037636001 1.71875 -22.150391 7
0.040695 1.6604 -22.119141 7
0.032120001 1.61084 -22.216797 7
0.015373 -0.49523899 -20.858398 7
0.013565 -0.548706 -20.875 7
0.032214999 -0.60363799 -20.895508 7
0.020199001 -0.76623499 -21.012695 7
0.022938 -0.818115 -20.981445 7
-0.155682 -3.6793211 -22.520508 7
-0.160854 -3.743896 -22.563477 7
-0.15530799 -3.7915039 -22.49707 7
-0.14751101 -3.8352051 -22.407227 7
-0.143089 -3.8839109 -22.351562 7
-0.058929 5.056519 -21.18457 7
-0.066905998 5.0203862 -21.276367 7
-0.074863002 4.9837651 -21.369141 7
-0.086781003 4.9554439 -21.499023 7
-0.104904 4.940063 -21.692383 7
-0.112869 4.901855 -21.78418 7
-0.100014 4.8195801 -21.664062 7
0.038940001 1.8687741 -20.594727 7
0.034889001 1.819824 -20.639648 7
0.025742 1.774902 -20.736328 7
0.042576 1.708618 -20.56543 7
0.034026999 1.6630861 -20.657227 7
0.020354999 1.620605 -20.799805 7
0.003609 -0.67480499 -19.825195 7
0.0095410002 -0.72314501 -19.764648 7
-0.016272999 -0.78234899 -20.013672 7
-0.012154 -0.83154303 -19.969727 7
-0.0026400001 -0.87817401 -19.875 7
0.00148 -0.92675799 -19.831055 7
-0.17709 -3.8635249 -21.217773 7
-0.164593 -3.8961179 -21.086914 7
-0.16108701 -3.9433589 -21.042969 7
-0.156982 -3.9893799 -20.992188 7
-0.16606501 -4.0577388 -21.070312 7
-0.19074599 -4.1540532 -21.294922 7
-0.073296003 5.087769 -19.888672 7
-0.081759997 5.0556641 -19.981445 7
-0.091412 5.026001 -20.083008 7
-0.097484998 4.9881592 -20.151367 7
-0.114929 4.9746089 -20.328125 7
-0.13177501 4.9586182 -20.498047 7
-0.112694 4.8658452 -20.329102 7
0.007675 1.88208 -19.561523 7
0.00098799996 1.837769 -19.628906 7
0.021903999 1.7705081 -19.431641 7
0.015198 1.726318 -19.499023 7
0.0019 1.68689 -19.630859 7
0.0072019999 1.632812 -19.582031 7
0.0048710001 -0.67334002 -18.313477 7
-0.0099600004 -0.72509801 -18.447266 7
-0.014549 -0.77380401 -18.485352 7
-0.0024910001 -0.81652802 -18.373047 7
0.0063820002 -0.85998499 -18.289062 7
-0.025131 -0.91992199 -18.572266 7
-0.18222401 -3.884521 -19.827148 7
-0.181667 -3.9337161 -19.8125 7
-0.17091399 -3.965698 -19.704102 7
-0.165886 -4.0070801 -19.648438 7
-0.16086601 -4.0479741 -19.59375 7
-0.162231 -4.0999761 -19.594727 7
-0.070160002 5.099854 -18.467773 7
-0.077872999 5.0699458 -18.547852 7
-0.085593998 5.0393071 -18.626953 7
-0.092041001 5.0057368 -18.695312 7
-0.102314 4.980103 -18.798828 7
-0.120869 4.9719238 -18.973633 7
-0.129219 4.9414058 -19.05957 7
-0.108898 4.8494868 -18.889648 7
0.016682001 1.9456789 -18.173828 7
-0.001915 1.915283 -18.34668 7
0.003082 1.864014 -18.303711 7
0.016422 1.805908 -18.186523 7
0.010582 1.764038 -18.243164 7
-0.0080340002 1.731812 -18.416016 7
0.0059199999 1.674072 -18.291992 7
0.0096819997 1.6242681 -18.260742 7
-0.016651001 -1.096802 -17.550781 7
-0.181923 -4.0917969 -18.546875 7
-0.092078999 5.177856 -17.456055 7
-0.091468997 5.1315918 -17.462891 7
-0.098274 5.101685 -17.53125 7
-0.103752 5.068604 -17.587891 7
-0.111912 5.0411382 -17.667969 7
-0.127491 5.029541 -17.80957 7
-0.13902301 5.008667 -17.916992 7
-0.130329 4.9438481 -17.855469 7
-0.1115 4.8581538 -17.708984 7
-0.110889 4.8111572 -17.71582 7
-0.013855 1.77417 -17.344727 7
-0.025494 -0.99548298 -16.540039 7
-0.033489 -1.084229 -16.599609 7
-0.034251999 -1.127197 -16.602539 7
-0.032887001 -1.169067 -16.587891 7
-0.024998 -0.97997999 -15.541016 7
-0.037921999 -1.026001 -15.637695 7
-0.046298999 -1.070435 -15.698242 7
-0.038029 -1.106689 -15.632812 7
-0.038844999 -1.1474611 -15.635742 7
-0.042683002 -1.189697 -15.662109 7
-0.050308 -1.234497 -15.71582 7
-0.052634999 -1.276001 -15.730469 7
-0.004429 1.850708 -15.19043 7
-0.0060160002 1.812378 -15.207031 7
-0.0091359997 1.775269 -15.234375 7
-0.0023769999 1.730347 -15.186523 7
-0.003216 1.691406 -15.196289 7
0.0027729999 1.647339 -15.154297 7
-0.00185 1.6112061 -15.192383 7
-0.028984001 -0.96508801 -14.629883 7
-0.029030001 -1.003052 -14.628906 7
-0.034687001 -1.0437011 -14.666016 7
-0.041195001 -1.122925 -14.707031 7
-0.041255999 -1.161011 -14.704102 7
-0.038097002 -1.197632 -14.678711 7
-0.213379 -4.167603 -15.446289 7
-0.209435 -4.200562 -15.40918 7
-0.205505 -4.2332759 -15.371094 7
-0.20476501 -4.2714839 -15.355469 7
-0.209663 -4.3199458 -15.378906 7
-0.22178601 -4.3814702 -15.452148 7
-0.226662 -4.4301758 -15.474609 7
-0.227547 -4.4715581 -15.469727 7
-0.10017 5.1251221 -14.289062 7
-0.089824997 5.0645752 -14.229492 7
-0.094668999 5.0380859 -14.274414 7
-0.101124 5.014648 -14.330078 7
-0.101971 4.9788818 -14.348633 7
-0.034187 -0.99047899 -13.850586 7
-0.034247998 -1.026611 -13.848633 7
-0.031761002 -1.061523 -13.829102 7
-0.048656002 -1.105835 -13.941406 7
-0.047008999 -1.1413569 -13.927734 7
-0.04707 -1.177734 -13.924805 7
-0.047115002 -1.2138669 -13.921875 7
-0.047169 -1.250122 -13.918945 7
-0.22373199 -4.1636958 -14.615234 7
-0.217903 -4.1912842 -14.566406 7
-0.21967299 -4.2320561 -14.567383 7
-0.21890301 -4.2685552 -14.551758 7
-0.213917 -4.2971191 -14.508789 7
-0.221573 -4.3486328 -14.547852 7
-0.230095 -4.4017329 -14.59375 7
-0.231857 -4.442627 -14.594727 7
-0.11552 5.1132808 -13.522461 7
-0.102116 5.047852 -13.447266 7
-0.104671 5.018188 -13.475586 7
-0.104725 4.9827881 -13.488281 7
-0.10561 4.9489751 -13.504883 7
-0.115749 4.9351811 -13.582031 7
-0.126724 4.922729 -13.666016 7
-0.127602 4.8887939 -13.682617 7
-0.113361 4.8226318 -13.600586 7
-0.010513 1.593872 -13.524414 7
-0.0097350003 1.5576169 -13.522461 7
-0.0055999998 1.519287 -13.49707 7
-0.0039829998 1.482666 -13.488281 7
0.0069269999 1.439819 -13.417969 7
0.0051569999 1.405762 -13.431641 7
-0.010086 1.3798831 -13.539062 7
-0.002563 1.339478 -13.490234 7
0.0074840002 1.298218 -13.424805 7
-0.045433 -0.97973597 -13.15625 7
-0.033966001 -1.009155 -13.080078 7
-0.032242 -1.04248 -13.06543 7
-0.033179998 -1.077148 -13.068359 7
-0.044739 -1.117188 -13.140625 7
-0.059841 -1.159302 -13.236328 7
-0.043961 -1.185547 -13.129883 7
-0.044876002 -1.220459 -13.132812 7
-0.039627001 -1.251709 -13.095703 7
-0.23403201 -4.1873779 -13.817383 7
-0.22876699 -4.2141109 -13.774414 7
-0.223526 -4.2407231 -13.731445 7
-0.222706 -4.2749019 -13.71582 7
-0.221889 -4.309082 -13.699219 7
-0.226402 -4.3529048 -13.716797 7
-0.236229 -4.4063721 -13.768555 7
-0.241638 -4.452148 -13.790039 7
0.003246 1.269043 -12.703125 7
0.010258 1.231323 -12.65918 7
0.018192001 1.193359 -12.610352 7
0.011921 1.163452 -12.65332 7
-0.0023350001 1.137329 -12.748047 7
-0.0023960001 1.103516 -12.751953 7
0.0072900001 1.065186 -12.69043 7
0.012547 1.029053 -12.658203 7
0.023128999 0.990601 -12.591797 7
-0.030632 -1.024536 -12.365234 7
-0.029755 -1.056641 -12.356445 7
-0.033500999 -1.091064 -12.37793 7
-0.043823 -1.161621 -12.433594 7
-0.043915 -1.227173 -12.428711 7
-0.038391002 -1.256592 -12.391602 7
-0.230968 -4.1879878 -13.015625 7
-0.23568 -4.2302251 -13.033203 7
-0.232044 -4.257812 -13.000977 7
-0.222813 -4.2753911 -12.935547 7
-0.22102 -4.3060298 -12.915039 7
-0.23511501 -4.3991699 -12.976562 7
-0.23525199 -4.4671631 -12.956055 7
0.006519 0.951294 -12.024414 7
-4.9999999e-05 0.921875 -12.067383 7
0.013844 0.88427699 -11.983398 7
0.018417001 0.85046399 -11.956055 7
0.0062600002 0.82324201 -12.033203 7
0.01273 0.788818 -11.995117 7
0.0089379996 0.75817901 -12.020508 7
0.031876002 0.71838403 -12.010742 7
0.034630001 0.68591303 -11.994141 7
0.01511 0.66015601 -12.118164 7
-0.025242001 -0.97106898 -11.651367 7
-0.033100002 -1.005493 -11.694336 7
-0.023396 -1.0319819 -11.633789 7
-0.025387 -1.0637209 -11.642578 7
-0.041099999 -1.133301 -11.729492 7
-0.048981 -1.199707 -11.770508 7
-0.035374001 -1.223267 -11.686523 7
-0.038345002 -1.255981 -11.701172 7
-0.231823 -4.2071528 -12.236328 7
-0.235783 -4.2462158 -12.249023 7
-0.229984 -4.268311 -12.206055 7
-0.225178 -4.291748 -12.166992 7
-0.227184 -4.3273931 -12.168945 7
-0.234173 -4.4040532 -12.186523 7
-0.107204 -2.090698 14.393555 7
-0.103146 -2.0562739 14.375 7
-0.098041996 -1.990479 14.356445 7
-0.100777 4.9998779 -11.105469 7
-0.094958998 4.9571528 -11.085938 7
-0.098892003 4.9360352 -11.119141 7
-0.095020004 4.897583 -11.109375 7
-0.096042998 4.869873 -11.125977 7
0.022324 0.59521502 -11.276367 7
0.030075001 0.56286597 -11.231445 7
0.031975001 0.53234899 -11.22168 7
0.022125 0.50451702 -11.279297 7
0.013206 0.445923 -11.333984 7
0.025864 0.41320801 -11.259766 7
0.030624 0.35192901 -11.232422 7
0.032515999 0.32165501 -11.22168 7
-0.032954998 -0.96020502 -11.107422 7
-0.032986 -0.98986799 -11.104492 7
-0.039158002 -1.022217 -11.136719 7
-0.028996 -1.046997 -11.076172 7
-0.028019 -1.075928 -11.068359 7
-0.031124 -1.107056 -11.083984 7
-0.033215001 -1.137695 -11.091797 7
-0.046500999 -1.174316 -11.164062 7
-0.050636001 -1.206177 -11.18457 7
-0.041499998 -1.230835 -11.128906 7
-0.041545998 -1.260498 -11.126953 7
-0.041591998 -1.290161 -11.124023 7
-0.042652 -1.320435 -11.125977 7
-0.233372 -4.1751709 -11.585938 7
-0.24161901 -4.2200928 -11.619141 7
-0.24270201 -4.2528081 -11.615234 7
-0.23868901 -4.2762451 -11.583984 7
-0.23262399 -4.296021 -11.540039 7
-0.233723 -4.3284912 -11.53418 7
-0.23378401 -4.3590088 -11.523438 7
-0.231792 -4.3858638 -11.50293 7
-0.23185299 -4.4165039 -11.493164 7
-0.238079 -4.458252 -11.513672 7
-0.092472002 -1.89917 13.763672 7
-0.093487002 -1.870728 13.774414 7
-0.107742 5.0184331 -10.487305 7
-0.097576 4.967896 -10.446289 7
-0.099643998 4.9440918 -10.467773 7
-0.104778 4.9266362 -10.506836 7
-0.108871 4.907104 -10.540039 7
-0.106888 4.8742681 -10.539062 7
0.017677 0.309448 -10.737305 7
0.021706 0.27990699 -10.71582 7
0.026760001 0.25060999 -10.6875 7
0.029758001 0.22143599 -10.670898 7
0.014465 0.192627 -10.884766 7
0.017479001 0.16333 -10.868164 7
0.022545001 0.13403299 -10.839844 7
0.024551 0.10498 -10.828125 7
0.027561 0.075928003 -10.810547 7
0.028545 0.047118999 -10.804688 7
0.022407999 0.018188 -10.839844 7
0.014267 -0.0084229996 -10.164062 7
0.014214 -0.035889 -10.163086 7
0.021655999 -0.063477002 -10.123047 7
0.024815001 -0.09082 -10.106445 7
0.023693001 -0.118286 -10.111328 7
0.020412 -0.145996 -10.128906 7
0.019268 -0.173462 -10.133789 7
0.010628 -0.201904 -10.178711 7
0.0084149996 -0.229736 -10.19043 7
0.013718 -0.25671399 -10.160156 7
0.017971 -0.28369099 -10.137695 7
-0.031192999 -0.96887201 -10.487305 7
-0.035519 -0.99902302 -10.507812 7
-0.040920001 -1.029663 -10.53418 7
-0.031307001 -1.053345 -10.479492 7
-0.028140999 -1.079834 -10.459961 7
-0.030331001 -1.109131 -10.469727 7
-0.032504998 -1.137939 -10.477539 7
-0.042202 -1.171265 -10.526367 7
-0.048679002 -1.203003 -10.556641 7
-0.044436999 -1.22876 -10.53125 7
-0.041264001 -1.255371 -10.511719 7
-0.043446001 -1.28479 -10.519531 7
-0.046703 -1.314819 -10.53418 7
-0.226349 -4.1636958 -10.851562 7
-0.227478 -4.1945801 -10.847656 7
-0.239338 -4.2442632 -10.896484 7
-0.23833799 -4.2714839 -10.880859 7
-0.234097 -4.2928472 -10.849609 7
-0.232014 -4.3181152 -10.829102 7
-0.23209 -4.3469238 -10.817383 7
-0.233219 -4.3778081 -10.813477 7
-0.230064 -4.4008789 -10.786133 7
-0.230125 -4.429688 -10.776367 7
-0.23662899 -4.4703369 -10.797852 7
-0.096423998 -2.201782 13.131836 7
-0.099682003 -2.177002 13.152344 7
-0.096354999 -2.14624 13.141602 7
-0.099628001 -2.1213379 13.164062 7
-0.090786003 -2.085449 13.123047 7
-0.087452002 -2.05481 13.110352 7
-0.087429002 -2.026978 13.116211 7
-0.085178003 -1.997314 13.108398 7
-0.082957998 -1.967773 13.102539 7
-0.080729999 -1.9382319 13.09668 7
-0.079594001 -1.909546 13.094727 7
-0.085072003 -1.886353 13.12793 7
-0.076228999 -1.851562 13.085938 7
-0.071800001 -1.82019 13.068359 7
-0.071769997 -1.79248 13.072266 7
-0.075030997 -1.767578 13.09375 7
-0.068049997 0.6875 13.1875 7
-0.065807 0.71460003 13.174805 7
-0.065753996 0.74230999 13.172852 7
-0.065707996 0.77026403 13.170898 7
-0.066753 0.79858398 13.174805 7
-0.066699997 0.82641602 13.172852 7
-0.065555997 0.85388201 13.165039 7
-0.065502003 0.88171399 13.163086 7
-0.063267 0.90844703 13.150391 7
-0.065425999 0.93713403 13.160156 7
-0.12570199 5.109375 -9.8681641 7
-0.124641 5.0800781 -9.8759766 7
-0.12896 5.0626221 -9.9082031 7
-0.124702 5.0263672 -9.8994141 7
-0.10442 4.9553218 -9.8095703 7
-0.095881999 4.9101558 -9.7792969 7
-0.093777001 4.8789058 -9.7802734 7
-0.095936 4.8569341 -9.8017578 7
-0.099178001 4.836792 -9.8291016 7
-0.100277 4.8122559 -9.8457031 7
-0.113148 4.8123779 -9.9199219 7
-0.124924 4.809937 -9.9912109 7
0.014347 -0.326904 -9.7734385 7
0.014317 -0.353394 -9.7724609 7
0.00312 -0.381836 -9.8291016 7
-0.00251 -0.40917999 -9.8564453 7
-0.0025559999 -0.435913 -9.8544922 7
0.001877 -0.46167001 -9.8300781 7
0.006302 -0.48706099 -9.8066406 7
0.0073810001 -0.51342797 -9.7988281 7
0.0073509999 -0.53991699 -9.7978516 7
-0.0038449999 -0.569336 -9.8544922 7
-0.0050130002 -0.596313 -9.8583984 7
-0.0095210001 -0.624268 -9.8798828 7
-0.033482 -0.981323 -9.9755859 7
-0.032405999 -1.007568 -9.9677734 7
-0.033550002 -1.0350339 -9.9716797 7
-0.041416001 -1.065796 -10.008789 7
-0.031399 -1.087891 -9.9550781 7
-0.031445 -1.114624 -9.9521484 7
-0.033709999 -1.1427 -9.9609385 7
-0.031528 -1.168335 -9.9462891 7
-0.043873001 -1.2019041 -10.005859 7
-0.055096 -1.2351069 -10.05957 7
-0.043949001 -1.255981 -10 7
-0.23407 -4.3537598 -10.223633 7
-0.234146 -4.3813481 -10.213867 7
-0.234207 -4.408813 -10.203125 7
-0.241055 -4.4760742 -10.212891 7
-0.010857 -0.46679699 -9.2832031 7
-0.000114 -0.49267599 -9.3525391 7
-0.00248 -0.51879901 -9.3632812 7
0.0021480001 -0.543091 -9.3378906 7
-0.0072249998 -0.57080102 -9.3828115 7
-0.022461001 -0.626221 -9.4541016 7
-0.041591998 -0.96789598 -9.5214844 7
-0.042805001 -0.99414098 -9.5244141 7
-0.044048 -1.046387 -9.5253906 7
-0.034786001 -1.093506 -9.4746094 7
-0.034823999 -1.119141 -9.4716797 7
-0.036029998 -1.1455081 -9.4755859 7
-0.036068 -1.1711431 -9.4726562 7
-0.050106 -1.20459 -9.5380859 7
-0.049006999 -1.2557369 -9.5263672 7
-0.090953998 -1.9124759 12.152344 7
-0.084941998 -1.881958 12.128906 7
-0.075359002 -1.8486331 12.088867 7
-0.071735002 -1.820557 12.076172 7
-0.075291 -1.798218 12.097656 7
-0.071673997 -1.77002 12.083984 7
-0.076420002 -1.748291 12.111328 7
-0.066822 -1.71582 12.069336 7
-0.069179997 -1.692261 12.084961 7
-0.063183002 -1.662598 12.061523 7
-0.059558999 -1.634644 12.047852 7
-0.061916001 -1.611328 12.0625 7
-0.061381999 0.96008301 12.15625 7
-0.058956001 0.98449701 12.143555 7
-0.013222 -0.69494599 -8.9462891 7
-0.015678 -0.72033697 -8.9570312 7
-0.012077 -0.74352998 -8.9375 7
-0.030632 -0.97155797 -9.0048828 7
-0.034302 -0.99792498 -9.0205078 7
-0.027054001 -1.019165 -8.9824219 7
-0.055050001 -1.056885 -9.1113281 7
-0.051433999 -1.0799561 -9.0927734 7
-0.045398999 -1.101807 -9.0615234 7
-0.040569 -1.124146 -9.0351562 7
-0.040600002 -1.148682 -9.0332031 7
-0.040646002 -1.173584 -9.0302734 7
-0.041912001 -1.198853 -9.0332031 7
-0.051662002 -1.229004 -9.0751953 7
-0.066295996 -1.2618411 -9.140625 7
-0.010403 -0.68615699 -8.46875 7
-0.015511 -0.71130401 -8.4902344 7
-0.020653 -0.75964397 -8.5097656 7
-0.015648 -0.80468798 -8.4824219 7
-0.010616 -0.82604998 -8.4570312 7
-0.0081439996 -0.87158197 -8.4414062 7
-0.018332999 -0.89916998 -8.4853516 7
-0.028542001 -0.92675799 -8.5283203 7
-0.032372002 -0.951904 -8.5429688 7
-0.021011 -0.993774 -8.4873047 7
-0.017227 -1.015625 -8.4677734 7
-0.024932999 -1.065796 -8.4970703 7
-0.031319 -1.092407 -8.5224609 7
-0.026306 -1.136719 -8.4951172 7
-0.03019 -1.185547 -8.5068359 7
-0.044204999 -1.216675 -8.5664062 7
-0.048083998 -1.265991 -8.578125 7
-0.234772 -4.4746089 -8.4960938 7
-0.065471999 -1.917603 11.114258 7
-0.062854998 -1.892334 11.108398 7
-0.069316998 -1.851807 11.145508 7
-0.062778004 -1.823364 11.12207 7
-0.056263 -1.795166 11.097656 7
-0.057528999 -1.773193 11.107422 7
-0.053576998 -1.724243 11.099609 7
-0.058758002 -1.7052 11.125977 7
-0.054813001 -1.656494 11.116211 7
-0.052189 -1.63147 11.109375 7
-0.048266999 -1.6055911 11.09668 7
-0.050381001 1.015259 11.204102 7
-0.022789 -0.97644001 -8.0908203 7
-0.026779 -1.000488 -8.1044922 7
-0.034752 -1.026855 -8.1367188 7
-0.047989 -1.055542 -8.1923828 7
-0.052005999 -1.0802 -8.2060547 7
-0.042778 -1.098389 -8.1640615 7
-0.036194 -1.117676 -8.1328115 7
-0.034912001 -1.139526 -8.1240234 7
-0.03627 -1.16272 -8.1259766 7
-0.040275998 -1.1875 -8.1396484 7
-0.040314 -1.209839 -8.1367188 7
-0.048285998 -1.236938 -8.1689453 7
-0.057574999 -1.2648931 -8.2050781 7
-0.258591 -4.3791499 -8.1660156 7
-0.25333399 -4.3920898 -8.1347656 7
-0.25339499 -4.4146729 -8.1240234 7
-0.245499 -4.422729 -8.0820312 7
-0.241577 -4.4378662 -8.0566406 7
-0.24561299 -4.467773 -8.0615234 7
-0.35176501 -6.089355 -7.6386719 7
-0.35050601 -6.1074219 -7.6191411 7
-0.35188699 -6.1320801 -7.609375 7
-0.34532899 -6.1373291 -7.570312 7
-0.34273499 -6.1521001 -7.545898 7
-0.34148401 -6.1699219 -7.5263672 7
-0.34020999 -6.1877441 -7.5087891 7
-0.34559599 -6.2220459 -7.5117192 7
-0.34698501 -6.2463379 -7.5019531 7
-0.35635 -6.2902832 -7.5205078 7
-0.35641101 -6.3114009 -7.5048828 7
-0.36047 -6.3424072 -7.5039058 7
-0.37116599 -6.3900151 -7.5263672 7
-0.29351801 -5.0819092 10.538086 7
-0.29350999 -5.0603032 10.549805 7
-0.29216799 -5.0357671 10.556641 7
-0.079696998 -1.8968509 10.779297 7
-0.079659 -1.874756 10.783203 7
-0.087761 -1.859375 10.821289 7
-0.085029997 -1.834839 10.814453 7
-0.085006997 -1.8125 10.819336 7
-0.071468003 -1.779663 10.766602 7
-0.068728998 -1.755249 10.759766 7
-0.064663 -1.729858 10.748047 7
-0.061932001 -1.705811 10.739258 7
-0.064609997 -1.685791 10.754883 7
-0.075401001 -1.671631 10.804688 7
-0.072688997 -1.6474611 10.797852 7
-0.065890998 -1.620239 10.772461 7
-0.102791 4.7949219 -7.1767578 7
-0.104126 4.7772222 -7.1933589 7
-0.100182 4.7481689 -7.1894531 7
-0.100204 4.7277832 -7.2001948 7
-0.106812 4.7207031 -7.2373052 7
-0.112114 4.71106 -7.2675781 7
-0.12531701 4.7172852 -7.3300781 7
-0.125332 4.6964111 -7.3408198 7
-0.11084 4.6459961 -7.295898 7
-0.11084 4.6252441 -7.3076172 7
-0.112167 4.6070561 -7.3232422 7
-0.112183 4.5861821 -7.3339839 7
-0.109566 4.5601811 -7.3349609 7
-0.106949 4.5340581 -7.335938 7
-0.106964 4.5131841 -7.3466802 7
-0.285492 -5.0673828 9.5761719 7
-0.28257 -5.0419922 9.578125 7
-0.281113 -5.0197749 9.5859385 7
-0.281113 -5.0003662 9.5976562 7
-0.059177 -1.9169919 9.9404297 7
-0.05624 -1.894287 9.9345703 7
-0.054760002 -1.872925 9.9335938 7
-0.054737002 -1.852783 9.9375 7
-0.053272001 -1.8312989 9.9365234 7
-0.061992999 -1.818359 9.9736328 7
-0.064892001 -1.800415 9.9892578 7
-0.059032001 -1.775391 9.9716797 7
-0.047359001 -1.745972 9.9316406 7
-0.044422001 -1.723511 9.9238281 7
-0.044399001 -1.703369 9.9277344 7
-0.041469999 -1.68103 9.9208984 7
-0.042904001 -1.661865 9.9306641 7
-0.045795001 -1.6437989 9.9453115 7
-0.050152 -1.626709 9.9677734 7
-0.044314999 -1.602417 9.9482422 7
-0.095463 4.7935791 -6.2451172 7
-0.098311998 4.78125 -6.266602 7
-0.096905001 4.7601318 -6.2724609 7
-0.098351002 4.7446289 -6.2880859 7
-0.099770002 4.729126 -6.304688 7
-0.095509 4.7019038 -6.3017578 7
-0.099799998 4.6922612 -6.3261719 7
-0.10408 4.6826172 -6.3525391 7
-0.112656 4.6816411 -6.391602 7
-0.243313 -4.4368901 -6.7167969 7
-0.241879 -4.4533691 -6.7011719 7
-0.241924 -4.4725342 -6.6904302 7
-0.28910801 -5.1181641 9.1152344 7
-0.29820299 -5.1187739 9.1552734 7
-0.28760499 -5.0783691 9.1347656 7
-0.283066 -5.0510249 9.1328115 7
-0.28611001 -5.0388179 9.1542969 7
-0.286102 -5.0205078 9.1660156 7
-0.27854899 -4.9865718 9.1552734 7
-0.28005999 -4.971313 9.171875 7
-0.27250701 -4.9377441 9.1601562 7
-0.280067 -4.9344478 9.1953115 7
-0.28311199 -4.9221191 9.2177734 7
-0.27856401 -4.8945308 9.2138672 7
-0.290672 -4.8999019 9.2646484 7
-0.28462201 -4.8693848 9.2568359 7
-0.27402499 -4.829834 9.234375 7
-0.27703899 -4.8173828 9.2548828 7
-0.065132 -1.905762 9.6181641 7
-0.063606001 -1.88501 9.6171885 7
-0.069641002 -1.870728 9.6435547 7
-0.060543001 -1.84375 9.6152344 7
-0.063538 -1.826782 9.6298828 7
-0.077141002 -1.818359 9.6845703 7
-0.074088998 -1.796387 9.6777344 7
-0.060458999 -1.765991 9.6318359 7
-0.046833001 -1.736084 9.5869141 7
-0.046817999 -1.716675 9.5908203 7
-0.051334001 -1.700562 9.6113281 7
-0.043751001 -1.675537 9.5878906 7
-0.042217001 -1.6550291 9.5859385 7
-0.060352001 -1.648926 9.65625 7
-0.064856999 -1.632812 9.6767578 7
-0.048206002 -1.601318 9.6191406 7
-0.115372 4.5195308 -6.0820308 7
-0.234798 -4.1893311 -6.438477 7
-0.241055 -4.236938 -6.438477 7
-0.242695 -4.276855 -6.4238281 7
-0.236599 -4.2844238 -6.3925781 7
-0.247417 -4.3218989 -6.4169922 7
-0.24905799 -4.3618159 -6.4023442 7
-0.247623 -4.395874 -6.375977 7
-0.24158099 -4.4212651 -6.3349609 7
-0.24315301 -4.4425049 -6.3300781 7
-0.24320599 -4.460815 -6.320312 7
-0.290039 -5.09729 8.7421885 7
-0.285355 -5.070435 8.7402344 7
-0.27910599 -5.0228271 8.7460938 7
-0.27128601 -4.972168 8.7470703 7
-0.27442199 -4.943604 8.7792969 7
-0.27285799 -4.9229741 8.7861328 7
-0.271294 -4.9023442 8.7929688 7
-0.27755699 -4.8797612 8.8349609 7
-0.27912101 -4.8477778 8.8632812 7
-0.27600101 -4.8061519 8.8769531 7
-0.064865001 -1.91333 9.3115234 7
-0.064850003 -1.894653 9.3164062 7
-0.061684001 -1.854614 9.3134766 7
-0.066376001 -1.839722 9.3349609 7
-0.067909002 -1.822266 9.3457031 7
-0.064742997 -1.782104 9.3427734 7
-0.050632 -1.7336431 9.3007812 7
-0.047488999 -1.7125241 9.2939453 7
-0.044353001 -1.691528 9.2880859 7
-0.047458999 -1.6750489 9.3027344 7
-0.050556 -1.640259 9.3222656 7
-0.055225 -1.624878 9.3427734 7
-0.29001999 -5.11377 8.3017578 7
-0.278671 -5.0740972 8.2832031 7
-0.27704599 -5.0544429 8.2900391 7
-0.28030401 -5.0447998 8.3115234 7
-0.27218601 -5.0118408 8.3007812 7
-0.26408401 -4.9790039 8.2890615 7
-0.267326 -4.9692378 8.3105469 7
-0.27058399 -4.9594731 8.3310547 7
-0.267342 -4.9364009 8.3339844 7
-0.27220899 -4.9299321 8.359375 7
-0.268967 -4.9068599 8.3623047 7
-0.267349 -4.887207 8.3691406 7
-0.27061501 -4.8771968 8.3896484 7
-0.277107 -4.8734131 8.4199219 7
-0.275475 -4.8536382 8.4267578 7
-0.27060699 -4.827271 8.4248047 7
-0.068039 -1.913208 8.9980469 7
-0.064773999 -1.892578 8.9912109 7
-0.068007998 -1.877197 9.0068359 7
-0.066359997 -1.8581541 9.0048828 7
-0.059852999 -1.834595 8.9882812 7
-0.067947 -1.823364 9.0195312 7
-0.074424997 -1.810547 9.0458984 7
-0.066298999 -1.786011 9.0224609 7
-0.066276997 -1.768066 9.0273438 7
-0.054892998 -1.741089 8.9921885 7
-0.056519002 -1.724365 9.0019531 7
-0.050014 -1.701416 8.984375 7
-0.049991999 -1.683472 8.9882812 7
-0.054832 -1.669189 9.0087891 7
-0.053199999 -1.6500241 9.0078115 7
-0.066154003 -1.641479 9.0546885 7
-0.053153999 -1.614014 9.0146484 7
-0.27302599 -4.7651372 -5.4306641 7
-0.27312499 -4.7974849 -5.4082031 7
-0.345837 -6.2276611 -4.4638672 7
-0.355854 -6.2662349 -4.4726558 7
-0.35264999 -6.2857671 -4.4345698 7
-0.35935199 -6.315918 -4.4355469 7
-0.35942101 -6.3297119 -4.4199219 7
-0.35284001 -6.3269038 -4.3886719 7
-0.367897 -6.3917241 -4.3925781 7
-0.27719101 -4.862793 8.0273438 7
-0.27046201 -4.8179932 8.0332031 7
-0.27214801 -4.8057861 8.0498047 7
-0.064110003 -1.888672 8.6826172 7
-0.067459002 -1.8573 8.703125 7
-0.072463997 -1.844116 8.7226562 7
-0.074142002 -1.828247 8.7324219 7
-0.075813003 -1.812134 8.7421885 7
-0.067368001 -1.770874 8.7236328 7
-0.069045998 -1.754761 8.734375 7
-0.058922 -1.7125241 8.7080078 7
-0.055534001 -1.692627 8.7021484 7
-0.057204999 -1.676636 8.7119141 7
-0.055496 -1.640747 8.7138672 7
-0.062194999 -1.628296 8.7392578 7
-0.063858002 -1.612183 8.7490234 7
-0.050673999 0.98352098 8.8320312 7
-0.042252 0.99731398 8.8017578 7
-0.032104 1.0274661 8.7626953 7
-0.027039001 1.042603 8.7451172 7
-0.023651 1.05835 8.7314453 7
-0.033668999 1.098022 8.7597656 7
-0.036986999 1.117065 8.7685547 7
-0.036949001 1.1343991 8.765625 7
-0.033553999 1.150146 8.7519531 7
-0.031845 1.166626 8.7431641 7
-0.031815 1.18396 8.7412109 7
-0.036812 1.203979 8.7548828 7
-0.045166001 1.226074 8.7802734 7
-0.041779 1.241455 8.765625 7
-0.050120998 1.2637939 8.7910156 7
-0.245213 -4.4888921 -5.1337891 7
-0.24869201 -4.5106201 -5.132812 7
-0.241879 -4.5134282 -5.1035161 7
-0.247059 -4.5385742 -5.1064448 7
-0.24711999 -4.553833 -5.0957031 7
-0.24889 -4.5722661 -5.0888672 7
-0.25067499 -4.5908198 -5.0820308 7
-0.248997 -4.6029048 -5.0664058 7
-0.26278299 -4.6442871 -5.0917969 7
-0.25597 -4.6464839 -5.0625 7
-0.26459101 -4.6782231 -5.0742192 7
-0.26979399 -4.7034912 -5.0761719 7
-0.26469001 -4.7089839 -5.0527339 7
-0.273323 -4.7407231 -5.063477 7
-0.264797 -4.7393799 -5.0292969 7
-0.27171701 -4.7678218 -5.0361328 7
-0.27347901 -4.786499 -5.0292969 7
-0.26323301 -4.7814941 -4.9912109 7
-0.35511401 -6.0961909 -4.1777339 7
-0.35859701 -6.1175542 -4.170898 7
-0.35176501 -6.1141362 -4.141602 7
-0.358704 -6.1439209 -4.1425781 7
-0.35187101 -6.1403809 -4.1132808 7
-0.35882199 -6.170166 -4.1132808 7
-0.35888299 -6.183105 -4.0986328 7
-0.36236599 -6.2044678 -4.0917969 7
-0.35727301 -6.204834 -4.0654302 7
-0.357319 -6.217773 -4.0507808 7
-0.359097 -6.2348628 -4.039062 7
-0.35742599 -6.2436519 -4.0214839 7
-0.352314 -6.2436519 -3.996094 7
-0.350658 -6.2520752 -3.976562 7
-0.348988 -6.260498 -3.9589839 7
-0.347332 -6.269043 -3.9404299 7
-0.35255101 -6.294312 -3.9355471 7
-0.35433599 -6.3112788 -3.9238279 7
-0.35438201 -6.323853 -3.910156 7
-0.35788301 -6.3449712 -3.902344 7
-0.361393 -6.3662109 -3.8935549 7
-0.35972199 -6.3743901 -3.874023 7
-0.35635 -6.3780522 -3.851562 7
-0.080219001 -1.915527 8.4423828 7
-0.078472003 -1.8974611 8.4414062 7
-0.066276997 -1.870605 8.4082031 7
-0.071494997 -1.858398 8.4287109 7
-0.067993 -1.8388669 8.421875 7
-0.067978002 -1.822266 8.4267578 7
-0.066215999 -1.804199 8.4257812 7
-0.074920997 -1.794556 8.4570312 7
-0.067932002 -1.7724611 8.4394531 7
-0.071396001 -1.758423 8.4541016 7
-0.074859999 -1.744507 8.4697266 7
-0.057449002 -1.714478 8.4189453 7
-0.055686999 -1.696655 8.4179688 7
-0.059158001 -1.682495 8.4335938 7
-0.053916998 -1.6619869 8.4208984 7
-0.053909 -1.6455081 8.4248047 7
-0.057381 -1.631348 8.4394531 7
-0.071289003 -1.624634 8.4873047 7
-0.035133 0.974365 8.5058594 7
-0.033348002 0.99035603 8.4970703 7
-0.031585999 1.006348 8.4892578 7
-0.028076001 1.0213619 8.4755859 7
-0.026314 1.037354 8.4677734 7
-0.024529001 1.053223 8.4599609 7
-0.022758 1.069092 8.4521484 7
-0.02272 1.085693 8.4492188 7
-0.022697 1.102295 8.4462891 7
-0.027869999 1.12146 8.4599609 7
-0.024360999 1.136475 8.4472656 7
-0.027809 1.154907 8.4560547 7
-0.034720998 1.175293 8.4746094 7
-0.027733 1.1882319 8.4492188 7
-0.029441999 1.205933 8.4521484 7
-0.038100999 1.227295 8.4775391 7
-0.043265998 1.246948 8.4902344 7
-0.038017001 1.26062 8.4707031 7
-0.257961 -4.4812012 -4.8339839 7
-0.256237 -4.4926758 -4.8183589 7
-0.25272799 -4.5007319 -4.7988281 7
-0.252781 -4.5153809 -4.7880859 7
-0.25638199 -4.5366211 -4.7861328 7
-0.25641999 -4.55127 -4.7753911 7
-0.25648901 -4.5657959 -4.764648 7
-0.25296399 -4.573853 -4.7451172 7
-0.25655699 -4.5949712 -4.7431641 7
-0.258389 -4.612915 -4.7363281 7
-0.25666401 -4.624146 -4.7216802 7
-0.26027301 -4.6452641 -4.71875 7
-0.26386601 -4.666626 -4.7167969 7
-0.26571301 -4.6843262 -4.7089839 7
-0.269299 -4.705688 -4.7070308 7
-0.262234 -4.706543 -4.6787109 7
-0.271175 -4.737793 -4.688477 7
-0.26589599 -4.742065 -4.664062 7
-0.27483001 -4.7736821 -4.6748052 7
-0.278431 -4.7949219 -4.671875 7
-0.27135801 -4.7954102 -4.6435552 7
-0.354801 -6.259521 -3.5107419 7
-0.36019501 -6.2843022 -3.5058589 7
-0.3549 -6.2825928 -3.480469 7
-0.36031699 -6.307373 -3.4755859 7
-0.36035499 -6.3189702 -3.4619141 7
-0.36220199 -6.3348389 -3.449219 7
-0.35690701 -6.3328862 -3.4238279 7
-0.360531 -6.353271 -3.4150391 7
-0.35879901 -6.3601069 -3.3964839 7
-0.36063001 -6.375977 -3.3857419 7
-0.068604 -1.88501 8.1416016 7
-0.081196003 -1.879517 8.1845703 7
-0.073982 -1.8575439 8.1669922 7
-0.079365 -1.846069 8.1884766 7
-0.077556998 -1.828491 8.1875 7
-0.077533998 -1.812378 8.1914062 7
-0.08292 -1.800781 8.2109385 7
-0.088306002 -1.788818 8.2314453 7
-0.079304002 -1.765747 8.2099609 7
-0.068480998 -1.7412111 8.1806641 7
-0.068466 -1.725098 8.1855469 7
-0.070266999 -1.710449 8.1953115 7
-0.070251003 -1.694458 8.1992188 7
-0.063026004 -1.6730959 8.1806641 7
-0.063010998 -1.6569819 8.1845703 7
-0.059402 -1.638184 8.1777344 7
-0.066611998 -1.627319 8.2050781 7
-0.071990997 -1.6151119 8.2246094 7
-0.048370998 0.92909801 13.367565 7
-0.1029 1.117842 11.913669 7
-0.094377004 -1.7283241 10.944168 7
-0.27686301 -4.999156 10.43621 7
-0.058736999 -1.7564189 9.9930573 7
-0.056164999 -1.836839 9.4282885 7
-0.328749 -4.951642 9.3884716 7
-0.30645299 -4.9094062 8.5271873 7
-0.089780003 -1.854023 8.8181725 7
-0.088767998 -1.649616 8.8811283 7
-0.044929001 1.07328 8.7469807 7
-0.070520997 -1.871423 8.3261213 7
-0.064682998 -1.67665 8.363451 7
-0.02799 0.97987998 8.339365 7
-0.032223001 1.165888 8.3229504 7
-0.23048601 -4.9144082 6.4044929 7
-0.235489 -4.826849 6.6161089 7
-0.063092001 -1.904906 7.9512649 7
-0.042815998 -1.691793 7.91716 7
-0.089708 -1.904543 7.5702462 7
-0.086032003 -1.745981 7.6266198 7
-0.067863002 -1.8891439 7.2191768 7
-0.054483999 -1.722533 7.2353549 7
-0.052044 -1.879897 6.9246058 7
-0.041708998 -1.732083 6.9569941 7
0.120994 -1.221161 -10.453417 7
0.019398 -1.183833 -8.2213507 7
0.040031999 -1.160677 -6.7184119 7
-0.089684002 -1.884607 13.133266 7
0.046245001 -1.144091 -5.6540332 7
-0.051871002 -1.777872 11.928446 7
0.045724001 -1.4659359 -4.7641869 7
-0.119208 -1.701118 11.084928 7
-0.015027 -1.418591 -3.966913 7
-0.28587601 -4.6382642 -4.6045852 7
-0.39097801 -6.1692371 -4.2896781 7
-0.31929699 -4.9894919 10.410685 7
-0.063212998 -1.619406 10.156001 7
-0.24980099 -4.5672698 -3.675889 7
-0.361094 -6.220963 -3.145189 7
-0.059525002 -1.84068 9.6078472 7
-0.229341 -4.5292239 -2.9506669 7
-0.27018401 -4.849484 8.9694462 7
-0.051917002 -1.782882 9.1676846 7
0.031163 -1.325207 -2.329699 7
-0.0025450001 -1.573987 -2.4772091 7
-0.224346 -4.5266099 -2.3848219 7
-0.31787401 -4.9780822 8.2068644 7
-0.080661997 -1.714752 8.6549644 7
-0.0073500001 -1.2996171 -1.901 7
-0.029744999 -1.523213 -1.974834 7
-0.083273001 -1.889539 8.3260202 7
-0.061214998 -1.665007 8.2740412 7
-0.014582 -1.4882621 -1.621302 7
-0.056460999 -1.824177 7.9483461 7
-0.038775999 -1.618438 7.916748 7
-0.33725801 -6.3103528 1.664112 7
-0.34371299 -6.3869152 1.884083 7
-0.34380901 -6.4620662 2.343015 7
-0.26864401 -4.9059291 6.719789 7
-0.043869 -1.775406 7.667438 7
-0.224905 -4.6229172 -0.20038401 7
-0.325102 -4.9893508 6.2353859 7
-0.088524997 -1.9096349 7.4035668 7
-0.077884004 -1.729833 7.4104829 7
-0.025722999 -1.406059 -0.80045301 7
-0.029362001 -1.574702 -0.77916598 7
-0.27111101 -4.5672789 0.124583 7
-0.26243201 -4.6582308 0.306088 7
-0.285873 -4.8209691 5.8656249 7
-0.057216998 -1.846271 7.1100192 7
-0.04507 -1.677902 7.1090231 7
-0.016894 -1.385463 -0.59214997 7
-0.024754001 -1.547713 -0.58883297 7
-0.24992201 -4.676054 0.76715398 7
-0.28663999 -4.9698281 5.235775 7
-0.26788101 -4.8284121 5.370018 7
-0.030580999 -1.791502 6.8563318 7
-0.022927999 -1.636652 6.8700442 7
-0.0053349999 -1.365559 -0.390158 7
-0.0055160001 -1.5155489 -0.359788 7
-0.23408601 -4.4878378 0.89390498 7
-0.232261 -4.7397122 1.405854 7
0.0087799998 -1.3463399 -0.19443899 7
-0.0037750001 -1.494222 -0.209692 7
-0.22455201 -4.577179 1.485568 7
0.012145 -1.331966 -0.049699999 7
0.0075730002 -1.470029 -0.037914 7
-0.26624399 -4.6290879 1.644356 7
-0.26284 -4.6758289 1.804414 7
-0.27169001 -4.752532 1.952756 7
-0.28021401 -4.7196159 4.5560079 7
-0.283263 -4.6710868 4.714694 7
-0.25094101 -4.513206 1.867955 7
-0.25807801 -4.5820441 2.0112751 7
-0.255959 -4.618402 2.1659679 7
-0.250065 -4.6374378 2.324265 7
-0.25503099 -4.682251 2.475385 7
-0.25621101 -4.7098589 2.6304891 7
-0.25910601 -4.7364979 2.7858789 7
-0.259633 -4.7551041 3.2579019 7
-0.260131 -4.749969 3.4151461 7
-0.26790199 -4.7604909 3.5739541 7
-0.26081899 -4.7204041 3.72823 7
-0.266514 -4.7123308 3.8863909 7
-0.268347 -4.6866131 4.0423689 7
-0.26019001 -4.534194 4.4902978 7
-0.244846 -4.5283298 2.50734 7
-0.24216799 -4.5438409 2.6577809 7
-0.24692699 -4.574914 2.805511 7
-0.249148 -4.5979881 3.2571189 7
-0.249579 -4.592967 3.407774 7
-0.25378099 -4.5929699 3.5590391 7
-0.248312 -4.559145 3.70702 7
-0.250312 -4.5410509 3.8565149 7
-0.250305 -4.5113888 4.004169 7
-0.030246999 4.919167 -10.533334 7
-0.037962999 0.963126 8.5414486 7
-0.051093999 1.185541 8.5673342 7
-0.048250001 -1.00851 -15.940042 7
-0.102535 5.088861 -17.092953 7
-0.02936 -0.232576 -10.024119 7
-0.090602003 -1.0983191 -11.093462 7
-0.029524 -0.82185298 -8.5900049 7
-0.040881 -1.160997 -8.7330332 7
-0.26286799 -4.4290209 -11.526315 7
-0.016636999 -1.215559 -7.342051 7
-0.235232 -4.411098 -9.4739752 7
-0.102652 4.7318392 -7.3122692 7
0.0049359999 -1.020169 -6.346375 7
0.00045299999 -1.251747 -6.3604622 7
-0.22042599 -4.409307 -8.0111437 7
-0.032545999 -1.078153 -5.6365619 7
-0.04081 -1.288897 -5.670382 7
-0.25683001 -4.4682579 -6.486002 7
-0.025309 -1.352107 -4.7241888 7
-0.230362 -4.4887319 -4.6619148 7
-0.237784 -4.7065659 -4.5241599 7
-0.21669701 -4.4807081 -3.8241 7
-0.207596 -4.5520282 -3.6141529 7
-0.036834002 -1.354581 -3.9856 7
-0.051112 -1.517809 -4.0120649 7
-0.252655 -4.580101 -2.7097499 7
-0.25390801 -4.6738458 -2.5260429 7
-0.029302999 -1.334072 -3.7305059 7
-0.038706001 -1.472001 -3.7263291 7
-0.022259001 -1.4593951 -2.5307889 7
-0.031709 -1.549394 -2.497323 7
-0.010104 -1.302516 -2.49018 7
-0.010103 -1.3607351 -2.437382 7
-0.027276 -1.468281 -2.426636 7
-0.018554 -1.497301 -2.345504 7
-0.053342 -1.591493 -2.3143461 7
-0.025869001 -1.345324 -2.319381 7
-0.036773998 -1.4275171 -2.2892351 7
-0.032150999 -1.463954 -2.2210481 7
-0.038276002 -1.529994 -2.173666 7
-0.039760001 -1.5802619 -2.1139109 7
-0.028317001 -1.298938 -2.278862 7
-0.012354 -1.30445 -2.191092 7
-0.014106 -1.3550529 -2.1413839 7
-0.027034 -1.436599 -2.1111121 7
-0.020675 -1.460126 -2.040643 7
-0.028679 -1.52475 -1.994391 7
-0.023884 -1.547655 -1.924204 7
-0.0018720001 -1.31085 -2.0270791 7
-0.011994 -1.378997 -1.991084 7
-0.025358001 -1.456272 -1.956333 7
-0.018846 -1.47267 -1.88658 7
-0.018905001 -1.5062881 -1.826017 7
-0.018975001 -1.537534 -1.763983 7
-0.0097169997 -1.283533 -2.008569 7
-0.0030960001 -1.302965 -1.944654 7
-0.008475 -1.353696 -1.8995529 7
-0.017826 -1.363548 -1.831707 7
-0.035693001 -1.445959 -1.798452 7
-0.034139998 -1.470883 -1.736896 7
-0.023786001 -1.466778 -1.665211 7
-0.025722999 -1.49676 -1.606223 7
-0.012169 -1.329368 -1.746248 7
-0.012478 -1.357269 -1.691628 7
-0.029122001 -1.43037 -1.652215 7
-0.022864001 -1.526667 -0.94479102 7
-0.024953 -1.527192 -0.87919998 7
-0.011266 -1.475915 -0.82419199 7
-0.001479 -1.280445 -1.660949 7
-0.0056540002 -1.315455 -1.611961 7
-0.017111 -1.455361 -0.95428902 7
-0.017550001 -1.450835 -0.89266801 7
-0.0089339996 -1.416568 -0.83717799 7
-0.017368 -1.353467 -0.90966803 7
-0.01414 -1.336339 -0.85457599 7
-0.015792999 -1.304998 -0.91815799 7
-0.01255 -1.288322 -0.86507702 7
