# .PCD v0.7 - Point Cloud Data file format
VERSION 0.7
FIELDS x y z intensity
SIZE 4 4 4 4
TYPE F F F F
COUNT 1 1 1 1
WIDTH 855
HEIGHT 1
VIEWPOINT 0 0 0 1 0 0 0
POINTS 855
DATA ascii
0.065575004 -1.944092 -69.836914 7
0.106743 -2.071655 -68.44043 7
0.089942999 -2.2550049 -68.991211 7
0.109131 4.8035889 -69.192383 7
0.081817999 4.6965332 -70.126953 7
0.048119001 -2.0526121 -62.688477 7
0.08004 -2.1711431 -61.71875 7
0.22406 4.4682622 -57.99707 7
0.156372 4.47644 -60.055664 7
0.116592 4.4151611 -61.268555 7
-0.77938098 -2.762207 72.066406 7
-0.81788599 -2.62854 72.99707 7
-0.84634399 -2.4824221 73.688477 7
-0.78590399 -0.753784 72.338867 7
0.200104 4.672852 -52.197266 7
0.145218 4.670898 -53.688477 7
0.117256 4.6020508 -54.451172 7
0.16490901 4.3659668 -53.166992 7
0.130264 4.3088379 -54.111328 7
0.065453 4.3085942 -55.871094 7
0.173134 4.6428218 -47.78418 7
0.132561 4.6168208 -48.785156 7
0.10009 4.568604 -49.589844 7
0.159843 4.3197021 -48.129883 7
0.115486 4.2939448 -49.225586 7
0.074432001 4.2562261 -50.238281 7
0.146461 0.881836 -48.250977 7
0.156868 0.76025403 -47.996094 7
0.16654199 4.533936 -43.302734 7
0.125778 4.5168462 -44.216797 7
0.096015997 4.4720459 -44.884766 7
0.149078 4.250854 -43.712891 7
0.119835 4.2032471 -44.368164 7
0.097930998 4.1374512 -44.862305 7
0.040100001 4.1390381 -46.154297 7
-0.63750499 0.065307997 53.969727 7
-0.55758703 0.184448 52.483398 7
-0.572487 0.30725101 52.764648 7
0.069114998 4.4918208 -41.78125 7
0.047667999 4.4335942 -42.228516 7
0.012283 4.4014888 -42.958984 7
0.058212001 4.204834 -42.02832 7
0.040442999 4.1357422 -42.398438 7
0.014435 4.0804439 -42.9375 7
-0.561203 -2.7219241 48.280273 7
-0.57029003 -2.6196289 48.445312 7
-0.487762 0.27417001 47.172852 7
0.057236001 4.6776118 -38.145508 7
0.036125001 4.6342769 -38.532227 7
0.016380001 4.5809331 -38.910156 7
-0.008041 4.535522 -39.374023 7
0.120178 1.06604 -37.123047 7
0.109619 0.88720697 -37.320312 7
0.097824 0.52209502 -37.537109 7
0.14286 0.32983401 -36.692383 7
0.146957 0.14856 -36.611328 7
0.120506 -0.125488 -34.029297 7
-0.53710902 -2.6075439 44.551758 7
-0.474213 0.35376 43.695312 7
-0.43991899 0.44824201 43.151367 7
0.053040002 4.763062 -35.084961 7
0.037399001 4.7105708 -35.363281 7
0.015343 4.6705322 -35.750977 7
-0.001991 4.6186519 -36.056641 7
-0.034171999 4.5961909 -36.620117 7
-0.044089999 4.5257568 -36.798828 7
0.120949 1.236816 -34.120117 7
0.125221 1.149902 -34.045898 7
0.113586 1.071777 -34.24707 7
0.083015002 1.001465 -34.775391 7
0.079475001 0.2146 -34.742188 7
0.123146 0.042236 -33.988281 7
0.076499999 -0.027588001 -31.838867 7
0.104088 -0.105103 -31.399414 7
0.119492 -0.18176299 -31.155273 7
0.087211996 -0.26318401 -31.662109 7
0.112236 -0.337524 -31.264648 7
-0.46039599 -2.612427 40.069336 7
-0.50839198 -2.473511 40.786133 7
-0.43991101 0.413818 39.917969 7
-0.52596998 3.445801 41.103516 7
-0.49324 3.497314 40.619141 7
-0.44086501 3.61145 39.839844 7
0.075797997 4.7857671 -31.620117 7
0.062820002 4.736084 -31.834961 7
0.043579001 4.6990972 -32.146484 7
0.01548 4.6799321 -32.597656 7
-0.011856 4.6568599 -33.037109 7
-0.038123999 4.6295171 -33.458984 7
0.093369 1.14856 -31.581055 7
0.098793 1.0673831 -31.495117 7
0.092612997 -0.32714799 -29.362305 7
0.095046997 -0.54492199 -29.317383 7
-0.13114201 -3.5739751 -32.379883 7
-0.11734 -3.6322019 -32.168945 7
-0.099945001 -3.6833501 -31.904297 7
-0.098907001 -3.7601321 -31.876953 7
-0.42973301 -2.5931399 37.261719 7
-0.45085099 -2.528564 37.558594 7
-0.44893599 -2.3555911 37.546875 7
-0.405716 0.38354501 37.080078 7
-0.42213401 0.47106901 37.307617 7
-0.38838199 0.63293499 36.84375 7
-0.488197 3.5358889 38.09375 7
-0.45671099 3.5804441 37.654297 7
-0.42945099 3.62854 37.273438 7
-0.420692 3.7862549 37.140625 7
0.038718998 4.9259028 -29.916992 7
0.047318 4.8317871 -29.801758 7
0.03421 4.7866211 -30.00293 7
0.01561 4.752686 -30.285156 7
-0.0073469998 4.726562 -30.632812 7
-0.029510001 4.6975098 -30.966797 7
0.0086519998 4.540771 -30.417969 7
0.110077 1.573364 -29.142578 7
0.115494 1.4968261 -29.064453 7
0.094466999 1.438843 -29.376953 7
0.120049 1.348877 -29.000977 7
0.097832002 1.290527 -29.330078 7
0.072036996 1.232178 -29.713867 7
0.085274003 -0.498779 -27.175781 7
0.096709996 -0.563721 -27.017578 7
0.064537004 -0.64086902 -27.453125 7
-0.134712 -3.6082759 -29.878906 7
-0.13613901 -3.6843259 -29.886719 7
-0.118622 -3.72998 -29.641602 7
-0.104118 -3.7794189 -29.435547 7
-0.33223701 0.499634 33.634766 7
-0.338516 0.577393 33.71582 7
0.047706999 4.8762212 -27.393555 7
0.036109999 4.8337402 -27.560547 7
0.021996001 4.796021 -27.762695 7
0.0078579998 4.7574458 -27.963867 7
-0.017348999 4.7416992 -28.31543 7
-0.037459999 4.713501 -28.598633 7
-0.011971 4.5887451 -28.262695 7
0.109253 1.59021 -26.851562 7
0.088669002 1.5380861 -27.134766 7
0.11248 1.453491 -26.810547 7
0.099159002 1.395264 -26.996094 7
0.077712998 1.341309 -27.290039 7
0.070358001 -0.66723597 -25.448242 7
0.063598998 -0.86047399 -25.524414 7
-0.145538 -3.800781 -27.882812 7
-0.13507099 -3.8525391 -27.741211 7
-0.12551901 -3.9051509 -27.610352 7
-0.111359 -3.9493411 -27.420898 7
-0.107323 -4.0102539 -27.359375 7
-0.133278 -4.1242681 -27.673828 7
0.012466 4.8859859 -25.867188 7
0.006813 4.8371582 -25.941406 7
-0.0064849998 4.801147 -26.120117 7
-0.043586999 4.749023 -26.608398 7
-0.056899998 4.7102051 -26.786133 7
0.095467001 1.684082 -25.130859 7
0.077918999 1.570923 -25.359375 7
0.067047 1.436035 -25.501953 7
0.068787001 1.3712161 -25.481445 7
0.060562 -0.85888702 -23.639648 7
-0.139107 -3.904053 -25.665039 7
-0.14271501 -3.973999 -25.695312 7
-0.13240799 -4.0201421 -25.564453 7
-0.124596 -4.0699458 -25.461914 7
-0.115799 -4.1176758 -25.347656 7
-0.014992 5.0800781 -24.139648 7
0.0045699999 4.9746089 -23.920898 7
0.0035319999 4.9165039 -23.943359 7
-0.008316 4.8825679 -24.09375 7
-0.019676 4.8466802 -24.237305 7
-0.054198999 4.7983398 -24.661133 7
0.086769 1.628662 -23.321289 7
0.020973001 -0.873169 -22.416016 7
0.039337002 -0.977539 -22.208008 7
0.028480999 -1.150879 -22.316406 7
0.023621 -1.209717 -22.366211 7
-0.13515501 -4.1750488 -23.741211 7
-0.144821 -4.2521968 -23.834961 7
-0.158226 -4.3366699 -23.96875 7
-0.003548 4.9995122 -22.254883 7
-0.010445 4.9587402 -22.339844 7
-0.018471001 4.8631592 -22.448242 7
-0.029037001 4.8294678 -22.574219 7
-0.059593 4.8381348 -22.917969 7
0.061942998 1.872192 -21.927734 7
0.060821999 1.817505 -21.943359 7
0.043373 1.776489 -22.140625 7
0.06752 1.700928 -21.876953 7
0.059006002 1.652344 -21.973633 7
0.011955 -0.97888201 -20.964844 7
0.026566001 -1.024902 -20.810547 7
0.031021001 -1.075073 -20.761719 7
0.0031969999 -1.141968 -21.043945 7
0.013863 -1.1893311 -20.930664 7
0.020012001 -1.238647 -20.864258 7
-0.160515 -4.1729741 -22.336914 7
-0.15154999 -4.212769 -22.235352 7
-0.146561 -4.259644 -22.173828 7
-0.148361 -4.318481 -22.181641 7
-0.16777 -4.4103999 -22.365234 7
-0.046622999 5.0888672 -21.082031 7
-0.021934999 4.9794922 -20.84375 7
-0.024811 4.9327388 -20.883789 7
-0.031044001 4.8934331 -20.958008 7
-0.037834 4.85498 -21.037109 7
-0.057564002 4.8442378 -21.249023 7
-0.064354002 4.804688 -21.329102 7
0.050163001 1.9169919 -20.519531 7
0.055167999 1.860474 -20.472656 7
0.051711999 1.811157 -20.510742 7
0.032508999 1.774902 -20.712891 7
0.060036 1.700195 -20.431641 7
0.054892998 1.652222 -20.488281 7
0.044707999 1.607666 -20.59668 7
-0.00174 -0.97619599 -19.753906 7
0.001793 -1.024536 -19.717773 7
0.003517 -1.073608 -19.697266 7
0.001617 -1.124634 -19.711914 7
-0.014809 -1.233521 -19.862305 7
-0.0034479999 -1.277222 -19.749023 7
-0.19278701 -4.1905522 -21.181641 7
-0.18806501 -4.235352 -21.125977 7
-0.17851301 -4.2711182 -21.024414 7
-0.172691 -4.3660889 -20.946289 7
-0.19210801 -4.4553218 -21.119141 7
0.0040660002 -0.96008301 -18.401367 7
-0.013298 -1.0148931 -18.555664 7
-0.001854 -1.0567631 -18.449219 7
-8e-06 -1.102661 -18.428711 7
0.004402 -1.147217 -18.385742 7
-0.023216 -1.209106 -18.631836 7
-0.014961 -1.2518311 -18.553711 7
-0.0099259997 -1.295898 -18.503906 7
-0.19300801 -4.18396 -19.750977 7
-0.19760901 -4.2419429 -19.78125 7
-0.19063599 -4.2794189 -19.708008 7
-0.184975 -4.3188481 -19.646484 7
-0.18441799 -4.3674321 -19.629883 7
-0.18837699 -4.424438 -19.654297 7
-0.027763 4.9624019 -18.125977 7
-0.032889999 4.9273682 -18.182617 7
-0.032295 4.8791499 -18.189453 7
-0.034256 4.836792 -18.216797 7
0.045021001 1.553223 -17.979492 7
0.046241999 1.5062259 -17.972656 7
0.023864999 1.475342 -18.178711 7
0.037392002 1.422852 -18.054688 7
0.045616001 1.371094 -17.982422 7
0.038460001 1.283325 -18.051758 7
-0.001114 -0.99768102 -17.341797 7
-0.024246 -1.052979 -17.536133 7
-0.026351999 -1.098877 -17.550781 7
-0.016953001 -1.1387939 -17.466797 7
-0.001427 -1.1750489 -17.330078 7
-0.032005001 -1.23645 -17.587891 7
-0.028702 -1.279541 -17.556641 7
-0.21845201 -4.231689 -18.738281 7
-0.20903 -4.2625728 -18.648438 7
-0.21660601 -4.3234859 -18.700195 7
-0.204468 -4.3486328 -18.587891 7
-0.205246 -4.3972168 -18.583008 7
-0.205338 -4.4445801 -18.572266 7
-0.067870997 5.0380859 -17.295898 7
-0.053070001 4.9604492 -17.185547 7
-0.059188999 4.9294429 -17.24707 7
-0.063950002 4.8956299 -17.296875 7
-0.063995004 4.8509521 -17.308594 7
-0.085587002 4.8525391 -17.5 7
-0.089667998 4.8162842 -17.544922 7
0.045120001 1.295532 -16.898438 7
0.04287 1.122314 -16.927734 7
0.052260999 1.07373 -16.848633 7
-0.015091 -1.1142581 -16.370117 7
-0.021767 -1.244019 -16.414062 7
-0.205826 -4.191772 -17.439453 7
-0.21454599 -4.251709 -17.498047 7
-0.217499 -4.3016362 -17.510742 7
-0.21409599 -4.3843989 -17.460938 7
-0.209877 -4.4212651 -17.416992 7
-0.214279 -4.4737549 -17.44043 7
0.020988001 1.0687259 -16.048828 7
0.042282 0.93469203 -15.880859 7
0.045798998 0.89196801 -15.854492 7
0.038596999 0.85376 -15.915039 7
0.034247998 0.81420898 -15.951172 7
0.0392 0.77087402 -15.913086 7
0.04631 0.72741699 -15.856445 7
0.054832 0.68359399 -15.789062 7
0.059783999 0.64111298 -15.749023 7
-0.022399999 -1.09668 -15.448242 7
-0.016388001 -1.133301 -15.399414 7
-0.013428 -1.171509 -15.374023 7
-0.028015001 -1.259033 -15.476562 7
0.034462001 0.613159 -14.991211 7
0.032898001 0.57458502 -15.00293 7
0.035117999 0.53478998 -14.987305 7
0.042617999 0.49414101 -14.930664 7
0.048622001 0.453857 -14.884766 7
0.046241999 0.376587 -14.904297 7
0.042397 0.33850101 -14.93457 7
0.038734 -0.010986 -14.051758 7
0.043471999 -0.047729 -14.016602 7
0.045035999 -0.084472999 -14.005859 7
0.041770998 -0.121094 -14.027344 7
0.037712 -0.158325 -14.055664 7
0.037643 -0.195068 -14.055664 7
0.040001001 -0.23168901 -14.038086 7
0.040732998 -0.268433 -14.03125 7
0.042289998 -0.304932 -14.019531 7
-0.052994002 4.9116211 -14.004883 7
-0.045844998 4.8592529 -13.966797 7
-0.048271 4.8278809 -13.994141 7
-0.053879 4.8031011 -14.044922 7
0.034095999 0.099609002 -14.086914 7
0.018874999 -0.332275 -13.470703 7
0.023879999 -0.366577 -13.43457 7
0.026366999 -0.401245 -13.416992 7
0.028853999 -0.43579099 -13.398438 7
0.026268 -0.471313 -13.415039 7
0.015213 -0.50891101 -13.488281 7
0.013481 -0.54467797 -13.499023 7
0.018486001 -0.57836902 -13.462891 7
0.020119 -0.61328101 -13.450195 7
-0.091438003 4.8145752 -13.453125 7
-0.088959001 4.7736821 -13.447266 7
-0.087311 4.7349849 -13.446289 7
-0.087341003 4.6994629 -13.457031 7
0.0041430001 -0.6875 -12.804688 7
0.0076449998 -0.71984899 -12.780273 7
0.004036 -0.75463903 -12.801758 7
-0.006691 -0.79211402 -12.869141 7
-0.0076139998 -0.826294 -12.873047 7
-0.0041279998 -0.85852098 -12.847656 7
0.00025899999 -0.89050299 -12.816406 7
0.000214 -0.92407203 -12.814453 7
-0.039528001 -1.316772 -13.037109 7
-0.043129001 -1.3531491 -13.057617 7
-0.037857 -1.384033 -13.019531 7
-0.038810998 -1.4187011 -13.021484 7
-0.038864002 -1.452881 -13.018555 7
-0.0084149996 -0.98046899 -12.189453 7
-0.025223 -1.020264 -12.291016 7
-0.021568 -1.050903 -12.264648 7
-0.016045 -1.080566 -12.227539 7
-0.015167 -1.112183 -12.21875 7
-0.019881999 -1.146973 -12.245117 7
-0.023651 -1.181152 -12.266602 7
-0.029305 -1.216675 -12.297852 7
-0.031227 -1.249878 -12.305664 7
-0.022910999 -1.277588 -12.25 7
-0.018348999 -0.96630901 -11.571289 7
-0.02623 -1.000366 -11.614258 7
-0.019432001 -1.027954 -11.571289 7
-0.01165 -1.05481 -11.523438 7
-0.012268 -1.086182 -11.526367 7
-0.018188 -1.119873 -11.558594 7
-0.036842 -1.160156 -11.665039 7
-0.033957999 -1.189453 -11.644531 7
-0.023254 -1.214355 -11.578125 7
-0.025269 -1.246094 -11.586914 7
-0.024360999 -1.276245 -11.577148 7
-0.055167999 4.783936 -10.899414 7
-0.054221999 4.7524409 -10.90625 7
-0.058127999 4.7312012 -10.938477 7
-0.056189999 4.6977539 -10.939453 7
-0.056212999 4.668457 -10.950195 7
-0.059151001 4.64502 -10.977539 7
-0.068916 4.635376 -11.041992 7
-0.073798999 4.6157231 -11.080078 7
-0.072829999 4.584106 -11.085938 7
-0.072861001 4.5541992 -11.09668 7
-0.068976998 4.516602 -11.084961 7
-0.073875003 4.49646 -11.123047 7
-0.031349 -1.28186 -11.032227 7
-0.033447001 -1.3125 -11.040039 7
-0.035537999 -1.34314 -11.049805 7
-0.036621001 -1.3731689 -11.051758 7
-0.045883 -1.408447 -11.099609 7
-0.043877002 -1.436646 -11.084961 7
-0.044952001 -1.466797 -11.087891 7
-0.043983001 -1.495605 -11.078125 7
-0.059409998 -1.535767 -11.160156 7
-0.064575002 -1.569092 -11.18457 7
-0.064636 -1.598877 -11.180664 7
-0.058258001 4.771729 -10.283203 7
-0.060295001 4.7480469 -10.305664 7
-0.066422001 4.7329102 -10.349609 7
-0.068466 4.709106 -10.371094 7
-0.070502996 4.6853032 -10.393555 7
-0.074600004 4.6655269 -10.425781 7
-0.084801003 4.6582031 -10.491211 7
-0.092972003 4.646606 -10.543945 7
-0.082801998 4.5974121 -10.500977 7
-0.078743003 4.5606689 -10.491211 7
-0.074684002 4.524292 -10.480469 7
-0.074699 4.4959722 -10.490234 7
-0.033188 -1.304443 -10.432617 7
-0.042915002 -1.338257 -10.479492 7
-0.042975999 -1.3662111 -10.475586 7
-0.035560999 -1.417725 -10.428711 7
-0.039909001 -1.448486 -10.449219 7
-0.043182001 -1.4786381 -10.462891 7
-0.050742999 -1.511719 -10.499023 7
-0.082580999 4.7756348 -9.7568359 7
-0.089027002 4.7624512 -9.7988281 7
-0.081551 4.7202148 -9.7734385 7
-0.080481999 4.6912842 -9.7792969 7
-0.080498002 4.6647949 -9.7910156 7
-0.079444997 4.6356201 -9.7958984 7
-0.091209002 4.632812 -9.8662109 7
-0.083740003 4.5909419 -9.8398438 7
-0.074127004 4.5446782 -9.8027344 7
-0.075211003 4.5201421 -9.8193359 7
-0.072029002 4.486938 -9.8134766 7
-0.032379001 -1.167114 -9.9248047 7
-0.032425001 -1.1937259 -9.9208984 7
-0.038093999 -1.223511 -9.9472656 7
-0.030387999 -1.299561 -9.8974609 7
-0.031555001 -1.3269041 -9.9003906 7
-0.032577999 -1.2950439 -9.4130859 7
-0.032623 -1.320435 -9.4091797 7
-0.027504001 -1.343506 -9.3837891 7
-0.047455002 -1.381104 -9.4765615 7
-0.055695001 -1.4119869 -9.5126953 7
-0.047554001 -1.4326169 -9.4697266 7
-0.042915002 -1.4552 -9.4433594 7
-0.046486001 -1.4831541 -9.4560547 7
-0.045372002 -1.5081789 -9.4472656 7
-0.051254001 -1.53772 -9.4716797 7
-0.063019 -1.571777 -9.5244141 7
-0.065392002 -1.599121 -9.5332031 7
-0.033523999 -1.339478 -8.953125 7
-0.024712 -1.297363 -8.4462891 7
-0.024757 -1.320435 -8.4433594 7
-0.023506001 -1.3430181 -8.4355469 7
-0.038841002 -1.3757319 -8.5009766 7
-0.045249999 -1.403198 -8.5253906 7
-0.0504 -1.429932 -8.5449219 7
-0.036430001 -1.4443361 -8.4794922 7
-0.036490999 -1.467651 -8.4755859 7
-0.039062001 -1.492676 -8.4833984 7
-0.041671999 -1.517822 -8.4902344 7
-0.044266 -1.542847 -8.4970703 7
-0.055778999 -1.574219 -8.5449219 7
-0.035454001 -1.295166 -8.0859385 7
-0.038139001 -1.319214 -8.0947266 7
-0.038176998 -1.341675 -8.0908203 7
-0.036888 -1.363403 -8.0820312 7
-0.047522999 -1.3924561 -8.125 7
-0.058173999 -1.421509 -8.1669922 7
-0.06617 -1.449219 -8.1962891 7
-0.051635999 -1.462402 -8.1308594 7
-0.051674001 -1.484863 -8.1279297 7
-0.054359 -1.509277 -8.1357422 7
-0.054412998 -1.53186 -8.1318359 7
-0.057098001 -1.5562741 -8.1396484 7
-0.071723998 -1.589111 -8.1972656 7
-0.084435001 4.7963872 -7.0800781 7
-0.071273997 4.7484131 -7.0410161 7
-0.060722001 4.7059331 -7.0117192 7
-0.062035002 4.6885991 -7.0283198 7
-0.064681999 4.6739502 -7.0488281 7
-0.065986998 4.6564941 -7.0654302 7
-0.067313999 4.638916 -7.0810552 7
-0.067328997 4.6185298 -7.0917969 7
-0.068649001 4.6008301 -7.108398 7
-0.069968998 4.5834961 -7.124023 7
-0.075240999 4.57373 -7.155273 7
-0.087135002 4.577148 -7.210938 7
-0.092414998 4.5672612 -7.242188 7
-0.085808001 4.5333252 -7.2285161 7
-0.077887997 4.4969478 -7.2089839 7
-0.077881001 4.7745361 -6.5878911 7
-0.058646999 4.7148442 -6.53125 7
-0.053139001 4.6845698 -6.523438 7
-0.055884998 4.6712651 -6.5449219 7
-0.061416999 4.6638179 -6.5732422 7
-0.061400998 4.6446528 -6.5849609 7
-0.061400998 4.6257319 -6.5957031 7
-0.061416999 4.6064448 -6.6064448 7
-0.062781997 4.59021 -6.6220698 7
-0.062766999 4.5709229 -6.6337891 7
-0.065521002 4.5571289 -6.6542969 7
-0.073775999 4.554565 -6.6943359 7
-0.075149998 4.5379639 -6.7099609 7
-0.072411001 4.513062 -6.710938 7
-0.069649003 4.4881592 -6.7119141 7
-0.32450101 -5.0974121 8.8925781 7
-0.31198099 -5.0543208 8.8662109 7
-0.308853 -5.030273 8.8691406 7
-0.30729699 -5.009521 8.8769531 7
-0.30729699 -4.9918208 8.8886719 7
-0.30572501 -4.9709468 8.8945312 7
-0.30887601 -4.9594731 8.9169922 7
-0.310417 -4.9447021 8.9326172 7
-0.31355301 -4.933105 8.9541016 7
-0.37751001 -6.369751 -4.9511719 7
-0.37757099 -6.384644 -4.9355469 7
-0.32582101 -5.087646 8.4726562 7
-0.32580599 -5.0708008 8.484375 7
-0.32257801 -5.0474849 8.4873047 7
-0.31446099 -5.0145259 8.4775391 7
-0.31446099 -4.9976811 8.4892578 7
-0.31283599 -4.9777832 8.4960938 7
-0.314468 -4.9642329 8.5126953 7
-0.314468 -4.9472661 8.5244141 7
-0.311241 -4.9240718 8.5273438 7
-0.312866 -4.9102778 8.5429688 7
-0.31285101 -4.8934331 8.5546885 7
-0.319359 -4.8891602 8.5839844 7
-0.312859 -4.859375 8.5791016 7
-0.30799901 -4.8330078 8.5761719 7
-0.30474901 -4.8096919 8.578125 7
-0.13353699 -2.2077639 9.1503906 7
-0.122169 -2.1787109 9.1171885 7
-0.135139 -2.1726069 9.1660156 7
-0.123764 -2.143677 9.1328115 7
-0.126991 -2.1282959 9.1484385 7
-0.125351 -2.108521 9.1484385 7
-0.13019601 -2.0944819 9.1689453 7
-0.12695301 -2.073364 9.1640615 7
-0.12529799 -2.0535891 9.1630859 7
-0.12691499 -2.036499 9.1738281 7
-0.117165 -2.009644 9.1455078 7
-0.115524 -1.989868 9.1445312 7
-0.115509 -1.97168 9.1494141 7
-0.109001 -1.947754 9.1328115 7
-0.099257998 -1.921265 9.1035156 7
-0.33265701 -5.1159668 8.0664062 7
-0.32761401 -5.0897222 8.0654297 7
-0.341095 -5.1013179 8.1142578 7
-0.32594299 -5.0549321 8.0849609 7
-0.31082901 -5.0085449 8.0576172 7
-0.31250799 -4.9962158 8.0742188 7
-0.31588 -4.9873052 8.09375 7
-0.31251499 -4.9646001 8.0976562 7
-0.310844 -4.945312 8.1054688 7
-0.31420901 -4.9360352 8.125 7
-0.31591001 -4.9233398 8.1425781 7
-0.31758901 -4.9108891 8.1582031 7
-0.31423199 -4.8883061 8.1611328 7
-0.31928301 -4.881958 8.1855469 7
-0.31760401 -4.8626709 8.1923828 7
-0.31928301 -4.849854 8.2099609 7
-0.309196 -4.814209 8.1933594 7
-0.31088999 -4.8013921 8.2099609 7
-0.32098401 -4.804688 8.2480469 7
-0.093062997 -1.912964 8.7724609 7
-0.098099001 -1.89978 8.7939453 7
-0.098082997 -1.882202 8.7988281 7
-0.091347001 -1.859253 8.78125 7
-0.091330998 -1.841797 8.7851562 7
-0.098044999 -1.829712 8.8125 7
-0.098015003 -1.812256 8.8164062 7
-0.098007001 -1.794678 8.8203115 7
-0.082855001 -1.765259 8.7753906 7
-0.086204998 -1.750488 8.7900391 7
-0.086197004 -1.733032 8.7949219 7
-0.081130996 -1.71167 8.7822266 7
-0.082801998 -1.695312 8.7929688 7
-0.079421997 -1.675293 8.7861328 7
-0.089507997 -1.665405 8.8222656 7
-0.087807 -1.646606 8.8212891 7
-0.081055 -1.6242681 8.8027344 7
-0.091132998 -1.613892 8.8398438 7
-0.070641004 0.97473103 8.9003906 7
-0.065582 0.99023402 8.8828115 7
-0.063865997 1.007324 8.875 7
-0.062164001 1.024292 8.8671885 7
-0.058768999 1.040161 8.8535156 7
-0.060417 1.0587161 8.8564453 7
-0.072136 1.0819089 8.8916016 7
-0.072104998 1.099731 8.8896484 7
-0.073746003 1.118042 8.8925781 7
-0.066986002 1.1324461 8.8671885 7
-0.068641998 1.151001 8.8701172 7
-0.071960002 1.17041 8.8789062 7
-0.068565004 1.186157 8.8642578 7
-0.071906999 1.205566 8.8730469 7
-0.075240999 1.22522 8.8818359 7
-0.080238 1.245605 8.8955078 7
-0.080208004 1.263184 8.8925781 7
-0.073455997 1.277222 8.8671885 7
-0.120338 4.1603999 7.9482422 7
-0.128647 4.19104 7.9619141 7
-0.13362899 4.2155762 7.9667969 7
-0.120193 4.206665 7.9179692 7
-0.108429 4.200562 7.875977 7
-0.100029 4.200439 7.842773 7
-0.104988 4.224854 7.8457031 7
-0.101601 4.2340088 7.828125 7
-0.094887003 4.2366939 7.7998052 7
-0.096504003 4.2548828 7.7929692 7
-0.098136999 4.2729492 7.7880859 7
-0.101418 4.294189 7.7871089 7
-0.094687998 4.2966309 7.7587891 7
-0.099647999 4.321167 7.7626948 7
-0.099593997 4.33606 7.7519531 7
-0.09623 4.3448491 7.7324219 7
-0.096169002 4.3597412 7.7216802 7
-0.101135 4.3841548 7.7255859 7
-0.114464 4.4248052 7.7519531 7
-0.124474 4.4593511 7.7695308 7
-0.126083 4.4776611 7.7636719 7
-0.32666001 -5.0953369 7.664062 7
-0.330147 -5.0875239 7.6845698 7
-0.32841501 -5.0692139 7.6923828 7
-0.326691 -5.0507808 7.7001948 7
-0.32146499 -5.025269 7.6992192 7
-0.323212 -5.013916 7.7148442 7
-0.31798601 -4.988647 7.7138672 7
-0.32148001 -4.9804692 7.734375 7
-0.31626901 -4.9550781 7.733398 7
-0.314529 -4.936646 7.7402339 7
-0.31281301 -4.918335 7.7480469 7
-0.321495 -4.9204102 7.78125 7
-0.32150301 -4.905273 7.7929692 7
-0.31630701 -4.8797612 7.7929692 7
-0.318039 -4.8679199 7.8085942 7
-0.312828 -4.842773 7.8056641 7
-0.307625 -4.8173828 7.804688 7
-0.089309998 -1.906128 8.4716797 7
-0.092772998 -1.892578 8.4873047 7
-0.094498001 -1.877075 8.4970703 7
-0.087531999 -1.8544919 8.4804688 7
-0.096221998 -1.844727 8.5117188 7
-0.099678002 -1.830811 8.5263672 7
-0.087494001 -1.8043211 8.4931641 7
-0.094437003 -1.792847 8.5195312 7
-0.085731998 -1.769287 8.4970703 7
-0.078758001 -1.747192 8.4794922 7
-0.083968997 -1.734375 8.5 7
-0.080467001 -1.7149661 8.4931641 7
-0.080452003 -1.69812 8.4970703 7
-0.080444001 -1.681519 8.5019531 7
-0.090874001 -1.672363 8.5380859 7
-0.078674003 -1.646606 8.5039062 7
-0.08213 -1.632324 8.5185547 7
-0.082115002 -1.615356 8.5224609 7
-0.071456999 0.97338903 8.6230469 7
-0.062743999 0.98669398 8.5927734 7
-0.059234999 1.002197 8.5791016 7
-0.059211999 1.019043 8.5771484 7
-0.059174001 1.036011 8.5742188 7
-0.059158001 1.052979 8.5722656 7
-0.064331003 1.07251 8.5859385 7
-0.062560998 1.088623 8.578125 7
-0.062537998 1.105469 8.5771484 7
-0.067734003 1.125122 8.5908203 7
-0.065940998 1.141235 8.5820312 7
-0.065917999 1.158203 8.5800781 7
-0.071106002 1.177856 8.59375 7
-0.069335997 1.193848 8.5849609 7
-0.067566 1.209839 8.5771484 7
-0.076224998 1.231567 8.6015615 7
-0.065757997 1.242798 8.5664062 7
-0.069205999 1.261719 8.5742188 7
-0.117798 4.1647949 7.5957031 7
-0.12294 4.1888428 7.5996089 7
-0.128098 4.2130132 7.6044922 7
-0.12458 4.2211909 7.5839839 7
-0.119347 4.2263179 7.5605469 7
-0.107178 4.2185059 7.5185552 7
-0.101921 4.2233891 7.4941411 7
-0.09668 4.2280269 7.4707031 7
-0.096642002 4.242188 7.460938 7
-0.096588001 4.2565918 7.4501948 7
-0.100029 4.2773442 7.4501948 7
-0.096504003 4.2850342 7.429688 7
-0.096481003 4.299438 7.420898 7
-0.101616 4.3233638 7.4248052 7
-0.096390001 4.3276372 7.4013672 7
-0.099792004 4.3483891 7.3994141 7
-0.098021999 4.3592529 7.3847661 7
-0.101433 4.3800049 7.3837891 7
-0.110054 4.410645 7.3955078 7
-0.118652 4.4415278 7.407227 7
-0.123413 4.465332 7.4111328 7
-0.119904 4.4727778 7.391602 7
-0.328659 -5.001709 7.374023 7
-0.325066 -4.9803472 7.3769531 7
-0.32505801 -4.9663091 7.3886719 7
-0.32148701 -4.9449458 7.3925781 7
-0.31788599 -4.9237061 7.3945308 7
-0.321495 -4.9165039 7.4150391 7
-0.325111 -4.9093022 7.436523 7
-0.32150301 -4.887939 7.4394531 7
-0.32691199 -4.8841548 7.4638672 7
-0.31612399 -4.848877 7.4492192 7
-0.30893701 -4.8205571 7.4443359 7
-0.30715901 -4.802856 7.4511719 7
-0.105026 -1.915283 8.2490234 7
-0.097815998 -1.893066 8.2314453 7
-0.10321 -1.8812259 8.2529297 7
-0.097801 -1.860718 8.2412109 7
-0.097786002 -1.84436 8.2460938 7
-0.103157 -1.832642 8.265625 7
-0.095963001 -1.8106689 8.2490234 7
-0.083359003 -1.784546 8.2148438 7
-0.090538003 -1.773926 8.2412109 7
-0.086921997 -1.755127 8.234375 7
-0.092308 -1.743042 8.2548828 7
-0.090499997 -1.725464 8.2539062 7
-0.085083 -1.7052 8.2412109 7
-0.085074998 -1.689087 8.2451172 7
-0.085045002 -1.672974 8.2490234 7
-0.088646002 -1.65918 8.2636719 7
-0.086829998 -1.641724 8.2626953 7
-0.076026998 -1.617798 8.234375 7
-0.077797003 -1.602905 8.2431641 7
-0.079506002 0.97509801 8.3857422 7
-0.079475001 0.99145502 8.3828115 7
-0.063277997 1.0007319 8.3310547 7
-0.063262999 1.016968 8.3291016 7
-0.065025002 1.03418 8.3320312 7
-0.064994998 1.0506589 8.3300781 7
-0.059578001 1.064453 8.3105469 7
-0.059532002 1.080566 8.3085938 7
-0.054108001 1.09436 8.2890615 7
-0.073844999 1.120483 8.3466797 7
-0.066628002 1.1331789 8.3232422 7
-0.061211001 1.146973 8.3037109 7
-0.061188001 1.163208 8.3007812 7
-0.061142001 1.179443 8.2978516 7
-0.061119001 1.195801 8.2949219 7
-0.071860999 1.217773 8.3251953 7
-0.061066002 1.2281491 8.2890615 7
-0.061020002 1.244507 8.2861328 7
-0.071777001 1.2668459 8.3164062 7
-0.053780001 1.272949 8.2587891 7
-0.33319801 -4.8870268 8.795599 7
-0.162054 -2.0809009 9.2385569 7
-0.072594002 1.062562 8.9337177 7
-0.142674 4.1650338 7.7717829 7
-0.12775201 4.249506 7.5392351 7
-0.31249499 -5.0080218 7.819922 7
-0.31369299 -4.841588 8.0226192 7
-0.115498 -1.838086 8.6349487 7
-0.055638 0.97091901 8.5135918 7
-0.061774999 1.166904 8.5087376 7
-0.29776499 -5.0551271 6.9432001 7
-0.093823999 -1.85323 8.1670952 7
-0.079542004 -1.647554 8.1613064 7
-0.038396001 1.060866 8.1048079 7
-0.055980001 1.2599781 8.1566324 7
-0.32123601 -4.839366 6.2445192 7
-0.119519 -1.860696 7.7618709 7
-0.103477 -1.668799 7.758513 7
-0.102764 -1.870127 7.4223161 7
-0.095293 -1.709857 7.462183 7
-0.086185001 -1.870032 7.1140609 7
-0.080779999 -1.726772 7.1649618 7
-0.064158998 -1.847997 6.8127031 7
-0.064971 -1.7313319 6.8879228 7
-0.081348002 -1.8306839 6.554534 7
-0.083577 -1.728004 6.6339321 7
0.15314899 -0.92301899 -12.741014 7
-0.011192 -1.434176 -8.514863 7
0.0058889999 -1.379887 -7.024231 7
0.035085 -1.332548 -5.7157092 7
-0.33707601 -6.305366 -5.6315351 7
-0.070625 -1.920549 9.2418385 7
0.017333999 -1.44665 -2.3873701 7
-0.35946399 -5.0022168 8.4583015 7
-0.37072799 -4.8229618 8.6828022 7
-0.107808 -1.8466949 8.7644625 7
-0.090737998 -1.608016 8.7328854 7
-0.332995 -4.9144511 7.9232121 7
-0.088327996 -1.788063 8.3786774 7
-0.034874 -1.600116 -1.697713 7
-0.061723001 -1.82323 -1.775039 7
-0.316861 -4.8518772 7.474144 7
-0.050893001 -1.72304 7.948648 7
-0.29756999 -4.9240541 6.8866782 7
-0.052469 -1.873426 7.678875 7
-0.033066001 -1.676829 7.6442471 7
-0.362948 -5.0417528 6.4097648 7
-0.332679 -4.8236399 6.506207 7
-0.082695 -1.819242 7.4059892 7
-0.062134001 -1.6342 7.3697572 7
-0.07361 -1.7779779 7.1947351 7
-0.05548 -1.603511 7.1683202 7
-0.017298 -1.3057899 -0.607916 7
-0.028062999 -1.469721 -0.61915201 7
-0.30615801 -4.8999691 5.5184269 7
-0.074061997 -1.901965 6.987988 7
-0.055520002 -1.733768 6.9675059 7
-0.0089760004 -1.290936 -0.41683099 7
-0.015263 -1.444931 -0.411933 7
-0.29258999 -4.94734 4.9227028 7
-0.28510001 -4.8527021 5.0767412 7
-0.045209002 -1.843384 6.741539 7
-0.024682 -1.684544 6.7133651 7
-0.30239901 -4.6161361 1.321974 7
-0.31331599 -4.716908 1.4637229 7
-0.33763501 -5.1060219 2.6529911 7
-0.333363 -5.109004 2.8274021 7
-0.31893799 -4.9533672 4.1877079 7
-0.306173 -4.871881 4.3416381 7
-0.063288003 -1.794713 6.5404119 7
-0.046822 -1.647566 6.5272889 7
-0.29795 -4.543798 1.546504 7
-0.30142599 -4.718277 2.0074551 7
-0.30527899 -4.7816091 2.202734 7
-0.29982001 -4.8500462 2.6897211 7
-0.293437 -4.8462849 2.8539071 7
-0.275994 -4.7759519 3.6552191 7
-0.278034 -4.7598419 3.813761 7
-0.287294 -4.7588081 3.975944 7
-0.28906801 -4.72931 4.1339169 7
-0.057700001 -1.762297 6.4049339 7
-0.28741401 -4.5527349 2.0623529 7
-0.28696001 -4.5921931 2.21416 7
-0.271608 -4.6361389 3.6397841 7
-0.26793599 -4.604291 3.789969 7
-0.26794001 -4.577167 3.940321 7
-0.26592699 -4.5385008 4.0881062 7
-0.067349002 4.6749358 -14.535754 7
-0.147672 4.204987 7.8247852 7
-0.125413 4.3071432 7.5720391 7
-0.085690998 1.133588 8.7579346 7
-0.064933002 1.12392 8.3621902 7
0.018540001 -0.067450002 -14.016389 7
0.046379 -0.56895697 -13.21244 7
0.0076580001 -1.175554 -14.319692 7
-0.128204 4.9533072 -17.86923 7
-0.011958 0.35975 -14.889901 7
-0.074545003 -1.269855 -10.790991 7
-0.113251 4.7181768 -10.77712 7
-0.048829999 -1.341866 -8.8344021 7
-0.025901999 -1.372557 -7.4412999 7
-0.048402 4.6031332 -6.536036 7
-0.071318999 4.5383072 -6.9340358 7
-0.034852002 -1.466055 -6.734241 7
-0.0046560001 1.415211 -5.2808151 7
-0.073795997 4.4819059 -3.283061 7
-0.0071859998 -1.399183 -2.502059 7
-0.027683999 -1.521735 -2.5015919 7
-0.02603 -1.575869 -2.435643 7
-0.0076000001 -1.324838 -2.4571741 7
-0.032979999 -1.394806 -2.41483 7
-0.032613002 -1.462468 -2.3426809 7
-0.053332001 -1.578162 -2.3301959 7
-0.042716999 -1.596997 -2.2430639 7
-0.019947 -1.303061 -2.331584 7
-0.027752999 -1.3764091 -2.296603 7
-0.060130998 -1.79921 -1.890391 7
-0.065889999 -1.854059 -1.823511 7
-0.062497001 -1.874068 -1.743173 7
-0.060617 -1.896107 -1.663829 7
-0.033064999 -1.603984 -1.890185 7
-0.034536999 -1.642868 -1.8261091 7
-0.046994001 -1.716202 -1.773414 7
-0.046794001 -1.7450221 -1.702281 7
-0.046565 -1.77087 -1.629829 7
-0.025061 -1.605798 -1.658255 7
