# .PCD v0.7 - Point Cloud Data file format
VERSION 0.7
FIELDS x y z intensity
SIZE 4 4 4 4
TYPE F F F F
COUNT 1 1 1 1
WIDTH 874
HEIGHT 1
VIEWPOINT 0 0 0 1 0 0 0
POINTS 874
DATA ascii
0.074928001 -1.927124 -69.358398 7
0.092789002 -2.0769041 -68.745117 7
0.086410999 -2.249512 -68.944336 7
0.089165002 4.6643071 -69.819336 7
0.038146999 4.6043701 -71.558594 7
-0.027718 -1.960693 -64.84082 7
0.20625301 4.4952388 -58.494141 7
0.13659699 4.505981 -60.611328 7
0.082718 4.473022 -62.25 7
0.184135 4.7053218 -52.62207 7
0.127823 4.698853 -54.125977 7
0.20121001 4.403687 -52.148438 7
0.139809 4.4086909 -53.81543 7
0.110985 4.337646 -54.602539 7
0.157021 4.550415 -48.158203 7
0.109779 4.5357671 -49.322266 7
0.07299 4.4932861 -50.229492 7
0.136398 4.2390141 -48.68457 7
0.098190002 4.1967769 -49.626953 7
0.042358 4.1843262 -51.001953 7
0.137596 0.88732898 -48.397461 7
-0.622154 -0.064575002 57.609375 7
-0.61260998 0.068236999 57.421875 7
-0.61007702 0.20105 57.375 7
0.148827 4.575439 -43.675781 7
0.10701 4.559814 -44.612305 7
0.079079002 4.5101318 -45.240234 7
0.138763 4.2745361 -43.920898 7
0.108482 4.228271 -44.602539 7
0.071091004 4.1929932 -45.439453 7
0.025040001 4.1704102 -46.467773 7
-0.561409 0.064940996 52.560547 7
-0.53465301 0.304443 52.068359 7
0.074707001 4.5725098 -41.637695 7
0.057533 4.5064702 -41.998047 7
0.033218 4.4534912 -42.50293 7
0.0037990001 4.4082031 -43.113281 7
0.050345998 4.2104492 -42.167969 7
0.030022001 4.145874 -42.591797 7
-0.013351 4.1226811 -43.486328 7
0.13410901 0.54663098 -40.359375 7
-0.54545599 -2.815552 47.969727 7
-0.55525202 -2.714844 48.146484 7
-0.56227899 -2.611084 48.274414 7
-0.491501 0.16491701 47.203125 7
-0.46058699 0.270264 46.675781 7
0.047851998 4.605103 -38.313477 7
0.020302 4.5688481 -38.833984 7
0.0030439999 4.508667 -39.164062 7
-0.027000001 4.4728999 -39.733398 7
-0.037193 4.3903809 -39.918945 7
0.120537 1.058472 -37.112305 7
0.087371998 0.79663098 -37.732422 7
0.090317003 0.424072 -37.672852 7
0.121155 0.326294 -37.09668 7
0.107262 0.23645 -37.353516 7
0.096329004 -0.039795 -34.416016 7
0.108818 -0.124146 -34.200195 7
-0.50138098 -2.673218 43.950195 7
-0.52297997 -2.593262 44.300781 7
-0.53425598 -2.502075 44.486328 7
-0.41776299 0.34729001 42.806641 7
-0.437462 0.44885299 43.121094 7
-0.417099 0.54357898 42.798828 7
-0.52713799 3.4321289 44.490234 7
-0.49947399 3.4984131 44.045898 7
-0.46629301 3.5550539 43.512695 7
-0.456581 3.6417241 43.352539 7
0.027809 4.7236328 -35.514648 7
-0.01226 4.6322021 -36.22168 7
-0.052345 4.5343022 -36.927734 7
0.102432 1.241089 -34.435547 7
0.109421 1.151978 -34.31543 7
0.070952997 1.000366 -34.981445 7
0.072875999 0.217041 -34.825195 7
0.084868997 0.045166001 -34.615234 7
0.069557004 -0.033691 -31.949219 7
0.098297 -0.111572 -31.494141 7
0.085625 -0.190796 -31.692383 7
0.090317003 -0.26879901 -31.615234 7
0.106842 -0.34472701 -31.352539 7
-0.088988997 -3.497803 -34.091797 7
-0.076110996 -3.561157 -33.879883 7
-0.076263003 -3.6446531 -33.871094 7
-0.43340299 -2.585083 39.655273 7
-0.457634 -2.5177 40.016602 7
-0.469879 -2.4375 40.203125 7
-0.50328797 -2.3751221 40.698242 7
-0.395432 0.405884 39.244141 7
-0.42279801 0.50085402 39.646484 7
-0.400749 0.58642602 39.324219 7
-0.48111001 3.5762939 40.446289 7
-0.45076001 3.627197 39.996094 7
-0.422791 3.6794429 39.581055 7
0.064361997 4.8126221 -31.788086 7
0.047339998 4.771606 -32.066406 7
0.027725 4.7349849 -32.383789 7
0.0040509999 4.7055659 -32.764648 7
-0.024788 4.6853032 -33.228516 7
-0.04586 4.6468511 -33.569336 7
0.12876099 1.4317631 -31.014648 7
0.114525 1.286621 -31.242188 7
0.111855 1.210327 -31.286133 7
0.080360003 1.14978 -31.785156 7
0.086533003 1.067627 -31.688477 7
0.089576997 -0.325562 -29.385742 7
0.054862998 -0.405029 -29.892578 7
0.076218002 -0.474365 -29.577148 7
0.082465999 -0.54602098 -29.481445 7
0.045334 -0.63012701 -30.022461 7
-0.143372 -3.507324 -32.546875 7
-0.120537 -3.6317141 -32.192383 7
-0.105133 -3.686157 -31.958008 7
-0.44380999 -2.3508301 37.458008 7
-0.38171399 0.38085899 36.757812 7
-0.392921 0.55102497 36.914062 7
-0.362694 0.62768602 36.498047 7
-0.48058301 3.5292971 38.023438 7
-0.460114 3.588501 37.735352 7
-0.43076301 3.634033 37.326172 7
-0.40987399 3.689575 37.032227 7
-0.41225401 3.77771 37.058594 7
0.186592 17.367798 23.467773 7
0.036835 4.77771 -29.962891 7
0.020592 4.7385249 -30.211914 7
0.0073469998 4.6879878 -30.40918 7
-0.016822999 4.6634521 -30.771484 7
-0.041351002 4.638062 -31.141602 7
0.074859999 1.372559 -29.666992 7
0.084151998 1.219238 -29.533203 7
0.063499004 1.1569819 -29.838867 7
0.088317998 1.0699461 -29.474609 7
0.058853 -0.37304699 -27.545898 7
0.057907 -0.44201699 -27.556641 7
0.085175 -0.50427198 -27.181641 7
0.055160999 -0.58044398 -27.589844 7
0.062737003 -0.64697301 -27.483398 7
0.082741 -0.70874 -27.206055 7
-0.121925 -3.5836179 -29.682617 7
-0.15136001 -3.7037351 -30.068359 7
-0.134262 -3.750366 -29.828125 7
-0.121048 -3.8022461 -29.638672 7
-0.107834 -3.853394 -29.449219 7
-0.122177 -3.9508059 -29.632812 7
-0.32166299 0.57263201 33.488281 7
0.041069001 4.8919678 -27.474609 7
0.026108 4.856689 -27.6875 7
-0.002174 4.7800288 -28.09082 7
-0.026954999 4.7633061 -28.436523 7
-0.045775998 4.7320561 -28.701172 7
0.0070270002 4.5500488 -27.99707 7
0.099013999 1.59314 -26.991211 7
0.074593 1.543457 -27.327148 7
0.103127 1.4552 -26.94043 7
0.085952997 1.399048 -27.177734 7
0.060676999 1.347168 -27.524414 7
0.051757999 -0.670654 -25.670898 7
0.065932997 -0.72973597 -25.489258 7
0.030846 -0.80639601 -25.930664 7
0.054664999 -0.86157203 -25.624023 7
0.035232998 -0.93383801 -25.868164 7
-0.15370201 -3.7398679 -27.978516 7
-0.15383901 -3.809448 -27.969727 7
-0.13748901 -3.9202881 -27.744141 7
-0.127022 -3.9711909 -27.600586 7
-0.122536 -4.0318599 -27.533203 7
-0.143883 -4.138062 -27.790039 7
-0.038399 5.0673828 -26.488281 7
0.0044630002 4.9046631 -25.958984 7
-0.00428 4.8588872 -26.080078 7
-0.016647 4.820435 -26.248047 7
-0.052871998 4.7626948 -26.71875 7
-0.063896 4.7188721 -26.868164 7
0.067307003 1.57373 -25.494141 7
0.082321003 1.498901 -25.305664 7
0.070235997 1.434814 -25.449219 7
0.049019001 1.3848881 -25.72168 7
0.071892001 1.306396 -25.432617 7
0.028511001 -0.74963403 -24.009766 7
0.02523 -0.93151897 -24.039062 7
0.040488999 -0.98474097 -23.856445 7
0.04879 -1.040161 -23.753906 7
-0.142334 -3.8408201 -25.696289 7
-0.152382 -3.9217529 -25.802734 7
-0.14654499 -3.9759519 -25.724609 7
-0.137245 -4.0236821 -25.605469 7
-0.131401 -4.077271 -25.527344 7
-0.131523 -4.1409912 -25.517578 7
-0.022583 5.0369868 -24.230469 7
-0.001511 4.9283452 -23.996094 7
-0.006966 4.880127 -24.070312 7
-0.015853999 4.8388672 -24.185547 7
-0.027229 4.8026118 -24.328125 7
-0.059280001 4.7479248 -24.723633 7
0.051139999 1.47229 -23.751953 7
0.013176 -0.87451202 -22.493164 7
0.032058999 -0.97912598 -22.279297 7
0.024886999 -1.150879 -22.34668 7
-0.136345 -3.8757319 -23.795898 7
-0.158775 -3.9732671 -24.02832 7
-0.163147 -4.040894 -24.064453 7
-0.148491 -4.1348882 -23.884766 7
-0.144363 -4.1872559 -23.829102 7
-0.155624 -4.2674561 -23.939453 7
-0.032593001 5.0662842 -22.561523 7
-0.01107 4.9605708 -22.339844 7
-0.017410001 4.9180908 -22.420898 7
-0.026404999 4.8813481 -22.529297 7
-0.032761 4.8381348 -22.608398 7
-0.048615001 4.8153081 -22.791016 7
0.057151999 1.816406 -21.985352 7
0.050246999 1.7663569 -22.06543 7
0.049644001 1.710938 -22.075195 7
0.058556002 1.648193 -21.980469 7
0.049522001 1.599243 -22.083008 7
0.033638 1.554688 -22.260742 7
0.0093919998 -0.97827101 -20.982422 7
0.014404 -1.028809 -20.927734 7
0.022247 -1.077637 -20.84375 7
0.015358 -1.134033 -20.911133 7
-0.004555 -1.197632 -21.111328 7
0.0095140003 -1.242798 -20.963867 7
0.014519 -1.292725 -20.908203 7
-0.17194401 -4.189209 -22.442383 7
-0.161842 -4.2271729 -22.329102 7
-0.158554 -4.276978 -22.28418 7
-0.157516 -4.3310552 -22.262695 7
-0.171837 -4.4136958 -22.395508 7
-0.051697001 5.1005859 -21.126953 7
-0.031493999 5.0013428 -20.93457 7
-0.032646 4.9506841 -20.958008 7
-0.034378 4.901123 -20.986328 7
-0.046799 4.875 -21.123047 7
-0.066536002 4.8638921 -21.333984 7
-0.071067996 4.819458 -21.390625 7
0.044089999 1.918579 -20.584961 7
0.049644001 1.86145 -20.530273 7
0.042831 1.815063 -20.604492 7
0.029274 1.7738039 -20.749023 7
0.051720001 1.703003 -20.519531 7
0.047729 1.654053 -20.564453 7
0.032455001 1.613037 -20.724609 7
-0.00078599999 -0.97363299 -19.738281 7
-0.015930001 -1.030762 -19.880859 7
-0.0039670002 -1.075195 -19.761719 7
-0.000443 -1.123413 -19.725586 7
-0.020996001 -1.1843261 -19.918945 7
-0.022293 -1.235352 -19.926758 7
-0.19809 -4.1956792 -21.222656 7
-0.200027 -4.252563 -21.229492 7
-0.19166601 -4.290894 -21.139648 7
-0.186333 -4.3343511 -21.078125 7
-0.177994 -4.3719478 -20.988281 7
-0.196823 -4.460083 -21.154297 7
0.017113 1.676392 -19.525391 7
-0.003609 -0.96179199 -18.46582 7
-0.0049669999 -1.009521 -18.475586 7
-0.021088 -1.064453 -18.618164 7
-0.0089720003 -1.1055911 -18.505859 7
-0.0020069999 -1.149048 -18.438477 7
-0.021331999 -1.206421 -18.609375 7
-0.024628 -1.2557369 -18.635742 7
-0.014519 -1.34436 -18.537109 7
-0.194763 -4.1833501 -19.758789 7
-0.20513199 -4.251709 -19.839844 7
-0.202675 -4.2971191 -19.805664 7
-0.195702 -4.3344731 -19.733398 7
-0.19324499 -4.3798828 -19.699219 7
-0.193977 -4.4310298 -19.695312 7
-0.059402 5.080688 -18.390625 7
-0.035873 4.9807129 -18.193359 7
-0.039733998 4.9425049 -18.238281 7
-0.039756998 4.895874 -18.25 7
-0.043609999 4.8572998 -18.295898 7
-0.052567001 4.829834 -18.386719 7
0.016037 1.669556 -18.240234 7
0.038902 1.559448 -18.038086 7
0.040764 1.511719 -18.025391 7
0.017113 1.481567 -18.243164 7
0.031723 1.4250489 -18.113281 7
0.037422001 1.375 -18.064453 7
0.04628 1.3232419 -17.985352 7
0.038139001 1.2800291 -18.058594 7
-0.013351 -1.001343 -17.44043 7
-0.025047 -1.096191 -17.53418 7
-0.015625 -1.13623 -17.449219 7
-0.025878999 -1.186157 -17.53418 7
-0.030861 -1.323486 -17.566406 7
-0.034340002 -1.370605 -17.591797 7
-0.083199002 5.117188 -17.407227 7
-0.078498997 5.0617681 -17.380859 7
-0.094025001 5.0513921 -17.522461 7
-0.064415 4.9412842 -17.286133 7
-0.067801997 4.9041748 -17.326172 7
-0.071220003 4.8666992 -17.365234 7
-0.074623004 4.8295898 -17.404297 7
-0.092170998 4.8217769 -17.5625 7
0.046386998 1.029663 -16.90332 7
-0.012543 -1.027832 -16.352539 7
-0.017654 -1.072021 -16.390625 7
-0.017006001 -1.113892 -16.382812 7
-0.014908 -1.154907 -16.363281 7
-0.027992001 -1.2462161 -16.461914 7
0.031212 0.93615699 -15.975586 7
0.038979001 0.85046399 -15.916016 7
0.037498001 0.80969203 -15.928711 7
0.028853999 0.77148402 -16 7
0.032387 0.72876 -15.973633 7
0.03878 0.68530297 -15.922852 7
0.046599999 0.641846 -15.861328 7
0.026458999 0.533813 -15.057617 7
0.025658 0.49475101 -15.064453 7
0.040550001 0.296509 -14.953125 7
0.036704998 0.258057 -14.982422 7
0.045937002 0.21606401 -14.973633 7
0.050446 0.177002 -14.939453 7
0.048843 0.138428 -14.950195 7
0.038093999 0.061278999 -15.032227 7
0.029648 -0.051146999 -14.121094 7
0.035225 -0.087890998 -14.081055 7
0.039184999 -0.124634 -14.051758 7
0.035110001 -0.161621 -14.080078 7
0.030258 -0.198975 -14.114258 7
0.030205 -0.236084 -14.114258 7
0.034164 -0.27233899 -14.084961 7
0.037253998 -0.34570301 -14.05957 7
-0.057381 4.8843989 -14.044922 7
-0.050209001 4.8321528 -14.006836 7
-0.054230001 4.8039551 -14.044922 7
0.013672 -0.33215299 -13.504883 7
0.016998 -0.36682099 -13.481445 7
0.016953001 -0.40197799 -13.480469 7
0.019416999 -0.43689001 -13.461914 7
0.021049 -0.471558 -13.449219 7
0.015923001 -0.50781202 -13.482422 7
0.0074009998 -0.54516602 -13.539062 7
0.0081940005 -0.58020002 -13.532227 7
0.01152 -0.61462402 -13.507812 7
-0.011856 -0.658081 -12.839844 7
-0.0048750001 -0.689331 -12.863281 7
0.001305 -0.72106898 -12.821289 7
0.0038989999 -0.75366199 -12.801758 7
-0.0094990004 -0.79211402 -12.886719 7
-0.015769999 -0.82836902 -12.924805 7
-0.014069 -0.86132801 -12.911133 7
-0.008781 -0.89306599 -12.874023 7
-0.0052720001 -0.92541498 -12.850586 7
-0.0062330002 -0.95959502 -12.853516 7
-0.021415999 -1.000122 -12.948242 7
-0.026794 -1.036743 -12.980469 7
-0.033957999 -1.074097 -13.024414 7
-0.035805002 -1.109253 -13.033203 7
-0.044776998 -1.147705 -13.086914 7
-0.032379001 -1.175415 -13.003906 7
-0.031539999 -1.208984 -12.996094 7
-0.034263998 -1.244507 -13.009766 7
-0.035232998 -1.279175 -13.012695 7
-0.044243 -1.352905 -13.063477 7
-0.045196999 -1.3874511 -13.06543 7
-0.043480001 -1.4206541 -13.050781 7
-0.052429002 -1.460693 -13.105469 7
-0.0079420004 -0.97863799 -12.183594 7
-0.016380001 -1.014771 -12.233398 7
-0.029495001 -1.053345 -12.311523 7
-0.027695 -1.084839 -12.297852 7
-0.024017001 -1.115356 -12.272461 7
-0.022217 -1.146606 -12.257812 7
-0.026916999 -1.181396 -12.28418 7
-0.034439001 -1.217896 -12.327148 7
-0.037300002 -1.2518311 -12.34082 7
-0.023293 -0.96740699 -11.599609 7
-0.027321 -1.030762 -11.619141 7
-0.020523001 -1.058228 -11.576172 7
-0.016647 -1.087036 -11.549805 7
-0.016701 -1.117676 -11.547852 7
-0.019699 -1.14978 -11.5625 7
-0.038376 -1.190552 -11.668945 7
-0.029594 -1.216553 -11.614258 7
-0.029716 -1.277954 -11.607422 7
-0.057395998 4.7884521 -10.911133 7
-0.057418998 4.7591548 -10.920898 7
-0.062293999 4.7399902 -10.958984 7
-0.063277997 4.7125239 -10.976562 7
-0.062302001 4.6810298 -10.982422 7
-0.063293003 4.6534419 -10.998047 7
-0.074997 4.6479492 -11.075195 7
-0.088661 4.6461182 -11.162109 7
-0.076003999 4.5904541 -11.102539 7
-0.076995999 4.5626221 -11.118164 7
-0.072121002 4.5229492 -11.102539 7
-0.072150998 4.4931641 -11.112305 7
-0.036903001 -1.283569 -11.061523 7
-0.044135999 -1.3173831 -11.097656 7
-0.042130001 -1.345703 -11.083984 7
-0.044234999 -1.376343 -11.091797 7
-0.046349 -1.407227 -11.099609 7
-0.050484002 -1.439575 -11.120117 7
-0.051575001 -1.469849 -11.12207 7
-0.054694999 -1.501465 -11.135742 7
-0.064621001 4.7851558 -10.316406 7
-0.063621998 4.7550049 -10.321289 7
-0.066689 4.733521 -10.348633 7
-0.070762999 4.7138672 -10.381836 7
-0.070762999 4.685791 -10.392578 7
-0.072806999 4.6618652 -10.415039 7
-0.076897003 4.6419678 -10.448242 7
-0.092208996 4.6447749 -10.539062 7
-0.097305 4.6269531 -10.577148 7
-0.084053002 4.5714111 -10.518555 7
-0.082030997 4.539062 -10.518555 7
-0.080008999 4.5064702 -10.517578 7
-0.031479001 -1.302246 -10.420898 7
-0.041198999 -1.335938 -10.46875 7
-0.052002002 -1.370483 -10.523438 7
-0.045616001 -1.394653 -10.485352 7
-0.042442001 -1.420776 -10.464844 7
-0.044647001 -1.450317 -10.472656 7
-0.049004 -1.481079 -10.491211 7
-0.051208001 -1.5107419 -10.5 7
-0.063079998 -1.546997 -10.55957 7
-0.088165 4.787354 -9.7832031 7
-0.087104999 4.7584229 -9.7890615 7
-0.097809002 4.7539058 -9.8535156 7
-0.096732996 4.724854 -9.8603516 7
-0.094604 4.693604 -9.8603516 7
-0.093535997 4.6645508 -9.8662109 7
-0.090355001 4.604248 -9.8720703 7
-0.082869999 4.5623779 -9.8447266 7
-0.076476999 4.5227051 -9.8232422 7
-0.075416997 4.4937739 -9.828125 7
-0.034981001 -1.167114 -9.9365234 7
-0.039528001 -1.196411 -9.9570312 7
-0.041824002 -1.2244869 -9.9648438 7
-0.035133 -1.247681 -9.9287109 7
-0.033073001 -1.326416 -9.90625 7
-0.036056999 -1.3218991 -9.4277344 7
-0.053695999 -1.383911 -9.5058594 7
-0.056099001 -1.411255 -9.5146484 7
-0.044426002 -1.429443 -9.4541016 7
-0.050338998 -1.458984 -9.4785156 7
-0.052726999 -1.4862061 -9.4863281 7
-0.05751 -1.540771 -9.5009766 7
-0.038628001 -1.292236 -8.9824219 7
-0.045975 -1.321411 -9.0136719 7
-0.043602001 -1.34436 -8.9990234 7
-0.042427 -1.3681639 -8.9892578 7
-0.048560999 -1.396606 -9.015625 7
-0.049835 -1.421875 -9.0166016 7
-0.051093999 -1.447266 -9.0195312 7
-0.053574 -1.473755 -9.0273438 7
-0.053619001 -1.498291 -9.0244141 7
-0.058533002 -1.526245 -9.0429688 7
-0.053711001 -1.5476069 -9.0166016 7
-0.063529998 -1.579102 -9.0576172 7
-0.027626 -1.321045 -8.4550781 7
-0.030205 -1.346069 -8.4638672 7
-0.045593001 -1.402222 -8.5253906 7
-0.044411 -1.448486 -8.5126953 7
-0.040626999 -1.469116 -8.4921885 7
-0.043274 -1.5177 -8.4960938 7
-0.054779001 -1.549194 -8.5439453 7
-0.079010002 4.7972412 -7.5263672 7
-0.070129 4.756958 -7.5029302 7
-0.062514998 4.7198491 -7.483398 7
-0.056175001 4.6853032 -7.46875 7
-0.057457 4.6668701 -7.484375 7
-0.056175001 4.6429439 -7.4902339 7
-0.058722999 4.6270752 -7.5107422 7
-0.061264001 4.6107178 -7.5332031 7
-0.067612 4.602417 -7.5683589 7
-0.076485001 4.598999 -7.6152339 7
-0.073967002 4.5725098 -7.6152339 7
-0.073951997 4.5509028 -7.6269531 7
-0.070145003 4.521606 -7.6230469 7
-0.068885997 4.4975591 -7.6279302 7
-0.039710999 -1.296631 -8.1035156 7
-0.039742 -1.319092 -8.1005859 7
-0.039786998 -1.341675 -8.0976562 7
-0.041152999 -1.36499 -8.0996094 7
-0.038550999 -1.38562 -8.0849609 7
-0.054497 -1.418213 -8.1503906 7
-0.065140001 -1.447632 -8.1923828 7
-0.062546 -1.468384 -8.1767578 7
-0.050659001 -1.483276 -8.1220703 7
-0.055992 -1.5093991 -8.1425781 7
-0.056038 -1.531738 -8.1386719 7
-0.057395998 -1.555298 -8.140625 7
-0.064087003 -1.582642 -8.1650391 7
-0.072746001 4.7513428 -7.046875 7
-0.067466997 4.7199712 -7.0371089 7
-0.063499004 4.6915278 -7.0332031 7
-0.067466997 4.679688 -7.0595698 7
-0.068778999 4.6621089 -7.0761719 7
-0.070106998 4.6445308 -7.0917969 7
-0.068778999 4.62146 -7.0986328 7
-0.071425997 4.606689 -7.1191411 7
-0.072746001 4.5889888 -7.1347661 7
-0.079352997 4.5819092 -7.1699219 7
-0.091216996 4.5853271 -7.2275391 7
-0.096496999 4.5751948 -7.257812 7
-0.08461 4.5308838 -7.2236328 7
-0.076697998 4.4943848 -7.203125 7
-0.081978001 4.484375 -7.234375 7
-0.083518997 4.7861328 -6.608398 7
-0.073890999 4.7467041 -6.585938 7
-0.064262003 4.7076421 -6.563477 7
-0.056000002 4.6712651 -6.5449219 7
-0.061501 4.6638179 -6.5751948 7
-0.068382002 4.658936 -6.610352 7
-0.068382002 4.639648 -6.6210942 7
-0.065636002 4.6149902 -6.6210942 7
-0.064254999 4.592896 -6.6279302 7
-0.065636002 4.5765381 -6.6435552 7
-0.064262003 4.554565 -6.6494141 7
-0.071129002 4.5491939 -6.6855469 7
-0.075240999 4.5380859 -6.710938 7
-0.083495997 4.5350342 -6.750977 7
-0.079383999 4.5075679 -6.7460942 7
-0.379051 -6.2032471 -6.609375 7
-0.38055399 -6.2255859 -6.5996089 7
-0.38637501 -6.258667 -6.6025391 7
-0.387878 -6.2810059 -6.592773 7
-0.379311 -6.278687 -6.5507808 7
-0.37792999 -6.2939448 -6.53125 7
-0.37369499 -6.3022461 -6.5029302 7
-0.37231401 -6.3172612 -6.483398 7
-0.37236801 -6.335815 -6.46875 7
-0.37674001 -6.3649902 -6.4667969 7
-0.37823501 -6.3873291 -6.4570308 7
-0.087456003 4.7938228 -6.1992192 7
-0.088859998 4.778564 -6.2158198 7
-0.083168 4.7484131 -6.2070308 7
-0.064606003 4.6914058 -6.15625 7
-0.060341001 4.6645508 -6.1533198 7
-0.060325999 4.6464839 -6.164062 7
-0.060318001 4.6282959 -6.1757808 7
-0.060332999 4.592041 -6.1962891 7
-0.063170999 4.5797119 -6.217773 7
-0.063156001 4.5614009 -6.2285161 7
-0.067420997 4.5517578 -6.2539058 7
-0.074561998 4.547852 -6.289062 7
-0.083130002 4.5466309 -6.328125 7
-0.078841999 4.5196528 -6.3242192 7
-0.070289999 4.4841309 -6.304688 7
-0.38712299 -6.2988281 -6.0556641 7
-0.397636 -6.3421631 -6.0712891 7
-0.39322701 -6.3487549 -6.0429692 7
-0.38282001 -6.3404541 -5.999023 7
-0.38885501 -6.3728032 -6.000977 7
-0.32154101 -5.112915 8.8730469 7
-0.31215701 -5.0762939 8.8564453 7
-0.30278 -5.0219731 8.8535156 7
-0.30590099 -5.0106201 8.875 7
-0.30590799 -4.9929199 8.8867188 7
-0.30278 -4.9511719 8.9003906 7
-0.304344 -4.9364009 8.9179688 7
-0.30747199 -4.9246831 8.9384766 7
-0.372688 -6.194458 -5.1074219 7
-0.372749 -6.2099609 -5.092773 7
-0.37601501 -6.2331538 -5.0849609 7
-0.38088199 -6.2601318 -5.0830078 7
-0.38095099 -6.2753911 -5.0683589 7
-0.38260701 -6.2946782 -5.0576172 7
-0.38427001 -6.3138428 -5.046875 7
-0.381111 -6.3210449 -5.023438 7
-0.382774 -6.340332 -5.0126948 7
-0.374809 -6.3355708 -4.9775391 7
-0.37487 -6.350708 -4.9619141 7
-0.38294199 -6.3857422 -4.9667969 7
-0.32933 -5.1152339 8.4726562 7
-0.326103 -5.0919189 8.4775391 7
-0.32123601 -5.065186 8.4755859 7
-0.31148499 -5.0288091 8.4599609 7
-0.31310299 -5.0153809 8.4755859 7
-0.30985299 -4.992188 8.4785156 7
-0.31147799 -4.9787598 8.4951172 7
-0.30824301 -4.9554439 8.4980469 7
-0.30985999 -4.941772 8.5136719 7
-0.30986801 -4.9248052 8.5253906 7
-0.31472799 -4.917603 8.5517578 7
-0.31310999 -4.897583 8.5585938 7
-0.32286099 -4.8996582 8.5986328 7
-0.30987501 -4.8571782 8.5732422 7
-0.30175 -4.824585 8.5605469 7
-0.30661801 -4.8170171 8.5859385 7
-0.30987501 -4.8061519 8.6074219 7
-0.32968101 -5.112793 8.0615234 7
-0.32632399 -5.09021 8.0644531 7
-0.30950901 -5.0247798 8.0449219 7
-0.30783799 -5.0057368 8.0517578 7
-0.30783799 -4.9742432 8.0751953 7
-0.31288901 -4.9683838 8.1015615 7
-0.312904 -4.9523931 8.1132812 7
-0.30448201 -4.9199219 8.1015615 7
-0.312897 -4.9046631 8.1484385 7
-0.31456801 -4.8919678 8.1640615 7
-0.31459799 -4.8598628 8.1884766 7
-0.31461301 -4.84375 8.2001953 7
-0.31459799 -4.8277588 8.2109385 7
-0.089080997 -1.9104 8.7617188 7
-0.094085999 -1.879761 8.7871094 7
-0.094077997 -1.862305 8.7919922 7
-0.097404003 -1.829834 8.8115234 7
-0.100754 -1.815063 8.8261719 7
-0.099045001 -1.7961431 8.8251953 7
-0.078856997 -1.762817 8.7636719 7
-0.085547999 -1.7331541 8.7939453 7
-0.080481999 -1.7119139 8.78125 7
-0.080459997 -1.67688 8.7900391 7
-0.090530001 -1.66687 8.8271484 7
-0.093872003 -1.651611 8.8417969 7
-0.085441999 -1.628052 8.8173828 7
-0.064834997 0.97241199 8.8828115 7
-0.066490002 0.99096698 8.8867188 7
-0.063118003 1.007202 8.8740234 7
-0.063042 1.04248 8.8691406 7
-0.059647001 1.058594 8.8554688 7
-0.059624001 1.076172 8.8525391 7
-0.062912002 1.113037 8.859375 7
-0.067916997 1.133301 8.8730469 7
-0.064490996 1.16687 8.8564453 7
-0.074538998 1.189697 8.8876953 7
-0.076164 1.208252 8.8886719 7
-0.074463002 1.225098 8.8818359 7
-0.079429999 1.263306 8.8916016 7
-0.074371003 1.2780761 8.8720703 7
-0.122917 4.166626 7.9570308 7
-0.13290399 4.2001948 7.9755859 7
-0.129509 4.2095952 7.9560552 7
-0.121094 4.2098389 7.922852 7
-0.112694 4.2099609 7.889648 7
-0.100937 4.2036128 7.8457031 7
-0.097542003 4.212646 7.8261719 7
-0.097503997 4.2277832 7.8164058 7
-0.097442999 4.2429199 7.8066411 7
-0.097397 4.2580571 7.796875 7
-0.097365998 4.2730708 7.7871089 7
-0.102325 4.2974849 7.7900391 7
-0.100609 4.3093262 7.7753911 7
-0.092193998 4.3085942 7.7431641 7
-0.093833998 4.3267822 7.7373052 7
-0.093787998 4.3417969 7.7275391 7
-0.095427997 4.3597412 7.7216802 7
-0.102058 4.3875728 7.7294922 7
-0.112061 4.4217529 7.7470698 7
-0.12706 4.4658198 7.7783198 7
-0.37899801 -6.4136958 -3.9111331 7
-0.37907401 -6.4263921 -3.8964839 7
-0.37567899 -6.4302979 -3.8730471 7
-0.379181 -6.4515381 -3.8652339 7
-0.38095099 -6.4681401 -3.8535161 7
-0.32538599 -5.0957031 7.6630859 7
-0.32540101 -5.06604 7.686523 7
-0.31671101 -5.0335689 7.6767578 7
-0.31671101 -5.0186772 7.688477 7
-0.316719 -5.0039058 7.7011719 7
-0.31671101 -4.9888921 7.7128911 7
-0.314987 -4.9555659 7.7324219 7
-0.31499499 -4.9405522 7.7441411 7
-0.30106401 -4.8980708 7.7216802 7
-0.31499499 -4.9103999 7.766602 7
-0.31325501 -4.8919678 7.7753911 7
-0.32022899 -4.8905029 7.8037109 7
-0.321953 -4.8787842 7.820312 7
-0.31153101 -4.8280029 7.8173828 7
-0.30631301 -4.8027339 7.8154302 7
-0.315025 -4.8043208 7.8486328 7
-0.092147999 -1.909302 8.4824219 7
-0.086906001 -1.888184 8.4707031 7
-0.083420001 -1.86853 8.4648438 7
-0.085135996 -1.853271 8.4746094 7
-0.086868003 -1.837891 8.484375 7
-0.100769 -1.832275 8.5322266 7
-0.090309002 -1.807251 8.5029297 7
-0.092049003 -1.79187 8.5126953 7
-0.076347001 -1.745972 8.4726562 7
-0.081557997 -1.733398 8.4931641 7
-0.074584998 -1.711182 8.4755859 7
-0.076301999 -1.695801 8.4853516 7
-0.076286003 -1.679077 8.4892578 7
-0.078025997 -1.663574 8.4990234 7
-0.086716004 -1.6530761 8.5302734 7
-0.079727001 -1.6142581 8.5166016 7
-0.070694 0.99047899 8.6210938 7
-0.058487002 1.002075 8.5791016 7
-0.058472 1.018921 8.5771484 7
-0.058433998 1.035889 8.5742188 7
-0.054939002 1.05127 8.5605469 7
-0.060074002 1.0875241 8.5722656 7
-0.063483998 1.1231689 8.578125 7
-0.059982002 1.13855 8.5644531 7
-0.051277 1.150879 8.5341797 7
-0.061661001 1.1730959 8.5644531 7
-0.068572998 1.193848 8.5839844 7
-0.058090001 1.222168 8.5458984 7
-0.071938001 1.263672 8.5849609 7
-0.066689 1.27771 8.5644531 7
-0.115318 4.1618652 7.5908198 7
-0.117004 4.179565 7.5849609 7
-0.129089 4.216064 7.608398 7
-0.123848 4.221313 7.5839839 7
-0.102982 4.2121582 7.5087891 7
-0.097755 4.217041 7.485352 7
-0.094192997 4.2391362 7.4550781 7
-0.094093002 4.2677002 7.4355469 7
-0.094054997 4.2818599 7.4248052 7
-0.09742 4.316895 7.414062 7
-0.093879998 4.338623 7.3837891 7
-0.095550999 4.3560791 7.3779302 7
-0.105843 4.4041748 7.3847661 7
-0.112755 4.4316411 7.3935552 7
-0.32555401 -5.0968022 7.2841802 7
-0.325562 -5.0828862 7.296875 7
-0.32197601 -5.061523 7.2998052 7
-0.32379201 -5.05127 7.3173828 7
-0.32197601 -5.0335689 7.3242192 7
-0.31839001 -5.0123291 7.328125 7
-0.3256 -5.0126948 7.3574219 7
-0.320198 -4.9876709 7.3554692 7
-0.32021299 -4.9736328 7.367188 7
-0.316605 -4.9525151 7.3701172 7
-0.316605 -4.938354 7.3818359 7
-0.32021299 -4.9311519 7.4023442 7
-0.31302601 -4.902832 7.3964839 7
-0.32022899 -4.902832 7.4257808 7
-0.327438 -4.9023442 7.4550781 7
-0.32383701 -4.8812261 7.4580078 7
-0.32203701 -4.8632808 7.4648442 7
-0.31304201 -4.831543 7.454102 7
-0.088180996 -1.901733 8.1992188 7
-0.088150002 -1.8857419 8.203125 7
-0.095352001 -1.875488 8.2304688 7
-0.091728002 -1.856445 8.2226562 7
-0.091735996 -1.840332 8.2285156 7
-0.091697998 -1.824219 8.2324219 7
-0.10067 -1.815308 8.2626953 7
-0.088096999 -1.78894 8.2314453 7
-0.088081002 -1.772827 8.2353516 7
-0.088058002 -1.75647 8.2392578 7
-0.080840997 -1.734985 8.2216797 7
-0.084426999 -1.72168 8.2363281 7
-0.082618997 -1.704102 8.2353516 7
-0.082611002 -1.687866 8.2392578 7
-0.082603 -1.671753 8.2431641 7
-0.082572997 -1.6555181 8.2470703 7
-0.087958999 -1.643188 8.2675781 7
-0.073563002 -1.616699 8.2285156 7
-0.077133 -1.6031491 8.2421885 7
-0.062622003 0.96789598 8.3349609 7
-0.067932002 1.0031739 8.3466797 7
-0.062531002 1.016968 8.3291016 7
-0.060715001 1.032593 8.3212891 7
-0.062438998 1.06604 8.3212891 7
-0.062415998 1.08252 8.3193359 7
-0.049819998 1.092773 8.2773438 7
-0.064110003 1.132568 8.3164062 7
-0.064087003 1.1488039 8.3134766 7
-0.051483002 1.158569 8.2724609 7
-0.063988 1.197876 8.3056641 7
-0.069343999 1.216797 8.3193359 7
-0.063933998 1.230347 8.2998047 7
-0.067459002 1.264771 8.3046885 7
-0.112442 4.1610112 7.2558589 7
-0.114189 4.1781011 7.250977 7
-0.135574 4.244873 7.2861328 7
-0.119431 4.229126 7.235352 7
-0.112221 4.2297359 7.2060552 7
-0.11039 4.2401118 7.1923828 7
-0.103195 4.240479 7.1650391 7
-0.097778 4.244019 7.141602 7
-0.099503003 4.2608638 7.1357422 7
-0.099457003 4.274292 7.125 7
-0.099426001 4.2878418 7.1152339 7
-0.099372998 4.3013921 7.1044922 7
-0.099326998 4.3148189 7.09375 7
-0.101089 4.331543 7.0888672 7
-0.104568 4.3651118 7.077148 7
-0.111694 4.3922119 7.0839839 7
-0.133064 4.4603271 7.1162109 7
-0.115128 4.4390869 7.061523 7
-0.115082 4.4523931 7.0517578 7
-0.337549 -4.9078302 8.8157148 7
-0.148195 4.2340779 7.7544389 7
-0.124635 4.271955 7.4835739 7
-0.113998 4.3647528 7.2674561 7
-0.30878201 -4.9894509 7.8060169 7
-0.311836 -4.8326201 8.0152979 7
-0.091078997 -1.73537 8.5138168 7
-0.065996997 0.98442501 8.575407 7
-0.062687002 1.168322 8.5141306 7
-0.301649 -5.0750279 6.9545112 7
-0.29594001 -4.9099131 7.1398468 7
-0.084927998 -1.789147 8.1385441 7
-0.041363999 1.065195 8.1212749 7
-0.045889001 1.24291 8.1012735 7
-0.028689999 0.98573202 7.8185191 7
-0.32516199 -4.932579 6.1025348 7
-0.329431 -4.8527222 6.311944 7
-0.106177 -1.791363 7.7190652 7
-0.097962998 -1.6183161 7.7492361 7
-0.063176997 1.131749 7.7396989 7
-0.28432599 -4.7649131 5.150991 7
-0.28285199 -4.697669 5.3448658 7
-0.093428001 -1.81276 7.4011569 7
-0.078836001 -1.638664 7.407618 7
-0.040509 1.0399311 7.4415002 7
-0.049520999 1.196049 7.4387331 7
-0.082592003 -1.828993 7.1185222 7
-0.067231998 -1.663983 7.127389 7
-0.066884004 -1.825205 6.8411918 7
-0.057291999 -1.683917 6.8763561 7
-0.054797001 -1.579103 -8.9933186 7
-0.034118999 -1.505138 -7.4154148 7
0.0065970002 -1.437477 -5.961637 7
-0.30080199 -6.3626719 -6.4004211 7
0.027012 -1.390017 -4.945755 7
-0.35826501 -4.9986539 8.4536304 7
-0.108804 -1.790365 8.7843533 7
-0.342848 -4.9436612 7.9583449 7
-0.073041998 -1.724803 8.3184385 7
-0.33267799 -5.0657082 7.3494878 7
-0.32329199 -4.8708701 7.4951329 7
-0.067539997 -1.881654 7.984961 7
-0.05108 -1.674474 7.9616008 7
-0.30023599 -4.9321971 6.8942828 7
-0.048845001 -1.824838 7.6763492 7
-0.037261002 -1.633775 7.6736212 7
-0.34059501 -4.974844 6.357048 7
-0.337073 -4.8363638 6.5171309 7
-0.083189003 -1.77657 7.4198689 7
-0.083462 -1.907859 7.1954188 7
-0.066793002 -1.732498 7.1802702 7
-0.29931399 -4.856246 5.5473709 7
-0.054676 -1.847883 6.9309888 7
-0.045407999 -1.688675 6.9414392 7
-0.29716301 -4.7899661 5.297092 7
-0.27930799 -4.6520152 5.4249949 7
-0.32896399 -5.0927629 3.517091 7
-0.29672599 -4.7816219 4.5335689 7
-0.31050399 -4.7650309 4.7069049 7
-0.308018 -4.549974 5.166852 7
-0.29910401 -4.8713379 3.339453 7
-0.290315 -4.8349528 3.4996541 7
-0.276099 -4.747591 3.8521399 7
-0.27978399 -4.7286139 4.0106859 7
-0.28778601 -4.5711012 4.6312242 7
-0.28344801 -4.4990382 4.7749701 7
-0.25638101 -4.536612 3.970938 7
-0.26203299 -4.5183978 4.122366 7
-0.089559004 4.6921411 -6.2437749 7
-0.14473499 4.2393498 7.772059 7
-0.084546 1.133472 8.7520065 7
-0.144503 4.2313209 7.3838081 7
-0.116208 4.2983141 7.1221681 7
-0.069045 1.177763 8.371809 7
-0.04998 1.1656131 8.0230961 7
-0.069049001 0.96654898 7.6896582 7
-0.074110001 1.152277 7.6817312 7
-0.049555998 0.96866202 7.4112649 7
-0.05559 1.142905 7.4092369 7
0.018025 -0.202463 -14.032179 7
-0.023118 -1.402917 -15.202885 7
-0.14083099 4.8724432 -18.251858 7
-0.129859 -1.063984 -11.803892 7
-0.119788 4.66221 -10.920557 7
-0.071924001 -1.487235 -9.1698904 7
-0.046879001 -1.500918 -7.6991882 7
-0.059815001 4.6397109 -6.695312 7
-0.079805002 4.5410581 -7.0640159 7
-0.035994999 -1.528962 -6.7349129 7
-0.064361997 -1.298677 -5.8923831 7
-0.077409998 -1.5367039 -5.960187 7
-0.036865 -1.344846 -4.8206801 7
-0.051849999 -1.546008 -4.8778772 7
