# .PCD v0.7 - Point Cloud Data file format
VERSION 0.7
FIELDS x y z intensity
SIZE 4 4 4 4
TYPE F F F F
COUNT 1 1 1 1
WIDTH 872
HEIGHT 1
VIEWPOINT 0 0 0 1 0 0 0
POINTS 872
DATA ascii
0.025474999 -1.9962161 -71.417969 7
0.078644 -2.1151121 -69.610352 7
0.057037 4.8944092 -70.676758 7
0.075255997 4.682251 -70.064453 7
0.028046001 4.6132808 -71.668945 7
0.059928998 4.81604 -62.74707 7
0.130806 4.507812 -60.611328 7
0.067307003 4.4951172 -62.537109 7
-0.91009498 -5.65625 74.796875 7
0.175873 4.7026372 -52.699219 7
0.119957 4.7010498 -54.214844 7
0.092026003 4.6358638 -54.958984 7
0.13966399 4.399292 -53.681641 7
0.103401 4.3439941 -54.666016 7
0.0429 4.3327641 -56.303711 7
0.110794 4.5246582 -49.181641 7
0.063896 4.5039058 -50.333984 7
0.129601 4.2449951 -48.736328 7
0.092727996 4.1998291 -49.643555 7
0.057526 4.1469731 -50.510742 7
0.131165 0.76550299 -48.740234 7
-0.62034601 -0.058959998 57.538086 7
-0.60759699 0.073729999 57.288086 7
-0.58723402 0.204956 56.883789 7
0.111954 4.5313721 -44.40332 7
0.072365001 4.5067139 -45.287109 7
0.131668 4.2722168 -43.982422 7
0.101013 4.2263179 -44.666992 7
0.068024002 4.1818848 -45.405273 7
0.021309 4.1601558 -46.447266 7
-0.57415801 0.067993 52.729492 7
-0.52274299 0.186157 51.776367 7
-0.540474 0.30761701 52.107422 7
0.054092001 4.5064702 -41.985352 7
0.030884 4.4510498 -42.466797 7
-0.010017 4.4293208 -43.30957 7
0.044608999 4.21521 -42.202148 7
0.021118 4.1566162 -42.69043 7
-0.010361 4.1105962 -43.339844 7
0.098090999 0.75231898 -41.228516 7
0.09623 0.65185499 -41.265625 7
0.086914003 0.55322301 -41.453125 7
0.140045 0.440063 -40.367188 7
-0.53654498 -2.800293 47.794922 7
-0.544258 -2.6982419 47.93457 7
-0.55060601 -2.5939939 48.052734 7
-0.48528299 0.16918901 47.073242 7
-0.46890301 0.383057 46.798828 7
0.041198999 4.604248 -38.365234 7
0.020485001 4.5532231 -38.759766 7
-0.00088499999 4.5015869 -39.166016 7
-0.024109 4.4520259 -39.606445 7
-0.049858 4.4050288 -40.09375 7
0.107994 0.88037097 -37.280273 7
0.075943001 0.800659 -37.878906 7
0.102432 0.69848597 -37.382812 7
0.082663998 0.426025 -37.75 7
0.094016999 0.238647 -37.535156 7
0.112679 0.144897 -37.18457 7
0.077072002 -0.046875 -34.84375 7
0.098380998 -0.13159201 -34.475586 7
-0.49112701 -2.6578369 43.768555 7
-0.52329999 -2.486572 44.295898 7
-0.41523701 0.34899899 42.713867 7
-0.446365 0.452393 43.208984 7
-0.41385701 0.54455602 42.694336 7
0.0046689999 4.7645259 -35.862305 7
0.020142 4.6425781 -35.607422 7
-0.002502 4.6053472 -35.994141 7
-0.018501 4.5493159 -36.27832 7
-0.053817999 4.5311279 -36.892578 7
0.098816 1.242432 -34.441406 7
0.108437 1.066895 -34.27832 7
0.088653997 0.99157703 -34.619141 7
0.059021 0.91857898 -35.128906 7
0.083793998 0.12439 -34.732422 7
0.103722 0.03833 -34.387695 7
0.063927002 -0.032958999 -31.991211 7
0.093451999 -0.110718 -31.523438 7
0.066689 -0.191284 -31.944336 7
0.082503997 -0.26855499 -31.692383 7
0.101662 -0.344116 -31.387695 7
-0.110962 -3.4630129 -34.541992 7
-0.094002001 -3.521729 -34.264648 7
-0.078162998 -3.5809331 -34.006836 7
-0.45202601 -2.507324 39.917969 7
-0.46308899 -2.4263921 40.086914 7
-0.48571801 -2.3547361 40.424805 7
-0.39376801 0.40917999 39.204102 7
-0.38871801 0.58727998 39.130859 7
-0.47624201 3.567749 40.330078 7
-0.446266 3.619019 39.885742 7
-0.41507 3.66626 39.422852 7
-0.40976 3.749023 39.338867 7
0.058387998 4.8137212 -31.834961 7
0.043540999 4.7675781 -32.078125 7
0.028671 4.7203369 -32.319336 7
0.007553 4.6854248 -32.662109 7
-0.020226 4.663208 -33.106445 7
-0.056136999 4.655396 -33.680664 7
0.044861 -0.26428199 -30.117188 7
0.073715001 -0.33447301 -29.689453 7
0.079735003 -0.55358899 -29.592773 7
-0.14870501 -3.530884 -32.708984 7
-0.144875 -3.6055911 -32.642578 7
-0.129089 -3.661011 -32.401367 7
-0.114906 -3.717896 -32.183594 7
-0.123001 -3.8106689 -32.291016 7
-0.428864 -2.5024409 37.226562 7
-0.43173999 -2.4202881 37.273438 7
-0.43756101 -2.340698 37.360352 7
-0.423004 -2.2429199 37.167969 7
-0.378609 0.38195801 36.675781 7
-0.35640001 0.461548 36.371094 7
-0.384514 0.55041498 36.761719 7
-0.35637701 0.62744099 36.375 7
-0.45655099 3.582031 37.648438 7
-0.43436399 3.637207 37.337891 7
-0.40287 3.677856 36.899414 7
-0.390434 3.744019 36.72168 7
0.037147999 4.7652588 -29.917969 7
0.014954 4.7390141 -30.251953 7
-0.00093099999 4.697876 -30.494141 7
-0.018539 4.6616211 -30.754883 7
-0.045876 4.6420898 -31.164062 7
-0.0048679998 4.4804692 -30.573242 7
0.092804 1.506348 -29.356445 7
0.094696 1.431885 -29.331055 7
0.099266 1.282837 -29.266602 7
0.052352998 1.162354 -29.961914 7
0.052802999 -0.37292501 -27.592773 7
0.047141999 -0.44299299 -27.666992 7
0.074874997 -0.50524902 -27.287109 7
0.044815 -0.58178699 -27.694336 7
-0.160706 -3.6586909 -30.280273 7
-0.15139 -3.7186279 -30.143555 7
-0.132172 -3.7619629 -29.874023 7
-0.115974 -3.8088379 -29.644531 7
-0.116524 -3.8830571 -29.640625 7
0.034302 4.896729 -27.532227 7
0.026115 4.8461909 -27.652344 7
0.009819 4.8129878 -27.883789 7
-0.027046001 4.752563 -28.401367 7
-0.049293999 4.7286382 -28.713867 7
-0.01181 4.5788569 -28.216797 7
0.092162997 1.5969239 -27.048828 7
0.070716999 1.5450439 -27.344727 7
0.097136997 1.4580081 -26.986328 7
0.082092002 1.400635 -27.194336 7
0.054634001 1.3499759 -27.570312 7
0.034476999 -0.61779797 -25.947266 7
0.051819 -0.67688 -25.724609 7
0.057709001 -0.73901403 -25.647461 7
0.028214 -0.814331 -26.018555 7
0.046944 -0.87146002 -25.776367 7
0.034903999 -0.94103998 -25.926758 7
-0.15163399 -3.889648 -27.995117 7
-0.134262 -3.929565 -27.766602 7
-0.127937 -3.987427 -27.675781 7
-0.13358299 -4.0661621 -27.736328 7
-0.0043029999 4.9143071 -26.041016 7
-0.0080260001 4.8572998 -26.098633 7
-0.052108999 4.7541499 -26.68457 7
-0.068268001 4.723145 -26.891602 7
0.062606998 1.576172 -25.523438 7
0.079917997 1.499756 -25.305664 7
0.063965 1.4367681 -25.579102 7
0.038215999 1.389526 -25.908203 7
0.071602002 1.3043211 -25.486328 7
0.042015001 -0.69091803 -23.901367 7
0.031539999 -0.75451702 -24.022461 7
0.029967999 -0.81542999 -24.039062 7
0.045676999 -0.86926299 -23.849609 7
0.03373 -0.93408197 -23.988281 7
0.037498001 -1.052368 -23.93457 7
0.036430001 -1.112915 -23.944336 7
-0.141487 -3.852783 -25.743164 7
-0.156967 -3.9429929 -25.913086 7
-0.15361001 -4.0015869 -25.863281 7
-0.14431 -4.0499272 -25.744141 7
-0.137978 -4.1027832 -25.65918 7
0.00031999999 4.9150391 -23.951172 7
-0.008591 4.8743901 -24.066406 7
-0.018982001 4.8365479 -24.198242 7
-0.065932997 4.752686 -24.777344 7
0.046928 1.474243 -23.775391 7
0.026276 -0.98754901 -22.383789 7
0.011902 -1.050781 -22.539062 7
0.002815 -1.112183 -22.635742 7
0.014366 -1.162842 -22.504883 7
0.020111 -1.216309 -22.4375 7
-0.16059899 -3.9892581 -24.097656 7
-0.170799 -4.0670171 -24.197266 7
-0.16239899 -4.112793 -24.095703 7
-0.15096299 -4.2124019 -23.949219 7
-0.155846 -4.2813721 -23.991211 7
-0.046112001 5.088501 -22.689453 7
-0.017715 4.967041 -22.392578 7
-0.019347999 4.914062 -22.420898 7
-0.027832 4.875854 -22.524414 7
-0.035789002 4.8363042 -22.621094 7
-0.050583001 4.8109131 -22.793945 7
0.041412 1.884521 -22.131836 7
0.05085 1.820557 -22.03125 7
0.043922 1.7705081 -22.112305 7
0.035941999 1.720825 -22.203125 7
0.052765001 1.651733 -22.021484 7
0.045837 1.600952 -22.100586 7
-8e-06 -0.988159 -21.118164 7
0.013466 -1.034912 -20.974609 7
0.017906001 -1.085693 -20.925781 7
-0.0070500001 -1.151611 -21.179688 7
-0.003174 -1.202881 -21.135742 7
0.0057910001 -1.251099 -21.039062 7
-0.169312 -4.1968989 -22.458008 7
-0.16658001 -4.2481689 -22.418945 7
-0.162148 -4.2963872 -22.364258 7
-0.16960099 -4.366333 -22.428711 7
-0.18387599 -4.4492192 -22.560547 7
-1.029049 -26.168335 19.03418 7
-1.019039 -26.044434 19.041016 7
-0.055130001 5.1005859 -21.146484 7
-0.042792998 5.019043 -21.032227 7
-0.040587999 4.9606929 -21.021484 7
-0.044006001 4.9147949 -21.067383 7
-0.049713001 4.8737788 -21.134766 7
-0.069458 4.8625488 -21.34668 7
-0.074019998 4.8179932 -21.40332 7
0.040755998 1.9180911 -20.601562 7
0.042633001 1.866333 -20.582031 7
0.038070999 1.817749 -20.633789 7
0.026161 1.775146 -20.759766 7
0.047531001 1.705322 -20.541992 7
0.042969 1.656616 -20.59375 7
0.030494999 1.613525 -20.725586 7
-0.010704 -0.983643 -19.866211 7
-0.017387001 -1.037109 -19.928711 7
-0.0096589997 -1.083618 -19.849609 7
-0.00071699999 -1.129272 -19.758789 7
-0.036880001 -1.198853 -20.105469 7
-0.024323 -1.242676 -19.980469 7
0.022156 1.9198 -19.441406 7
0.016708 1.874878 -19.49707 7
0.010643 1.830322 -19.55957 7
0.023796 1.769653 -19.435547 7
0.030921999 1.714355 -19.370117 7
0.015297 1.67688 -19.526367 7
0.024811 1.619873 -19.436523 7
-0.015853999 -1.019653 -18.603516 7
-0.015930001 -1.067139 -18.600586 7
-0.012169 -1.1125489 -18.563477 7
-0.034720998 -1.219238 -18.761719 7
-0.025192 -1.261475 -18.670898 7
-0.067215003 5.0917969 -18.447266 7
-0.043044999 4.990356 -18.244141 7
-0.041175999 4.9393311 -18.239258 7
-0.049492002 4.9107671 -18.324219 7
-0.050170999 4.865356 -18.34082 7
-0.058495 4.83606 -18.426758 7
-0.070023 4.813354 -18.540039 7
0.012253 1.66748 -18.257812 7
0.030655 1.560547 -18.09668 7
0.040160999 1.5074461 -18.013672 7
0.016487001 1.477295 -18.231445 7
0.022171 1.4267581 -18.182617 7
0.027863 1.376343 -18.133789 7
0.045685001 1.31897 -17.973633 7
-0.043761998 -1.1105959 -17.71875 7
-0.044677999 -1.2468261 -17.716797 7
-0.081215002 5.061646 -17.391602 7
-0.084624998 5.0241699 -17.431641 7
-0.084647998 4.9794922 -17.443359 7
-0.075928003 4.9155269 -17.382812 7
-0.080681004 4.880981 -17.433594 7
-0.08004 4.8347168 -17.439453 7
-0.090202004 4.8112788 -17.535156 7
-0.101028 4.7886958 -17.636719 7
0.026825 1.258545 -17.047852 7
0.031493999 1.212036 -17.010742 7
0.017921001 1.1756589 -17.12793 7
0.012474 1.134277 -17.176758 7
0.023894999 1.084229 -17.081055 7
0.034644999 1.034912 -16.990234 7
0.048606999 0.97851598 -16.960938 7
-0.011086 -0.98950201 -16.367188 7
-0.012596 -1.032227 -16.376953 7
-0.032752998 -1.084106 -16.536133 7
-0.018532 -1.161621 -16.415039 7
-0.014305 -1.2012939 -16.376953 7
-0.023712 -1.2487791 -16.450195 7
0.016075 0.94262701 -16.084961 7
0.023917999 0.89758301 -16.023438 7
0.031013001 0.85327101 -15.966797 7
0.03241 0.81140101 -15.958008 7
0.025916999 0.772461 -16.012695 7
0.028725 0.72997999 -15.990234 7
0.035071999 0.64514202 -15.942383 7
-0.053534999 4.8840332 -15.000977 7
-0.053566001 4.8448491 -15.012695 7
-0.051323 4.8010249 -15.007812 7
-0.052871998 4.7651372 -15.029297 7
0.042167999 0.29638699 -14.929688 7
0.038314998 0.258057 -14.958984 7
0.042946 0.174805 -15.014648 7
0.045173999 0.13574199 -14.998047 7
0.046615999 0.096923999 -14.986328 7
0.039742 0.058350001 -15.038086 7
0.020362999 -0.013916 -14.179688 7
0.02272 -0.050903 -14.162109 7
0.029091001 -0.087890998 -14.116211 7
0.032257002 -0.124512 -14.091797 7
0.034545999 -0.19824199 -14.074219 7
0.028884999 -0.235596 -14.114258 7
0.026443001 -0.27294901 -14.130859 7
0.02636 -0.309937 -14.128906 7
-0.041428 -1.31311 -14.648438 7
-0.038284 -1.349121 -14.62207 7
-0.036736 -1.386108 -14.607422 7
-0.041625999 -1.427124 -14.638672 7
-0.049713001 -1.470337 -14.692383 7
-0.050583001 -1.508911 -14.695312 7
-0.051994 4.8311772 -14.011719 7
-0.055222001 4.8013921 -14.044922 7
0.0065919999 -0.336182 -13.569336 7
0.010704 -0.40649399 -13.538086 7
0.015671 -0.47607401 -13.500977 7
0.0096439999 -0.54797399 -13.539062 7
0.0019990001 -0.58544898 -13.589844 7
0.003639 -0.62036097 -13.577148 7
-0.013077 -0.65783697 -12.838867 7
-0.017761 -0.69653302 -12.960938 7
-0.010712 -0.72827101 -12.913086 7
-0.0063100001 -0.76062 -12.882812 7
-0.00193 -0.79272503 -12.851562 7
-0.0073009999 -0.82849097 -12.884766 7
-0.022469001 -0.868164 -12.980469 7
-0.020744 -0.90173298 -12.966797 7
-0.017242 -0.93396002 -12.941406 7
-0.032898001 -1.281738 -13.012695 7
-0.044502001 -1.322632 -13.084961 7
-0.047279 -1.392944 -13.095703 7
-0.049095001 -1.428345 -13.104492 7
-0.048278999 -1.462158 -13.094727 7
-0.014252 -0.98522902 -12.235352 7
-0.022675 -1.0213619 -12.285156 7
-0.030167 -1.057373 -12.329102 7
-0.033011999 -1.091064 -12.34375 7
-0.02935 -1.1218261 -12.318359 7
-0.023810999 -1.1513669 -12.28125 7
-0.036903001 -1.1906739 -12.358398 7
-0.035094999 -1.222168 -12.344727 7
-0.038872 -1.256714 -12.364258 7
-0.022255 -0.97033697 -11.605469 7
-0.031097 -1.005127 -11.655273 7
-0.034081001 -1.037354 -11.669922 7
-0.028252 -1.065308 -11.633789 7
-0.023429999 -1.093872 -11.601562 7
-0.022507001 -1.124023 -11.592773 7
-0.023537001 -1.155273 -11.595703 7
-0.038261 -1.194092 -11.679688 7
-0.029487999 -1.220093 -11.625977 7
-0.034439001 -1.253662 -11.651367 7
-0.059974998 4.7905269 -10.922852 7
-0.058029 4.7572021 -10.923828 7
-0.062919997 4.737915 -10.961914 7
-0.066855997 4.7165532 -10.994141 7
-0.063942 4.6810298 -10.988281 7
-0.066878997 4.6574712 -11.016602 7
-0.073723003 4.6419678 -11.064453 7
-0.091286004 4.6479492 -11.173828 7
-0.088379003 4.6121831 -11.167969 7
-0.075722001 4.5567632 -11.108398 7
-0.073807001 4.5228271 -11.108398 7
-0.073821999 4.4929199 -11.118164 7
-0.041069001 -1.289795 -11.095703 7
-0.040100001 -1.318481 -11.086914 7
-0.052414 -1.355469 -11.152344 7
-0.045311 -1.380859 -11.109375 7
-0.048424002 -1.412354 -11.123047 7
-0.0495 -1.442627 -11.125 7
-0.055686999 -1.4761961 -11.15625 7
-0.051651001 -1.503296 -11.129883 7
-0.067238003 4.7874761 -10.328125 7
-0.063164003 4.7507319 -10.317383 7
-0.065208003 4.7270508 -10.339844 7
-0.072350003 4.7138672 -10.388672 7
-0.071364999 4.6837158 -10.394531 7
-0.072394997 4.6577148 -10.410156 7
-0.077506997 4.6400151 -10.448242 7
-0.090782002 4.6387939 -10.52832 7
-0.098945998 4.6268311 -10.583008 7
-0.085708998 4.5716548 -10.522461 7
-0.082672 4.5371089 -10.517578 7
-0.075530998 4.4945068 -10.491211 7
-0.035980001 -1.280273 -10.458984 7
-0.039246 -1.310059 -10.472656 7
-0.055388998 -1.348022 -10.555664 7
-0.052283999 -1.402588 -10.53125 7
-0.050186001 -1.429199 -10.515625 7
-0.050223999 -1.457397 -10.511719 7
-0.053505 -1.487793 -10.526367 7
-0.033606999 -1.280884 -8.4970703 7
-0.032379001 -1.303467 -8.4873047 7
-0.032416999 -1.327026 -8.4853516 7
-0.034995999 -1.351807 -8.4921885 7
-0.040123001 -1.378418 -8.5126953 7
-0.051635999 -1.409058 -8.5595703 7
-0.056763001 -1.435913 -8.5791016 7
-0.047897 -1.453735 -8.5361328 7
-0.041572999 -1.473022 -8.5048828 7
-0.045441002 -1.499023 -8.5175781 7
-0.048027001 -1.524048 -8.5253906 7
-0.050620999 -1.549438 -8.5322266 7
-0.063392997 -1.581787 -8.5839844 7
-0.070389003 4.7556152 -7.5019531 7
-0.060242001 4.7131348 -7.4736328 7
-0.055167999 4.6812739 -7.4638672 7
-0.057700999 4.6654048 -7.485352 7
-0.057723999 4.644043 -7.4960942 7
-0.053909 4.6149902 -7.492188 7
-0.055183001 4.596436 -7.507812 7
-0.056458 4.5776372 -7.523438 7
-0.058998 4.561523 -7.5449219 7
-0.064079002 4.550293 -7.5761719 7
-0.074257001 4.549438 -7.6269531 7
-0.067909002 4.5151372 -7.6123052 7
-0.066643 4.4910889 -7.617188 7
-0.054053999 -1.285278 -8.1757812 7
-0.040855002 -1.300171 -8.1162109 7
-0.042220999 -1.323608 -8.1191406 7
-0.047554001 -1.349243 -8.1376953 7
-0.044945002 -1.3701169 -8.1230469 7
-0.047630001 -1.394165 -8.1308594 7
-0.059593 -1.424438 -8.1787109 7
-0.066246003 -1.4512939 -8.203125 7
-0.059677001 -1.469727 -8.171875 7
-0.058403 -1.491333 -8.1621094 7
-0.058433998 -1.513916 -8.1591797 7
-0.063758999 -1.5400389 -8.1777344 7
-0.062477 -1.562012 -8.1689453 7
-0.071785003 -1.591187 -8.2041016 7
-0.39149499 -6.3024902 -7.6777339 7
-0.387566 -6.314209 -7.648438 7
-0.38497201 -6.328979 -7.624023 7
-0.38769501 -6.3569341 -7.6191411 7
-0.391747 -6.3883061 -7.6181641 7
-0.075591996 4.755249 -7.0576172 7
-0.067672998 4.7185059 -7.039062 7
-0.062401 4.6872559 -7.0292969 7
-0.063712999 4.6699219 -7.045898 7
-0.066359997 4.6551509 -7.0664058 7
-0.067672998 4.6376948 -7.0830078 7
-0.071631998 4.6256099 -7.108398 7
-0.067688003 4.597168 -7.1044922 7
-0.071631998 4.5848389 -7.1308589 7
-0.076935001 4.5750728 -7.1611328 7
-0.088821001 4.5784912 -7.2167969 7
-0.092795998 4.565918 -7.2431641 7
-0.090157002 4.539917 -7.2441411 7
-0.080932997 4.500977 -7.217773 7
-0.080932997 4.4804692 -7.2285161 7
-0.38237801 -6.120605 -7.1982422 7
-0.38798499 -6.1541748 -7.203125 7
-0.39359301 -6.1877441 -7.2070308 7
-0.39508799 -6.231812 -7.1816411 7
-0.40762299 -6.2823491 -7.2080078 7
-0.40077999 -6.2857671 -7.1689448 7
-0.38981599 -6.2989502 -7.1025391 7
-0.38849601 -6.3157959 -7.0830078 7
-0.082305998 4.782104 -6.6035161 7
-0.075432003 4.7485352 -6.5908198 7
-0.071312003 4.7208252 -6.5869141 7
-0.058929 4.6757808 -6.5537109 7
-0.058936998 4.6567378 -6.5644531 7
-0.061684001 4.6434331 -6.585938 7
-0.065803997 4.632812 -6.6113281 7
-0.065803997 4.6135249 -6.6230469 7
-0.064429998 4.5916748 -6.6289058 7
-0.063056998 4.5697021 -6.6337891 7
-0.065811001 4.5559082 -6.655273 7
-0.074051 4.5532231 -6.6962891 7
-0.075424001 4.5367432 -6.7119141 7
-0.082321003 4.5310059 -6.7460942 7
-0.075455002 4.4979248 -6.7314448 7
-0.375267 -6.1008301 -6.6748052 7
-0.378212 -6.1268311 -6.6689448 7
-0.37970701 -6.1491699 -6.6591802 7
-0.37976801 -6.1682129 -6.6445308 7
-0.38270599 -6.1942139 -6.6386719 7
-0.38851199 -6.2271729 -6.641602 7
-0.39432499 -6.2602539 -6.6455078 7
-0.395836 -6.2825928 -6.6337891 7
-0.38725999 -6.2805181 -6.592773 7
-0.38012701 -6.2818599 -6.5556641 7
-0.38018799 -6.3007808 -6.5410161 7
-0.375954 -6.3088379 -6.5126948 7
-0.38176 -6.3417969 -6.515625 7
-0.38327 -6.3641362 -6.5039058 7
-0.387642 -6.3935552 -6.5029302 7
-0.088996999 4.7772222 -6.2158198 7
-0.084716998 4.7501221 -6.2119141 7
-0.084709004 4.731812 -6.2236328 7
-0.084702 4.695312 -6.2460942 7
-0.078987002 4.6652832 -6.2373052 7
-0.074707001 4.6383061 -6.234375 7
-0.070441999 4.6113281 -6.2304692 7
-0.071869001 4.5958252 -6.2460942 7
-0.067589 4.5688481 -6.2431641 7
-0.067589 4.5505371 -6.2539058 7
-0.073288001 4.5437012 -6.2832031 7
-0.081848003 4.5423579 -6.3232422 7
-0.081848003 4.5240479 -6.3339839 7
-0.077575997 4.4969478 -6.3310552 7
-0.39852101 -6.3453369 -6.0761719 7
-0.40007001 -6.3668208 -6.0654302 7
-0.383728 -6.34375 -6.0029302 7
-0.39122799 -6.3796391 -6.0097661 7
-0.391312 -6.3970952 -5.9931641 7
-0.27946499 -4.57019 -5.9814448 7
-0.28591901 -4.5994868 -5.9892578 7
-0.285965 -4.6169429 -5.9785161 7
-0.278023 -4.6195068 -5.9433589 7
-0.27806899 -4.6368408 -5.9326172 7
-0.27811399 -4.6541748 -5.921875 7
-0.27816001 -4.6713872 -5.9101558 7
-0.28303501 -4.6977539 -5.9121089 7
-0.28307301 -4.7149658 -5.9013672 7
-0.28313401 -4.7321782 -5.889648 7
-0.289581 -4.7618408 -5.898438 7
-0.29763001 -4.7945561 -5.9101558 7
-0.378685 -6.2250981 -5.110352 7
-0.37875399 -6.240479 -5.094727 7
-0.383614 -6.2675781 -5.092773 7
-0.386879 -6.2906489 -5.085938 7
-0.38532999 -6.3022461 -5.0673828 7
-0.388596 -6.3251948 -5.0595698 7
-0.385445 -6.3326421 -5.0371089 7
-0.37913501 -6.347168 -4.9912109 7
-0.38240099 -6.3701172 -4.984375 7
-0.380844 -6.3813481 -4.9648442 7
-0.37930301 -6.3922119 -4.945312 7
-0.32383701 -5.100708 8.4560547 7
-0.31574199 -5.0675049 8.4453115 7
-0.31573501 -5.0509028 8.4570312 7
-0.30599999 -5.0144038 8.4414062 7
-0.30599201 -4.9976811 8.453125 7
-0.310875 -4.9908452 8.4794922 7
-0.30763999 -4.9675288 8.4814453 7
-0.307632 -4.9509282 8.4931641 7
-0.30441299 -4.9274902 8.4970703 7
-0.30928001 -4.9202881 8.5224609 7
-0.30928001 -4.903564 8.5341797 7
-0.310913 -4.8898931 8.5507812 7
-0.31089801 -4.8729248 8.5615234 7
-0.30604601 -4.8465581 8.5585938 7
-0.30604601 -4.8295898 8.5703115 7
-0.302811 -4.8061519 8.5732422 7
-0.28257 -4.4993901 -5.6435552 7
-0.28095201 -4.513062 -5.6279302 7
-0.27933499 -4.5267329 -5.6132808 7
-0.284363 -4.5524902 -5.6162109 7
-0.28941301 -4.578125 -5.6181641 7
-0.29277799 -4.6008301 -5.6162109 7
-0.28784201 -4.6081538 -5.5917969 7
-0.28125 -4.6123052 -5.5625 7
-0.282967 -4.631958 -5.5556641 7
-0.28467599 -4.6512451 -5.5488281 7
-0.283066 -4.6647949 -5.5341802 7
-0.28145599 -4.677979 -5.5185552 7
-0.281517 -4.6943359 -5.5068359 7
-0.291527 -4.7297359 -5.523438 7
-0.28824601 -4.739624 -5.5029302 7
-0.278328 -4.736938 -5.4638672 7
-0.294983 -4.7850342 -5.499023 7
-0.293365 -4.7982178 -5.483398 7
-0.32395199 -5.098022 8.0458984 7
-0.32562301 -5.085938 8.0615234 7
-0.32395899 -5.0665278 8.0693359 7
-0.31553599 -5.033813 8.0585938 7
-0.30882299 -5.0045171 8.0537109 7
-0.312195 -4.9953609 8.0742188 7
-0.310516 -4.97644 8.0810547 7
-0.30548099 -4.950439 8.0800781 7
-0.30378699 -4.9312739 8.0869141 7
-0.30717501 -4.9221191 8.1074219 7
-0.30717501 -4.9061279 8.1191406 7
-0.30381799 -4.883667 8.1220703 7
-0.31221801 -4.8841548 8.15625 7
-0.31895399 -4.8812261 8.1865234 7
-0.32064801 -4.8684082 8.2021484 7
-0.30886099 -4.8297119 8.1816406 7
-0.305511 -4.8070068 8.1845703 7
-0.125305 4.1696782 7.9628911 7
-0.118561 4.1732178 7.9345698 7
-0.110138 4.1733398 7.9003911 7
-0.106705 4.1976318 7.8710942 7
-0.099959999 4.200562 7.8417969 7
-0.093177997 4.2186279 7.8037109 7
-0.099815004 4.2460942 7.811523 7
-0.098105997 4.2580571 7.796875 7
-0.094704002 4.2668462 7.7783198 7
-0.094619997 4.2969971 7.757812 7
-0.089553997 4.3022461 7.733398 7
-0.087784 4.328979 7.7080078 7
-0.094429001 4.3565669 7.7167969 7
-0.102745 4.3875728 7.7294922 7
-0.106033 4.408936 7.7285161 7
-0.124344 4.4743652 7.757812 7
-0.28295901 -4.4901118 -5.2753911 7
-0.281288 -4.5028081 -5.2597661 7
-0.272751 -4.5028081 -5.2255859 7
-0.27967101 -4.5310059 -5.234375 7
-0.27627599 -4.5404048 -5.2138672 7
-0.28836101 -4.5782471 -5.235352 7
-0.28669 -4.5908198 -5.219727 7
-0.29018399 -4.612915 -5.217773 7
-0.29194599 -4.6317139 -5.2119141 7
-0.27652001 -4.6181641 -5.1591802 7
-0.28001401 -4.6402588 -5.15625 7
-0.27489501 -4.645874 -5.132812 7
-0.28009799 -4.6712651 -5.1357422 7
-0.28015101 -4.686523 -5.124023 7
-0.285355 -4.7116699 -5.125977 7
-0.38365901 -6.4013672 -3.953125 7
-0.38369799 -6.41394 -3.9394529 7
-0.378593 -6.4136958 -3.9121089 7
-0.38380399 -6.4390869 -3.9082029 7
-0.383865 -6.4516602 -3.8925779 7
-0.383919 -6.4642329 -3.8769529 7
-0.38569599 -6.480957 -3.8662109 7
-0.38745901 -6.4978032 -3.8544919 7
-0.39269301 -6.5231929 -3.8486331 7
-0.397919 -6.548584 -3.84375 7
-0.32456201 -5.091187 7.6591802 7
-0.326309 -5.0799561 7.6757808 7
-0.32460001 -5.0614009 7.6845698 7
-0.32460001 -5.0463872 7.6972661 7
-0.317642 -5.0177002 7.6914058 7
-0.314156 -4.995728 7.6943359 7
-0.31417099 -4.980835 7.7060552 7
-0.31591001 -4.9693599 7.7216802 7
-0.31243899 -4.9476318 7.7255859 7
-0.30722001 -4.9222412 7.7226558 7
-0.314201 -4.920898 7.7529302 7
-0.31073001 -4.8990479 7.7558589 7
-0.31769601 -4.8977051 7.7851558 7
-0.32117501 -4.8892822 7.8056641 7
-0.305527 -4.8436279 7.7773442 7
-0.305511 -4.8284912 7.7880859 7
-0.31247699 -4.8269038 7.8173828 7
-0.30901301 -4.8050542 7.820312 7
-0.092445001 -1.908691 8.4824219 7
-0.092422001 -1.8918459 8.4863281 7
-0.088927999 -1.872437 8.4814453 7
-0.088913001 -1.8555911 8.4853516 7
-0.092384003 -1.841675 8.5009766 7
-0.104546 -1.834717 8.5419922 7
-0.088875003 -1.805298 8.4990234 7
-0.088859998 -1.788452 8.5029297 7
-0.088844001 -1.771729 8.5068359 7
-0.085349999 -1.752197 8.5 7
-0.080115996 -1.731445 8.4882812 7
-0.080100998 -1.714722 8.4921885 7
-0.078345999 -1.696655 8.4912109 7
-0.076568998 -1.678467 8.4892578 7
-0.080054998 -1.664062 8.5048828 7
-0.076545998 -1.644897 8.4970703 7
-0.081757002 -1.631958 8.5185547 7
-0.079994 -1.61377 8.5166016 7
-0.067916997 0.97216803 8.6113281 7
-0.059188999 0.98547399 8.5810547 7
-0.053955 1.000122 8.5625 7
-0.053886 1.033936 8.5576172 7
-0.053863999 1.050781 8.5556641 7
-0.050368998 1.06604 8.5419922 7
-0.062477 1.0888669 8.578125 7
-0.050301 1.099731 8.5371094 7
-0.060683999 1.1218261 8.5673828 7
-0.057181999 1.136963 8.5537109 7
-0.060585 1.172485 8.5595703 7
-0.064034 1.191162 8.5673828 7
-0.064002998 1.20813 8.5644531 7
-0.063956998 1.225098 8.5615234 7
-0.067413002 1.243896 8.5703115 7
-0.076064996 1.265747 8.59375 7
-0.067351997 1.277832 8.5644531 7
-0.117729 4.164917 7.5957031 7
-0.124565 4.2067871 7.594727 7
-0.121002 4.2296138 7.5654302 7
-0.114044 4.2314448 7.5371089 7
-0.101868 4.2233891 7.4941411 7
-0.094893999 4.224854 7.4658198 7
-0.091393001 4.2329102 7.4462891 7
-0.093033001 4.2644038 7.4316411 7
-0.092941001 4.2929692 7.4111328 7
-0.094627 4.3104248 7.405273 7
-0.094589002 4.324585 7.3955078 7
-0.094527997 4.338623 7.3847661 7
-0.092743002 4.3494868 7.3701172 7
-0.108238 4.4074712 7.389648 7
-0.111618 4.4425049 7.3779302 7
-0.113304 4.4597168 7.3720698 7
-0.283142 -4.6538091 -4.795898 7
-0.27607 -4.6549072 -4.766602 7
-0.286789 -4.6898189 -4.782227 7
-0.28684199 -4.7044678 -4.7705078 7
-0.28687999 -4.7189941 -4.7597661 7
-0.28693399 -4.733521 -4.7480469 7
-0.281647 -4.7375488 -4.7236328 7
-0.294144 -4.7762451 -4.7431641 7
-0.283501 -4.77002 -4.7060552 7
-0.32289901 -4.990356 7.3623052 7
-0.31748199 -4.9654541 7.360352 7
-0.319298 -4.9549561 7.3769531 7
-0.321098 -4.9443359 7.3925781 7
-0.32110599 -4.9301758 7.4042969 7
-0.319336 -4.912354 7.4121089 7
-0.31932801 -4.8981929 7.4238281 7
-0.324738 -4.8944092 7.4482422 7
-0.31395701 -4.8591309 7.4335942 7
-0.31215701 -4.8413091 7.4404302 7
-0.30675501 -4.8166499 7.4394531 7
-0.31756601 -4.8231201 7.476562 7
-0.31757399 -4.8085942 7.4892578 7
-0.086662002 -1.915894 8.1884766 7
-0.088440001 -1.901245 8.1992188 7
-0.095633999 -1.890991 8.2255859 7
-0.099212997 -1.87793 8.2402344 7
-0.092018001 -1.855835 8.2236328 7
-0.091995001 -1.839722 8.2275391 7
-0.102768 -1.832153 8.2646484 7
-0.093764998 -1.80896 8.2412109 7
-0.091941997 -1.791382 8.2402344 7
-0.091934003 -1.775146 8.2441406 7
-0.088326 -1.756104 8.2382812 7
-0.088303 -1.739868 8.2421885 7
-0.081100002 -1.718262 8.2255859 7
-0.081078 -1.702148 8.2294922 7
-0.079268999 -1.68457 8.2285156 7
-0.082863003 -1.6711431 8.2431641 7
-0.088257 -1.658813 8.2636719 7
-0.081038997 -1.637573 8.2470703 7
-0.081032 -1.6212161 8.2509766 7
-0.061455 0.96740699 8.3291016 7
-0.050643999 0.97912598 8.2929688 7
-0.059586 0.99939001 8.3183594 7
-0.055969 1.013916 8.3046885 7
-0.057739001 1.031128 8.3085938 7
-0.055916 1.046631 8.3007812 7
-0.055884998 1.062866 8.2988281 7
-0.061241001 1.081665 8.3125 7
-0.055817001 1.095459 8.2929688 7
-0.048622001 1.108276 8.2685547 7
-0.059349 1.1298831 8.2988281 7
-0.061127 1.146973 8.3027344 7
-0.048523001 1.1569819 8.2607422 7
-0.064667001 1.181641 8.3085938 7
-0.055649001 1.193115 8.2773438 7
-0.062798001 1.213379 8.296875 7
-0.055580001 1.2255861 8.2714844 7
-0.062737003 1.24585 8.2910156 7
-0.062714003 1.262207 8.2880859 7
-0.055496 1.2744139 8.2626953 7
-0.110789 4.1992569 7.4254842 7
-0.34164199 -5.1101899 7.9806938 7
-0.33082101 -4.8792658 8.1393623 7
-0.094991997 -1.696758 8.5531578 7
-0.057328999 1.019976 8.5140629 7
-0.051167998 1.196514 8.4346666 7
-0.081873 -1.782084 8.1224842 7
-0.032164998 1.093906 8.0598087 7
-0.340886 -4.984375 6.1852551 7
-0.341869 -4.885273 6.389421 7
-0.115125 -1.81152 7.7601271 7
-0.094544999 -1.611285 7.733253 7
-0.055578999 1.004848 7.7339458 7
-0.060740001 1.166639 7.716526 7
-0.093387999 -1.812667 7.4009871 7
-0.079967998 -1.641078 7.4125361 7
-0.043903999 1.0804681 7.4467039 7
-0.041067999 1.217504 7.3883138 7
-0.084987998 -1.834674 7.1279888 7
-0.065917 -1.66109 7.1220732 7
-0.062909 -1.815605 6.8266168 7
-0.059808999 -1.6895961 6.885819 7
-0.031358 -1.50383 -7.3863668 7
-0.01553 -1.4468631 -6.1711321 7
-0.35901099 -6.3181682 -7.0725231 7
0.018897001 -1.393128 -5.0155821 7
-0.214389 -4.6811919 -5.650105 7
-0.037645001 -1.350922 -4.1476531 7
-0.29290801 -4.6583509 -4.6482248 7
-0.40084401 -6.4864731 -4.0753851 7
-0.36896199 -4.9780378 8.5410938 7
-0.34812 -4.911974 8.0214806 7
-0.10941 -1.9108109 8.4510365 7
-0.080172002 -1.676671 8.3656902 7
-0.36181 -5.1134281 7.4862628 7
-0.33937299 -4.8752518 7.5909638 7
-0.070265003 -1.834831 8.0110474 7
-0.057480998 -1.629344 8.0026054 7
-0.31591201 -4.9429808 6.9822941 7
-0.051825002 -1.781243 7.701838 7
-0.35340399 -4.9814382 6.4303141 7
-0.34835699 -4.8357348 6.5869031 7
-0.089414001 -1.737522 7.4559259 7
-0.31566599 -4.9371839 5.885458 7
-0.317112 -4.8317518 6.0546732 7
-0.078171 -1.862878 7.1881771 7
-0.058545999 -1.686494 7.159873 7
-0.060074002 -1.813895 6.961832 7
-0.046185002 -1.6508501 6.9541912 7
-0.26249099 -4.6573219 0.99598402 7
-0.25677401 -4.722136 1.165692 7
-0.04527 -1.771026 6.7638421 7
-0.026378 -1.613546 6.7381001 7
-0.24678101 -4.5538521 1.259496 7
-0.30007201 -4.6451368 1.40342 7
-0.29330099 -4.6919069 1.570019 7
-0.30969301 -4.9152398 4.2220612 7
-0.30586699 -4.8592639 4.3818989 7
-0.28781101 -4.6556759 1.942729 7
-0.28938699 -4.7053552 2.0974481 7
-0.29082501 -4.7484808 2.254061 7
-0.295818 -4.795918 2.409868 7
-0.291269 -4.8510909 3.2178819 7
-0.29545099 -4.8584409 3.3796029 7
-0.276777 -4.5440488 2.1472001 7
-0.28380501 -4.6013522 2.2927141 7
-0.28126001 -4.625638 2.44712 7
0.032777999 4.6082611 -7.676487 7
-0.091859996 4.6109991 -6.331172 7
-0.102012 4.2941689 7.8461442 7
-0.060938001 1.187075 8.6181955 7
-0.14086799 4.2209468 7.3704171 7
-0.046606999 0.96410102 8.3001347 7
-0.040943 1.173667 8.2343388 7
-0.023551 0.96679401 7.9340658 7
-0.024134999 1.162081 7.9030862 7
-0.054290999 0.967372 7.6270709 7
-0.057912 1.150319 7.6134892 7
-0.038362999 0.969275 7.3659248 7
-0.044334002 1.1416219 7.3639331 7
0.022064 -0.20062999 -13.915568 7
-0.00294 -1.344805 -14.620994 7
-0.119172 -1.044838 -11.612269 7
-0.090746 -1.412807 -11.072191 7
-0.129861 4.7426519 -11.089052 7
-0.040247999 -1.481438 -7.6142521 7
-0.034384999 4.6644139 -6.2727871 7
-0.053438 4.5832191 -6.6278529 7
-0.082759999 4.5657282 -7.096118 7
-0.078703001 -1.540374 -5.971663 7
-0.372446 -6.2845249 -6.5073819 7
-0.016112 1.404601 -5.394278 7
-0.054820001 -1.340428 -5.3455038 7
-0.060986999 -1.536679 -5.3445101 7
-0.27352601 -4.5928302 -5.7828002 7
-0.25710201 -4.7007899 -5.51015 7
-0.34049401 -6.323761 -4.9249759 7
-0.066366002 4.3905039 -3.2963331 7
-0.0054179998 1.56925 -4.8262072 7
-0.00158 1.398899 -4.8493438 7
-0.039142001 -1.350961 -4.837347 7
-0.050404999 -1.541677 -4.8674479 7
0.011056 1.527738 -4.3502989 7
0.0086390004 1.396283 -4.4208798 7
-0.03136 -1.370725 -4.4550309 7
-0.041990999 -1.544174 -4.472281 7
-0.052011002 -1.364159 -4.0841999 7
-0.073636003 -1.551831 -4.1516161 7
-0.064249001 -1.546796 -3.856982 7
