# .PCD v0.7 - Point Cloud Data file format
VERSION 0.7
FIELDS x y z intensity
SIZE 4 4 4 4
TYPE F F F F
COUNT 1 1 1 1
WIDTH 918
HEIGHT 1
VIEWPOINT 0 0 0 1 0 0 0
POINTS 918
DATA ascii
0.05669 4.585083 -71.167969 7
0.158531 4.4758301 -60.12793 7
0.110569 4.4317632 -61.592773 7
0.041870002 4.4239502 -63.6875 7
-0.85684597 -5.7226558 73.477539 7
0.15684099 4.64856 -53.487305 7
0.100121 4.6442871 -55.03125 7
0.069214001 4.5770259 -55.875977 7
0.109936 4.355103 -54.777344 7
0.077083997 4.288208 -55.675781 7
0.134121 4.4971919 -48.844727 7
0.096481003 4.4581299 -49.776367 7
0.048156999 4.436646 -50.970703 7
0.108578 4.190063 -49.494141 7
0.065932997 4.1524658 -50.547852 7
0.021374 4.11377 -51.647461 7
0.115444 0.77124 -49.120117 7
-0.62411898 -0.188843 57.580078 7
-0.61106497 -0.055542 57.322266 7
-0.59333003 0.076537997 56.97168 7
-0.59228498 0.208252 56.954102 7
0.086960003 4.4849849 -45.079102 7
0.050094999 4.451416 -45.904297 7
0.112434 4.2120361 -44.529297 7
0.079764999 4.1673579 -45.259766 7
0.04081 4.131104 -46.132812 7
0.0052680001 4.0847168 -46.929688 7
-0.52235401 0.186157 51.776367 7
-0.54229403 0.30773899 52.149414 7
0.036876999 4.458374 -42.516602 7
0.0063669998 4.4156489 -43.148438 7
-0.027256001 4.3760991 -43.845703 7
0.024876 4.1679692 -42.78418 7
0.0074390001 4.095459 -43.149414 7
-0.027912 4.0541992 -43.879883 7
0.058113001 0.56079102 -42.037109 7
-0.080158003 -3.1435549 -40.573242 7
-0.04747 -3.2935791 -39.947266 7
-0.513542 -2.66394 47.393555 7
-0.53053701 -2.571167 47.691406 7
-0.44210401 0.27307099 46.348633 7
-0.43682501 0.37890601 46.260742 7
-0.43837401 0.48547399 46.288086 7
-0.50624502 3.4472661 47.40332 7
-0.46684599 3.504395 46.724609 7
-0.44484299 3.582031 46.342773 7
0.024364 4.5666499 -38.818359 7
0.003082 4.5148931 -39.224609 7
-0.018509001 4.4619141 -39.636719 7
-0.050071999 4.4267578 -40.233398 7
-0.072903 4.3719478 -40.669922 7
0.108047 1.070435 -37.416992 7
0.109978 0.88513201 -37.379883 7
0.085208997 0.80236799 -37.84375 7
0.069137998 0.43261701 -38.142578 7
0.087748997 0.335693 -37.792969 7
0.111034 0.23962399 -37.355469 7
0.087200001 0.149414 -37.799805 7
0.11047 0.055785999 -37.361328 7
0.052700002 -0.047485001 -35.256836 7
0.076022997 -0.132935 -34.854492 7
0.082355 -0.218018 -34.743164 7
-0.106277 -3.3054199 -37.751953 7
-0.089069001 -3.372314 -37.447266 7
-0.078994997 -3.44873 -37.264648 7
-0.50373101 -2.465332 43.967773 7
-0.41834599 0.34960899 42.772461 7
-0.409233 0.543823 42.629883 7
-0.49881399 3.4959719 43.986328 7
-0.47404501 3.5639651 43.588867 7
0.022465 4.6575928 -35.678711 7
0.0068509998 4.6022949 -35.956055 7
-0.015514 4.5596919 -36.349609 7
-0.032485999 4.504395 -36.650391 7
-0.070362002 4.4892578 -37.311523 7
-0.080605 4.4169922 -37.495117 7
0.077950001 1.088379 -34.920898 7
0.051369 0.92712402 -35.382812 7
0.084132999 0.038818002 -34.720703 7
0.041809 -0.031005999 -32.442383 7
0.066788003 -0.110229 -32.045898 7
0.089576997 -0.18774401 -31.681641 7
0.05328 -0.270996 -32.253906 7
0.076426998 -0.34704599 -31.884766 7
0.078175001 -0.42590299 -31.855469 7
-0.139671 -3.5048831 -34.976562 7
-0.121227 -3.5622561 -34.677734 7
-0.105034 -3.621948 -34.412109 7
-0.111137 -3.7163091 -34.49707 7
-0.42338201 -2.4771731 39.487305 7
-0.44285199 -2.4047849 39.77832 7
-0.46350101 -2.332031 40.086914 7
-0.38651699 0.41027799 39.082031 7
-0.36565 0.49548301 38.777344 7
-0.39222699 0.59008801 39.166016 7
-0.48279199 3.576782 40.428711 7
-0.45081699 3.6256101 39.954102 7
-0.40215701 3.648438 39.238281 7
-0.39126199 3.722656 39.072266 7
0.043324001 4.7749019 -32.137695 7
0.03331 4.7169189 -32.305664 7
0.0063169999 4.6947021 -32.738281 7
-0.016612999 4.662231 -33.109375 7
-0.043949001 4.6369629 -33.548828 7
-0.071315996 4.6096191 -33.988281 7
0.103024 1.376465 -31.473633 7
0.100979 1.221191 -31.508789 7
0.046944 1.092407 -32.367188 7
0.026348 -0.26660201 -30.384766 7
0.052021001 -0.337769 -30.003906 7
0.068168998 -0.409058 -29.762695 7
0.03669 -0.48986799 -30.223633 7
0.057209 -0.559448 -29.918945 7
0.04874 -0.63610798 -30.040039 7
-0.16784699 -3.558594 -32.975586 7
-0.160439 -3.6282959 -32.856445 7
-0.147076 -3.687988 -32.650391 7
-0.130913 -3.74231 -32.402344 7
-0.39274999 -2.464844 36.720703 7
-0.418167 -2.4047849 37.075195 7
-0.41422999 -2.316772 37.02832 7
-0.38068801 0.38244599 36.710938 7
-0.35383999 0.46130401 36.34375 7
-0.34181601 0.54162598 36.178711 7
-0.36205301 0.62902802 36.456055 7
-0.41183901 3.521606 37.039062 7
-0.44008601 3.645386 37.418945 7
-0.41282299 3.692261 37.039062 7
-0.38981599 3.7431641 36.71582 7
-0.380768 3.813843 36.585938 7
0.021854 4.7410889 -30.230469 7
0.002483 4.70752 -30.524414 7
-0.011776 4.6617432 -30.744141 7
-0.036288999 4.636353 -31.114258 7
-0.056458 4.6003418 -31.418945 7
0.042048998 1.17334 -30.203125 7
0.032085001 -0.44519001 -27.948242 7
0.069054 -0.57446301 -27.438477 7
0.069618002 -0.77990699 -27.421875 7
0.019211 4.8675542 -27.787109 7
0.011467 4.815063 -27.902344 7
-0.003086 4.7771001 -28.109375 7
-0.019768 4.7427979 -28.345703 7
-0.046264999 4.7280269 -28.713867 7
-0.065525003 4.6965332 -28.985352 7
-0.015701 4.5218511 -28.321289 7
0.072205 1.549561 -27.397461 7
0.070846997 1.481934 -27.417969 7
0.078014001 1.408691 -27.323242 7
0.06044 1.351318 -27.56543 7
0.053959001 1.286499 -27.655273 7
0.030392 -0.68359399 -25.991211 7
0.036144 -0.81103498 -25.912109 7
0.030506 -0.87792999 -25.979492 7
0.035 -0.94079602 -25.918945 7
-0.010815 4.8779302 -26.191406 7
-0.018634999 4.8295898 -26.300781 7
-0.031906001 4.7922359 -26.479492 7
-0.047481999 4.7590332 -26.685547 7
-0.068526998 4.7363281 -26.960938 7
-0.079075001 4.6906738 -27.106445 7
-0.052227002 4.5678711 -26.776367 7
0.055732999 1.5869139 -25.676758 7
0.068897001 1.512939 -25.510742 7
0.048470002 1.4473881 -25.776367 7
0.028193999 1.395996 -26.035156 7
0.061565001 1.310547 -25.613281 7
0.032883 -0.93420398 -23.991211 7
-0.011036 4.8848882 -24.124023 7
-0.019447001 4.8424072 -24.233398 7
-0.062866002 4.750977 -24.771484 7
-0.079127997 4.7226558 -24.972656 7
-0.051658999 4.603394 -24.663086 7
0.064018004 1.5863039 -23.624023 7
-0.0072980002 -0.94567901 -22.75293 7
0.0084690005 -0.99560499 -22.575195 7
0.013138 -1.050171 -22.520508 7
-0.016063999 -1.121582 -22.837891 7
-0.002419 -1.171631 -22.683594 7
0.0043720002 -1.224731 -22.605469 7
-0.060183998 5.067627 -22.878906 7
-0.027088 4.9359131 -22.53125 7
-0.032917 4.8918462 -22.605469 7
-0.043488 4.8575439 -22.731445 7
-0.050368998 4.8149409 -22.817383 7
-0.080459997 4.7625728 -23.166992 7
-0.077347003 4.6977539 -23.143555 7
0.029957 1.900146 -22.308594 7
0.033047002 1.841064 -22.277344 7
0.036152001 1.782104 -22.24707 7
0.022923 1.73645 -22.396484 7
0.04287 1.664307 -22.179688 7
0.039650001 1.6105959 -22.21875 7
0.022198001 1.567139 -22.414062 7
-0.013351 -0.99401897 -21.25 7
0.000111 -1.041016 -21.107422 7
0.0028570001 -1.09314 -21.075195 7
-0.013176 -1.20813 -21.233398 7
-0.011009 -1.260376 -21.207031 7
-1.0508 -26.690674 18.568359 7
-1.0479161 -26.625366 18.617188 7
-0.078593999 4.886353 -21.461914 7
-0.080317996 4.8355708 -21.491211 7
-0.085979 4.7929692 -21.55957 7
0.033165 1.879395 -20.723633 7
0.035347 1.8249511 -20.705078 7
0.027411999 1.778931 -20.791016 7
0.038539998 1.664673 -20.681641 7
0.034531001 1.61499 -20.725586 7
-0.015858 -0.985596 -19.912109 7
-0.019539 -1.03772 -19.945312 7
-0.029846 -1.093262 -20.041016 7
-0.020927001 -1.1394041 -19.950195 7
-0.018017 -1.1882319 -19.917969 7
-0.045765001 -1.254272 -20.181641 7
-0.035622001 -1.299561 -20.081055 7
-0.032111999 -1.348022 -20.042969 7
0.027485 1.671997 -19.446289 7
0.015999001 1.581055 -19.564453 7
0.021328 1.5274661 -19.514648 7
0.035622001 1.467896 -19.378906 7
0.018223001 1.42981 -19.551758 7
0.013962 1.382812 -19.594727 7
0.023487 1.3269041 -19.504883 7
-0.049904 -1.275269 -18.890625 7
-0.037811 -1.3162839 -18.77832 7
-0.035976 -1.362793 -18.757812 7
-0.079548001 5.0759282 -18.584961 7
-0.047741 4.95752 -18.314453 7
-0.050949 4.91748 -18.354492 7
-0.056717001 4.8830571 -18.416992 7
-0.066298999 4.8564448 -18.513672 7
-0.071438 4.8199458 -18.570312 7
-0.088027999 4.807373 -18.728516 7
0.0021510001 1.582397 -18.376953 7
0.011562 1.533447 -18.304688 7
0.023621 1.4781491 -18.197266 7
0.031845 1.426025 -18.125977 7
0.020966001 1.386597 -18.227539 7
0.0081599997 1.347656 -18.347656 7
0.024681 1.290894 -18.199219 7
-0.048103001 -1.067139 -17.756836 7
-0.043437999 -1.110229 -17.713867 7
-0.034710001 -1.151123 -17.633789 7
-0.049782 -1.249512 -17.757812 7
-0.116154 4.8695068 -17.767578 7
-0.113503 4.8182368 -17.756836 7
0.019886 1.133423 -17.143555 7
0.025913 1.0863039 -17.094727 7
0.012352 1.0487061 -17.212891 7
0.014137 0.99426299 -17.255859 7
0.031714998 0.60717797 -15.996094 7
0.025947999 0.56713903 -16.044922 7
0.023033001 0.52636701 -16.068359 7
0.034419999 0.482178 -15.976562 7
0.044346001 0.39758301 -15.896484 7
0.046436001 0.35607901 -15.880859 7
-0.046997 -1.352905 -15.625977 7
-0.048599001 -1.394165 -15.633789 7
-0.048675999 -1.43457 -15.630859 7
0.011833 0.30236799 -15.1875 7
0.014053 0.26269501 -15.169922 7
0.028492 0.21521001 -15.123047 7
0.032223001 0.175659 -15.094727 7
0.031390999 0.136719 -15.100586 7
0.029064 0.097900003 -15.118164 7
0.023685001 0.058959998 -15.15918 7
0.025898 0.019653 -15.142578 7
-0.050620999 -1.318359 -14.710938 7
-0.050705001 -1.356323 -14.708008 7
-0.045956001 -1.3913569 -14.669922 7
-0.045216002 -1.428955 -14.660156 7
-0.003422 -0.65771502 -13.62207 7
-0.0068629999 -0.694336 -13.643555 7
-0.012836 -0.73193401 -13.682617 7
-0.014591 -0.768188 -13.692383 7
-0.012127 -0.80285603 -13.671875 7
-0.012196 -0.83850098 -13.668945 7
-0.007183 -0.87219203 -13.632812 7
-0.014858 -0.91088903 -13.682617 7
-0.023353999 -0.950073 -13.738281 7
-0.042412002 -0.96508801 -12.411133 7
-0.0341 -0.99401897 -12.356445 7
-0.027644999 -1.023438 -12.313477 7
-0.023975 -1.054199 -12.288086 7
-0.023105999 -1.085938 -12.279297 7
-0.037128001 -1.12561 -12.363281 7
-0.052078001 -1.165894 -12.453125 7
-0.042824 -1.193604 -12.393555 7
-0.046608001 -1.228271 -12.413086 7
-0.046677001 -1.260864 -12.40918 7
-0.065361001 4.775269 -11.712891 7
-0.066292003 4.7458501 -11.729492 7
-0.063522004 4.7087402 -11.724609 7
-0.068184003 4.6870122 -11.762695 7
-0.066338003 4.651978 -11.762695 7
-0.068245001 4.5614009 -11.806641 7
-0.066413999 4.494751 -11.816406 7
-0.030361 -0.97351098 -11.650391 7
-0.032382999 -1.005249 -11.660156 7
-0.036343001 -1.0380861 -11.681641 7
-0.038357001 -1.0699461 -11.69043 7
-0.048209999 -1.105835 -11.745117 7
-0.041409001 -1.133301 -11.702148 7
-0.033634 -1.160278 -11.652344 7
-0.036625002 -1.192749 -11.667969 7
-0.037670001 -1.224121 -11.669922 7
-0.037739001 -1.255005 -11.666992 7
-0.043659002 -1.289307 -11.698242 7
-0.046642002 -1.322021 -11.712891 7
-0.043774001 -1.35144 -11.692383 7
-0.055565 -1.389526 -11.757812 7
-0.051711999 -1.418335 -11.731445 7
-0.054703001 -1.45105 -11.745117 7
-0.058685001 -1.484863 -11.763672 7
-0.069504 -1.523315 -11.823242 7
-0.071837999 4.7879639 -11.004883 7
-0.065029003 4.744019 -10.978516 7
-0.067965999 4.7207031 -11.005859 7
-0.068928003 4.6932368 -11.022461 7
-0.072852999 4.6715088 -11.054688 7
-0.070904002 4.6378169 -11.055664 7
-0.083587997 4.6340332 -11.136719 7
-0.09042 4.618042 -11.185547 7
-0.100178 4.607666 -11.25 7
-0.083626002 4.544312 -11.169922 7
-0.083649002 4.5142822 -11.179688 7
-0.081711002 4.4803472 -11.179688 7
-0.045506001 -1.2919919 -11.119141 7
-0.046581 -1.322266 -11.121094 7
-0.056889001 -1.358032 -11.174805 7
-0.053904999 -1.4156491 -11.152344 7
-0.057048999 -1.447144 -11.165039 7
-0.058116999 -1.477783 -11.167969 7
-0.061255999 -1.5093991 -11.180664 7
-0.093989998 4.7894292 -10.496094 7
-0.082801998 4.7374272 -10.448242 7
-0.080757 4.7049561 -10.449219 7
-0.083824001 4.6829829 -10.476562 7
-0.082817003 4.65271 -10.481445 7
-0.082840003 4.6242681 -10.492188 7
-0.092003003 4.6143799 -10.552734 7
-0.084908001 4.514648 -10.546875 7
-0.083907999 4.4841309 -10.551758 7
-0.039535999 -1.2819819 -10.474609 7
-0.04174 -1.311157 -10.483398 7
-0.043945 -1.3405761 -10.491211 7
-0.051516999 -1.373291 -10.526367 7
-0.052753001 -1.458618 -10.522461 7
-0.057094999 -1.489746 -10.542969 7
-0.057147998 -1.518066 -10.540039 7
-0.26443499 -4.6271968 -10.861328 7
-0.26773101 -4.662354 -10.867188 7
-0.045120001 -1.3043211 -9.4794922 7
-0.049849998 -1.332764 -9.5 7
-0.044052001 -1.355103 -9.4677734 7
-0.056961 -1.3887939 -9.5283203 7
-0.069874004 -1.422729 -9.5878906 7
-0.066418 -1.446533 -9.5673828 7
-0.061802 -1.469116 -9.5390615 7
-0.061855 -1.4951169 -9.5351562 7
-0.063060999 -1.5218509 -9.5380859 7
-0.059615999 -1.545166 -9.5166016 7
-0.072529003 -1.580078 -9.5761719 7
-0.055573002 -1.280273 -9.0693359 7
-0.047081001 -1.299805 -9.0263672 7
-0.048347 -1.325317 -9.0283203 7
-0.047180001 -1.349365 -9.0205078 7
-0.050887998 -1.3762209 -9.0332031 7
-0.059471 -1.406128 -9.0703115 7
-0.059517 -1.43103 -9.0664062 7
-0.071742997 -1.463623 -9.1210938 7
-0.060814001 -1.4812011 -9.0654297 7
-0.064529002 -1.508301 -9.0791016 7
-0.067016996 -1.534912 -9.0869141 7
-0.0634 -1.557251 -9.0664062 7
-0.065894999 -1.583374 -9.0722656 7
-0.080902003 4.7791748 -8.0878906 7
-0.085770003 4.7668462 -8.1201172 7
-0.08213 4.7363281 -8.1152344 7
-0.074828997 4.6984859 -8.0966797 7
-0.074836999 4.6757808 -8.1064453 7
-0.072411001 4.6480708 -8.1083984 7
-0.077278003 4.635376 -8.1386719 7
-0.086989999 4.6324458 -8.1904297 7
-0.076057002 4.5872798 -8.1552734 7
-0.087006003 4.5864258 -8.2119141 7
-0.100353 4.590332 -8.2802734 7
-0.072433002 4.5114751 -8.171875 7
-0.039043002 -1.283813 -8.5175781 7
-0.034026999 -1.327759 -8.4892578 7
-0.035358001 -1.351685 -8.4912109 7
-0.054543 -1.410522 -8.5703115 7
-0.058403 -1.436646 -8.5830078 7
-0.050816 -1.455322 -8.5458984 7
-0.04958 -1.477783 -8.5371094 7
-0.052227002 -1.526611 -8.5410156 7
-0.054836001 -1.55188 -8.546875 7
-0.085220002 4.7879639 -7.5644531 7
-0.071254998 4.7371831 -7.5205078 7
-0.061108001 4.6947021 -7.4902339 7
-0.056030001 4.6627202 -7.4814448 7
-0.058563001 4.6468511 -7.5029302 7
-0.059826002 4.6281738 -7.5185552 7
-0.058571 4.6044922 -7.523438 7
-0.059836999 4.5855708 -7.5400391 7
-0.059836999 4.564209 -7.5507808 7
-0.062359001 4.547852 -7.5722661 7
-0.073794998 4.549561 -7.6289058 7
-0.082680002 4.5457759 -7.6757808 7
-0.083953999 4.5266109 -7.6914058 7
-0.077610001 4.492188 -7.6767578 7
-0.058364999 -1.287354 -8.1904297 7
-0.065040998 -1.313965 -8.2158203 7
-0.050503001 -1.328003 -8.1513672 7
-0.049229 -1.349854 -8.1425781 7
-0.054568999 -1.3757319 -8.1611328 7
-0.049313001 -1.394897 -8.1357422 7
-0.070610002 -1.453735 -8.21875 7
-0.071960002 -1.477417 -8.2207031 7
-0.064094998 -1.517578 -8.1806641 7
-0.066788003 -1.5419919 -8.1875 7
-0.070808001 -1.5673831 -8.2011719 7
-0.080127999 -1.596558 -8.2363281 7
-0.293892 -4.5031738 -8.2587891 7
-0.30066699 -4.5609131 -8.2617188 7
-0.29807299 -4.5788569 -8.2412109 7
-0.28883001 -4.5844731 -8.1933594 7
-0.29022601 -4.6094971 -8.1875 7
-0.28768501 -4.6497798 -8.1552734 7
-0.28906599 -4.6750488 -8.1503906 7
-0.29317901 -4.7277832 -8.1435547 7
-0.299889 -4.763062 -8.1572266 7
-0.397091 -6.336792 -7.679688 7
-0.403862 -6.3961182 -7.6738281 7
-0.091063999 4.7888179 -7.1181641 7
-0.083159998 4.7519531 -7.0996089 7
-0.069949999 4.704102 -7.0595698 7
-0.067303002 4.6783452 -7.061523 7
-0.067286998 4.6580811 -7.0732422 7
-0.071262002 4.6459961 -7.0986328 7
-0.072581999 4.628418 -7.1142578 7
-0.069935001 4.6025391 -7.1162109 7
-0.072581999 4.587646 -7.1367192 7
-0.069949999 4.5618901 -7.1367192 7
-0.080509 4.5627441 -7.188477 7
-0.091057003 4.563354 -7.2402339 7
-0.097655997 4.5559082 -7.2763672 7
-0.091063999 4.5219731 -7.2617192 7
-0.084464997 4.4882808 -7.2470698 7
-0.28750199 -4.4992681 -7.734375 7
-0.28480101 -4.5158691 -7.7138672 7
-0.29039401 -4.5474849 -7.7226558 7
-0.29045501 -4.5692139 -7.7128911 7
-0.28497699 -4.5803218 -7.6806641 7
-0.28228399 -4.5965581 -7.6591802 7
-0.27957901 -4.612915 -7.6376948 7
-0.28593099 -4.645874 -7.6542969 7
-0.29014999 -4.6750488 -7.657227 7
-0.286053 -4.6885991 -7.6308589 7
-0.29026401 -4.717896 -7.6347661 7
-0.297245 -4.752563 -7.648438 7
-0.298695 -4.7766109 -7.6425781 7
-0.38247699 -6.099854 -7.2128911 7
-0.38808101 -6.1334229 -7.2167969 7
-0.38676801 -6.1505132 -7.1972661 7
-0.389606 -6.1774902 -7.1914058 7
-0.397991 -6.217773 -7.2050781 7
-0.40221801 -6.248291 -7.203125 7
-0.40088299 -6.2651372 -7.1845698 7
-0.40234801 -6.2888179 -7.172852 7
-0.392712 -6.2853999 -7.1269531 7
-0.38999599 -6.2988281 -7.1025391 7
-0.38729101 -6.3121338 -7.079102 7
-0.38460499 -6.3250728 -7.0537109 7
-0.392979 -6.3657231 -7.0664058 7
-0.394436 -6.3891602 -7.054688 7
-0.091620997 4.7834468 -6.6503911 7
-0.088875003 4.7584229 -6.6523442 7
-0.084743001 4.7305908 -6.648438 7
-0.086124003 4.7141109 -6.6650391 7
-0.088859998 4.700439 -6.686523 7
-0.090225004 4.684082 -6.702148 7
-0.079227 4.6420898 -6.672852 7
-0.076481 4.617188 -6.6738281 7
-0.075107999 4.5949712 -6.679688 7
-0.070992 4.5675049 -6.6757808 7
-0.070983998 4.5480962 -6.686523 7
-0.072352998 4.5314941 -6.702148 7
-0.077846996 4.5231929 -6.7324219 7
-0.083355002 4.5145259 -6.764648 7
-0.079227 4.486938 -6.7587891 7
-0.28490099 -4.5075679 -7.2832031 7
-0.28928 -4.5361328 -7.2871089 7
-0.290768 -4.5593262 -7.28125 7
-0.29083601 -4.579834 -7.2705078 7
-0.28946301 -4.5976558 -7.2548828 7
-0.28521699 -4.6101069 -7.2285161 7
-0.28238699 -4.625 -7.2080078 7
-0.289639 -4.658813 -7.2216802 7
-0.28681901 -4.6739502 -7.2001948 7
-0.29118001 -4.702271 -7.204102 7
-0.29122499 -4.7227778 -7.1933589 7
-0.29559699 -4.7513428 -7.1972661 7
-0.299961 -4.7797852 -7.2001948 7
-0.28312701 -4.4831538 -6.8525391 7
-0.289139 -4.5136719 -6.8613281 7
-0.29815301 -4.549438 -6.8798828 7
-0.301182 -4.574585 -6.8789058 7
-0.28932199 -4.572144 -6.829102 7
-0.29830599 -4.6082759 -6.8476558 7
-0.29539099 -4.6220698 -6.827148 7
-0.29098499 -4.6331792 -6.8007808 7
-0.288048 -4.6469731 -6.780273 7
-0.28809401 -4.6662598 -6.7695308 7
-0.29709199 -4.7026372 -6.7880859 7
-0.288223 -4.704834 -6.7470698 7
-0.28976399 -4.7269292 -6.7402339 7
-0.304737 -4.7747798 -6.7783198 7
-0.28392801 -4.492065 -6.4638672 7
-0.28707099 -4.5161128 -6.4619141 7
-0.29329699 -4.5461431 -6.4707031 7
-0.299496 -4.5760498 -6.4804692 7
-0.290306 -4.5773931 -6.4404302 7
-0.288811 -4.5931401 -6.4248052 7
-0.28425601 -4.6030269 -6.398438 7
-0.28739899 -4.6273189 -6.3974609 7
-0.28744501 -4.6456299 -6.3867192 7
-0.28904 -4.6669922 -6.3798828 7
-0.287552 -4.6824951 -6.3642578 7
-0.287613 -4.7009282 -6.3525391 7
-0.28302801 -4.7103271 -6.328125 7
-0.29388401 -4.7492681 -6.3496089 7
-0.30164701 -4.782227 -6.3623052 7
-0.28067401 -4.4851069 -6.0380859 7
-0.280743 -4.5028081 -6.0273442 7
-0.28398901 -4.5263672 -6.0263672 7
-0.293648 -4.5614009 -6.0449219 7
-0.292099 -4.5760498 -6.0292969 7
-0.29056501 -4.5906978 -6.0126948 7
-0.293816 -4.6142578 -6.0117192 7
-0.28746799 -4.6195068 -5.9814448 7
-0.28591201 -4.6341548 -5.9667969 7
-0.28435099 -4.648438 -5.9511719 7
-0.28601801 -4.6689448 -5.9433589 7
-0.28767401 -4.689209 -5.9375 7
-0.29092401 -4.712646 -5.936523 7
-0.287781 -4.723999 -5.9150391 7
-0.28784201 -4.741333 -5.9033198 7
-0.29109201 -4.7644038 -5.9013672 7
-0.28083399 -4.513062 -5.6269531 7
-0.294159 -4.5539551 -5.6542969 7
-0.297539 -4.5769038 -5.6523442 7
-0.28929099 -4.5780029 -5.6181641 7
-0.28774601 -4.6079102 -5.5898442 7
-0.28282499 -4.6152339 -5.5654302 7
-0.28291699 -4.6480708 -5.5439448 7
-0.289608 -4.677002 -5.5507808 7
-0.28966099 -4.693481 -5.5400391 7
-0.28472501 -4.7003169 -5.515625 7
-0.281506 -4.72644 -5.483398 7
-0.28323001 -4.7459722 -5.476562 7
-0.318901 -5.1031489 8.0205078 7
-0.313862 -5.077148 8.0195312 7
-0.308819 -5.051147 8.0175781 7
-0.310505 -5.039062 8.0351562 7
-0.308819 -5.019897 8.0419922 7
-0.300419 -4.9873052 8.03125 7
-0.303783 -4.978394 8.0517578 7
-0.30547699 -4.9659419 8.0683594 7
-0.302113 -4.9433589 8.0712891 7
-0.30044901 -4.9243159 8.078125 7
-0.29876301 -4.905273 8.0859385 7
-0.30381399 -4.899292 8.1113281 7
-0.31055099 -4.896606 8.1396484 7
-0.30887201 -4.8773189 8.1474609 7
-0.29877901 -4.8415532 8.1318359 7
-0.29710799 -4.8223882 8.1386719 7
-0.29543301 -4.8032231 8.1455078 7
-0.281124 -4.4866939 -5.2695308 7
-0.27944601 -4.4992681 -5.2539058 7
-0.28637299 -4.52771 -5.2626948 7
-0.28813601 -4.5466309 -5.2558589 7
-0.29512 -4.5906978 -5.2529302 7
-0.286625 -4.6062012 -5.2080078 7
-0.291843 -4.6313481 -5.2099609 7
-0.295311 -4.6534419 -5.2089839 7
-0.283344 -4.6462402 -5.1660161 7
-0.28165799 -4.6586909 -5.1503911 7
-0.28692999 -4.6993408 -5.140625 7
-0.28358799 -4.7235112 -5.109375 7
-0.28709 -4.745605 -5.1074219 7
-0.28713599 -4.7609859 -5.0957031 7
-0.299225 -4.799438 -5.1152339 7
-0.317619 -5.0767822 7.6435552 7
-0.315887 -5.0584722 7.6513672 7
-0.307201 -5.0111079 7.6533198 7
-0.30894899 -5 7.6699219 7
-0.30722401 -4.9667969 7.688477 7
-0.31070301 -4.9588618 7.7089839 7
-0.30199799 -4.9117432 7.710938 7
-0.32117501 -4.919312 7.782227 7
-0.310738 -4.883667 7.7675781 7
-0.29855001 -4.829834 7.7597661 7
-0.29855701 -4.8148189 7.7705078 7
-0.109142 4.1636958 7.561523 7
-0.110828 4.181396 7.5566411 7
-0.114262 4.202148 7.5556641 7
-0.112469 4.213501 7.5410161 7
-0.114155 4.2312012 7.5361328 7
-0.100258 4.2200928 7.4892578 7
-0.095039003 4.224854 7.4667969 7
-0.088058002 4.2261958 7.438477 7
-0.086287998 4.2371831 7.4238281 7
-0.089706004 4.257812 7.422852 7
-0.089661002 4.2720952 7.4130859 7
-0.091347001 4.2895508 7.407227 7
-0.089561 4.300415 7.3925781 7
-0.086043999 4.3078609 7.3730469 7
-0.086006001 4.3218989 7.3632808 7
-0.085968003 4.335938 7.3525391 7
-0.092857003 4.3632808 7.3613281 7
-0.104923 4.4006348 7.3808589 7
-0.104885 4.4146729 7.3710942 7
-0.110027 4.4388428 7.3730469 7
-0.118637 4.469727 7.3847661 7
-0.115139 4.4770508 7.3662109 7
-0.1012 4.7999272 -4.2783198 7
-0.099482998 4.7827148 -4.2861328 7
-0.096046001 4.7619629 -4.2880859 7
-0.096046001 4.7481689 -4.2998052 7
-0.094337001 4.7310791 -4.3056641 7
-0.096046001 4.7210689 -4.320312 7
-0.092606001 4.7001948 -4.3232422 7
-0.080619998 4.6618652 -4.304688 7
-0.073771998 4.6340332 -4.297852 7
-0.068637997 4.6098628 -4.2949219 7
-0.070331998 4.599854 -4.3105469 7
-0.068614997 4.58252 -4.3173828 7
-0.072025001 4.5758061 -4.3369141 7
-0.073719002 4.5653081 -4.3525391 7
-0.078846 4.5620122 -4.375977 7
-0.082253002 4.5550542 -4.3955078 7
-0.087227002 4.5505371 -4.4199219 7
-0.090622 4.5435791 -4.4404302 7
-0.088913001 4.526001 -4.4462891 7
-0.088898003 4.512085 -4.4570308 7
-0.087188996 4.4804692 -4.4736328 7
-0.28249699 -4.4909668 -4.914062 7
-0.27008799 -4.4831538 -4.8730469 7
-0.284412 -4.5388179 -4.8867192 7
-0.282673 -4.5505371 -4.8720698 7
-0.277412 -4.5554199 -4.8466802 7
-0.29350701 -4.614624 -4.8662109 7
-0.29534501 -4.632812 -4.859375 7
-0.29360601 -4.6442871 -4.84375 7
-0.290142 -4.6671138 -4.813477 7
-0.284863 -4.6716309 -4.7880859 7
-0.29022601 -4.6962891 -4.7910161 7
-0.29211801 -4.7288818 -4.7724609 7
-0.285061 -4.7298579 -4.7431641 7
-0.288654 -4.7512212 -4.7412109 7
-0.28876901 -4.7801509 -4.717773 7
-0.29058501 -4.7979741 -4.710938 7
-0.317505 -4.9650879 7.3613281 7
-0.31751299 -4.9509282 7.3730469 7
-0.31931299 -4.9405522 7.389648 7
-0.31751999 -4.922852 7.3964839 7
-0.31212601 -4.8980708 7.3945308 7
-0.31934401 -4.8978271 7.4238281 7
-0.31935099 -4.8835449 7.436523 7
-0.312141 -4.8553472 7.429688 7
-0.31216401 -4.8409419 7.4414058 7
-0.319374 -4.8406978 7.4707031 7
-0.31216401 -4.8123779 7.4638672 7
-0.057666998 1.064087 8.3037109 7
-0.063037999 1.082886 8.3183594 7
-0.057606 1.096558 8.2988281 7
-0.062962003 1.1156009 8.3125 7
-0.064732 1.132812 8.3154297 7
-0.050338998 1.141724 8.2695312 7
-0.048514999 1.157104 8.2617188 7
-0.057468001 1.1781009 8.2871094 7
-0.057445999 1.194214 8.2841797 7
-0.064602003 1.214233 8.3037109 7
-0.057392001 1.226685 8.2783203 7
-0.066326 1.247925 8.3027344 7
-0.053738002 1.257202 8.2617188 7
-0.064479999 1.2794189 8.2919922 7
-0.109592 4.1679692 7.2373052 7
-0.120285 4.201416 7.2548828 7
-0.123817 4.2216802 7.2539058 7
-0.121986 4.2322998 7.2392578 7
-0.118366 4.2393799 7.2207031 7
-0.109356 4.2364502 7.1875 7
-0.100361 4.233521 7.155273 7
-0.10033 4.2470698 7.1445308 7
-0.094910003 4.2507319 7.1220698 7
-0.098457001 4.270874 7.1210942 7
-0.094841003 4.27771 7.1025391 7
-0.094788 4.2911382 7.092773 7
-0.100124 4.3144531 7.094727 7
-0.096488997 4.321167 7.0761719 7
-0.094665997 4.3311772 7.0625 7
-0.094604 4.3444819 7.0517578 7
-0.092781 4.3543701 7.0380859 7
-0.094521001 4.3708501 7.03125 7
-0.092689998 4.3808589 7.016602 7
-0.099803999 4.407959 7.0224609 7
-0.101559 4.4246831 7.0175781 7
-0.106869 4.4482422 7.0195308 7
-0.106785 4.4746089 6.999023 7
-0.091720998 4.7980962 -3.878906 7
-0.098778002 4.7875981 -3.9169919 7
-0.089919999 4.7563481 -3.907227 7
-0.107594 4.7805181 -3.960938 7
-0.095215 4.7418208 -3.9433589 7
-0.105793 4.750977 -3.9794919 7
-0.100487 4.7271729 -3.9785161 7
-0.086341999 4.6851811 -3.954102 7
-0.088096999 4.6760249 -3.969727 7
-0.084556997 4.6556401 -3.972656 7
-0.075703003 4.6246338 -3.9628911 7
-0.072140001 4.6048579 -3.964844 7
-0.068584003 4.5845952 -3.9667971 7
-0.073886998 4.58252 -3.9902339 7
-0.073879004 4.569458 -4.0019531 7
-0.079181999 4.5672612 -4.0253911 7
-0.073849 4.5435791 -4.023438 7
-0.073833004 4.5306401 -4.0341802 7
-0.070293002 4.510376 -4.0361328 7
-0.073657997 4.5037842 -4.0566411 7
-0.077189997 4.4975591 -4.0761719 7
-0.078945003 4.487915 -4.0908198 7
-0.086020999 4.488647 -4.1181641 7
-0.096619003 4.49646 -4.155273 7
-0.105457 4.5004878 -4.1875 7
-0.116885 4.192966 7.4930758 7
-0.101976 4.2634029 7.2624059 7
-0.319756 -4.8708658 8.0465202 7
-0.099506997 4.2197862 6.7084632 7
-0.089263998 4.2815008 6.5036449 7
-0.047858998 1.074667 8.157299 7
-0.046360001 1.243708 8.1038628 7
-0.10324 -1.823231 7.6875348 7
-0.084908001 -1.629698 7.6720901 7
-0.294774 -4.8299942 5.1126699 7
-0.091519997 -1.843569 7.3747101 7
-0.072203003 -1.659516 7.3623109 7
-0.079329997 -1.853496 7.0871449 7
-0.067723997 -1.697485 7.1124701 7
-0.064793997 -1.849553 6.8150129 7
-0.065617003 -1.732815 6.890337 7
-0.094793998 -1.862638 6.5978999 7
-0.085683003 -1.732715 6.640923 7
-0.077405997 -1.74357 6.435976 7
-0.060449999 -1.6047879 6.450789 7
-0.021027001 -1.389703 -7.3082809 7
-0.021159999 -1.3508739 -6.2496452 7
-0.196243 -4.793653 -5.4039268 7
-0.057803001 -1.590866 -4.240952 7
-0.26179901 -4.7178731 -4.3542209 7
-0.050147999 -1.544693 -3.652204 7
-0.25332701 -4.7109199 -3.5990491 7
-0.013658 -1.491086 -2.9607439 7
-0.24624901 -4.6988459 -2.94416 7
0.0028359999 -1.453007 -2.4722879 7
-0.240808 -4.683856 -2.371577 7
-0.32792401 -4.8994179 7.905129 7
-0.31354901 -4.8839269 7.4204631 7
-0.26190299 -4.5346222 -0.90226799 7
-0.26096499 -4.6883159 -0.73261398 7
-0.061452001 -1.880815 7.7174902 7
-0.048525002 -1.686785 7.7114401 7
-0.022565 -1.716747 -1.119423 7
-0.039556999 -1.909683 -1.140698 7
-0.25261199 -4.772253 -0.195489 7
-0.086815998 -1.822325 7.4221392 7
-0.073322996 -1.640747 7.4140849 7
-0.033992 -1.324405 -0.84918302 7
-0.037661001 -1.495177 -0.83127397 7
-0.067511 -1.773615 7.1718502 7
-0.059758998 -1.605903 7.1845469 7
-0.019871 -1.306515 -0.61786699 7
-0.030618999 -1.47085 -0.628959 7
-0.28264999 -4.6210022 0.457973 7
-0.28247499 -4.72369 0.619582 7
-0.310783 -4.9139128 5.526608 7
-0.31266901 -4.823863 5.6945481 7
-0.073900998 -1.901831 6.9874158 7
-0.059978999 -1.736823 6.983552 7
-0.0070469999 -1.290416 -0.40968201 7
-0.017912 -1.44605 -0.42167699 7
-0.26664299 -4.7113838 1.068419 7
-0.30577201 -4.987998 4.940094 7
-0.2899 -4.8672352 5.0836949 7
-0.046634998 -1.844524 6.746408 7
-0.034095 -1.69073 6.745894 7
-0.0073009999 -1.424001 -0.23751301 7
-0.0087649999 -1.5681551 -0.21030299 7
-0.25546101 -4.5402632 1.168579 7
0.002175 -1.404017 -0.070625 7
-0.0089579998 -1.546433 -0.077715002 7
-0.30739501 -4.6301379 1.314477 7
-0.302497 -4.6860042 1.478634 7
-0.30275899 -4.749979 1.637403 7
-0.32591301 -4.9744759 4.1927738 7
-0.307789 -4.876718 4.3430171 7
-0.064829998 -1.7958519 6.5452871 7
-0.058651 -1.654745 6.5651379 7
-0.28130901 -4.497942 1.568638 7
-0.28865999 -4.5787759 1.710605 7
-0.29587799 -4.653758 1.856465 7
-0.29936799 -4.7123408 2.009444 7
-0.30271301 -4.764472 2.164927 7
-0.28518701 -4.781096 3.816998 7
-0.28155899 -4.7418971 3.9726341 7
-0.29440799 -4.7449088 4.13766 7
-0.072535999 -1.904309 6.4067712 7
-0.273954 -4.5152431 2.0749221 7
-0.28483501 -4.586206 2.2158899 7
-0.295984 -4.7040038 2.670857 7
-0.291235 -4.7067571 2.8285601 7
-0.293951 -4.7249789 2.9839251 7
-0.290838 -4.7201328 3.1405699 7
-0.27705199 -4.6518602 3.6415019 7
-0.27535099 -4.625577 3.79321 7
-0.269665 -4.5820832 3.9412839 7
-0.269539 -4.5486951 4.0905519 7
-0.26843601 -4.505116 2.7015131 7
-0.26736 -4.5178542 2.8495841 7
-0.268078 -4.5297828 2.9973941 7
-0.26872599 -4.535696 3.1455171 7
-0.067409001 4.6751451 -14.536773 7
-0.038485002 4.5623899 -10.962396 7
-0.039999999 4.5485549 -3.8214231 7
0.05161 1.288748 -4.7878571 7
-0.117108 4.5164871 -3.086802 7
-0.14783099 4.2017231 7.4358048 7
-0.129527 4.3013859 7.2095828 7
-0.140526 4.4796581 7.0845742 7
-0.050870001 1.122587 8.2932539 7
-0.116529 4.241467 6.8220048 7
-0.106321 4.3403301 6.6338391 7
-0.103958 4.1799278 6.4717689 7
-0.010091 -1.221276 -14.831721 7
-0.08292 -1.289605 -10.940858 7
-0.161303 4.6421041 -11.720449 7
-0.046087001 -1.334689 -8.7933283 7
-0.031179 -1.3873399 -7.5090051 7
-0.291379 -4.564146 -10.21667 7
-0.069647998 4.524138 -6.9159961 7
-0.029237 -1.449554 -6.6714439 7
-0.078970999 -1.489607 -5.9870539 7
-0.33515599 -4.5389938 -7.3197098 7
-0.31545699 -4.697917 -7.0049319 7
-0.43124199 -6.296587 -7.2406721 7
-0.070257999 4.54284 -3.9952381 7
-0.082377002 4.4903359 -4.2314701 7
-0.066044003 -1.506094 -5.3983092 7
-0.29778901 -4.63095 -6.0211859 7
-0.060139999 4.5084591 -3.012964 7
-0.069162004 4.4725609 -3.221467 7
-0.053440001 4.2249808 -3.3263741 7
-0.26603201 -4.6288438 -4.9303188 7
-0.00321 1.468576 -4.4926338 7
-0.001852 1.320346 -4.5337191 7
-0.029983001 -1.331532 -4.4581099 7
-0.037459001 -1.4948061 -4.4563479 7
-0.24627399 -4.6036978 -4.0298119 7
-0.243118 -4.7244892 -3.8367569 7
-0.059633002 -1.352278 -4.140183 7
-0.063780002 -1.491516 -4.110723 7
-0.275139 -4.5782762 -3.037626 7
-0.276382 -4.6848712 -2.855618 7
-0.27668601 -4.7788029 -2.6662829 7
-0.052235998 -1.3669389 -3.863209 7
-0.050813001 -1.478815 -3.8023119 7
-0.250837 -4.7162242 -0.77025998 7
-0.042978998 -1.369519 -3.606061 7
-0.046746999 -1.485691 -3.5698991 7
-0.029423 -1.330179 -3.36833 7
-0.037889998 -1.449785 -3.35271 7
-0.049493998 -1.580398 -3.344775 7
-0.050292999 -1.333663 -3.1756539 7
-0.053707998 -1.43004 -3.135407 7
-0.067937002 -1.557276 -3.131109 7
-0.042300001 -1.329953 -2.9963169 7
-0.038309 -1.39827 -2.928859 7
-0.055698 -1.526203 -2.9322169 7
-0.033342 -1.523856 -2.5322721 7
-0.016102999 -1.288789 -2.5328729 7
-0.021826999 -1.364803 -2.496455 7
-0.017419999 -1.410542 -2.4294519 7
-0.028752999 -1.501101 -2.400862 7
-0.062394001 -1.5921201 -2.3667841 7
-0.032143001 -1.281099 -2.413408 7
-0.033764999 -1.340266 -2.3651791 7
-0.044636998 -1.423667 -2.335799 7
-0.035287 -1.448518 -2.2570951 7
-0.030105 -1.3286099 -2.2565849 7
-0.069091 -1.793057 -1.248309 7
-0.062332999 -1.777793 -1.172973 7
-0.072213002 -1.815627 -1.0973099 7
-0.068848997 -1.805509 -1.021826 7
-0.049897 -1.664448 -1.241256 7
-0.048232 -1.665887 -1.171482 7
-0.048307002 -1.670067 -1.1015739 7
-0.051826999 -1.682562 -1.03053 7
-0.046806 -1.664251 -0.96159202 7
-0.032698002 -1.554792 -0.90767598 7
-0.024214 -1.520846 -0.847372 7
-0.018222 -1.456116 -0.923051 7
-0.020437 -1.455606 -0.86024499 7
-0.025764 -1.380272 -0.93451703 7
-0.024389001 -1.369406 -0.87708497 7
-0.016452 -1.30987 -0.945467 7
-0.021113999 -1.315768 -0.88767201 7
