# .PCD v0.7 - Point Cloud Data file format
VERSION 0.7
FIELDS x y z intensity
SIZE 4 4 4 4
TYPE F F F F
COUNT 1 1 1 1
WIDTH 848
HEIGHT 1
VIEWPOINT 0 0 0 1 0 0 0
POINTS 848
DATA ascii
0.049660001 1.320312 -71.77832 7
-0.058285002 4.4932861 -67.082031 7
-0.099586003 4.4099121 -68.348633 7
0.053040002 1.02002 -63.662109 7
-0.69419098 -5.607666 69.819336 7
-0.767124 -5.5839839 71.570312 7
-0.82729 -5.5283198 73.018555 7
-0.62415302 -2.463989 68.425781 7
0.058952 4.628418 -56.422852 7
0.027702 4.5568848 -57.27832 7
0.060272001 4.3504639 -56.396484 7
0.012737 4.307251 -57.696289 7
-0.062858999 4.311646 -59.761719 7
0.04287 0.91418499 -56.878906 7
-0.70084 -5.7436519 64.166992 7
-0.73361599 -5.6585689 64.897461 7
-0.77815199 -5.592773 65.883789 7
-0.61411297 -2.8282471 62.544922 7
-0.61524999 -2.6846919 62.580078 7
-0.57333797 -2.501709 61.676758 7
-0.54026002 -2.330811 60.962891 7
-0.522457 0.079956003 60.611328 7
-0.55090302 0.222656 61.237305 7
0.049446002 4.5794678 -51.15625 7
-0.014526 4.4589839 -52.745117 7
0.013222 4.2753911 -52.067383 7
-0.02076 4.2130132 -52.912109 7
0.067532003 0.78515601 -49.963867 7
-0.51492703 0.064452998 55.550781 7
-0.46751401 0.189331 54.604492 7
-0.48014799 0.31701699 54.861328 7
-0.54138601 3.3137209 56.006836 7
-0.47183201 3.355469 54.610352 7
0.055613998 4.4793701 -46.036133 7
0.0027389999 4.474854 -47.22168 7
-0.022213001 4.4090581 -47.786133 7
0.037131999 4.1763921 -46.467773 7
0.002258 4.128418 -47.25293 7
-0.045421999 4.1003418 -48.323242 7
-0.139442 -2.9633789 -45.643555 7
-0.110165 -3.0358889 -45.041992 7
-0.084620997 -3.1108401 -44.516602 7
-0.052464001 -3.1737061 -43.854492 7
-0.468483 0.41857901 50.797852 7
-0.406124 0.52294898 49.639648 7
0.0065609999 4.4327388 -43.30957 7
-0.020176001 4.379272 -43.867188 7
-0.052310999 4.3336182 -44.535156 7
0.0081209997 4.1101069 -43.299805 7
-0.023158999 4.0612788 -43.949219 7
-0.058979001 4.0175781 -44.693359 7
0.015289 0.67419398 -42.681641 7
0.021507001 0.568115 -42.553711 7
0.014191 0.46545401 -42.702148 7
0.074532002 0.350952 -41.474609 7
-0.151646 -3.127197 -41.731445 7
-0.114491 -3.177856 -41.037109 7
-0.433456 -2.704834 46.12207 7
-0.47315201 -2.5311279 46.816406 7
-0.361397 0.36267099 45.040039 7
-0.36227399 0.46606401 45.055664 7
-0.36673 3.582031 45.017578 7
0.43647799 22.552246 22.515625 7
0.43636301 22.606323 22.46582 7
-0.026131 4.5968022 -39.914062 7
-0.05714 4.461792 -40.510742 7
-0.073112004 4.3930659 -40.818359 7
-0.102119 4.3476558 -41.369141 7
-0.110321 4.2609859 -41.53125 7
0.0087930001 0.73803699 -39.394531 7
0.0042690001 0.44836399 -39.473633 7
0.057193998 0.247925 -38.475586 7
0.060787 0.152832 -38.40625 7
0.035342999 -0.134277 -35.394531 7
-0.13948099 -3.340698 -38.173828 7
-0.12694199 -3.4156489 -37.950195 7
-0.118862 -3.49646 -37.801758 7
-0.42539999 -2.5041499 42.807617 7
-0.342953 0.340942 41.59082 7
-0.33363301 0.434692 41.443359 7
-0.34084699 0.53112799 41.55957 7
-0.337055 0.62536597 41.5 7
-0.42964199 3.506958 42.895508 7
-0.40269101 3.568481 42.461914 7
-0.37060499 3.6203611 41.947266 7
-0.36824 3.7132571 41.90332 7
-0.074244998 4.7947998 -37.479492 7
-0.042736001 4.6365972 -36.945312 7
-0.070441999 4.6018071 -37.431641 7
-0.086375996 4.5411382 -37.714844 7
-0.144512 4.4663091 -38.736328 7
0.036796998 1.2019041 -35.735352 7
0.023178 1.120728 -35.970703 7
0.040904999 1.023438 -35.664062 7
0.001854 0.86267102 -36.34082 7
0.038952 0.039917 -35.335938 7
-0.015633 -0.03125 -33.435547 7
0.018105 -0.112183 -32.897461 7
0.043003 -0.19152801 -32.498047 7
0.006786 -0.27648899 -33.071289 7
0.030215999 -0.35461399 -32.696289 7
-0.379181 -2.447021 38.915039 7
-0.39182299 -2.369751 39.106445 7
-0.32560301 0.394043 38.263672 7
-0.299202 0.47644001 37.876953 7
-0.326942 0.56909198 38.28418 7
-0.30014399 0.649414 37.891602 7
-0.41220099 3.5748291 39.401367 7
-0.39219299 3.6369629 39.103516 7
-0.369385 3.693481 38.762695 7
-0.33267999 3.727905 38.219727 7
0.0028570001 4.7324219 -32.932617 7
-0.017433001 4.6939702 -33.261719 7
-0.037356999 4.6531978 -33.584961 7
-0.065750003 4.628418 -34.041016 7
-0.092658997 4.5983891 -34.475586 7
-0.12543499 4.5777588 -35.00293 7
0.062328 1.328003 -32.205078 7
0.028347 1.268066 -32.746094 7
0.055454001 1.171875 -32.31543 7
0.027729001 1.105957 -32.756836 7
-0.000359 1.038208 -33.203125 7
-0.012405 -0.27002001 -30.835938 7
0.015392 -0.34204099 -30.426758 7
0.010921 -0.41821301 -30.489258 7
7.5999997e-05 -0.49609399 -30.646484 7
0.021880999 -0.56640601 -30.323242 7
-0.34871301 -2.5162351 36.170898 7
-0.35710099 -2.441895 36.293945 7
-0.35646799 -2.276123 36.298828 7
-0.29949999 0.452759 35.606445 7
-0.31509399 0.53723103 35.821289 7
-0.306923 0.61669898 35.708984 7
-0.404015 3.5975339 36.931641 7
-0.372814 3.720825 36.490234 7
-0.33074999 3.7415769 35.90625 7
-0.045784 4.8303218 -31.332031 7
-0.022686001 4.7032471 -31.001953 7
-0.056949999 4.697876 -31.515625 7
-0.084183 4.6755371 -31.925781 7
-0.112274 4.5726318 -32.359375 7
0.048636999 1.473755 -30.176758 7
0.035533998 1.407349 -30.37207 7
0.033328999 1.2574461 -30.407227 7
0.0044900002 1.19751 -30.836914 7
-0.015499 -0.45519999 -28.660156 7
0.02689 -0.58654797 -28.074219 7
0.011314 -0.731812 -28.28125 7
0.023548 -0.797607 -28.109375 7
-0.023499001 4.8483891 -28.492188 7
-0.030379999 4.7921138 -28.595703 7
-0.046604 4.755127 -28.827148 7
-0.061981 4.7154541 -29.045898 7
-0.086300001 4.6931152 -29.385742 7
-0.110176 4.668335 -29.719727 7
-0.063102998 4.5 -29.09082 7
0.037331 1.582642 -27.944336 7
0.027863 1.519653 -28.077148 7
0.015575 1.454468 -28.243164 7
0.038474999 1.3692631 -27.932617 7
0.01453 1.313965 -28.261719 7
-0.022018 -0.69799799 -26.571289 7
-0.00044599999 -0.75659198 -26.294922 7
0.00038499999 -0.821899 -26.28125 7
-0.019958001 -0.89563 -26.536133 7
-0.002544 -0.95422399 -26.3125 7
-0.058350001 4.8662109 -26.891602 7
-0.058899 4.7999272 -26.908203 7
-0.073986001 4.7642822 -27.109375 7
-0.088623002 4.7268071 -27.304688 7
-0.110538 4.7033691 -27.591797 7
-0.121529 4.6564941 -27.742188 7
-0.084762998 4.513916 -27.286133 7
0.015884001 1.554932 -26.249023 7
0.034283001 1.452515 -25.859375 7
0.013977 1.400757 -26.120117 7
-0.0081829997 1.349243 -26.402344 7
-0.027531 -1.0194089 -24.626953 7
-0.012733 -1.073975 -24.449219 7
-0.0068589998 -1.13208 -24.376953 7
-0.024273001 -1.2023931 -24.578125 7
-0.047848001 4.8669429 -24.660156 7
-0.067024 4.8461909 -24.894531 7
-0.116714 4.7608638 -25.509766 7
-0.100136 4.6630859 -25.325195 7
0.020008 1.684204 -24.194336 7
0.025726 1.558105 -24.132812 7
0.019253001 1.501953 -24.211914 7
0.001007 1.453125 -24.430664 7
0.012211 1.3843991 -24.300781 7
0.015553 1.321167 -24.262695 7
-0.040874001 -0.95776403 -23.057617 7
-0.022910999 -1.007324 -22.857422 7
-0.023514001 -1.064941 -22.860352 7
-0.046406001 -1.134033 -23.108398 7
-0.0317 -1.2418211 -22.939453 7
-0.092354 5.0461431 -23.328125 7
-0.060405999 4.9172359 -22.991211 7
-0.067814 4.8752441 -23.083008 7
-0.077327996 4.8371582 -23.197266 7
-0.097916 4.7628169 -23.444336 7
-0.116867 4.7426758 -23.661133 7
-0.115887 4.6810298 -23.660156 7
0.001087 1.757935 -22.685547 7
0.0098719997 1.636597 -22.595703 7
-0.010792 1.536865 -22.829102 7
-0.0056190002 1.4755861 -22.774414 7
-0.0020099999 1.415894 -22.737305 7
-0.027519001 -0.99792498 -21.339844 7
-0.042892002 -1.059082 -21.494141 7
-0.030486999 -1.107056 -21.363281 7
-0.029983999 -1.160767 -21.355469 7
-0.050471999 -1.22583 -21.561523 7
-0.041480999 -1.274902 -21.464844 7
-0.037567001 -1.32666 -21.420898 7
-0.108795 4.917603 -21.84668 7
-0.108864 4.8621831 -21.858398 7
-0.113964 4.8175049 -21.921875 7
-0.00063299999 1.861938 -21.12207 7
0.00042 1.807495 -21.114258 7
-0.0047149998 1.758057 -21.170898 7
-0.010967 1.708984 -21.239258 7
0.0052490002 1.643066 -21.074219 7
0.00095399999 1.590088 -21.118164 7
-0.053130999 -1.05127 -20.220703 7
-0.055008002 -1.103394 -20.235352 7
-0.048447002 -1.151123 -20.167969 7
-0.056953002 -1.206787 -20.246094 7
-0.073292002 -1.26709 -20.399414 7
-0.0061039999 1.650879 -19.814453 7
0.0019720001 1.4432369 -19.74707 7
-0.079715997 4.9516602 -18.673828 7
-0.075953998 4.895874 -18.651367 7
-0.084255002 4.8659668 -18.735352 7
-0.095100001 4.8408198 -18.84375 7
-0.011242 1.459717 -18.553711 7
0.00077099999 1.4044189 -18.446289 7
0.0026169999 1.3562011 -18.431641 7
-0.054783002 -0.97766101 -17.780273 7
-0.054843999 -1.023193 -17.777344 7
-0.061000999 -1.071533 -17.828125 7
-0.076674998 -1.124756 -17.959961 7
-0.057041001 -1.1604 -17.787109 7
-0.049625002 -1.2019041 -17.72168 7
-0.082282998 -1.265259 -17.99707 7
-0.14155599 4.7564702 -18.075195 7
-0.027439 1.2507319 -17.578125 7
-0.024127999 1.203979 -17.551758 7
-0.017512999 1.110229 -17.499023 7
-0.0034330001 1.058472 -17.379883 7
-0.016514 1.006104 -17.472656 7
-0.015221 0.96081501 -17.462891 7
0.011089 0.81689501 -17.243164 7
0.0076410002 0.77380401 -17.274414 7
-0.044716001 -1.002808 -16.600586 7
-0.045485999 -1.0456541 -16.603516 7
-0.050583001 -1.090942 -16.640625 7
-0.059269 -1.137939 -16.708984 7
-0.050689999 -1.17627 -16.635742 7
-0.046432 -1.216675 -16.598633 7
-0.060164999 -1.266968 -16.705078 7
0.0029490001 0.616211 -16.256836 7
0.00075100001 0.57495099 -16.275391 7
0.0063860002 0.53149402 -16.230469 7
0.0084760003 0.48889199 -16.213867 7
0.0034030001 0.44812 -16.255859 7
0.006912 0.40539601 -16.227539 7
0.014 0.362183 -16.170898 7
0.0044169999 -0.019774999 -15.272461 7
-0.0032579999 -0.098999001 -15.330078 7
-0.00103 -0.138428 -15.3125 7
0.001938 -0.177856 -15.287109 7
0.0049549998 -0.217041 -15.264648 7
0.0018119999 -0.29638699 -15.286133 7
-0.088799 4.8206792 -15.357422 7
-0.12592299 4.6960449 -15.6875 7
-0.008316 0.139038 -15.370117 7
-0.015152 -0.35266101 -14.47168 7
-0.012016 -0.389893 -14.447266 7
-0.010166 -0.43139601 -14.449219 7
-0.008595 -0.46850601 -14.436523 7
-0.011856 -0.50671399 -14.458008 7
-0.01915 -0.54602098 -14.508789 7
-0.018394001 -0.58349597 -14.501953 7
-0.015213 -0.62011701 -14.477539 7
-0.26611701 -4.5262451 -15.663086 7
-0.036254998 -0.66674799 -13.820312 7
-0.033752002 -0.70178199 -13.801758 7
-0.027039001 -0.735596 -13.753906 7
-0.026237 -0.77111799 -13.746094 7
-0.028831 -0.80786097 -13.759766 7
-0.041572999 -0.84863299 -13.844727 7
-0.043297 -0.88537598 -13.854492 7
-0.037422001 -0.91918898 -13.8125 7
-0.037468001 -0.95507801 -13.810547 7
-0.048836 -0.84289598 -13.128906 7
-0.058665998 -0.881226 -13.19043 7
-0.055156998 -0.914307 -13.165039 7
-0.041000001 -0.97692901 -13.068359 7
-0.040176 -1.0107419 -13.05957 7
-0.058894999 -1.0537111 -13.177734 7
-0.060734 -1.089233 -13.186523 7
-0.056332 -1.12146 -13.155273 7
-0.052818 -1.154297 -13.129883 7
-0.062641002 -1.193604 -13.19043 7
-0.061802 -1.227661 -13.181641 7
-0.064510003 -1.263672 -13.196289 7
-0.29253399 -4.421021 -14.080078 7
-0.28113899 -4.509644 -13.976562 7
-0.27674499 -4.5375981 -13.9375 7
-0.276806 -4.5739751 -13.926758 7
-0.285786 -4.6269531 -13.97168 7
-0.296547 -4.6835942 -14.026367 7
-0.304649 -4.735352 -14.064453 7
-0.30114001 -4.7650151 -14.032227 7
-0.039608002 -0.962524 -12.37207 7
-0.051757999 -1.00061 -12.445312 7
-0.054604001 -1.034668 -12.459961 7
-0.062103 -1.071045 -12.503906 7
-0.058426 -1.102173 -12.477539 7
-0.051010001 -1.1312259 -12.428711 7
-0.05291 -1.164917 -12.4375 7
-0.057617001 -1.200073 -12.463867 7
-0.063254997 -1.235962 -12.495117 7
-0.066096999 -1.2705081 -12.509766 7
-0.060547002 -1.300293 -12.47168 7
-0.061523002 -1.33374 -12.474609 7
-0.049461 -1.359009 -12.396484 7
-0.27551299 -4.596313 -13.118164 7
-0.087029003 4.7711182 -11.889648 7
-0.093520999 4.7530522 -11.938477 7
-0.093543999 4.721313 -11.950195 7
-0.095412999 4.6932368 -11.97168 7
-0.098220997 4.6671138 -11.999023 7
-0.099159002 4.6369629 -12.016602 7
-0.109364 4.6256099 -12.086914 7
-0.101971 4.5786128 -12.053711 7
-0.106617 4.5557861 -12.092773 7
-0.095542997 4.501709 -12.038086 7
-0.102043 4.4822998 -12.086914 7
-0.045712002 -0.97937 -11.722656 7
-0.046749 -1.010864 -11.725586 7
-0.051674001 -1.044189 -11.751953 7
-0.039951 -1.069702 -11.680664 7
-0.03706 -1.099243 -11.660156 7
-0.049846999 -1.136597 -11.733398 7
-0.064575002 -1.175293 -11.816406 7
-0.053847998 -1.200806 -11.750977 7
-0.049968999 -1.229736 -11.724609 7
-0.053939998 -1.262939 -11.743164 7
-0.057891998 -1.296265 -11.763672 7
-0.057937998 -1.3273931 -11.759766 7
-0.064888 -1.393921 -11.794922 7
-0.063965 -1.424805 -11.785156 7
-0.068893 -1.459106 -11.810547 7
-0.070900001 -1.491577 -11.818359 7
-0.072898999 -1.524292 -11.826172 7
-0.28144801 -4.5097661 -12.391602 7
-0.27854899 -4.5368652 -12.364258 7
-0.27960199 -4.571167 -12.358398 7
-0.28064001 -4.6055908 -12.353516 7
-0.27971601 -4.636353 -12.336914 7
-0.28764001 -4.6835942 -12.370117 7
-0.29653499 -4.7331538 -12.408203 7
-0.29660401 -4.7657471 -12.396484 7
-0.091187 4.7816162 -11.160156 7
-0.086346 4.7415771 -11.143555 7
-0.088298999 4.7156978 -11.166016 7
-0.091240004 4.691895 -11.193359 7
-0.093200997 4.665771 -11.214844 7
-0.094185002 4.6375728 -11.231445 7
-0.101021 4.62146 -11.280273 7
-0.111744 4.6125488 -11.350586 7
-0.120525 4.599854 -11.40918 7
-0.109844 4.5480962 -11.360352 7
-0.098182999 4.4945068 -11.306641 7
-0.059868 -1.120361 -11.201172 7
-0.066063002 -1.15332 -11.232422 7
-0.066109002 -1.18335 -11.229492 7
-0.076393001 -1.218628 -11.28418 7
-0.064139999 -1.2418211 -11.212891 7
-0.062164001 -1.300415 -11.195312 7
-0.062201999 -1.330078 -11.191406 7
-0.29049301 -4.480103 -11.772461 7
-0.285431 -4.5019531 -11.733398 7
-0.28342399 -4.5294189 -11.712891 7
-0.28246301 -4.5584722 -11.696289 7
-0.28252399 -4.589478 -11.685547 7
-0.28156301 -4.6185298 -11.668945 7
-0.28469801 -4.655273 -11.673828 7
-0.296047 -4.70752 -11.722656 7
-0.29612401 -4.738647 -11.710938 7
-0.30130401 -4.7796631 -11.727539 7
-0.053546999 -1.28894 -10.53418 7
-0.055744 -1.318359 -10.541992 7
-0.057934001 -1.348022 -10.549805 7
-0.065502003 -1.380859 -10.586914 7
-0.078452997 -1.417236 -10.651367 7
-0.074173003 -1.442993 -10.625977 7
-0.068847999 -1.4680181 -10.59375 7
-0.069954 -1.497192 -10.595703 7
-0.076447003 -1.529785 -10.626953 7
-0.080788001 -1.5612791 -10.646484 7
-0.088348001 -1.5949709 -10.682617 7
-0.28652999 -4.492065 -11.032227 7
-0.27797699 -4.5056152 -10.976562 7
-0.27804199 -4.53479 -10.96582 7
-0.279167 -4.5661621 -10.960938 7
-0.281387 -4.5993652 -10.959961 7
-0.277134 -4.620728 -10.927734 7
-0.28149399 -4.6578369 -10.938477 7
-0.29665399 -4.7156978 -11.00293 7
-0.29132101 -4.7347412 -10.964844 7
-0.30000299 -4.7805181 -10.99707 7
-0.062687002 -1.292236 -10.056641 7
-0.053738002 -1.314087 -10.007812 7
-0.054919999 -1.341553 -10.009766 7
-0.058338001 -1.37085 -10.023438 7
-0.066226996 -1.402588 -10.05957 7
-0.070735998 -1.4326169 -10.080078 7
-0.075272001 -1.462769 -10.099609 7
-0.068584003 -1.485474 -10.061523 7
-0.071971998 -1.5148931 -10.076172 7
-0.072017998 -1.54187 -10.072266 7
-0.07542 -1.571533 -10.084961 7
-0.29453999 -4.507935 -10.457031 7
-0.28735399 -4.52356 -10.413086 7
-0.287415 -4.55127 -10.401367 7
-0.28297001 -4.5710449 -10.369141 7
-0.28527501 -4.6027832 -10.369141 7
-0.283077 -4.626709 -10.347656 7
-0.28539699 -4.658813 -10.347656 7
-0.291069 -4.697144 -10.363281 7
-0.29898101 -4.7398682 -10.389648 7
-0.30017099 -4.7701421 -10.383789 7
-0.070423 -1.292358 -9.59375 7
-0.058758002 -1.311401 -9.5341797 7
-0.058796 -1.33728 -9.5302734 7
-0.061161 -1.364624 -9.5390615 7
-0.057709001 -1.388184 -9.5175781 7
-0.069447003 -1.421509 -9.5712891 7
-0.084702 -1.457153 -9.6425781 7
-0.078876004 -1.479614 -9.6113281 7
-0.071902998 -1.500854 -9.5722656 7
-0.077793002 -1.530762 -9.5976562 7
-0.076655999 -1.555908 -9.5878906 7
-0.072017998 -1.578613 -9.5605469 7
-0.40679201 -6.289185 -9.5927734 7
-0.405678 -6.3122559 -9.5732422 7
-0.40809599 -6.3441162 -9.5683594 7
-0.40814999 -6.3701172 -9.5527344 7
-0.062229 -1.2830811 -9.0888672 7
-0.064715996 -1.309448 -9.0966797 7
-0.058646999 -1.330811 -9.0654297 7
-0.058685001 -1.355469 -9.0615234 7
-0.063594997 -1.3831789 -9.0820312 7
-0.064854003 -1.408691 -9.0830078 7
-0.064898998 -1.433472 -9.0800781 7
-0.079562999 -1.467773 -9.1455078 7
-0.069843002 -1.486328 -9.0966797 7
-0.075976998 -1.515259 -9.1210938 7
-0.082103997 -1.544434 -9.1464844 7
-0.078495003 -1.56665 -9.125 7
-0.083401002 -1.595093 -9.1445312 7
-0.101711 4.787354 -8.2148438 7
-0.090805002 4.7414551 -8.1796885 7
-0.089599997 4.716187 -8.1865234 7
-0.085960001 4.685791 -8.1816406 7
-0.085968003 4.6629639 -8.1933594 7
-0.085983001 4.6400151 -8.2041016 7
-0.088402003 4.6220698 -8.2255859 7
-0.094466999 4.6113281 -8.2617188 7
-0.099335 4.5978999 -8.2929688 7
-0.101749 4.579834 -8.3144531 7
-0.062362999 -1.296509 -8.6103516 7
-0.050941002 -1.313477 -8.5566406 7
-0.048424002 -1.335449 -8.5419922 7
-0.049727999 -1.359741 -8.5439453 7
-0.053580999 -1.385498 -8.5585938 7
-0.052345 -1.408447 -8.5488281 7
-0.067680001 -1.441895 -8.6132812 7
-0.074078001 -1.4694819 -8.6386719 7
-0.069022998 -1.489868 -8.6123047 7
-0.061409 -1.508545 -8.5742188 7
-0.066528 -1.535645 -8.59375 7
-0.066565998 -1.5593261 -8.5898438 7
-0.072986998 -1.58728 -8.6142578 7
-0.29446799 -4.6000981 -8.7070312 7
-0.294521 -4.6242681 -8.6953115 7
-0.29458201 -4.6479492 -8.6845703 7
-0.29333901 -4.6694341 -8.6679688 7
-0.29339999 -4.6933589 -8.6572266 7
-0.29729801 -4.7243652 -8.6611328 7
-0.307556 -4.7678218 -8.6914062 7
-0.308891 -4.7939448 -8.6845703 7
-0.40022701 -6.299561 -8.2900391 7
-0.39388999 -6.3067632 -8.2519531 7
-0.39013699 -6.3200679 -8.2216797 7
-0.39273801 -6.3492432 -8.2167969 7
-0.39408901 -6.3751221 -8.2070312 7
-0.099716 4.78479 -7.6601558 7
-0.092124999 4.747314 -7.641602 7
-0.078175001 4.6967769 -7.5966802 7
-0.073109001 4.6647949 -7.5869141 7
-0.071856998 4.6407471 -7.592773 7
-0.073138997 4.6219478 -7.6074219 7
-0.073138997 4.6003418 -7.6191411 7
-0.073146999 4.5787349 -7.6298828 7
-0.074398004 4.559814 -7.6464839 7
-0.076954 4.543335 -7.6669922 7
-0.085818999 4.5393071 -7.7138672 7
-0.094687998 4.5351558 -7.7617192 7
-0.098494999 4.520874 -7.7871089 7
-0.090903997 4.4838872 -7.7675781 7
-0.070541002 -1.2937011 -8.2333984 7
-0.077197999 -1.320557 -8.2578115 7
-0.066643 -1.337036 -8.2089844 7
-0.064018004 -1.3581541 -8.1953115 7
-0.065384001 -1.381592 -8.1962891 7
-0.069389001 -1.4069819 -8.2109385 7
-0.070747003 -1.43042 -8.2128906 7
-0.085360996 -1.4625241 -8.2714844 7
-0.089374997 -1.488037 -8.2851562 7
-0.081455 -1.505615 -8.2470703 7
-0.078837998 -1.526611 -8.2324219 7
-0.081515998 -1.551392 -8.2402344 7
-0.082874 -1.574829 -8.2421885 7
-0.08292 -1.597778 -8.2382812 7
-0.29574201 -4.4842529 -8.2705078 7
-0.306416 -4.5264888 -8.3007812 7
-0.30912 -4.5543208 -8.3007812 7
-0.309181 -4.577271 -8.2890615 7
-0.30789599 -4.5977778 -8.2734385 7
-0.30395901 -4.6131592 -8.2470703 7
-0.30002999 -4.6286621 -8.2207031 7
-0.300091 -4.6513672 -8.2089844 7
-0.305462 -4.68396 -8.2177734 7
-0.30417299 -4.7042241 -8.2021484 7
-0.30421799 -4.7269292 -8.1904297 7
-0.31224099 -4.7648931 -8.2099609 7
-0.108986 4.7740479 -7.235352 7
-0.101082 4.7368159 -7.2167969 7
-0.086597003 4.686523 -7.170898 7
-0.081332996 4.655273 -7.1621089 7
-0.087932996 4.648315 -7.1972661 7
-0.090572 4.6331792 -7.217773 7
-0.085293002 4.601685 -7.2099609 7
-0.083981 4.5786128 -7.2148442 7
-0.089244999 4.568481 -7.2470698 7
-0.091885 4.5531011 -7.2675781 7
-0.098472998 4.5455322 -7.3037109 7
-0.10508 4.5378418 -7.3398442 7
-0.109032 4.5246582 -7.3662109 7
-0.098488003 4.4830322 -7.3369141 7
-0.29977 -4.5004878 -7.7880859 7
-0.29566601 -4.514648 -7.7617192 7
-0.29987699 -4.5438228 -7.765625 7
-0.30131099 -4.5681152 -7.7607422 7
-0.29582599 -4.5795898 -7.7294922 7
-0.29032901 -4.5906978 -7.6982422 7
-0.29315901 -4.6174321 -7.6972661 7
-0.294579 -4.6417241 -7.6914058 7
-0.297405 -4.668457 -7.6904302 7
-0.293304 -4.6820068 -7.664062 7
-0.297497 -4.7111821 -7.6679692 7
-0.30308199 -4.7432861 -7.6767578 7
-0.31420499 -4.7858891 -7.7060552 7
-0.29239699 -4.4812012 -7.3261719 7
-0.29532599 -4.506958 -7.3261719 7
-0.296799 -4.5301509 -7.3193359 7
-0.29684401 -4.5509028 -7.3085942 7
-0.29977 -4.5766602 -7.3085942 7
-0.304111 -4.6052251 -7.3125 7
-0.295555 -4.6097412 -7.2714839 7
-0.29273999 -4.6248779 -7.25 7
-0.29566199 -4.6508789 -7.2480469 7
-0.30001801 -4.6793208 -7.2519531 7
-0.300064 -4.699707 -7.2412109 7
-0.30441701 -4.728394 -7.2451172 7
-0.30159801 -4.7435298 -7.2246089 7
-0.308819 -4.7775879 -7.2373052 7
-0.29532599 -4.486938 -6.8994141 7
-0.29537201 -4.5064702 -6.8886719 7
-0.31180999 -4.5561519 -6.9326172 7
-0.30143699 -4.556519 -6.8867192 7
-0.30297101 -4.5788569 -6.8808589 7
-0.30898699 -4.6094971 -6.889648 7
-0.304546 -4.6208501 -6.8642578 7
-0.30162799 -4.6347661 -6.842773 7
-0.30018601 -4.6516109 -6.8261719 7
-0.29874399 -4.6680908 -6.8105469 7
-0.303253 -4.6959229 -6.8144531 7
-0.30627799 -4.7210689 -6.8125 7
-0.29888201 -4.7263179 -6.7773442 7
-0.30935299 -4.765625 -6.8007808 7
-0.31685999 -4.7991939 -6.813477 7
-0.29650101 -4.4971919 -6.5097661 7
-0.299629 -4.521606 -6.5097661 7
-0.295059 -4.5317378 -6.483398 7
-0.298172 -4.5561519 -6.4824219 7
-0.304405 -4.58606 -6.4912109 7
-0.304436 -4.6046138 -6.4804692 7
-0.29831699 -4.611938 -6.4501948 7
-0.29529601 -4.6247559 -6.4277339 7
-0.296875 -4.6461182 -6.421875 7
-0.29846999 -4.66748 -6.4160161 7
-0.296967 -4.683228 -6.4003911 7
-0.29392999 -4.6956792 -6.3789058 7
-0.29552501 -4.717041 -6.3730469 7
-0.297104 -4.7382808 -6.3662109 7
-0.30177301 -4.765625 -6.3701172 7
-0.30027801 -4.7808838 -6.3535161 7
-0.290497 -4.504272 -6.0644531 7
-0.29215199 -4.5247798 -6.0585942 7
-0.295387 -4.5483398 -6.0566411 7
-0.300293 -4.5924072 -6.0488281 7
-0.30194101 -4.612915 -6.0419922 7
-0.29718801 -4.621582 -6.0175781 7
-0.28927201 -4.641479 -5.9716802 7
-0.29411301 -4.6682129 -5.9746089 7
-0.29897299 -4.6945801 -5.9775391 7
-0.297447 -4.72644 -5.9511719 7
-0.29270601 -4.7346191 -5.9248052 7
-0.29275101 -4.7518311 -5.914062 7
-0.29600099 -4.7753911 -5.9121089 7
-0.29763001 -4.7957759 -5.905273 7
-0.38477299 -6.2572021 -5.1064448 7
-0.38969401 -6.3000488 -5.0898442 7
-0.392948 -6.322998 -5.0830078 7
-0.39942601 -6.354248 -5.0839839 7
-0.3899 -6.361084 -5.0292969 7
-0.38520101 -6.3795171 -4.9873052 7
-0.28089499 -4.480835 -5.6445308 7
-0.29089701 -4.5158691 -5.6611328 7
-0.294247 -4.5385742 -5.6601558 7
-0.29927799 -4.5644531 -5.664062 7
-0.29932401 -4.5811772 -5.6533198 7
-0.292721 -4.5855708 -5.6230469 7
-0.29774499 -4.6114502 -5.6269531 7
-0.29282001 -4.6186519 -5.6005859 7
-0.29286599 -4.6351318 -5.5898442 7
-0.29124799 -4.6486821 -5.5742192 7
-0.29294199 -4.6682129 -5.5683589 7
-0.29961401 -4.6972661 -5.5761719 7
-0.294682 -4.7043462 -5.5507808 7
-0.289745 -4.7113042 -5.5263672 7
-0.29311001 -4.7340088 -5.523438 7
-0.29149199 -4.7471919 -5.5087891 7
-0.294857 -4.7697749 -5.5058589 7
-0.110424 4.7971191 -4.710938 7
-0.108753 4.7790532 -4.717773 7
-0.112049 4.7711182 -4.7382808 7
-0.102161 4.736084 -4.7207031 7
-0.102161 4.721436 -4.7324219 7
-0.102154 4.706665 -4.7441411 7
-0.098834999 4.6853032 -4.7451172 7
-0.097176 4.6669922 -4.7519531 7
-0.085625 4.6289058 -4.7324219 7
-0.072437003 4.5874019 -4.7070308 7
-0.075726002 4.5793462 -4.726562 7
-0.075726002 4.5645752 -4.7373052 7
-0.083961003 4.5665278 -4.7714839 7
-0.083961003 4.5517578 -4.782227 7
-0.28637299 -4.4975591 -5.280273 7
-0.29326999 -4.5257568 -5.2880859 7
-0.29848099 -4.551147 -5.2910161 7
-0.300255 -4.57019 -5.2841802 7
-0.291706 -4.5700679 -5.25 7
-0.295185 -4.592041 -5.2480469 7
-0.300381 -4.6174321 -5.250977 7
-0.298702 -4.6298828 -5.235352 7
-0.29874799 -4.6456299 -5.2246089 7
-0.29192001 -4.648315 -5.195312 7
-0.28335199 -4.6477051 -5.1621089 7
-0.28856301 -4.6729741 -5.164062 7
-0.292034 -4.6950679 -5.1621089 7
-0.288647 -4.703979 -5.1425781 7
-0.292126 -4.7260742 -5.139648 7
-0.29389599 -4.744751 -5.132812 7
-0.29565799 -4.7635498 -5.125977 7
-0.29914501 -4.7853999 -5.124023 7
-0.38655099 -6.4110112 -3.9550779 7
-0.390053 -6.432251 -3.9472661 7
-0.39179999 -6.4490972 -3.9355471 7
-0.39186901 -6.4616699 -3.9199221 7
-0.39019001 -6.4698491 -3.9013669 7
-0.39539301 -6.4954829 -3.8974609 7
-0.390297 -6.4949951 -3.8701169 7
-0.39034301 -6.5075679 -3.855469 7
-0.39901 -6.541626 -3.858398 7
-0.40938899 -6.5804439 -3.863281 7
-0.41462299 -6.605835 -3.858398 7
-0.41983399 -6.6313481 -3.8525391 7
-0.103794 4.769897 -4.328125 7
-0.103779 4.7563481 -4.3388672 7
-0.103771 4.7425542 -4.3505859 7
-0.108883 4.7391362 -4.375 7
-0.107166 4.7218022 -4.3818359 7
-0.107166 4.7080078 -4.3925781 7
-0.098618001 4.6766362 -4.3808589 7
-0.091789 4.6489258 -4.375 7
-0.083244003 4.6176758 -4.3642578 7
-0.076389 4.5898442 -4.3574219 7
-0.078097999 4.5795898 -4.3730469 7
-0.079800002 4.5690918 -4.3876948 7
-0.079777002 4.5551758 -4.398438 7
-0.079777002 4.5413818 -4.4091802 7
-0.076351002 4.5206299 -4.4111328 7
-0.079769 4.5135498 -4.4306641 7
-0.078045003 4.4960942 -4.4375 7
-0.078037001 4.4821782 -4.4472661 7
-0.088271998 4.4882808 -4.484375 7
-0.091682002 4.480957 -4.5048828 7
-0.29138601 -4.4932861 -4.9443359 7
-0.286091 -4.4986572 -4.9199219 7
-0.293255 -4.5266109 -4.9277339 7
-0.28617501 -4.528564 -4.898438 7
-0.28621301 -4.543457 -4.8886719 7
-0.293369 -4.5712891 -4.8955078 7
-0.29340699 -4.5863042 -4.8847661 7
-0.29167601 -4.5978999 -4.8691411 7
-0.29883999 -4.6257319 -4.875 7
-0.29888499 -4.640625 -4.8642578 7
-0.30603799 -4.6689448 -4.8710942 7
-0.29719201 -4.6669922 -4.8369141 7
-0.288349 -4.6650391 -4.8037109 7
-0.293713 -4.6896968 -4.8066411 7
-0.29020301 -4.6976318 -4.7861328 7
-0.290241 -4.7122798 -4.7744141 7
-0.28674299 -4.7199712 -4.7548828 7
-0.293888 -4.748291 -4.7617192 7
-0.29748899 -4.7695308 -4.7587891 7
-0.29931301 -4.7875981 -4.7519531 7
-0.089148998 4.3338618 7.0371089 7
-0.090888999 4.3505859 7.03125 7
-0.087265 4.3570561 7.0117192 7
-0.085430004 4.3668208 6.9980469 7
-0.092537001 4.3936772 7.0039058 7
-0.088921003 4.3999019 6.985352 7
-0.087090001 4.409668 6.9707031 7
-0.106716 4.4611821 7.007812 7
-0.103104 4.4672852 6.9892578 7
-0.087250002 4.4703369 -4.1503911 7
-0.11021 4.488647 -4.2285161 7
-0.086553 4.238174 6.538136 7
-0.080880001 4.3174958 6.3476148 7
-0.28330299 -4.914947 7.0015111 7
-0.333929 -4.8206482 6.4209681 7
0.042093001 -1.2392 -11.7131 7
-0.425993 -6.3425012 -9.2993183 7
-0.031309001 -1.552438 -6.2940912 7
-0.016894 -1.4955209 -5.3015652 7
-0.065755002 -1.438677 -4.33496 7
-0.29679701 -4.746068 -4.6207962 7
-0.040348999 -1.397898 -3.6179769 7
-0.28037199 -4.6553969 -3.848073 7
-0.27068299 -4.7108908 -3.1153841 7
-0.27831 -4.9359961 6.7467089 7
-0.28272301 -4.805995 6.9283609 7
-0.016998 -1.44204 -1.158875 7
-0.24426199 -4.7140279 -0.21411601 7
-0.29635701 -4.9305558 0.88425398 7
-0.31485 -5.0738549 1.024555 7
-0.30319101 -4.913774 5.4717908 7
-0.298693 -4.8070331 5.627666 7
-0.018296 -1.370044 -0.438025 7
-0.030748 -1.528121 -0.452176 7
-0.044780999 -1.688987 -0.46489599 7
-0.063539997 -1.85552 -0.48714599 7
-0.279542 -4.8099799 1.1683919 7
-0.27930999 -4.9231782 4.8639808 7
-0.28692099 -4.8767228 5.0385928 7
-0.328962 -5.1069412 3.0871661 7
-0.295362 -4.8615499 4.2517052 7
-0.29867601 -4.8257799 4.4157162 7
-0.304456 -4.8847122 2.932054 7
-0.292382 -4.8542261 3.096642 7
-0.27551201 -4.783288 3.5759611 7
-0.27763799 -4.770534 3.7347851 7
-0.269225 -4.63767 3.562973 7
-0.26757699 -4.6146188 3.714272 7
0.0045719999 4.6111569 -8.0847244 7
0.034689002 1.462122 -4.8771868 7
-0.114133 4.3632751 7.0345802 7
-0.114997 4.2034769 6.855381 7
-0.098343998 4.2845979 6.6477251 7
-0.095697999 4.3992958 6.48315 7
-0.097966999 4.250423 6.342052 7
-0.087609001 4.3301311 6.161468 7
-0.0049939998 -0.35486299 -14.697117 7
-0.135805 -1.187838 -11.903504 7
-0.409843 -4.3733468 -16.49316 7
-0.34891799 -4.5693922 -12.86101 7
-0.061762001 -1.329682 -7.9229259 7
-0.095386997 4.5998192 -7.27213 7
-0.126203 4.5503101 -7.766026 7
-0.041173998 -1.364154 -6.8279128 7
-0.291713 -4.6101718 -8.844718 7
-0.25148201 -4.6905432 -8.2830687 7
0.01315 1.321601 -6.1855512 7
-0.080490999 -1.390211 -6.0253148 7
-0.31981599 -4.6565208 -7.079576 7
-0.085189 4.5530171 -4.2047858 7
-0.099119999 4.504312 -4.4538298 7
-0.033355001 1.595268 -5.5060959 7
-0.024959 1.384367 -5.4848218 7
-0.060823999 -1.4011281 -5.3819151 7
-0.30649 -4.6262431 -6.1194558 7
-0.284733 -4.7176762 -5.8099418 7
-0.085855998 4.3937469 -3.5906739 7
-0.022584001 1.585621 -4.974906 7
-0.012603 1.391479 -4.9494982 7
-0.046443999 -1.410512 -4.8783598 7
-0.27396101 -4.6328602 -5.0151849 7
-0.256529 -4.7020192 -4.749804 7
-0.038481999 -1.426338 -4.489686 7
-0.24332701 -4.5483322 -4.0619521 7
-0.244721 -4.7003822 -3.888613 7
-0.059347 -1.4154691 -4.1128349 7
-0.077242002 -1.594803 -4.1569958 7
-0.27425799 -4.5471191 -3.0807731 7
-0.27900201 -4.6772742 -2.90855 7
-0.27671701 -4.7566662 -2.714294 7
-0.053929001 -1.429812 -3.8457789 7
-0.066169001 -1.581787 -3.8520341 7
-0.037877001 -1.303014 -3.60657 7
-0.042738002 -1.421672 -3.5784371 7
-0.062011 -1.583961 -3.6124671 7
-0.028138001 -1.302717 -3.3751171 7
-0.039928 -1.431549 -3.375447 7
-0.049392998 -1.556005 -3.3593881 7
-0.033776999 -1.496055 -1.2633311 7
-0.030417999 -1.493117 -1.2004 7
-0.041765001 -1.532056 -1.13741 7
-0.031084999 -1.5016609 -1.074815 7
-0.029623 -1.496543 -1.0120929 7
-0.045488998 -1.430392 -1.2579401 7
-0.043997999 -1.432848 -1.197932 7
-0.050296001 -1.4548219 -1.137653 7
-0.043017998 -1.4358751 -1.077692 7
-0.043517001 -1.436403 -1.017199 7
-0.034212999 -1.35366 -1.2521141 7
-0.026749 -1.3394949 -1.1948349 7
-0.037407 -1.372455 -1.138328 7
-0.025946001 -1.342522 -1.082418 7
-0.028578 -1.348805 -1.025301 7
-0.025250999 -1.336401 -0.96979898 7
-0.020749001 -1.284951 -1.139102 7
