# .PCD v0.7 - Point Cloud Data file format
VERSION 0.7
FIELDS x y z intensity
SIZE 4 4 4 4
TYPE F F F F
COUNT 1 1 1 1
WIDTH 740
HEIGHT 1
VIEWPOINT 0 0 0 1 0 0 0
POINTS 740
DATA ascii
-0.60153401 -2.1650391 74.728516 7
-0.133469 4.442749 -68.945312 7
-0.62772602 -5.6177979 68.099609 7
-0.68531197 -5.5716548 69.482422 7
-0.745363 -5.5238042 70.924805 7
-0.82062501 -5.4970698 72.727539 7
-0.55037701 -0.224243 66.65625 7
-0.50481802 0.083618 65.581055 7
0.017973 4.5418701 -57.21582 7
-0.050058 4.5405269 -59.064453 7
0.0014290001 4.2952881 -57.673828 7
-0.044002999 4.2412109 -58.910156 7
0.016781 0.91626 -57.271484 7
-0.71358901 -5.6025391 64.355469 7
-0.79826403 -5.4597168 66.229492 7
-0.48923099 0.076903999 59.803711 7
-0.521164 0.217896 60.505859 7
-0.011877 4.5554199 -52.404297 7
-0.047711998 4.4996338 -53.289062 7
0.015102 4.24646 -51.75293 7
-0.038559001 4.2219238 -53.076172 7
-0.066079997 4.1429439 -53.755859 7
-0.43144599 0.192993 53.796875 7
-0.45639801 0.32031199 54.298828 7
-0.39166999 0.43481401 53.005859 7
-0.470579 3.3504641 54.570312 7
-0.41498199 3.4039309 53.454102 7
0.00092100003 4.4500728 -47.043945 7
-0.032000002 4.4000239 -47.782227 7
0.039159998 4.1453862 -46.208008 7
-0.015265 4.1342769 -47.423828 7
-0.040339001 4.0639648 -47.988281 7
-0.114992 4.0788569 -49.654297 7
-0.087449998 -2.799072 -44.709961 7
-0.15692499 -2.9970701 -46.109375 7
-0.117939 -3.057739 -45.308594 7
-0.081828997 -3.11853 -44.56543 7
-0.429676 0.41027799 50.020508 7
-0.39397401 0.51831102 49.359375 7
-0.47899199 3.4737549 50.907227 7
-0.42387801 3.5168459 49.878906 7
-0.024075 4.365479 -43.757812 7
-0.054067999 4.3157959 -44.378906 7
-0.092312001 4.278564 -45.169922 7
-0.035891 4.0643311 -44.020508 7
-0.061625998 4.0021968 -44.554688 7
-0.115227 3.9855959 -45.65918 7
0.018257 0.56640601 -42.722656 7
0.012125 0.463135 -42.84668 7
-0.17491899 -3.0657959 -42.261719 7
-0.160381 -3.252075 -41.972656 7
-0.12741999 -3.3074951 -41.353516 7
-0.40742499 -2.5644529 45.625 7
-0.438099 -2.48877 46.157227 7
-0.34013599 0.46679699 44.617188 7
-0.42063701 3.441406 45.908203 7
-0.38908601 3.503906 45.364258 7
-0.362638 3.5714109 44.907227 7
-0.36553001 3.6789551 44.951172 7
-0.061724 4.545898 -40.425781 7
-0.083662003 4.4897461 -40.842773 7
-0.102808 4.426147 -41.208984 7
-0.14065699 4.3962402 -41.923828 7
-0.093722999 4.206543 -41.054688 7
0.040800001 1.00708 -38.646484 7
0.023333 0.82348597 -38.972656 7
-0.015234 0.74072301 -39.693359 7
-0.00037600001 0.44457999 -39.412109 7
0.030393999 0.34277299 -38.833008 7
0.030096 0.151611 -38.833984 7
-0.16960099 -3.299072 -38.774414 7
-0.149921 -3.365967 -38.428711 7
-0.38683099 -2.5554199 42.137695 7
-0.39371899 -2.4654541 42.254883 7
-0.41347501 -2.387085 42.574219 7
-0.32089201 0.33630401 41.200195 7
-0.30713099 0.42846701 40.983398 7
-0.323553 0.525635 41.245117 7
-0.384296 3.5383301 42.135742 7
-0.33989301 3.66748 41.419922 7
-0.062332001 4.653687 -37.143555 7
-0.079319 4.596313 -37.445312 7
-0.103775 4.5524902 -37.873047 7
-0.123814 4.4981689 -38.226562 7
-0.16277701 4.4781489 -38.905273 7
0.008688 0.94348103 -36.094727 7
-0.02936 0.86926299 -36.751953 7
-0.028605999 0.21777301 -36.566406 7
-0.027612999 -0.033691 -33.516602 7
-0.015919 -0.116089 -33.330078 7
0.01498 -0.19567899 -32.838867 7
-0.016928 -0.28112799 -33.34082 7
0.009176 -0.359375 -32.925781 7
0.011631 -0.44042999 -32.883789 7
-0.33322901 -2.4827881 38.193359 7
-0.34947601 -2.4111331 38.4375 7
-0.368532 -2.341064 38.722656 7
-0.364443 -2.2489009 38.670898 7
-0.31186101 0.39611799 38.019531 7
-0.28423101 0.47766101 37.614258 7
-0.32077199 0.57177699 38.151367 7
-0.29196 0.651245 37.728516 7
-0.38709101 3.625488 38.998047 7
-0.35351199 3.6661379 38.501953 7
-0.32750699 3.716064 38.116211 7
-0.30945 3.7758789 37.845703 7
-0.027212 4.6937261 -33.303711 7
-0.045373999 4.6488042 -33.598633 7
-0.065724999 4.6071782 -33.928711 7
-0.091995001 4.5756841 -34.351562 7
-0.122301 4.550415 -34.836914 7
-0.16182899 4.5406489 -35.46875 7
0.033604 1.339233 -32.557617 7
0.022407999 1.265015 -32.735352 7
0.003481 1.194214 -33.036133 7
0.028074 1.099854 -32.646484 7
-0.0056340001 1.034912 -33.180664 7
0.0034960001 -0.347168 -30.651367 7
-0.028801 -0.42956501 -31.125 7
-0.008312 -0.578125 -30.818359 7
-0.31992 -2.3991699 35.74707 7
-0.334703 -2.331543 35.957031 7
-0.35957101 -2.189209 36.310547 7
-0.29316899 0.450073 35.490234 7
-0.27944601 0.52795398 35.301758 7
-0.29079601 0.61108398 35.458984 7
-0.26733801 0.68518102 35.136719 7
-0.36453801 3.6218259 36.358398 7
-0.34391001 3.7572019 36.063477 7
-0.320461 3.8040769 35.735352 7
0.239609 17.515991 22.399414 7
-0.048161998 4.7368159 -31.275391 7
-0.072296001 4.709229 -31.638672 7
-0.090534002 4.6680908 -31.916016 7
-0.114281 4.6365972 -32.275391 7
-0.130932 4.5892329 -32.52832 7
-0.000359 1.1943361 -30.81543 7
-0.027667999 -0.45874 -28.749023 7
-0.020941 -0.528687 -28.654297 7
0.0072289999 -0.80383301 -28.255859 7
-0.039554998 4.793335 -28.639648 7
-0.053702999 4.751709 -28.84082 7
-0.072104 4.7181401 -29.099609 7
-0.090921 4.6844478 -29.365234 7
-0.115719 4.661377 -29.710938 7
-0.133301 4.6221919 -29.958008 7
0.024488 1.5124511 -28.041992 7
0.02516 1.371948 -28.038086 7
-0.015177 1.255127 -28.592773 7
-0.03125 -0.70422399 -26.726562 7
-0.011089 -0.76367199 -26.467773 7
-0.035994999 -0.83923298 -26.78125 7
-0.030556001 -0.903687 -26.708984 7
-0.071420997 4.8085942 -26.990234 7
-0.082448997 4.7640381 -27.139648 7
-0.095310003 4.7227778 -27.311523 7
-0.109529 4.6833501 -27.500977 7
-0.133793 4.6633301 -27.818359 7
-0.14300001 4.611938 -27.945312 7
0.0080850003 1.5543211 -26.280273 7
0.0051779998 1.471558 -26.265625 7
0.00051899999 1.40918 -26.327148 7
-0.018841 1.355225 -26.575195 7
-0.016623 1.287598 -26.548828 7
-0.039742999 -0.842529 -24.8125 7
-0.030415 -0.90075701 -24.700195 7
-0.026273999 -1.14563 -24.637695 7
-0.091118 5.007812 -25.091797 7
-0.066122003 4.8903809 -24.810547 7
-0.089357004 4.8144531 -25.103516 7
-0.103674 4.78125 -25.282227 7
-0.127321 4.766479 -25.568359 7
-0.13672601 4.721313 -25.689453 7
0.006519 1.566406 -24.302734 7
-0.046101 -0.963135 -23.142578 7
-0.046169002 -1.0213619 -23.140625 7
-0.032990001 -1.072876 -22.992188 7
-0.052662 -1.140869 -23.205078 7
-0.053805999 -1.199463 -23.212891 7
-0.043280002 -1.2518311 -23.094727 7
-0.078778997 4.9416499 -23.135742 7
-0.086719997 4.9005132 -23.232422 7
-0.096263997 4.862061 -23.347656 7
-0.125898 4.7459722 -23.703125 7
-0.141748 4.7182622 -23.884766 7
-0.040314 -1.0068361 -21.494141 7
-0.056807 -1.06897 -21.661133 7
-0.042160001 -1.1162111 -21.505859 7
-0.041657999 -1.1700439 -21.498047 7
-0.070591003 -1.2401119 -21.791992 7
-0.053686 -1.285278 -21.615234 7
-0.050345998 -1.337769 -21.576172 7
-0.065145001 -1.401489 -21.724609 7
-0.134085 4.7895508 -22.088867 7
-0.13582399 4.7371831 -22.117188 7
-0.081675999 -1.275146 -20.50293 7
-0.038509 1.567993 -20.095703 7
-0.026009001 1.508301 -19.976562 7
-0.014101 1.449585 -19.865234 7
-0.021361999 1.403564 -19.9375 7
-0.025017001 1.355103 -19.975586 7
-0.023902999 1.303345 -19.966797 7
-0.05813 -0.99157703 -18.959961 7
-0.063951001 -1.042358 -19.009766 7
-0.076195002 -1.09668 -19.117188 7
-0.066644996 -1.140259 -19.027344 7
-0.059007999 -1.184692 -18.955078 7
-0.069968998 -1.238892 -19.050781 7
-0.075211003 -1.338623 -19.09082 7
-0.071425997 -1.3848881 -19.052734 7
-0.086882003 -1.443115 -19.188477 7
-0.088399999 4.9103999 -18.726562 7
-0.092906997 4.8718262 -18.777344 7
-0.139568 4.775146 -19.237305 7
-0.031677 1.562744 -18.699219 7
-0.043234002 1.522827 -18.805664 7
-0.029909 1.465942 -18.688477 7
-0.01849 1.410645 -18.586914 7
-0.0057959999 1.355347 -18.473633 7
-0.022454999 1.317749 -18.628906 7
-0.0028919999 1.164307 -18.456055 7
0.000229 1.115479 -18.429688 7
-0.011312 1.073853 -18.538086 7
-0.012083 0.97912598 -18.548828 7
-0.080681004 -1.175415 -18.005859 7
-0.028125999 0.920654 -17.59082 7
-0.010544 0.86889601 -17.442383 7
-0.0044880002 0.821899 -17.391602 7
0.0048790001 0.72961402 -17.314453 7
-0.0039539998 0.68810999 -17.391602 7
-0.01281 0.64611799 -17.46875 7
-0.076922998 -1.322144 -16.851562 7
-0.075549997 -1.364502 -16.836914 7
-0.068419002 -1.4030761 -16.775391 7
-0.081401996 -1.45459 -16.875977 7
-0.091523997 -1.504395 -16.954102 7
-0.262146 -4.2050781 -17.907227 7
-0.271566 -4.2670898 -17.970703 7
-0.28027901 -4.3282471 -18.029297 7
-0.27676201 -4.3675542 -17.990234 7
-0.271797 -4.4046631 -17.94043 7
-0.26828 -4.4438481 -17.902344 7
-0.268356 -4.489502 -17.890625 7
-0.012522 0.61852998 -16.355469 7
-0.011158 0.57568401 -16.345703 7
-0.004772 0.531982 -16.294922 7
0.001596 0.488525 -16.243164 7
-0.0056110001 0.44787601 -16.302734 7
-0.0056799999 0.40576199 -16.304688 7
-0.0028820001 0.363159 -16.28125 7
-0.005196 -0.02124 -15.356445 7
-0.0039369999 -0.25903299 -15.342773 7
-0.29157799 -4.411499 -16.97168 7
-0.14245 4.7191162 -15.78418 7
-0.025243999 -0.355225 -14.524414 7
-0.023705 -0.392822 -14.512695 7
-0.018982001 -0.47241199 -14.520508 7
-0.021431001 -0.51074201 -14.537109 7
-0.027105 -0.54980499 -14.577148 7
-0.027952 -0.58789098 -14.580078 7
-0.024788 -0.62463403 -14.555664 7
-0.046436001 -0.67150903 -13.898438 7
-0.041455999 -0.74218798 -13.861328 7
-0.036430001 -0.77648902 -13.824219 7
-0.036469001 -0.8125 -13.823242 7
-0.051785 -0.890625 -13.921875 7
-0.048445001 -0.92553699 -13.897461 7
-0.049284 -0.982544 -13.128906 7
-0.068043001 -1.059937 -13.245117 7
-0.069912001 -1.130127 -13.251953 7
-0.064625002 -1.162109 -13.214844 7
-0.066448003 -1.197632 -13.223633 7
-0.072757997 -1.270264 -13.256836 7
-0.29347399 -4.3887939 -14.105469 7
-0.289211 -4.4908452 -14.045898 7
-0.28490099 -4.5556641 -13.996094 7
-0.29032499 -4.6018071 -14.018555 7
-0.29839501 -4.6534419 -14.057617 7
-0.053947002 -0.970581 -12.467773 7
-0.048393 -1.000854 -12.430664 7
-0.077333003 -1.046997 -12.607422 7
-0.079241 -1.081055 -12.616211 7
-0.063437 -1.106445 -12.515625 7
-0.057898 -1.136597 -12.478516 7
-0.057943001 -1.169434 -12.475586 7
-0.057989001 -1.202271 -12.472656 7
-0.073879004 -1.2437741 -12.567383 7
-0.060858 -1.269653 -12.484375 7
-0.097388998 4.752686 -11.946289 7
-0.103912 4.7342529 -11.995117 7
-0.104851 4.7043462 -12.012695 7
-0.107649 4.677979 -12.040039 7
-0.107679 4.645874 -12.050781 7
-0.112333 4.623291 -12.088867 7
-0.115149 4.5644531 -12.126953 7
-0.107763 4.5174561 -12.094727 7
-0.074940003 -1.182495 -11.882812 7
-0.064346001 -1.30188 -11.807617 7
-0.063408002 -1.33252 -11.798828 7
-0.084018998 -1.376343 -11.916016 7
-0.070340998 -1.3994139 -11.832031 7
-0.071378998 -1.431519 -11.834961 7
-0.073362 -1.4638669 -11.842773 7
-0.079290003 -1.4992681 -11.873047 7
-0.081303 -1.53186 -11.880859 7
-0.094071999 -1.572266 -11.952148 7
-0.288755 -4.4926758 -12.450195 7
-0.28883201 -4.525269 -12.438477 7
-0.283981 -4.5490718 -12.400391 7
-0.284058 -4.5817871 -12.389648 7
-0.28509501 -4.6162109 -12.383789 7
-0.28417999 -4.6468511 -12.367188 7
-0.29307401 -4.6962891 -12.405273 7
-0.303936 -4.7496338 -12.454102 7
-0.304005 -4.7823491 -12.442383 7
-0.102654 4.7680659 -11.220703 7
-0.097818002 4.7277832 -11.205078 7
-0.098794997 4.699585 -11.22168 7
-0.103691 4.679688 -11.259766 7
-0.101763 4.6453862 -11.259766 7
-0.104706 4.6210942 -11.287109 7
-0.112518 4.6065669 -11.341797 7
-0.13007 4.6109619 -11.451172 7
-0.12521701 4.5706792 -11.435547 7
-0.116468 4.5230708 -11.395508 7
-0.112602 4.4847412 -11.383789 7
-0.065971002 -1.3043211 -11.220703 7
-0.067016996 -1.334839 -11.223633 7
-0.084468998 -1.375122 -11.317383 7
-0.080449998 -1.432861 -11.288086 7
-0.080495998 -1.462891 -11.285156 7
-0.082631998 -1.524292 -11.289062 7
-0.080633 -1.552734 -11.273438 7
-0.097050004 -1.594238 -11.361328 7
-0.29118299 -4.483398 -11.78125 7
-0.29636201 -4.5241699 -11.798828 7
-0.289253 -4.5422359 -11.749023 7
-0.28622401 -4.567749 -11.722656 7
-0.28534099 -4.6278081 -11.694336 7
-0.28949699 -4.666626 -11.706055 7
-0.30090901 -4.7501221 -11.743164 7
-0.30816501 -4.7949219 -11.768555 7
-0.058763999 -1.293579 -10.56543 7
-0.060945999 -1.322998 -10.575195 7
-0.064211003 -1.353394 -10.588867 7
-0.079291999 -1.390869 -10.665039 7
-0.083623998 -1.422119 -10.68457 7
-0.077216998 -1.446533 -10.646484 7
-0.071892001 -1.471558 -10.615234 7
-0.079452999 -1.505127 -10.651367 7
-0.079490997 -1.533691 -10.647461 7
-0.088133 -1.5682369 -10.689453 7
-0.088163003 -1.596802 -10.686523 7
-0.29176301 -4.5032959 -11.0625 7
-0.28429601 -4.519165 -11.013672 7
-0.28434199 -4.5483398 -11.00293 7
-0.28548601 -4.5797119 -10.99707 7
-0.284464 -4.6070561 -10.980469 7
-0.28560099 -4.6384282 -10.974609 7
-0.28997201 -4.6757808 -10.985352 7
-0.299721 -4.7235112 -11.022461 7
-0.30194101 -4.7570801 -11.022461 7
-0.30630299 -4.7947998 -11.032227 7
-0.065972999 -1.295532 -10.077148 7
-0.062654004 -1.320923 -10.057617 7
-0.062687002 -1.3479 -10.053711 7
-0.064966001 -1.376465 -10.063477 7
-0.073968999 -1.409058 -10.105469 7
-0.084105998 -1.442749 -10.15332 7
-0.078529 -1.466431 -10.120117 7
-0.075204998 -1.491455 -10.100586 7
-0.079742 -1.521729 -10.119141 7
-0.075289004 -1.546021 -10.09375 7
-0.084305003 -1.5793459 -10.134766 7
-0.29778299 -4.4874272 -10.487305 7
-0.29896501 -4.5177002 -10.482422 7
-0.29453501 -4.5374761 -10.450195 7
-0.29010201 -4.557373 -10.416992 7
-0.28790501 -4.5810552 -10.396484 7
-0.29133001 -4.615356 -10.401367 7
-0.29138401 -4.6430659 -10.389648 7
-0.29593799 -4.6794429 -10.400391 7
-0.302742 -4.7202148 -10.421875 7
-0.30392501 -4.7504878 -10.415039 7
-0.31185201 -4.793457 -10.44043 7
-0.073991999 -1.2956541 -9.6142578 7
-0.064677998 -1.3162839 -9.5654297 7
-0.064715996 -1.342163 -9.5625 7
-0.067088999 -1.369629 -9.5703115 7
-0.062449999 -1.3927 -9.5449219 7
-0.083549 -1.431885 -9.6435547 7
-0.090590999 -1.4625241 -9.6748047 7
-0.082451001 -1.483398 -9.6318359 7
-0.078965999 -1.50708 -9.6103516 7
-0.083694004 -1.536255 -9.6289062 7
-0.079057999 -1.559204 -9.6035156 7
-0.084930003 -1.589233 -9.6279297 7
-0.064800002 -1.2861331 -9.1035156 7
-0.062396999 -1.309448 -9.0888672 7
-0.070972003 -1.339355 -9.125 7
-0.071010999 -1.364136 -9.1230469 7
-0.066174001 -1.386108 -9.0957031 7
-0.069858998 -1.41333 -9.1103516 7
-0.071110003 -1.438843 -9.1123047 7
-0.084558003 -1.4725339 -9.1708984 7
-0.078492999 -1.493408 -9.1396484 7
-0.079751998 -1.519043 -9.1416016 7
-0.087112002 -1.549194 -9.171875 7
-0.084702998 -1.5723881 -9.15625 7
-0.084748998 -1.597412 -9.1533203 7
-0.40363899 -6.3146968 -8.9433594 7
-0.41356301 -6.3876948 -8.953125 7
-0.111134 4.7779541 -8.2597656 7
-0.096588001 4.724854 -8.2080078 7
-0.095389999 4.6993408 -8.2138672 7
-0.096602999 4.678833 -8.2304688 7
-0.099045001 4.660645 -8.2519531 7
-0.099051997 4.6378169 -8.2617188 7
-0.101492 4.6195068 -8.2832031 7
-0.106352 4.6062012 -8.3154297 7
-0.108786 4.587769 -8.3359385 7
-0.069012001 -1.301636 -8.6425781 7
-0.057569999 -1.3187259 -8.5888672 7
-0.052505001 -1.339233 -8.5615234 7
-0.055091999 -1.364502 -8.5703115 7
-0.055130001 -1.388062 -8.5664062 7
-0.057698999 -1.4130861 -8.5761719 7
-0.070483997 -1.4449461 -8.6289062 7
-0.080706 -1.47522 -8.6699219 7
-0.068007 -1.4906009 -8.6103516 7
-0.064214997 -1.5118411 -8.5898438 7
-0.069348998 -1.538818 -8.6083984 7
-0.073192999 -1.565308 -8.6220703 7
-0.071971998 -1.5880131 -8.6132812 7
-0.29779401 -4.6069341 -8.7207031 7
-0.29785499 -4.6307368 -8.7099609 7
-0.29918301 -4.657227 -8.7041016 7
-0.29797 -4.6787109 -8.6884766 7
-0.30056399 -4.707397 -8.6875 7
-0.30318099 -4.7362061 -8.6865234 7
-0.310884 -4.7746582 -8.7060547 7
-0.39601099 -6.2896729 -8.2744141 7
-0.397369 -6.3156738 -8.2636719 7
-0.39615601 -6.3353271 -8.2431641 7
-0.397484 -6.3613281 -8.2333984 7
-0.40010801 -6.3903809 -8.2275391 7
-0.110548 4.7800288 -7.7089839 7
-0.101677 4.7399902 -7.6835942 7
-0.085198998 4.6842041 -7.6298828 7
-0.080142997 4.6522222 -7.6201172 7
-0.078854002 4.6280522 -7.6269531 7
-0.081409 4.6116939 -7.6474609 7
-0.080142997 4.5875239 -7.6533198 7
-0.082699001 4.5709229 -7.6738281 7
-0.080158003 4.544312 -7.6748052 7
-0.085247003 4.5325928 -7.7060552 7
-0.095399998 4.5311279 -7.7568359 7
-0.10173 4.521729 -7.7939448 7
-0.108099 4.5123291 -7.829102 7
-0.078837998 -1.299927 -8.2705078 7
-0.085496999 -1.326538 -8.296875 7
-0.068304002 -1.339233 -8.2197266 7
-0.069661997 -1.362793 -8.2216797 7
-0.072338 -1.387207 -8.2304688 7
-0.072369002 -1.4100339 -8.2275391 7
-0.077716999 -1.436157 -8.2460938 7
-0.089677997 -1.466675 -8.2929688 7
-0.097640999 -1.494751 -8.3242188 7
-0.088404 -1.511475 -8.28125 7
-0.085801996 -1.532837 -8.265625 7
-0.088487998 -1.557251 -8.2724609 7
-0.089853004 -1.581055 -8.2734385 7
-0.299252 -4.4910889 -8.2841797 7
-0.30991599 -4.5333252 -8.3144531 7
-0.311304 -4.5587158 -8.3095703 7
-0.314013 -4.5866699 -8.3085938 7
-0.31009099 -4.6020508 -8.2822266 7
-0.30482101 -4.6152339 -8.2509766 7
-0.304874 -4.638062 -8.2402344 7
-0.30759001 -4.665894 -8.2392578 7
-0.30763599 -4.6887212 -8.2285156 7
-0.306362 -4.7088618 -8.2119141 7
-0.310406 -4.7392578 -8.2158203 7
-0.314432 -4.7695308 -8.2197266 7
-0.116163 4.7834468 -7.2558589 7
-0.114843 4.7600098 -7.2626948 7
-0.116186 4.742065 -7.2783198 7
-0.106949 4.7025151 -7.2539058 7
-0.093751997 4.6546631 -7.2158198 7
-0.093751997 4.6341548 -7.226562 7
-0.096391998 4.618896 -7.2470698 7
-0.099031001 4.6035161 -7.2695308 7
-0.092446998 4.5697021 -7.2548828 7
-0.095101997 4.5541992 -7.2744141 7
-0.101692 4.5467529 -7.3095698 7
-0.110931 4.5440669 -7.3564448 7
-0.116217 4.5336909 -7.3876948 7
-0.114904 4.5100098 -7.3925781 7
-0.29659799 -4.4949951 -7.7763672 7
-0.29940599 -4.521729 -7.7753911 7
-0.30360001 -4.55127 -7.78125 7
-0.30371499 -4.5944819 -7.7597661 7
-0.29548499 -4.600708 -7.7158198 7
-0.29552999 -4.6221919 -7.7050781 7
-0.29558399 -4.6437988 -7.6943359 7
-0.29839101 -4.6705322 -7.6933589 7
-0.29705599 -4.6893311 -7.6777339 7
-0.304014 -4.723999 -7.6914058 7
-0.30551001 -4.7696528 -7.6738281 7
-0.29775 -4.4910889 -7.34375 7
-0.29348001 -4.5040278 -7.3183589 7
-0.29926899 -4.5350342 -7.327148 7
-0.300749 -4.5584722 -7.3222661 7
-0.30367899 -4.584229 -7.320312 7
-0.30803499 -4.612915 -7.3251948 7
-0.30234301 -4.6228032 -7.2939448 7
-0.29951999 -4.638062 -7.273438 7
-0.301016 -4.661377 -7.2675781 7
-0.30106199 -4.6817632 -7.2568359 7
-0.302549 -4.7050781 -7.25 7
-0.308332 -4.7363281 -7.2587891 7
-0.30264899 -4.7458501 -7.2275391 7
-0.31131601 -4.7828369 -7.2451172 7
-0.300978 -4.497314 -6.9169922 7
-0.311436 -4.5358891 -6.9423828 7
-0.302549 -4.5393071 -6.9003911 7
-0.311544 -4.5753169 -6.9189448 7
-0.31009501 -4.5922852 -6.9033198 7
-0.30419001 -4.6008301 -6.8730469 7
-0.29978201 -4.612061 -6.8466802 7
-0.30130801 -4.6343989 -6.8417969 7
-0.307318 -4.6650391 -6.8496089 7
-0.29842401 -4.6677251 -6.8095698 7
-0.302948 -4.6955571 -6.8125 7
-0.30597499 -4.7205811 -6.8105469 7
-0.30899599 -4.745728 -6.8095698 7
-0.30606699 -4.759521 -6.789062 7
-0.31656301 -4.7988281 -6.8125 7
-0.298233 -4.703979 -6.3925781 7
-0.29982799 -4.7253418 -6.3857422 7
-0.295252 -4.7349849 -6.360352 7
-0.30455801 -4.7711182 -6.3779302 7
-0.30922699 -4.7983398 -6.3808589 7
-0.28541899 -4.4949951 -6.047852 7
-0.295084 -4.5301509 -6.0654302 7
-0.301514 -4.5595698 -6.0742192 7
-0.29356599 -4.5625 -6.039062 7
-0.29682401 -4.58606 -6.0371089 7
-0.303253 -4.615479 -6.045898 7
-0.29370299 -4.6151118 -6.0058589 7
-0.29219201 -4.6473389 -5.9794922 7
-0.29225299 -4.6646729 -5.967773 7
-0.29388601 -4.6850591 -5.9619141 7
-0.29394001 -4.7026372 -5.9511719 7
-0.29558799 -4.7227778 -5.9443359 7
-0.29723501 -4.7432861 -5.938477 7
-0.290874 -4.7484131 -5.9082031 7
-0.38308001 -6.2530522 -5.101562 7
-0.38800001 -6.2955322 -5.0849609 7
-0.39607 -6.3305659 -5.0888672 7
-0.40092999 -6.357666 -5.0869141 7
-0.39937401 -6.3691411 -5.0673828 7
-0.38980901 -6.3605962 -5.0283198 7
-0.38665801 -6.3677979 -5.0048828 7
-0.38992301 -6.3909912 -4.9980469 7
-0.29062799 -4.4987788 -5.670898 7
-0.293993 -4.5214839 -5.6689448 7
-0.30066901 -4.550415 -5.6777339 7
-0.294085 -4.5550542 -5.6474609 7
-0.292467 -4.568481 -5.632812 7
-0.30246201 -4.6036382 -5.6494141 7
-0.29754099 -4.611084 -5.625 7
-0.299234 -4.6307368 -5.6191411 7
-0.29264501 -4.6347661 -5.5898442 7
-0.29600701 -4.6577148 -5.5869141 7
-0.29770899 -4.6772461 -5.5810552 7
-0.29277399 -4.6844478 -5.5566411 7
-0.2978 -4.7103271 -5.5585942 7
-0.29618299 -4.7236328 -5.5429692 7
-0.292927 -4.733398 -5.5214839 7
-0.28799799 -4.740479 -5.4960942 7
-0.28969201 -4.7597661 -5.4902339 7
-0.115503 4.7883301 -4.7324219 7
-0.118792 4.780396 -4.7529302 7
-0.113832 4.7553711 -4.750977 7
-0.112186 4.737061 -4.757812 7
-0.115473 4.729126 -4.7783198 7
-0.10886 4.6861572 -4.782227 7
-0.091774002 4.6383061 -4.7470698 7
-0.083534002 4.606689 -4.735352 7
-0.078584999 4.5822749 -4.7324219 7
-0.081873 4.5740972 -4.7529302 7
-0.083511002 4.5626221 -4.7675781 7
-0.086806998 4.554565 -4.7880859 7
-0.081864998 4.5296631 -4.7841802 7
-0.073602997 4.4985352 -4.7724609 7
-0.073595002 4.4837651 -4.7832031 7
-0.29127899 -4.4906011 -5.3027339 7
-0.28789899 -4.5002441 -5.282227 7
-0.293102 -4.5255132 -5.2861328 7
-0.286266 -4.528687 -5.2558589 7
-0.28802899 -4.5476069 -5.25 7
-0.28979099 -4.5664058 -5.2441411 7
-0.298426 -4.598145 -5.2558589 7
-0.29503301 -4.6075439 -5.2363281 7
-0.30195799 -4.6358638 -5.2431641 7
-0.296841 -4.6420898 -5.21875 7
-0.29689401 -4.6575928 -5.2080078 7
-0.29179001 -4.6636958 -5.1826172 7
-0.29354501 -4.682373 -5.1767578 7
-0.291859 -4.6945801 -5.1611328 7
-0.29020301 -4.7069092 -5.1445308 7
-0.297115 -4.7354741 -5.1523442 7
-0.291996 -4.7409668 -5.1269531 7
-0.29548299 -4.7631841 -5.125 7
-0.114063 4.786499 -4.3525391 7
-0.112354 4.7692871 -4.359375 7
-0.119188 4.7696528 -4.3876948 7
-0.114048 4.7452388 -4.3857422 7
-0.117464 4.7384028 -4.405273 7
-0.115742 4.7209468 -4.4130859 7
-0.112324 4.6999512 -4.4150391 7
-0.107197 4.6755371 -4.4130859 7
-0.100355 4.6478271 -4.405273 7
-0.084986001 4.6026611 -4.3769531 7
-0.083254002 4.5853271 -4.3837891 7
-0.087791003 4.5822749 -4.407227 7
-0.082658999 4.558228 -4.4033198 7
-0.084360003 4.5476069 -4.4189448 7
-0.082644001 4.530396 -4.4248052 7
-0.082635999 4.5163569 -4.436523 7
-0.079226002 4.4954829 -4.4375 7
-0.080918998 4.4848628 -4.453125 7
-0.087738 4.484375 -4.4814448 7
-0.092857003 4.4803472 -4.5058589 7
-0.290052 -4.6973882 -4.7851558 7
-0.29009101 -4.7120361 -4.7744141 7
-0.297268 -4.7401118 -4.780273 7
-0.297306 -4.7547612 -4.7695308 7
-0.297344 -4.7694092 -4.757812 7
-0.30094501 -4.7905269 -4.7558589 7
-0.295643 -4.7949219 -4.7314448 7
-0.095467001 4.4836431 -4.1689448 7
-0.11665 4.4848628 -4.2539058 7
-0.28659201 -5.0303111 6.8597479 7
-0.303056 -4.936511 5.8076921 7
-0.307318 -4.869174 6.0169668 7
0.017433001 -1.404076 -12.046579 7
-0.219037 -4.4587178 -14.394608 7
-0.060245 -1.3261091 -9.1358442 7
-0.0064679999 -1.577929 -5.189487 7
-0.092049003 -1.529489 -4.5073781 7
-0.27954 -4.6957369 -4.5144048 7
-0.041664999 -1.469533 -3.611454 7
-0.26547 -4.6801362 -3.7156119 7
-0.020521 -1.429522 -3.017694 7
-0.258591 -4.6752281 -3.053844 7
-0.2396 -4.6258759 -2.4113419 7
-0.27641299 -4.7135568 -1.20556 7
-0.27774099 -4.8990712 6.7877769 7
-0.26331601 -4.7714911 -0.267997 7
-0.29879501 -4.5520411 -0.065084003 7
-0.30528399 -4.6946411 0.080225997 7
-0.30140799 -4.9711709 5.7306509 7
-0.29064 -4.8352761 5.8755031 7
-0.28422099 -4.487011 0.25801301 7
-0.29677901 -4.6341362 0.386581 7
-0.28575599 -4.708075 0.57200402 7
-0.271972 -4.7063112 1.018868 7
-0.266294 -4.7701368 1.1902519 7
-0.269236 -4.8919721 4.8510208 7
-0.265145 -4.8104682 5.00774 7
-0.247481 -4.4977942 1.144076 7
-0.296498 -4.7166538 1.605467 7
-0.28609601 -4.7441988 1.7774349 7
-0.29320499 -4.8166542 1.930526 7
-0.30375499 -4.893568 2.083921 7
-0.278597 -4.5361099 1.684958 7
-0.27128801 -4.5709119 1.845174 7
-0.27786601 -4.7191501 2.3034379 7
-0.281333 -4.7669392 2.4986629 7
-0.27780899 -4.7384958 3.931376 7
-0.28702199 -4.732573 4.0934391 7
-0.26096499 -4.544971 2.3473489 7
-0.27004799 -4.6069632 2.5301361 7
-0.260097 -4.5621128 3.898701 7
-0.26005101 -4.530654 4.0471988 7
-0.001223 4.5267911 -8.2349014 7
0.034391999 1.416986 -5.7300692 7
0.042750999 1.375102 -4.8365512 7
-0.004185 -0.496012 -14.673388 7
-0.135418 -1.30022 -11.888759 7
-0.148323 4.6605392 -11.467576 7
-0.092565 -1.3680789 -9.4993868 7
-0.349572 -4.5730691 -12.87043 7
-0.078676 -1.446454 -8.1298647 7
-0.30810601 -4.562192 -10.454176 7
-0.095445998 4.5287771 -7.3109388 7
-0.080601998 -1.5355951 -7.2585721 7
-0.28766799 -4.5854912 -8.8035507 7
0.001408 1.5749609 -6.267118 7
0.0069909999 1.339654 -6.2542691 7
-0.114423 -1.531895 -6.3159318 7
-0.349096 -4.5468578 -7.4679909 7
-0.31606099 -4.634212 -7.0511909 7
-0.121964 4.5110569 -4.7587652 7
-0.032501001 1.5459549 -5.5124979 7
-0.027191 1.344283 -5.5166731 7
-0.069844998 -1.287087 -5.4902081 7
-0.088416003 -1.5222681 -5.590982 7
-0.28719401 -4.5103841 -5.9951272 7
-0.27408701 -4.650599 -5.7437558 7
-0.097332001 4.4854512 -3.64151 7
-0.010669 1.506691 -4.8951011 7
-0.01434 1.3557791 -4.9756961 7
-0.25074399 -4.664269 -4.720943 7
-0.005713 1.512494 -4.4968739 7
0.004526 1.337901 -4.4754281 7
-0.051366001 -1.352159 -4.613523 7
-0.055633001 -1.512053 -4.5899272 7
-0.069716997 4.4187469 -0.98283702 7
-0.059000999 4.3046131 -1.167648 7
-0.070329003 -1.347113 -4.213819 7
-0.075404003 -1.491686 -4.1898599 7
-0.28193799 -4.5944219 -3.100807 7
-0.28147399 -4.6928372 -2.9143839 7
-0.058688998 -1.3544019 -3.909904 7
-0.063193001 -1.484937 -3.880084 7
-0.255155 -4.7033901 -1.215292 7
-0.255665 -4.7302022 -1.017508 7
-0.048803002 -1.358368 -3.6472099 7
-0.052593 -1.476066 -3.611685 7
-0.039705999 -1.3579 -3.4144559 7
-0.037202999 -1.447798 -3.349699 7
-0.05198 -1.338037 -3.182282 7
-0.059062999 -1.444831 -3.1558919 7
-0.067250997 -1.555266 -3.1285579 7
-0.040282 -1.32465 -2.988975 7
-0.050298002 -1.431646 -2.971199 7
-0.048755001 -1.505814 -2.908474 7
