# .PCD v0.7 - Point Cloud Data file format
VERSION 0.7
FIELDS x y z intensity
SIZE 4 4 4 4
TYPE F F F F
COUNT 1 1 1 1
WIDTH 779
HEIGHT 1
VIEWPOINT 0 0 0 1 0 0 0
POINTS 779
DATA ascii
-0.59309 -2.165283 74.469727 7
-0.128971 4.567627 -68.446289 7
-0.187727 4.5133061 -70.227539 7
-0.59384203 -5.552856 67.246094 7
-0.66866899 -5.54248 69.039062 7
-0.72995597 -5.4981689 70.508789 7
-0.79810703 -5.4597168 72.143555 7
-0.56577098 -0.232544 66.996094 7
-0.50591099 -0.075438999 65.574219 7
-0.51890898 0.077026002 65.890625 7
0.011488 4.5263672 -57.124023 7
-0.027634 4.466064 -58.185547 7
0.010298 4.2502441 -57.167969 7
-0.026224 4.1800542 -58.160156 7
-0.137215 4.2410889 -61.157227 7
-0.69913501 -5.578125 64.004883 7
-0.73463798 -5.4970698 64.792969 7
-0.50805998 0.073242001 60.289062 7
-0.45732301 0.34570301 59.188477 7
-0.0079570003 4.5203862 -52.080078 7
-0.049642999 4.476562 -53.105469 7
0.032333001 4.1873779 -51.109375 7
-0.041595001 4.2019038 -52.920898 7
-0.068246998 4.12146 -53.579102 7
-0.43622199 0.187622 53.87207 7
-0.43808401 0.31237799 53.912109 7
-0.41626501 0.43322799 53.479492 7
-0.48235101 3.3630371 54.820312 7
-0.43520701 3.4282229 53.873047 7
0.011051 4.4061279 -46.638672 7
-0.036203001 4.3850098 -47.691406 7
0.042888999 4.1162109 -45.947266 7
-0.011986 4.1062012 -47.169922 7
-0.040545002 4.0423579 -47.80957 7
-0.086502001 4.0063481 -48.833008 7
-0.097190998 -2.808594 -45.030273 7
-0.158215 -2.996582 -46.261719 7
-0.128832 -3.07019 -45.65332 7
-0.448917 0.293823 50.431641 7
-0.378683 0.399048 49.126953 7
-0.40110201 0.516846 49.546875 7
-0.43208101 3.529175 50.094727 7
-0.39018601 3.586426 49.311523 7
-0.022647999 4.4472661 -43.557617 7
-0.060543001 4.3059082 -44.347656 7
-0.094061002 4.2597661 -45.038086 7
-0.035112001 4.0419922 -43.841797 7
-0.060354002 3.9790039 -44.364258 7
-0.10985 3.9555659 -45.381836 7
0.0047340002 0.68689001 -43.139648 7
-0.167353 -3.1573491 -42.219727 7
-0.397778 -2.6625979 45.431641 7
-0.42193601 -2.582397 45.852539 7
-0.43205801 -2.4866941 46.033203 7
-0.32525399 0.357788 44.349609 7
-0.345249 0.463135 44.693359 7
-0.389631 3.5053711 45.422852 7
-0.36592099 3.5769041 45.012695 7
-0.33812299 3.640137 44.53125 7
-0.060366001 4.5224609 -40.266602 7
-0.085492998 4.4726558 -40.743164 7
-0.1047 4.4093022 -41.106445 7
-0.137646 4.3701172 -41.727539 7
-0.093975 4.1872559 -40.923828 7
0.038757 0.99963403 -38.56543 7
0.014523 0.91467297 -39.019531 7
0.023157001 0.815552 -38.857422 7
-0.0073549999 0.72985798 -39.426758 7
-0.0093080001 0.43945301 -39.458984 7
0.0023310001 0.244019 -39.239258 7
0.026024001 0.14587399 -38.795898 7
0.014385 -0.13159201 -35.921875 7
-0.37793201 -2.549927 41.978516 7
-0.39140901 -2.4669189 42.200195 7
-0.40897 -2.386353 42.486328 7
-0.33298501 0.335327 41.427734 7
-0.307446 0.42590299 41.023438 7
-0.328987 0.52416998 41.366211 7
-0.306416 0.61352497 41.008789 7
-0.394003 3.5527339 42.333984 7
-0.365206 3.6091311 41.871094 7
-0.34558699 3.676636 41.554688 7
-0.33660701 3.758667 41.40625 7
-0.056444 4.6217041 -36.924805 7
-0.075842001 4.5697021 -37.267578 7
-0.100342 4.5262451 -37.695312 7
-0.124844 4.4805908 -38.125 7
-0.159832 4.4530029 -38.733398 7
-0.025667001 0.85998499 -36.583008 7
-0.036781002 0.22741701 -36.810547 7
-0.027163001 -0.12146 -33.424805 7
-0.004797 -0.283813 -33.067383 7
0.025713 -0.441284 -32.581055 7
-0.31676099 -2.4693601 37.935547 7
-0.34777099 -2.412231 38.395508 7
-0.35564199 -2.332031 38.517578 7
-0.38626301 -2.27124 38.973633 7
-0.32207099 0.393677 38.158203 7
-0.29164901 0.474976 37.712891 7
-0.291908 0.56115699 37.717773 7
-0.294182 0.64782703 37.75293 7
-0.38305101 3.6204829 38.975586 7
-0.35823601 3.67395 38.606445 7
-0.329851 3.7202151 38.185547 7
-0.31020001 3.7780759 37.892578 7
-0.021452 4.6616211 -33.109375 7
-0.043343998 4.6248779 -33.460938 7
-0.063780002 4.5834961 -33.791992 7
-0.097127996 4.5665278 -34.323242 7
-0.128067 4.5440669 -34.827148 7
-0.159563 4.5185552 -35.331055 7
0.035406001 1.249512 -32.445312 7
0.003849 1.186157 -32.944336 7
0.025208 1.093872 -32.608398 7
-0.010065 1.029297 -33.166016 7
-0.0073569999 -0.34265101 -30.885742 7
-0.036045 -0.42456099 -31.304688 7
-0.022667 -0.49914601 -31.105469 7
0.001034 -0.56994599 -30.753906 7
-0.339643 -2.5028081 35.996094 7
-0.33313599 -2.414551 35.915039 7
-0.33132699 -2.3312991 35.897461 7
-0.34652299 -2.263062 36.112305 7
-0.267708 0.52355999 35.168945 7
-0.26785299 0.683716 35.170898 7
-0.363291 3.6213379 36.375977 7
-0.349583 3.6842041 36.181641 7
-0.32530001 3.730835 35.841797 7
-0.30481899 3.7814939 35.553711 7
0.24868999 17.40564 22.370117 7
0.245546 17.485229 22.363281 7
0.24904799 17.504883 22.287109 7
0.242998 17.610596 22.311523 7
0.245249 17.641113 22.248047 7
0.24958199 17.65271 22.162109 7
0.247255 17.724487 22.147461 7
-0.051509999 4.72644 -31.236328 7
-0.067400001 4.6816411 -31.478516 7
-0.086461999 4.642334 -31.768555 7
-0.115799 4.622314 -32.207031 7
-0.133274 4.5767822 -32.472656 7
0.025486 1.3994139 -30.352539 7
-0.001135 1.340088 -30.74707 7
0.026875 1.247559 -30.335938 7
0.0065919999 1.182983 -30.636719 7
-0.027666001 1.123047 -31.21875 7
-0.028841 -0.53369099 -28.702148 7
0.0073529999 -0.66577101 -28.202148 7
-0.018438 -0.74462903 -28.551758 7
-0.00054400001 -0.80932599 -28.305664 7
-0.0040660002 -0.881226 -28.349609 7
-0.042436998 4.7823491 -28.601562 7
-0.056625001 4.7407231 -28.801758 7
-0.072926 4.7030029 -29.033203 7
-0.088395998 4.6621089 -29.251953 7
-0.115803 4.6445308 -29.632812 7
-0.139824 4.6181641 -29.966797 7
0.0026819999 1.590698 -28.274414 7
0.02227 1.506592 -28.010742 7
0.0037799999 1.448853 -28.264648 7
0.025505001 1.364746 -27.969727 7
0.011301 1.303345 -28.166016 7
-0.018310999 1.249878 -28.570312 7
-0.043483999 -0.70300299 -26.935547 7
-0.021553 -0.762573 -26.654297 7
-0.017976999 -0.82763702 -26.605469 7
-0.045177002 -0.905029 -26.947266 7
-0.02507 -0.96337903 -26.689453 7
-0.036192 -1.0350339 -26.826172 7
-0.072258003 4.8621831 -26.924805 7
-0.081472002 4.814209 -27.050781 7
-0.095287003 4.775269 -27.233398 7
-0.112274 4.7424321 -27.457031 7
-0.13756201 4.6555181 -27.797852 7
-0.142664 4.5960689 -27.871094 7
-0.015682001 1.49646 -26.609375 7
0.0041279998 1.416016 -26.34375 7
-0.011562 1.359985 -26.543945 7
-0.034584001 1.307373 -26.839844 7
-0.033532999 -1.0838619 -24.772461 7
-0.032145001 -1.14502 -24.751953 7
-0.067455001 4.877686 -24.768555 7
-0.077363998 4.8363042 -24.895508 7
-0.13024899 4.7570801 -25.542969 7
-0.133781 4.7001948 -25.59375 7
0.005657 1.560303 -24.263672 7
-0.05658 -0.96386701 -23.299805 7
-0.039303001 -1.0723881 -23.102539 7
-0.044689 -1.132935 -23.157227 7
-0.052195001 -1.195312 -23.236328 7
-0.045924999 -1.250122 -23.163086 7
-0.078497 4.9265141 -23.082031 7
-0.088573001 4.889648 -23.202148 7
-0.097078003 4.8493652 -23.304688 7
-0.139956 4.760376 -23.801758 7
-0.0052299998 1.635986 -22.666992 7
-0.070963003 -1.237183 -21.831055 7
-0.060299002 -1.2861331 -21.717773 7
-0.058132 -1.339355 -21.691406 7
-0.117615 5.074707 -21.80957 7
-0.1166 4.9616699 -21.822266 7
-0.11834 4.9102778 -21.850586 7
-0.138119 4.8963618 -22.061523 7
-0.134794 4.8334961 -22.038086 7
-0.142727 4.7940669 -22.129883 7
-0.075565003 -1.37207 -20.466797 7
-0.018178999 1.5986331 -19.861328 7
-0.030239001 1.556641 -19.980469 7
-0.026098 1.50293 -19.944336 7
-0.020749999 1.448608 -19.894531 7
-0.012421 1.392578 -19.817383 7
-0.023878001 1.349121 -19.930664 7
-0.020347999 1.296265 -19.898438 7
-0.25349799 -4.4490972 -20.279297 7
-0.087971002 4.8977051 -18.689453 7
-0.093102999 4.8608398 -18.746094 7
-0.104637 4.8371582 -18.858398 7
-0.141764 4.768188 -19.222656 7
-0.148186 4.7321782 -19.290039 7
-0.014208 1.355713 -18.522461 7
-0.0091589997 1.305176 -18.479492 7
-0.021349 1.264648 -18.592773 7
-0.024605 1.218994 -18.624023 7
-0.014452 1.165894 -18.53418 7
0.000818 1.110718 -18.397461 7
0.0020310001 1.062988 -18.388672 7
-0.0076100002 1.020386 -18.477539 7
-0.012127 0.97509801 -18.521484 7
-0.082335003 -1.0812989 -18.051758 7
-0.087833002 -1.130127 -18.095703 7
-0.082487002 -1.17334 -18.045898 7
-0.073752999 -1.214844 -17.96875 7
-0.092120998 -1.270874 -18.12207 7
-0.28442401 -4.303833 -19.323242 7
-0.28722399 -4.3577881 -19.335938 7
-0.280527 -4.3947749 -19.268555 7
-0.273846 -4.431519 -19.201172 7
-0.027216 0.92627001 -17.612305 7
-0.019161001 0.87792999 -17.544922 7
-0.011786 0.83032203 -17.483398 7
-0.0023650001 0.78210402 -17.404297 7
0.000267 0.73669398 -17.383789 7
-0.0058900001 0.69421399 -17.436523 7
-0.020155 0.65380901 -17.560547 7
-0.053433999 -0.96325701 -16.710938 7
-0.060679998 -1.009521 -16.766602 7
-0.060741 -1.05249 -16.763672 7
-0.062267002 -1.096069 -16.772461 7
-0.078116998 -1.147217 -16.897461 7
-0.067414999 -1.184937 -16.807617 7
-0.061039001 -1.2244869 -16.75293 7
-0.073305003 -1.2744139 -16.847656 7
-0.086304002 -1.325195 -16.949219 7
-0.077753 -1.363403 -16.876953 7
-0.073533997 -1.403809 -16.836914 7
-0.081506997 -1.452148 -16.898438 7
-0.26578301 -4.1645508 -17.963867 7
-0.266615 -4.211792 -17.958984 7
-0.273891 -4.27002 -18.005859 7
-0.28550899 -4.3361821 -18.085938 7
-0.28487799 -4.380981 -18.069336 7
-0.27777499 -4.414185 -18.00293 7
-0.275709 -4.4562988 -17.975586 7
-0.011257 -0.017333999 -15.424805 7
-0.010563 -0.057250999 -15.418945 7
-0.01675 -0.137329 -15.464844 7
-0.011494 -0.17675801 -15.423828 7
-0.010099 -0.256226 -15.411133 7
-0.011669 -0.29626501 -15.421875 7
-0.27654099 -4.2122798 -16.916992 7
-0.27815101 -4.2583008 -16.918945 7
-0.28965399 -4.3216548 -16.993164 7
-0.29516199 -4.4182129 -17.011719 7
-0.28613099 -4.445435 -16.932617 7
-0.14146399 4.7071528 -15.753906 7
-0.026012 -0.357178 -14.513672 7
-0.031688999 -0.39611799 -14.553711 7
-0.024235001 -0.43261701 -14.584961 7
-0.022578999 -0.47021499 -14.567383 7
-0.022642 -0.50781202 -14.564453 7
-0.027523 -0.546875 -14.597656 7
-0.033992998 -0.58642602 -14.643555 7
-0.030849 -0.62353498 -14.618164 7
-0.137522 4.7850342 -14.675781 7
-0.13435 4.7402339 -14.664062 7
-0.134388 4.7017822 -14.675781 7
-0.132824 4.660522 -14.675781 7
-0.124052 4.6047359 -14.625 7
-0.113678 4.545898 -14.564453 7
-0.108116 4.4969478 -14.536133 7
-0.046411999 -0.66845697 -13.915039 7
-0.049844999 -0.70581102 -13.936523 7
-0.047364999 -0.74133301 -13.916992 7
-0.040661 -0.77514601 -13.869141 7
-0.041568998 -0.81164598 -13.873047 7
-0.046686001 -0.84973103 -13.90625 7
-0.056047 -0.88964802 -13.967773 7
-0.055254001 -0.925659 -13.959961 7
-0.080168001 -1.1932369 -14.109375 7
-0.070197999 -1.297485 -14.032227 7
-0.057489 -0.983643 -13.196289 7
-0.052212 -1.015747 -13.15918 7
-0.055819999 -1.052002 -13.179688 7
-0.074532002 -1.095337 -13.299805 7
-0.074577004 -1.130249 -13.297852 7
-0.068421997 -1.161743 -13.253906 7
-0.066698 -1.195557 -13.240234 7
-0.072982997 -1.2336431 -13.277344 7
-0.074821003 -1.2694089 -13.285156 7
-0.29133001 -4.494873 -14.067383 7
-0.29319999 -4.5345459 -14.067383 7
-0.28704301 -4.559814 -14.018555 7
-0.28800401 -4.5978999 -14.012695 7
-0.29699701 -4.651123 -14.056641 7
-0.049849 -0.96643102 -12.455078 7
-0.052753001 -1.033447 -12.467773 7
-0.055767 -1.1661381 -12.474609 7
-0.056751002 -1.1993411 -12.476562 7
-0.073693998 -1.3076169 -12.572266 7
-0.072802 -1.340088 -12.563477 7
-0.071924001 -1.372681 -12.554688 7
-0.097143002 -1.421387 -12.706055 7
-0.084151998 -1.446533 -12.623047 7
-0.084220998 -1.479736 -12.619141 7
-0.085205004 -1.513428 -12.62207 7
-0.103886 -1.5593261 -12.732422 7
-0.105816 -1.593994 -12.740234 7
-0.292788 -4.4951172 -13.285156 7
-0.30033299 -4.5438228 -13.318359 7
-0.294817 -4.5681152 -13.275391 7
-0.285557 -4.5856929 -13.208984 7
-0.28843299 -4.6253662 -13.213867 7
-0.29318401 -4.6689448 -13.231445 7
-0.301653 -4.7194819 -13.269531 7
-0.31105801 -4.7719731 -13.314453 7
-0.103064 4.7564702 -11.96582 7
-0.10401 4.72644 -11.982422 7
-0.110531 4.7080078 -12.03125 7
-0.115208 4.6531978 -12.081055 7
-0.127321 4.6130371 -12.173828 7
-0.13568901 4.59729 -12.234375 7
-0.106024 4.5063481 -12.069336 7
-0.110676 4.4832759 -12.107422 7
-0.072779 -1.179199 -11.880859 7
-0.073808998 -1.211182 -11.884766 7
-0.067126997 -1.301392 -11.834961 7
-0.066203997 -1.332397 -11.826172 7
-0.075060003 -1.3687741 -11.874023 7
-0.079034999 -1.402832 -11.895508 7
-0.073207997 -1.43042 -11.856445 7
-0.077173002 -1.464478 -11.875977 7
-0.080178998 -1.497803 -11.890625 7
-0.081193998 -1.5300291 -11.892578 7
-0.099852003 -1.5743411 -11.998047 7
-0.29155299 -4.5306401 -12.459961 7
-0.28769499 -4.5561519 -12.427734 7
-0.28777099 -4.5887451 -12.416016 7
-0.28490999 -4.6160889 -12.388672 7
-0.28989199 -4.6578369 -12.405273 7
-0.30075499 -4.71106 -12.454102 7
-0.303774 -4.7496338 -12.459961 7
-0.393911 -6.1221919 -12.477539 7
-0.40202901 -6.239624 -12.475586 7
-0.39032701 -6.2437739 -12.397461 7
-0.39434099 -6.2861328 -12.40332 7
-0.39246401 -6.3139648 -12.378906 7
-0.39941999 -6.3634028 -12.400391 7
-0.099463999 4.7539058 -11.19043 7
-0.098503001 4.7218022 -11.196289 7
-0.101463 4.6678472 -11.235352 7
-0.105406 4.615479 -11.279297 7
-0.111288 4.5969238 -11.322266 7
-0.123981 4.5915532 -11.404297 7
-0.115223 4.5438228 -11.366211 7
-0.109388 4.5018311 -11.344727 7
-0.071116999 -1.30542 -11.260742 7
-0.071156003 -1.335449 -11.257812 7
-0.075305998 -1.367798 -11.277344 7
-0.091738001 -1.407959 -11.366211 7
-0.087701999 -1.4356689 -11.339844 7
-0.081607997 -1.461792 -11.301758 7
-0.085755996 -1.494507 -11.322266 7
-0.087853998 -1.526001 -11.330078 7
-0.098128997 -1.5632319 -11.383789 7
-0.104332 -1.597656 -11.413086 7
-0.295223 -4.493042 -11.813477 7
-0.29018199 -4.5150151 -11.774414 7
-0.28922799 -4.544189 -11.758789 7
-0.290319 -4.577271 -11.753906 7
-0.28834301 -4.6044922 -11.731445 7
-0.28943399 -4.6375728 -11.726562 7
-0.29668999 -4.6821289 -11.75293 7
-0.305996 -4.7307129 -11.791016 7
-0.309147 -4.7679439 -11.794922 7
-0.39407301 -6.0983891 -11.745117 7
-0.400305 -6.144165 -11.761719 7
-0.40757599 -6.1923828 -11.783203 7
-0.40457699 -6.216187 -11.751953 7
-0.40260899 -6.2424321 -11.727539 7
-0.402693 -6.273438 -11.712891 7
-0.40380701 -6.3070068 -11.703125 7
-0.40798801 -6.348145 -11.708984 7
-0.41423601 -6.394165 -11.724609 7
-0.060036 -1.292358 -10.581055 7
-0.062217999 -1.322144 -10.59082 7
-0.064415 -1.351562 -10.598633 7
-0.073057003 -1.385254 -10.640625 7
-0.083851002 -1.420532 -10.694336 7
-0.087116003 -1.451416 -10.708008 7
-0.075360999 -1.472168 -10.642578 7
-0.079708003 -1.503662 -10.661133 7
-0.081913002 -1.533447 -10.668945 7
-0.083019003 -1.562744 -10.670898 7
-0.094889 -1.599731 -10.730469 7
-0.29822299 -4.5152588 -11.098633 7
-0.288605 -4.5271001 -11.039062 7
-0.286522 -4.5523682 -11.018555 7
-0.28659099 -4.5817871 -11.007812 7
-0.28666699 -4.6113281 -10.996094 7
-0.28458399 -4.6365972 -10.975586 7
-0.292191 -4.6801758 -11.000977 7
-0.299795 -4.7237549 -11.02832 7
-0.30094001 -4.755127 -11.022461 7
-0.307468 -4.7969971 -11.042969 7
-0.39381599 -6.2694092 -10.874023 7
-0.39713499 -6.3062739 -10.874023 7
-0.399378 -6.3404541 -10.869141 7
-0.40483901 -6.382935 -10.879883 7
-0.073126003 -1.297974 -10.121094 7
-0.063079998 -1.319214 -10.067383 7
-0.064246997 -1.347046 -10.069336 7
-0.066536002 -1.375488 -10.078125 7
-0.069945998 -1.404785 -10.091797 7
-0.078961998 -1.437622 -10.133789 7
-0.084605999 -1.468628 -10.15918 7
-0.075689003 -1.4901119 -10.110352 7
-0.081349999 -1.520996 -10.134766 7
-0.080282003 -1.5476069 -10.125 7
-0.081441998 -1.575562 -10.12793 7
-0.29931399 -4.492065 -10.50293 7
-0.30389199 -4.5284419 -10.512695 7
-0.29608199 -4.5422359 -10.46582 7
-0.29951999 -4.576416 -10.470703 7
-0.290611 -4.5878911 -10.416016 7
-0.29516599 -4.6242681 -10.426758 7
-0.29523501 -4.6521001 -10.415039 7
-0.29642501 -4.682251 -10.40918 7
-0.30323601 -4.7228999 -10.430664 7
-0.30892801 -4.7618408 -10.445312 7
-0.30898899 -4.7896729 -10.43457 7
-0.081502996 -1.29834 -9.6601562 7
-0.072212003 -1.31897 -9.609375 7
-0.066399001 -1.341431 -9.578125 7
-0.074638002 -1.372437 -9.6142578 7
-0.068832003 -1.39502 -9.5830078 7
-0.077063002 -1.426025 -9.6191406 7
-0.08997 -1.460449 -9.6787109 7
-0.088855997 -1.485962 -9.6689453 7
-0.081883997 -1.5074461 -9.6318359 7
-0.085446998 -1.535889 -9.6445312 7
-0.084317997 -1.5612791 -9.6357422 7
-0.082029 -1.585693 -9.6201172 7
-0.069214001 -1.286865 -9.1308594 7
-0.074142002 -1.314575 -9.1513672 7
-0.069305003 -1.336792 -9.125 7
-0.071792997 -1.3631589 -9.1337891 7
-0.069397002 -1.386475 -9.1181641 7
-0.066996001 -1.409912 -9.1044922 7
-0.082875997 -1.444824 -9.1748047 7
-0.082929999 -1.469727 -9.1699219 7
-0.087843001 -1.498047 -9.1904297 7
-0.087889001 -1.523193 -9.1865234 7
-0.081855997 -1.543945 -9.1542969 7
-0.089208998 -1.574097 -9.1845703 7
-0.079498 -1.592163 -9.1357422 7
-0.40870899 -6.3529048 -8.953125 7
-0.41124901 -6.3833008 -8.9472656 7
-0.104778 4.7587891 -8.2255859 7
-0.096289001 4.7182622 -8.2001953 7
-0.098715 4.7001948 -8.2216797 7
-0.095091 4.6699219 -8.2167969 7
-0.092665002 4.6419678 -8.21875 7
-0.096318997 4.6263428 -8.2441406 7
-0.096341997 4.6035161 -8.2539062 7
-0.102421 4.5926509 -8.2910156 7
-0.109722 4.5839839 -8.3330078 7
-0.064791001 -1.297729 -8.6308594 7
-0.067377001 -1.322876 -8.6386719 7
-0.054699 -1.339111 -8.5791016 7
-0.056003999 -1.363403 -8.5820312 7
-0.058589999 -1.388672 -8.5898438 7
-0.061184 -1.4136961 -8.5976562 7
-0.075232998 -1.446533 -8.65625 7
-0.077820003 -1.4719239 -8.6640615 7
-0.076591 -1.494873 -8.6542969 7
-0.067736 -1.512573 -8.6113281 7
-0.070321999 -1.538208 -8.6181641 7
-0.072924003 -1.563477 -8.6259766 7
-0.075494997 -1.589111 -8.6337891 7
-0.29757899 -4.6080322 -8.7255859 7
-0.29764 -4.6318359 -8.7138672 7
-0.29641899 -4.6533198 -8.6982422 7
-0.29648 -4.6773682 -8.6865234 7
-0.30427 -4.739624 -8.6962891 7
-0.30943301 -4.7731929 -8.7050781 7
-0.397535 -6.2945561 -8.2841797 7
-0.39760399 -6.3175049 -8.2695312 7
-0.40031201 -6.3695068 -8.2480469 7
-0.108707 4.7927251 -7.6835942 7
-0.101095 4.755127 -7.664062 7
-0.084587 4.6993408 -7.610352 7
-0.080805004 4.6697998 -7.6054692 7
-0.079538003 4.6242681 -7.6230469 7
-0.082079001 4.607666 -7.6445308 7
-0.082102001 4.5645752 -7.6660161 7
-0.084647998 4.5479741 -7.686523 7
-0.096066996 4.5490718 -7.7431641 7
-0.104956 4.5449219 -7.7900391 7
-0.103704 4.4985352 -7.8056641 7
-0.078567997 -1.2980959 -8.2753906 7
-0.078606002 -1.321167 -8.2724609 7
-0.074677996 -1.341553 -8.2529297 7
-0.073403999 -1.363525 -8.2431641 7
-0.073441997 -1.386353 -8.2402344 7
-0.076150998 -1.410767 -8.2470703 7
-0.076188996 -1.433594 -8.2441406 7
-0.092115 -1.466675 -8.3085938 7
-0.090833999 -1.488647 -8.2998047 7
-0.094853997 -1.5144041 -8.3125 7
-0.085616998 -1.531006 -8.2695312 7
-0.089638002 -1.556641 -8.2832031 7
-0.091011003 -1.580566 -8.2841797 7
-0.091049001 -1.603394 -8.28125 7
-0.30313301 -4.4993901 -8.3037109 7
-0.30981401 -4.5345459 -8.3193359 7
-0.31119499 -4.559937 -8.3144531 7
-0.315254 -4.5900879 -8.3183594 7
-0.30735201 -4.5983891 -8.2773438 7
-0.30475 -4.6164551 -8.2548828 7
-0.30613899 -4.6417241 -8.25 7
-0.3062 -4.6645508 -8.2382812 7
-0.307596 -4.6898189 -8.2324219 7
-0.307657 -4.7125239 -8.2216797 7
-0.307726 -4.735229 -8.2089844 7
-0.31043401 -4.7631841 -8.2089844 7
-0.11813 4.532227 -7.389648 7
-0.112843 4.5010991 -7.3798828 7
-0.29937401 -4.5013428 -7.7919922 7
-0.29943499 -4.5230708 -7.780273 7
-0.30641401 -4.5574951 -7.7949219 7
-0.31199101 -4.5892329 -7.804688 7
-0.306528 -4.6008301 -7.773438 7
-0.29552799 -4.6020508 -7.7216802 7
-0.295589 -4.6234131 -7.710938 7
-0.298397 -4.6503911 -7.7099609 7
-0.29845801 -4.671875 -7.6992192 7
-0.30405 -4.7038569 -7.7080078 7
-0.30548301 -4.7280269 -7.702148 7
-0.311075 -4.7600098 -7.710938 7
-0.292189 -4.481812 -7.329102 7
-0.299427 -4.515625 -7.34375 7
-0.29804599 -4.5335689 -7.328125 7
-0.30096799 -4.5595698 -7.327148 7
-0.30389801 -4.5855708 -7.327148 7
-0.30538601 -4.6088872 -7.320312 7
-0.30113599 -4.621582 -7.2939448 7
-0.29832101 -4.6368408 -7.2744141 7
-0.29980901 -4.6601558 -7.2675781 7
-0.30131099 -4.683228 -7.2617192 7
-0.301357 -4.7036128 -7.25 7
-0.30428699 -4.7294922 -7.249023 7
-0.30579001 -4.7528081 -7.2431641 7
-0.31302801 -4.7869868 -7.2548828 7
-0.295286 -4.487915 -6.9023442 7
-0.30724001 -4.5291748 -6.9316411 7
-0.30581301 -4.5462651 -6.9150391 7
-0.30438599 -4.5632319 -6.8994141 7
-0.304447 -4.5826421 -6.8886719 7
-0.30597299 -4.605103 -6.8837891 7
-0.310505 -4.6331792 -6.8867192 7
-0.309071 -4.6499019 -6.8710942 7
-0.300192 -4.6525879 -6.8310552 7
-0.30768201 -4.6861572 -6.844727 7
-0.30923799 -4.708374 -6.8369141 7
-0.30186301 -4.7137451 -6.8007808 7
-0.298933 -4.727417 -6.780273 7
-0.30495799 -4.7583008 -6.7880859 7
-0.40798199 -6.4061279 -6.0693359 7
-0.400576 -6.405396 -6.032227 7
-0.40511301 -6.434082 -6.030273 7
-0.40219301 -6.4443359 -6.0058589 7
-0.409729 -6.4803472 -6.0126948 7
-0.40531299 -6.4866939 -5.984375 7
-0.41283399 -6.5229492 -5.9902339 7
-0.42335299 -6.5666499 -6.0039058 7
-0.42491701 -6.5878911 -5.992188 7
-0.42050001 -6.5941162 -5.9638672 7
-0.42355901 -6.619019 -5.9570308 7
-0.42660299 -6.644043 -5.9492192 7
-0.434109 -6.6804199 -5.9550781 7
-0.43270499 -6.6940918 -5.9345698 7
-0.42976999 -6.7037349 -5.9101558 7
-0.29563001 -4.681519 -6.3994141 7
-0.297232 -4.7028809 -6.3925781 7
-0.295744 -4.7183838 -6.3769531 7
-0.29270899 -4.730957 -6.3554692 7
-0.294312 -4.7520752 -6.3486328 7
-0.30516601 -4.7912598 -6.3710942 7
-0.403963 -6.4007568 -5.579102 7
-0.400949 -6.4094238 -5.554688 7
-0.40254399 -6.429688 -5.5439448 7
-0.402605 -6.446167 -5.5292969 7
-0.40267399 -6.462646 -5.5136719 7
-0.40580899 -6.4868159 -5.5068359 7
-0.40125501 -6.4914551 -5.4775391 7
-0.409044 -6.5271001 -5.4824219 7
-0.409098 -6.543457 -5.467773 7
-0.41689301 -6.5792241 -5.4736328 7
-0.42158499 -6.6071782 -5.469727 7
-0.42473599 -6.631104 -5.4619141 7
-0.42634401 -6.6514888 -5.4511719 7
-0.29396099 -4.4935298 -6.0869141 7
-0.28922299 -4.502686 -6.061523 7
-0.29407501 -4.5291748 -6.0664058 7
-0.29892501 -4.555542 -6.0693359 7
-0.29897901 -4.5732422 -6.0585942 7
-0.29743001 -4.5878911 -6.0429692 7
-0.295883 -4.602417 -6.0273442 7
-0.29433399 -4.617065 -6.0117192 7
-0.294388 -4.634644 -6 7
-0.29284701 -4.6491699 -5.985352 7
-0.29608899 -4.6726069 -5.983398 7
-0.297737 -4.6929932 -5.976562 7
-0.29140499 -4.6983638 -5.9462891 7
-0.296249 -4.724854 -5.9492192 7
-0.296303 -4.742188 -5.9375 7
-0.29315901 -4.7532959 -5.9169922 7
-0.302816 -4.789062 -5.9335942 7
-0.38898799 -6.2675781 -5.117188 7
-0.38905001 -6.2828369 -5.1025391 7
-0.38910499 -6.2983398 -5.0878911 7
-0.39075899 -6.317749 -5.077148 7
-0.400455 -6.3565669 -5.0849609 7
-0.39731199 -6.3640141 -5.061523 7
-0.395771 -6.3754878 -5.0429692 7
-0.387815 -6.370728 -5.007812 7
-0.38627401 -6.381958 -4.9882808 7
-0.38631999 -6.3969731 -4.9736328 7
-0.29455599 -4.4899902 -5.6972661 7
-0.29460901 -4.5067139 -5.686523 7
-0.28803399 -4.5114751 -5.65625 7
-0.29307601 -4.537231 -5.6591802 7
-0.29644799 -4.5600591 -5.657227 7
-0.29483801 -4.5736079 -5.6425781 7
-0.28989401 -4.5810552 -5.617188 7
-0.298264 -4.612915 -5.6289058 7
-0.30162001 -4.6356201 -5.6279302 7
-0.29835501 -4.6461182 -5.6074219 7
-0.29343399 -4.6533198 -5.5830078 7
-0.29514301 -4.6729741 -5.5751948 7
-0.29187801 -4.683228 -5.5556641 7
-0.293571 -4.7028809 -5.5498052 7
-0.29363999 -4.7193599 -5.5380859 7
-0.292025 -4.7325439 -5.5224609 7
-0.29539499 -4.755127 -5.5195308 7
-0.29877499 -4.7779541 -5.5175781 7
-0.29550201 -4.7879639 -5.4970698 7
-0.29821801 -4.7996831 -5.1113281 7
-0.29222301 -4.5102539 -4.9355469 7
-0.288721 -4.5187988 -4.9160161 7
-0.281643 -4.520752 -4.8867192 7
-0.27814099 -4.5288091 -4.867188 7
-0.28350401 -4.5535889 -4.8701172 7
-0.283573 -4.5682368 -4.859375 7
-0.29251301 -4.5996089 -4.8710942 7
-0.28544199 -4.6011958 -4.842773 7
-0.29438201 -4.63269 -4.8535161 7
-0.29799101 -4.6540532 -4.851562 7
-0.296267 -4.6654048 -4.8369141 7
-0.29274899 -4.673584 -4.8154302 7
-0.294588 -4.6915278 -4.8085942 7
-0.29463401 -4.7064209 -4.797852 7
-0.29468 -4.7209468 -4.7861328 7
-0.29473299 -4.7355962 -4.7753911 7
-0.294779 -4.7503662 -4.7636719 7
-0.29482499 -4.7648931 -4.7529302 7
-0.29666299 -4.7827148 -4.7451172 7
-0.104015 4.7853999 -3.9472661 7
-0.112848 4.790894 -3.9794919 7
-0.109316 4.770752 -3.9824221 7
-0.118149 4.776123 -4.014648 7
-0.118134 4.7631841 -4.0263672 7
-0.112825 4.7391362 -4.0244141 7
-0.112818 4.7261958 -4.0361328 7
-0.103954 4.6950679 -4.0263672 7
-0.116335 4.7072749 -4.0664058 7
-0.11809 4.697876 -4.0820308 7
-0.10924 4.666626 -4.0722661 7
-0.105686 4.6463618 -4.0751948 7
-0.098614 4.618896 -4.0683589 7
-0.093305998 4.5949712 -4.0664058 7
-0.087987997 4.5712891 -4.0644531 7
-0.091519997 4.565186 -4.0839839 7
-0.093290001 4.555542 -4.0986328 7
-0.095045 4.5457759 -4.1142578 7
-0.089743003 4.5222168 -4.110352 7
-0.089735001 4.5091548 -4.1220698 7
-0.089726999 4.4958501 -4.132812 7
-0.089720003 4.4825439 -4.1425781 7
-0.333579 -4.9975181 6.0682859 7
-0.33022001 -4.8824019 6.2638569 7
-0.29660901 -4.839005 5.114615 7
-0.300917 -4.801033 5.319057 7
0.061597001 -1.386665 -11.344253 7
-0.034187 -1.318558 -8.8254032 7
-0.02396 -1.280638 -7.368875 7
0.007921 -1.569856 -5.0663381 7
-0.069481999 -1.518859 -4.3440351 7
-0.29382601 -4.7374039 -4.6024809 7
-0.025131 -1.462332 -3.5003901 7
-0.28090599 -4.793407 -3.7522111 7
-0.26612401 -4.7597899 -2.4881411 7
-0.32225299 -4.7138548 -1.934633 7
-0.31231999 -4.6847291 -1.4648941 7
-0.32039699 -4.9449258 6.2671418 7
-0.324231 -5.1161628 5.6448879 7
-0.30115801 -4.945127 5.7723012 7
-0.30581999 -4.8538222 5.9482832 7
-0.30349299 -5.0625348 5.1769171 7
-0.284785 -4.9228191 5.3162308 7
-0.278824 -4.8175502 5.4700732 7
-0.272461 -4.728601 1.058253 7
-0.26347199 -4.780715 1.235559 7
-0.275877 -4.8957868 4.9006519 7
-0.26840299 -4.8021421 5.0525451 7
-0.2956 -4.5215869 1.1787339 7
-0.288012 -4.7071228 1.655899 7
-0.27931499 -4.737607 1.825034 7
-0.26431301 -4.5105219 1.740075 7
-0.26976401 -4.5794258 1.884908 7
-0.058092002 4.7641668 -11.128894 7
-0.033295002 4.641367 -8.6105156 7
-0.055691998 4.6028171 -3.930244 7
0.0091190003 1.300832 -5.155899 7
-0.0057580001 -0.49767801 -14.718803 7
-0.119158 -1.375051 -11.589247 7
-0.170158 4.707839 -11.870063 7
-0.074017003 -1.322486 -9.2212954 7
-0.062114999 -1.402311 -7.917006 7
-0.29704601 -4.5983839 -10.284647 7
-0.103197 4.5915208 -7.3962259 7
-0.058265999 -1.472613 -7.0082378 7
-0.28364599 -4.646368 -8.7240124 7
-0.087374002 -1.46026 -6.074594 7
-0.039159998 1.519403 -5.5845699 7
-0.028822999 1.302112 -5.5428672 7
-0.058791 -1.440632 -5.3530908 7
-0.31244999 -4.4860458 -6.2833729 7
-0.30724001 -4.6884022 -6.0815558 7
-0.021352001 1.499496 -4.992938 7
-0.018854 1.327335 -5.0238581 7
-0.053210001 -1.469591 -4.9147429 7
-0.27842399 -4.7074151 -4.9944019 7
-0.035872001 -1.3115081 -4.5095448 7
-0.040178001 -1.467079 -4.4877601 7
-0.25201401 -4.6409011 -4.0530429 7
-0.24503499 -4.7372971 -3.844028 7
-0.056230001 -1.311565 -4.1331019 7
-0.065958999 -1.465566 -4.1367202 7
-0.051566001 -1.335945 -3.8723631 7
-0.061951999 -1.481442 -3.8736701 7
-0.24855401 -4.5902128 -1.59974 7
-0.24919599 -4.6332502 -1.408692 7
-0.044360999 -1.346601 -3.6256211 7
-0.053351 -1.478233 -3.6152911 7
-0.035018999 -1.345265 -3.3934331 7
-0.045680001 -1.472288 -3.386822 7
-0.055119 -1.597708 -3.3687589 7
-0.056522001 -1.349816 -3.200129 7
