# .PCD v0.7 - Point Cloud Data file format
VERSION 0.7
FIELDS x y z intensity
SIZE 4 4 4 4
TYPE F F F F
COUNT 1 1 1 1
WIDTH 702
HEIGHT 1
VIEWPOINT 0 0 0 1 0 0 0
POINTS 702
DATA ascii
-0.52864599 -5.4753418 72.443359 7
-0.5966 -5.4404302 74.241211 7
-0.461279 -2.3835449 70.953125 7
-0.49887201 -2.250366 71.953125 7
-0.51776803 -2.098022 72.460938 7
-0.482207 -0.57458502 71.611328 7
-0.577748 -5.5119629 66.847656 7
-0.62681502 -5.2947998 68.045898 7
-0.71861601 -5.3049321 70.239258 7
-0.44368601 -2.5874021 63.925781 7
-0.478374 -2.471436 64.761719 7
-0.048159 4.3647461 -58.763672 7
-0.058938 4.242065 -59.05957 7
-0.13372201 4.2349849 -61.083984 7
-0.204961 -2.563843 -56.87207 7
-0.66922998 -5.365479 63.357422 7
-0.41102299 0.47937 58.148438 7
-0.41696 3.4499509 58.274414 7
-0.077068999 4.4005132 -53.799805 7
-0.127795 4.3651118 -55.046875 7
-0.047525998 4.0837402 -53.09082 7
-0.11688 4.077271 -54.792969 7
-0.154746 4.0085449 -55.723633 7
-0.35535201 0.54895002 52.246094 7
-0.411681 3.5209961 53.352539 7
-0.372967 3.592407 52.584961 7
-0.048494 4.2915039 -47.982422 7
-0.102036 4.274292 -49.175781 7
-0.130594 4.205811 -49.81543 7
-0.069929004 3.9769289 -48.479492 7
-0.113745 3.9333501 -49.456055 7
-0.166004 3.8991699 -50.620117 7
-0.112623 0.54626501 -49.487305 7
-0.36537901 0.51391602 48.857422 7
-0.41705501 3.5107419 49.780273 7
-0.37326699 3.564575 48.960938 7
-0.33513299 3.6226809 48.24707 7
-0.076211996 4.33606 -44.680664 7
-0.109425 4.2884521 -45.366211 7
-0.144917 4.2418208 -46.098633 7
-0.084558003 4.0219731 -44.874023 7
-0.124902 3.9814451 -45.705078 7
-0.161265 3.9302981 -46.455078 7
-0.344547 -2.500366 44.524414 7
-0.36084199 -2.4138179 44.810547 7
-0.37747899 -2.32605 45.102539 7
-0.279753 0.45581099 43.561523 7
-0.295665 0.55920398 43.834961 7
-0.271231 0.65307599 43.417969 7
-0.37509301 3.5913091 45.140625 7
-0.33638701 3.639282 44.473633 7
-0.313021 3.7069089 44.069336 7
-0.294453 3.779907 43.746094 7
-0.119208 4.4368901 -41.387695 7
-0.13621099 4.367188 -41.710938 7
-0.153832 4.2971191 -42.047852 7
-0.188327 4.2557368 -42.698242 7
-0.21128 4.1907959 -43.132812 7
-0.073051997 0.55200201 -40.665039 7
-0.02833 0.247437 -39.825195 7
-0.051938999 0.151123 -40.265625 7
-0.029527999 0.051635999 -39.84375 7
-0.035413999 -0.04834 -36.816406 7
-0.045742001 -0.13964801 -36.992188 7
-0.026885999 -0.22863799 -36.664062 7
-0.33347401 -2.40625 41.276367 7
-0.36380401 -2.2441411 41.771484 7
-0.28763601 0.61218297 40.696289 7
-0.33952501 3.669312 41.433594 7
-0.310011 3.7203369 40.959961 7
-0.29002401 3.7836909 40.635742 7
-0.118923 4.4689941 -38.033203 7
-0.150518 4.4350591 -38.583984 7
-0.173647 4.382812 -38.989258 7
-0.210003 4.3527832 -39.623047 7
-0.24127799 4.3110352 -40.166992 7
-0.03892 0.86499 -36.825195 7
-0.057022002 0.78064001 -37.137695 7
-0.092767 0.700073 -37.75293 7
-0.078907996 0.13537601 -37.571289 7
-0.035234999 -0.28771999 -33.560547 7
-0.025937 -0.53442401 -33.40625 7
-0.30294099 -2.4511721 37.728516 7
-0.283252 -2.346436 37.449219 7
-0.30111799 -2.2774661 37.716797 7
-0.32414699 -2.2120359 38.05957 7
-0.229084 0.634399 36.790039 7
-0.250489 0.72485399 37.104492 7
-0.229617 0.80261201 36.798828 7
-0.30642101 3.60022 37.828125 7
-0.34049699 3.7373049 38.320312 7
-0.316071 3.78772 37.956055 7
-0.28769299 3.8305659 37.53418 7
-0.26807299 3.885498 37.241211 7
-0.067247003 4.5916748 -33.862305 7
-0.086530998 4.5463872 -34.174805 7
-0.112108 4.5118408 -34.584961 7
-0.13324501 4.4671631 -34.926758 7
-0.16325501 4.4375 -35.407227 7
-0.200663 4.419189 -36.00293 7
-0.226613 4.3773189 -36.419922 7
-0.0092660002 1.193359 -33.162109 7
-0.038596001 1.126099 -33.625977 7
-0.018352 1.033325 -33.307617 7
-0.032508999 0.95703101 -33.532227 7
-0.069619998 0.88854998 -34.118164 7
-0.073379003 -0.35742199 -31.878906 7
-0.042599998 -0.430298 -31.422852 7
-0.074827999 -0.51538098 -31.893555 7
-0.057139002 -0.58960003 -31.629883 7
-0.038633 -0.662476 -31.354492 7
-0.275453 -2.355103 35.120117 7
-0.25380501 0.52331501 34.964844 7
-0.259931 0.68408197 35.048828 7
-0.332789 3.742676 35.923828 7
-0.30383199 3.7806399 35.520508 7
-0.26205799 3.8765869 34.933594 7
-0.095848002 4.6608891 -31.915039 7
-0.109776 4.6096191 -32.12793 7
-0.130404 4.5705571 -32.439453 7
-0.15657499 4.540894 -32.833008 7
-0.183136 4.5100098 -33.231445 7
-0.020284001 1.351685 -31.041992 7
-0.034235001 1.282837 -31.249023 7
-0.05136 1.2146 -31.501953 7
-0.040879 1.126343 -31.416992 7
-0.069499999 1.062134 -31.839844 7
-0.039156001 0.969971 -31.393555 7
-0.072772004 -0.61718798 -29.310547 7
-0.046326 -0.68200701 -28.947266 7
-0.037873998 -0.751221 -28.828125 7
-0.061949 -0.831909 -29.15332 7
-0.043198999 -0.896851 -28.895508 7
-0.232605 -4.08252 -31.214844 7
-0.089648999 4.7382808 -29.269531 7
-0.088863 4.6636958 -29.270508 7
-0.109437 4.6322021 -29.557617 7
-0.127874 4.5952148 -29.817383 7
-0.153138 4.570312 -30.168945 7
-0.177121 4.5413818 -30.503906 7
-0.181896 4.4743652 -30.578125 7
-0.022841999 1.252319 -28.642578 7
-0.061517 1.128906 -29.172852 7
-0.077711001 -0.786255 -27.378906 7
-0.058915999 -1.0500489 -27.123047 7
-0.265874 -3.936646 -29.459961 7
-0.27151099 -4.019043 -29.520508 7
-0.25923699 -4.0715332 -29.355469 7
-0.234568 -4.1022949 -29.032227 7
-0.122262 4.762085 -27.592773 7
-0.135139 4.7193599 -27.763672 7
-0.14707699 4.6737061 -27.925781 7
-0.168176 4.645752 -28.202148 7
-0.188833 4.615479 -28.472656 7
-0.037719 1.575928 -26.884766 7
-0.041480001 1.511353 -26.93457 7
-0.022454999 1.3651119 -26.696289 7
-0.041785002 1.309937 -26.945312 7
-0.067073002 1.256714 -27.268555 7
-0.075295001 -0.91845697 -25.282227 7
-0.056141999 -0.97338903 -25.051758 7
-0.057248 -1.036621 -25.061523 7
-0.079071999 -1.109985 -25.316406 7
-0.061909001 -1.1644289 -25.108398 7
-0.059551999 -1.225952 -25.076172 7
-0.26315299 -4.0570068 -27.162109 7
-0.259828 -4.118896 -27.113281 7
-0.242634 -4.1567378 -26.901367 7
-0.236334 -4.2125239 -26.81543 7
-0.227057 -4.2626948 -26.696289 7
-0.108191 4.8389888 -25.274414 7
-0.114645 4.789062 -25.360352 7
-0.12702499 4.750854 -25.514648 7
-0.13691901 4.706665 -25.641602 7
-0.15815499 4.684814 -25.899414 7
-0.181841 4.6665039 -26.186523 7
-0.16615 4.570435 -26.013672 7
-0.056304 1.604614 -25.004883 7
-0.033213999 1.525879 -24.734375 7
-0.036249999 1.46582 -24.772461 7
-0.059981 1.418457 -25.056641 7
-0.046257999 1.347168 -24.897461 7
-0.042879 1.282837 -24.858398 7
-0.075443 -0.975586 -23.509766 7
-0.087182999 -1.039917 -23.634766 7
-0.069294997 -1.0905761 -23.43457 7
-0.063580997 -1.146484 -23.368164 7
-0.094354004 -1.221558 -23.703125 7
-0.077541001 -1.271606 -23.512695 7
-0.265201 -4.1696782 -25.232422 7
-0.261623 -4.2263179 -25.181641 7
-0.250624 -4.269897 -25.050781 7
-0.248091 -4.3280029 -25.012695 7
-0.25193599 -4.3970952 -25.041992 7
-0.123205 4.9046631 -23.597656 7
-0.119048 4.8365479 -23.563477 7
-0.141277 4.763062 -23.827148 7
-0.15398499 4.7286382 -23.975586 7
-0.175116 4.7105708 -24.21582 7
-0.17305601 4.6456299 -24.204102 7
-0.146754 4.5334468 -23.928711 7
-0.067846999 1.6826169 -23.368164 7
-0.24876399 -4.165894 -23.291992 7
-0.26588199 -4.2540278 -23.454102 7
-0.27393001 -4.3269038 -23.524414 7
-0.26328799 -4.3668208 -23.405273 7
-0.25661501 -4.4134521 -23.326172 7
-0.25389901 -4.4667969 -23.286133 7
-0.17073201 4.85144 -22.423828 7
-0.17639901 4.8061519 -22.492188 7
-0.17419399 4.744873 -22.480469 7
-0.103992 -1.287842 -20.745117 7
-0.106586 -1.3944089 -20.762695 7
-0.097066998 -1.440796 -20.666992 7
-0.26322201 -4.2146001 -21.894531 7
-0.284421 -4.3067632 -22.084961 7
-0.29296401 -4.3773189 -22.155273 7
-0.28403899 -4.4169922 -22.05957 7
-0.27573299 -4.4572749 -21.96875 7
-0.26862299 -4.4995122 -21.888672 7
-0.28620601 -4.5871582 -22.043945 7
-0.065403 1.581177 -20.332031 7
-0.055264998 1.522583 -20.236328 7
-0.075769 1.4326169 -20.441406 7
-0.058447 1.369995 -20.276367 7
-0.094283998 -1.301392 -19.290039 7
-0.118031 -1.364502 -19.501953 7
-0.105963 -1.406494 -19.387695 7
-0.097746998 -1.450439 -19.308594 7
-0.111897 -1.508911 -19.433594 7
-0.27439901 -4.2332759 -20.512695 7
-0.28092101 -4.2965088 -20.560547 7
-0.29449201 -4.372314 -20.670898 7
-0.29204401 -4.4199219 -20.637695 7
-0.28316399 -4.4560552 -20.546875 7
-0.27633801 -4.546875 -20.460938 7
-0.13201401 4.894043 -19.108398 7
-0.132052 4.8452148 -19.120117 7
-0.178753 4.7432861 -19.581055 7
-0.051835001 1.282104 -18.878906 7
-0.037829001 1.226074 -18.753906 7
-0.049394 1.1843261 -18.861328 7
-0.057815999 1.092041 -18.941406 7
-0.034237001 1.032593 -18.729492 7
-0.025358001 0.98083502 -18.650391 7
-0.31332001 -4.3586431 -19.557617 7
-0.31206101 -4.4058838 -19.536133 7
-0.058153 0.93774402 -17.875 7
-0.043354999 0.88598597 -17.749023 7
-0.042066 0.84008801 -17.739258 7
-0.042149998 0.79467797 -17.741211 7
-0.053699002 0.75329602 -17.841797 7
-0.050395999 0.70654303 -17.814453 7
-0.032882001 0.65576202 -17.666016 7
-0.093561999 -1.201416 -17.010742 7
-0.079373002 -1.28064 -16.889648 7
-0.30778399 -4.4255371 -18.240234 7
-0.037765998 0.280518 -16.554688 7
-0.030657001 0.23706099 -16.49707 7
-0.026416 0.19409201 -16.462891 7
-0.028612001 0.15185501 -16.480469 7
-0.029383 0.109253 -16.486328 7
-0.030878 0.066771999 -16.499023 7
-0.023777001 0.02417 -16.439453 7
-0.040483002 -0.059937 -15.639648 7
-0.043717999 -0.18139599 -15.663086 7
-0.039988998 -0.22143599 -15.632812 7
-0.034740001 -0.26122999 -15.591797 7
-0.034823999 -0.30139199 -15.589844 7
-0.088086002 -1.296631 -15.939453 7
-0.126176 4.7969971 -15.615234 7
-0.13075399 4.7658691 -15.660156 7
-0.13607 4.736084 -15.709961 7
-0.140632 4.7045898 -15.754883 7
-0.145964 4.6741939 -15.804688 7
-0.167171 4.6755371 -15.972656 7
-0.169466 4.6387939 -16.000977 7
-0.146795 4.552979 -15.84375 7
-0.134727 4.4884028 -15.764648 7
-0.053164002 -0.67028803 -14.767578 7
-0.049229 -0.70727497 -14.736328 7
-0.052492999 -0.74646002 -14.757812 7
-0.058176 -0.78698701 -14.797852 7
-0.061457001 -0.82641602 -14.819336 7
-0.059122 -0.86389202 -14.799805 7
-0.056766 -0.90148902 -14.779297 7
-0.054446001 -0.938721 -14.759766 7
-0.083136998 -1.299438 -14.939453 7
-0.083214 -1.3380131 -14.935547 7
-0.108966 -1.3924561 -15.117188 7
-0.100995 -1.426636 -15.056641 7
-0.101064 -1.4655761 -15.053711 7
-0.096341997 -1.501465 -15.014648 7
-0.116465 -1.553955 -15.155273 7
-0.118143 -1.594116 -15.163086 7
-0.310022 -4.4910889 -16.012695 7
-0.30288199 -4.5194092 -15.951172 7
-0.301364 -4.5576172 -15.928711 7
-0.29984701 -4.5955811 -15.907227 7
-0.30636901 -4.64856 -15.941406 7
-0.32095301 -4.7169189 -16.03125 7
-0.32346299 -4.7628169 -16.036133 7
-0.32113701 -4.799561 -16.007812 7
-0.075326003 -0.86291498 -14.09082 7
-0.075387001 -0.89965802 -14.089844 7
-0.065402001 -0.96862799 -14.015625 7
-0.067157 -1.005981 -14.024414 7
-0.076500997 -1.046997 -14.085938 7
-0.08416 -1.08728 -14.134766 7
-0.079163998 -1.12146 -14.097656 7
-0.076692 -1.1569819 -14.078125 7
-0.074228004 -1.192139 -14.058594 7
-0.091169998 -1.2381589 -14.170898 7
-0.087875001 -1.273193 -14.144531 7
-0.31031299 -4.4996338 -15.072266 7
-0.30871099 -4.535645 -15.050781 7
-0.30543101 -4.568481 -15.017578 7
-0.30296701 -4.6025391 -14.990234 7
-0.30898699 -4.6525879 -15.018555 7
-0.31753701 -4.70752 -15.0625 7
-0.31931499 -4.7496338 -15.063477 7
-0.322786 -4.7950439 -15.074219 7
-0.077073999 -0.99426299 -13.313477 7
-0.088669002 -1.034302 -13.385742 7
-0.092299998 -1.071167 -13.40625 7
-0.084374003 -1.102295 -13.351562 7
-0.078226 -1.134155 -13.308594 7
-0.072962999 -1.16626 -13.270508 7
-0.089882001 -1.2099611 -13.37793 7
-0.097944997 -1.249512 -13.426758 7
-0.088243 -1.279053 -13.360352 7
-0.090957999 -1.3156739 -13.375 7
-0.083933003 -1.346436 -13.326172 7
-0.090218998 -1.385254 -13.362305 7
-0.101882 -1.4625241 -13.430664 7
-0.102912 -1.533325 -13.428711 7
-0.32016999 -4.513062 -14.244141 7
-0.30957401 -4.5307622 -14.166992 7
-0.30431801 -4.5578609 -14.123047 7
-0.30530301 -4.596313 -14.118164 7
-0.30360201 -4.6296391 -14.095703 7
-0.309026 -4.6765141 -14.118164 7
-0.321574 -4.7368159 -14.18457 7
-0.32432801 -4.7789311 -14.189453 7
-0.125356 4.7697749 -12.873047 7
-0.119169 4.723022 -12.845703 7
-0.119193 4.689209 -12.856445 7
-0.114799 4.6463618 -12.839844 7
-0.120123 4.6230469 -12.884766 7
-0.126325 4.60144 -12.93457 7
-0.14229099 4.5987549 -13.043945 7
-0.13789 4.5556641 -13.027344 7
-0.141444 4.5281978 -13.05957 7
-0.141459 4.4937739 -13.070312 7
-0.092445999 -1.287354 -12.679688 7
-0.085992999 -1.317017 -12.636719 7
-0.090714999 -1.352783 -12.662109 7
-0.088914998 -1.385132 -12.647461 7
-0.094559997 -1.421997 -12.678711 7
-0.100204 -1.4588619 -12.709961 7
-0.093750998 -1.487915 -12.666016 7
-0.102203 -1.5271 -12.713867 7
-0.105049 -1.562256 -12.727539 7
-0.097672001 -1.5905761 -12.677734 7
-0.31308499 -4.5323491 -13.385742 7
-0.312253 -4.5656738 -13.369141 7
-0.306723 -4.5904541 -13.326172 7
-0.29933801 -4.6113281 -13.270508 7
-0.30221501 -4.6513672 -13.276367 7
-0.30985799 -4.735229 -13.297852 7
-0.31740299 -4.7843022 -13.330078 7
-0.12807301 4.7746582 -12.130859 7
-0.127157 4.7406011 -12.136719 7
-0.126249 4.706543 -12.142578 7
-0.128134 4.677979 -12.164062 7
-0.128141 4.6456299 -12.174805 7
-0.133725 4.6246338 -12.219727 7
-0.143024 4.6105962 -12.28418 7
-0.15789901 4.6071782 -12.382812 7
-0.15884501 4.5760498 -12.399414 7
-0.128225 4.4838872 -12.229492 7
-0.077237003 -1.3093261 -11.880859 7
-0.081219003 -1.343262 -11.900391 7
-0.090136997 -1.411743 -11.946289 7
-0.104874 -1.452637 -12.029297 7
-0.096124999 -1.47876 -11.973633 7
-0.089342996 -1.505859 -11.929688 7
-0.09527 -1.541504 -11.960938 7
-0.097291999 -1.5743411 -11.96875 7
-0.31175801 -4.5369868 -12.569336 7
-0.303978 -4.5556641 -12.514648 7
-0.30014801 -4.5811772 -12.482422 7
-0.29924899 -4.6124272 -12.46582 7
-0.30136099 -4.6816411 -12.454102 7
-0.319105 -4.7480469 -12.541016 7
-0.097055003 -1.29187 -11.396484 7
-0.080753997 -1.312988 -11.300781 7
-0.080799997 -1.342896 -11.296875 7
-0.082906 -1.3742681 -11.305664 7
-0.085003003 -1.4055181 -11.313477 7
-0.101427 -1.446045 -11.402344 7
-0.102503 -1.477051 -11.405273 7
-0.092326 -1.5007319 -11.342773 7
-0.095454 -1.532959 -11.357422 7
-0.097567998 -1.564575 -11.366211 7
-0.30532101 -4.573853 -11.825195 7
-0.30333799 -4.60144 -11.803711 7
-0.302407 -4.6307368 -11.787109 7
-0.30145401 -4.6600342 -11.770508 7
-0.30562699 -4.6990972 -11.78125 7
-0.316993 -4.751709 -11.830078 7
-0.085194997 -1.280151 -10.706055 7
-0.084164999 -1.308105 -10.696289 7
-0.076713003 -1.33252 -10.654297 7
-0.079991996 -1.362915 -10.667969 7
-0.078978002 -1.390869 -10.658203 7
-0.081166998 -1.4206541 -10.666016 7
-0.097323 -1.459595 -10.748047 7
-0.097392999 -1.488403 -10.744141 7
-0.093143001 -1.5144041 -10.717773 7
-0.092129998 -1.542236 -10.708984 7
-0.093266003 -1.571777 -10.710938 7
-0.30655801 -4.502686 -11.136719 7
-0.30770999 -4.5344238 -11.131836 7
-0.30456001 -4.558105 -11.104492 7
-0.30570301 -4.5897222 -11.098633 7
-0.303637 -4.615356 -11.077148 7
-0.30478099 -4.6469731 -11.072266 7
-0.303774 -4.674438 -11.055664 7
-0.304934 -4.7060552 -11.049805 7
-0.31684101 -4.757935 -11.097656 7
-0.086049996 -1.307007 -10.173828 7
-0.081633002 -1.3319089 -10.148438 7
-0.077201001 -1.356567 -10.12207 7
-0.076132998 -1.3831789 -10.113281 7
-0.079550996 -1.4124759 -10.126953 7
-0.084073998 -1.442749 -10.146484 7
-0.095342003 -1.477295 -10.200195 7
-0.093152002 -1.503418 -10.18457 7
-0.088728003 -1.52771 -10.15918 7
-0.092129998 -1.557495 -10.171875 7
-0.092183001 -1.584839 -10.167969 7
-0.31128001 -4.5134282 -10.540039 7
-0.31695601 -4.552002 -10.556641 7
-0.31590399 -4.5782471 -10.540039 7
-0.30812299 -4.5921631 -10.491211 7
-0.30932 -4.6225591 -10.485352 7
-0.30714601 -4.6463618 -10.464844 7
-0.31058699 -4.6810298 -10.469727 7
-0.31066301 -4.7089839 -10.458008 7
-0.31522501 -4.745605 -10.46875 7
-0.32427999 -4.790894 -10.5 7
-0.090414003 -1.3050539 -9.6875 7
-0.085790999 -1.328735 -9.6611328 7
-0.081161 -1.352051 -9.6357422 7
-0.083549 -1.379639 -9.6435547 7
-0.082488 -1.431152 -9.6318359 7
-0.100118 -1.494873 -9.7099609 7
-0.095509999 -1.518188 -9.6816406 7
-0.099064998 -1.546875 -9.6962891 7
-0.102627 -1.575439 -9.7089844 7
-0.094495997 -1.596069 -9.6650391 7
-0.077339001 -1.292969 -9.1542969 7
-0.081032 -1.32019 -9.1689453 7
-0.082298003 -1.345947 -9.1708984 7
-0.078697003 -1.3687741 -9.1513672 7
-0.083626002 -1.396729 -9.1699219 7
-0.087333001 -1.42395 -9.1826172 7
-0.086158 -1.4482419 -9.1738281 7
-0.094732001 -1.478882 -9.2099609 7
-0.10696 -1.512207 -9.2636719 7
-0.096051998 -1.529907 -9.2089844 7
-0.096097998 -1.555176 -9.2050781 7
-0.098585002 -1.582031 -9.2119141 7
-0.41858599 -6.399292 -8.9570312 7
-0.116788 4.7125239 -8.3164062 7
-0.110716 4.677002 -8.3017578 7
-0.105865 4.6439209 -8.2919922 7
-0.107085 4.6231689 -8.3076172 7
-0.073343001 -1.303955 -8.6533203 7
-0.077256002 -1.353882 -8.6640615 7
-0.074845999 -1.4237061 -8.6425781 7
-0.083801001 -1.453369 -8.6787109 7
-0.094085 -1.507935 -8.7167969 7
-0.085258 -1.549683 -8.6699219 7
-0.089134 -1.5762939 -8.6835938 7
-0.31356299 -4.6134028 -8.7832031 7
-0.31106901 -4.632812 -8.7617188 7
-0.30865899 -4.676147 -8.7294922 7
-0.308797 -4.723999 -8.7070312 7
-0.321605 -4.7722168 -8.7480469 7
-0.41026399 -6.32373 -8.3115234 7
-0.40267399 -6.3278809 -8.2675781 7
-0.404024 -6.3538818 -8.2568359 7
-0.406656 -6.3830571 -8.2509766 7
-0.088790998 -1.282349 -8.3066406 7
-0.087646 -1.373535 -8.2890615 7
-0.089019999 -1.397217 -8.2910156 7
-0.087738 -1.419434 -8.2822266 7
-0.091766 -1.4449461 -8.2949219 7
-0.090492003 -1.467041 -8.2861328 7
-0.099936001 -1.565186 -8.3115234 7
-0.102644 -1.590088 -8.3183594 7
-0.30782801 -4.50769 -8.3037109 7
-0.32010201 -4.6446528 -8.296875 7
-0.31884301 -4.6651611 -8.2792969 7
-0.317577 -4.6854248 -8.2636719 7
-0.31763801 -4.7084961 -8.2529297 7
-0.31902701 -4.7338872 -8.2470703 7
-0.31908801 -4.7565918 -8.2353516 7
-0.320492 -4.782104 -8.2294922 7
-0.30971199 -4.4980469 -7.8222661 7
-0.31117001 -4.5223389 -7.8164058 7
-0.311223 -4.544189 -7.8056641 7
-0.30853099 -4.5609131 -7.7841802 7
-0.31551 -4.595459 -7.7988281 7
-0.31419101 -4.614624 -7.7832031 7
-0.31008601 -4.6286621 -7.7568359 7
-0.306005 -4.6425781 -7.7304692 7
-0.30744699 -4.6668701 -7.7246089 7
-0.31442001 -4.7015381 -7.7392578 7
-0.31171101 -4.717896 -7.717773 7
-0.31178099 -4.739502 -7.7070308 7
-0.31737199 -4.771729 -7.7158198 7
-0.30461001 -4.503418 -7.3544922 7
-0.30324501 -4.521729 -7.3388672 7
-0.31191099 -4.558228 -7.3574219 7
-0.311979 -4.578979 -7.3466802 7
-0.312033 -4.5996089 -7.335938 7
-0.31496099 -4.6256099 -7.3349609 7
-0.31216201 -4.6409912 -7.313477 7
-0.30934 -4.6563721 -7.2929692 7
-0.30796701 -4.6741939 -7.2773442 7
-0.31233001 -4.7028809 -7.280273 7
-0.308097 -4.71521 -7.2539058 7
-0.30959201 -4.7384028 -7.2480469 7
-0.31251299 -4.7645259 -7.2470698 7
-0.31258199 -4.7850342 -7.235352 7
-0.30787599 -4.4907231 -6.9375 7
-0.30047601 -4.4970698 -6.9013672 7
-0.30650201 -4.5275879 -6.9111328 7
-0.306548 -4.5472412 -6.9003911 7
-0.31555 -4.583374 -6.9189448 7
-0.323064 -4.6166992 -6.9326172 7
-0.314192 -4.6199951 -6.8925781 7
-0.31573299 -4.642334 -6.8857422 7
-0.31281099 -4.65625 -6.8652339 7
-0.306907 -4.6647949 -6.8349609 7
-0.30101001 -4.6730962 -6.8037109 7
-0.30553401 -4.7010498 -6.8076172 7
-0.31452799 -4.7373052 -6.8251948 7
-0.31012601 -4.748291 -6.7998052 7
-0.305702 -4.7592769 -6.7744141 7
-0.311728 -4.7900391 -6.782227 7
-0.30446699 -4.7523189 -6.375 7
-0.30288801 -4.5090332 -6.0966802 7
-0.30294901 -4.526855 -6.085938 7
-0.30300999 -4.5444341 -6.0751948 7
-0.30466601 -4.565186 -6.0693359 7
-0.30471101 -4.5828862 -6.0576172 7
-0.31436101 -4.6182861 -6.0761719 7
-0.304818 -4.6181641 -6.0361328 7
-0.30807501 -4.6418462 -6.0351558 7
-0.30172801 -4.6473389 -6.0048828 7
-0.30339101 -4.6678472 -5.999023 7
-0.30024099 -4.6794429 -5.976562 7
-0.30190399 -4.6998291 -5.9707031 7
-0.30355901 -4.7202148 -5.9648442 7
-0.30522299 -4.7407231 -5.9570308 7
-0.306878 -4.761353 -5.9511719 7
-0.29732701 -4.7602539 -5.9101558 7
-0.303781 -4.789917 -5.9179692 7
-0.292193 -4.4846191 -5.670898 7
-0.29556501 -4.5073242 -5.6689448 7
-0.29567099 -4.5406489 -5.6474609 7
-0.29738 -4.5605469 -5.641602 7
-0.30407801 -4.589355 -5.6503911 7
-0.300814 -4.5999761 -5.6298828 7
-0.307565 -4.6456299 -5.6269531 7
-0.30595499 -4.6591802 -5.6113281 7
-0.296092 -4.6738281 -5.5605469 7
-0.30279699 -4.7027588 -5.5673828 7
-0.29951701 -4.7128911 -5.546875 7
-0.29790801 -4.7263179 -5.532227 7
-0.299685 -4.762207 -5.5136719 7
-0.298076 -4.7755132 -5.4970698 7
-0.124261 4.788208 -4.7724609 7
-0.12920401 4.7834468 -4.797852 7
-0.124253 4.7585449 -4.7949219 7
-0.129189 4.7539058 -4.820312 7
-0.124238 4.7288818 -4.8173828 7
-0.134139 4.7342529 -4.8564448 7
-0.127533 4.7059331 -4.8486328 7
-0.117617 4.670898 -4.8330078 7
-0.114306 4.6491699 -4.835938 7
-0.106037 4.6176758 -4.8242192 7
-0.092825003 4.5762939 -4.7988281 7
-0.092809997 4.561523 -4.8095698 7
-0.094465002 4.5499272 -4.8242192 7
-0.099416003 4.5447998 -4.8486328 7
-0.097753003 4.5264888 -4.8554692 7
-0.094457999 4.505249 -4.8564448 7
-0.092634 4.4859619 -4.8632808 7
-0.12642799 4.78125 -4.4111328 7
-0.12812901 4.770752 -4.4267578 7
-0.12298 4.7322998 -4.436523 7
-0.129822 4.7324219 -4.4648442 7
-0.12637401 4.6972661 -4.4785161 7
-0.124658 4.665771 -4.4960942 7
-0.109249 4.6204829 -4.467773 7
-0.098989002 4.5718989 -4.4628911 7
-0.098973997 4.5579829 -4.4736328 7
-0.102391 4.5366211 -4.5039058 7
-0.09725 4.5123291 -4.500977 7
-0.097235002 4.4841309 -4.523438 7
-0.137077 4.681519 -4.1787109 7
-0.12997501 4.6270752 -4.195312 7
-0.121119 4.5960689 -4.1845698 7
-0.124651 4.5898442 -4.204102 7
-0.137024 4.5874019 -4.2558589 7
-0.124628 4.5496831 -4.2363281 7
-0.119319 4.5256348 -4.234375 7
-0.112232 4.4849849 -4.2363281 7
-0.065995999 4.1807508 6.388752 7
-0.060362 4.2536612 6.2012148 7
-0.05198 4.3023691 6.00454 7
-0.050845001 4.385076 5.8247561 7
0.056217 -0.91104901 -14.617314 7
-0.18125001 -4.5164819 -13.741267 7
-0.092666 -1.4678431 -9.482482 7
-0.31731501 -4.5479341 -10.898561 7
-0.022779001 -1.390342 -7.3267679 7
-0.28296 -4.5656562 -8.8065662 7
-0.0059509999 -1.3459181 -6.1052632 7
0.010064 -1.30985 -5.1120729 7
-0.05799 -1.590968 -4.2423072 7
-0.049511999 -1.544371 -3.6479371 7
-0.32731801 -5.055377 6.1541052 7
-0.30320999 -4.8629441 6.2688832 7
-0.0071740001 -1.302936 -0.56876302 7
-0.019467 -1.465925 -0.58616698 7
0.0076270001 -1.286467 -0.35529599 7
-0.0048000002 -1.4405119 -0.37344801 7
-0.284513 -4.8139472 2.0202379 7
-0.305783 -4.9199972 2.164896 7
-0.30356401 -4.9068332 4.1765418 7
-0.31058899 -4.8850989 4.345407 7
-0.279946 -4.7414579 2.3807409 7
-0.268502 -4.735126 2.5455871 7
-0.27895799 -4.7876439 2.6987801 7
-0.27087101 -4.7785168 2.8608429 7
-0.28003401 -4.7880292 3.656539 7
-0.28775501 -4.7887239 3.8181601 7
-0.248356 -4.4923692 2.282485 7
-0.255472 -4.5448031 2.426013 7
-0.256789 -4.5749888 2.575356 7
-0.26557699 -4.6208558 2.722611 7
-0.26473799 -4.6330481 2.8753901 7
-0.268154 -4.6261659 3.6386931 7
-0.27036399 -4.6112628 3.7910309 7
-0.083186001 4.6505671 -5.0872259 7
-0.084707998 4.2667041 6.229157 7
-0.072774999 4.336453 6.0453172 7
-0.119856 4.1920772 5.9261808 7
-0.150646 -1.565359 -12.143027 7
-0.18244 4.6777978 -12.112088 7
-0.39368099 -4.5505919 -13.575409 7
-0.090963997 -1.630437 -8.2639046 7
-0.35387999 -4.6139832 -11.080749 7
-0.065224998 -1.365917 -7.109241 7
-0.32593599 -4.6378608 -9.2721071 7
-0.27973399 -4.7068219 -8.6452141 7
-0.364272 -6.3557582 -8.9056101 7
-0.104013 -1.396137 -6.2479 7
-0.33500701 -4.6079621 -7.2778492 7
-0.30446699 -4.6977601 -6.8807111 7
-0.11719 4.5184011 -4.6876769 7
-0.135989 4.4806218 -4.9713292 7
-0.047630001 1.4968081 -5.6725712 7
-0.041692 1.288185 -5.669044 7
-0.084550001 -1.417238 -5.5856299 7
-0.28479999 -4.607666 -5.8961592 7
-0.27105501 -4.7386532 -5.6384702 7
-0.032605998 1.492121 -5.0955329 7
-0.024645999 1.301437 -5.0821381 7
-0.072263002 -1.439891 -5.0797458 7
-0.25347701 -4.7689352 -4.6449962 7
-0.016805001 1.474304 -4.6033702 7
-0.014774 1.319756 -4.6396298 7
-0.058345001 -1.445397 -4.6348028 7
-0.24722999 -4.6459851 -3.9889579 7
-0.076993003 -1.297225 -4.2766442 7
-0.084028997 -1.448807 -4.2659588 7
-0.064847 -1.310112 -3.9674881 7
-0.068485998 -1.440035 -3.9350741 7
-0.048071999 -1.302429 -3.668817 7
-0.057229999 -1.4352289 -3.661484 7
-0.055854 -1.5388629 -3.5984631 7
-0.039027002 -1.306905 -3.4368219 7
-0.046528999 -1.425747 -3.4182899 7
-0.047339998 -1.525673 -3.36532 7
-0.054928999 -1.3011349 -3.2194381 7
