# .PCD v0.7 - Point Cloud Data file format
VERSION 0.7
FIELDS x y z intensity
SIZE 4 4 4 4
TYPE F F F F
COUNT 1 1 1 1
WIDTH 608
HEIGHT 1
VIEWPOINT 0 0 0 1 0 0 0
POINTS 608
DATA ascii
-0.52880901 -5.3183589 72.472656 7
-0.60275799 -5.290771 74.428711 7
-0.46875799 -2.2354741 71.172852 7
-0.47252601 -2.0732419 71.283203 7
-0.468631 -0.41613799 71.27832 7
-0.18623 4.3482671 -70.178711 7
-0.243423 4.2788091 -71.913086 7
-0.51037699 -5.3865972 65.253906 7
-0.57587397 -5.362915 66.822266 7
-0.62388003 -5.2988281 67.978516 7
-0.70755702 -5.2946782 69.979492 7
-0.45981801 0.073242001 64.469727 7
-0.41198701 0.218628 63.334961 7
-0.419119 0.366577 63.510742 7
-0.470139 3.2310791 64.750977 7
-0.43438399 3.335815 63.895508 7
-0.168101 4.1534419 -61.992188 7
-0.275861 4.1861572 -64.90332 7
-0.65149498 -5.4866939 62.957031 7
-0.67518902 -5.3857422 63.489258 7
-0.36649099 0.33056599 57.160156 7
-0.40403101 0.46960399 57.983398 7
-0.404405 3.4243159 57.993164 7
-0.36489701 3.504395 57.125977 7
-0.148498 4.40979 -55.529297 7
-0.070945002 4.0014648 -53.646484 7
-0.14200699 3.9924321 -55.388672 7
-0.190865 3.938354 -56.589844 7
-0.37042099 0.30249 52.550781 7
-0.35737601 3.562866 52.269531 7
-0.33092901 3.6452639 51.736328 7
-0.068419002 4.3334961 -48.417969 7
-0.115399 4.302856 -49.46582 7
-0.160275 4.2635498 -50.466797 7
-0.095407002 4.0255132 -49.037109 7
-0.12922999 3.9637451 -49.792969 7
-0.20361 3.9654541 -51.447266 7
-0.37258199 0.395264 48.980469 7
-0.31991601 0.49755901 48.00293 7
-0.34960601 0.61535603 48.557617 7
-0.288151 0.70947301 47.416016 7
-0.406086 3.6026609 49.567383 7
-0.36574 3.6591799 48.8125 7
-0.318176 3.701416 47.922852 7
-0.091301002 4.2591548 -44.979492 7
-0.129639 4.2188721 -45.771484 7
-0.169991 4.1781011 -46.602539 7
-0.098784 3.9411621 -45.154297 7
-0.136856 3.8944089 -45.939453 7
-0.182349 3.855835 -46.875 7
-0.34058401 -2.502563 44.458984 7
-0.351042 -2.410645 44.645508 7
-0.37896201 -2.33374 45.129883 7
-0.29539299 0.653687 43.836914 7
-0.25833401 0.74291998 43.205078 7
-0.32898101 3.6221919 44.345703 7
-0.30203 3.785156 43.874023 7
-0.27797699 3.8482671 43.457031 7
-0.122558 4.344604 -41.455078 7
-0.14800499 4.2894292 -41.935547 7
-0.165931 4.2185059 -42.27832 7
-0.21358299 4.1982422 -43.172852 7
-0.079576001 0.35913101 -40.776367 7
-0.057744998 0.25634801 -40.369141 7
-0.029354 0.155396 -39.836914 7
-0.052994002 0.058104999 -40.275391 7
-0.038695998 -0.224731 -36.803711 7
-0.32308799 -2.4963379 41.104492 7
-0.328473 -2.4074709 41.198242 7
-0.333134 -2.317627 41.279297 7
-0.33593401 3.6578369 41.374023 7
-0.30162901 3.701782 40.825195 7
-0.28494501 3.769897 40.553711 7
0.40577 20.804932 21.72168 7
0.40632001 20.848877 21.667969 7
0.40650299 20.896729 21.618164 7
0.40741199 20.936035 21.561523 7
0.405458 21.009033 21.535156 7
0.40777799 21.03125 21.461914 7
-0.134333 4.407104 -38.304688 7
-0.182298 4.40271 -39.128906 7
-0.246198 4.3236079 -40.241211 7
-0.063285999 0.87976098 -37.239258 7
-0.049823001 0.78320301 -37.006836 7
-0.075383998 0.69995099 -37.447266 7
-0.097225003 0.141113 -37.821289 7
-0.056575999 0.047240999 -37.119141 7
-0.098435 -0.120239 -34.560547 7
-0.070767999 -0.203125 -34.12207 7
-0.27992201 -2.3483889 37.401367 7
-0.30761999 -2.202637 37.819336 7
-0.22592901 0.62866199 36.74707 7
-0.32898799 3.7146001 38.150391 7
-0.30615601 3.7675779 37.810547 7
-0.279365 3.8123779 37.411133 7
-0.075372003 4.6109619 -33.987305 7
-0.094664 4.5653081 -34.299805 7
-0.124306 4.5384521 -34.775391 7
-0.151355 4.5047612 -35.208984 7
-0.183957 4.479126 -35.729492 7
-0.220625 4.4588618 -36.31543 7
-0.014989 1.200928 -33.249023 7
-0.050985001 1.1368411 -33.818359 7
-0.027774001 1.042236 -33.451172 7
-0.059696998 0.97338903 -33.957031 7
-0.090085998 -0.35510299 -32.076172 7
-0.056226 -0.50598103 -31.570312 7
-0.071451001 -0.58825701 -31.790039 7
-0.047362 -0.65991199 -31.433594 7
-0.27274001 -2.3574221 35.083008 7
-0.28197101 -2.286377 35.216797 7
-0.28270999 -2.207031 35.233398 7
-0.297479 -2.139648 35.443359 7
-0.249413 0.51721197 34.900391 7
-0.222974 0.59033197 34.536133 7
-0.25200701 0.75647002 34.936523 7
-0.31969401 3.7180181 35.743164 7
-0.250916 3.933105 34.772461 7
-0.134973 4.7431641 -32.486328 7
-0.100266 4.592773 -31.987305 7
-0.121685 4.5556641 -32.3125 7
-0.138375 4.507812 -32.56543 7
-0.167309 4.4821782 -32.998047 7
-0.19547901 4.4538569 -33.414062 7
-0.022941001 1.28064 -31.078125 7
-0.047579002 1.216797 -31.442383 7
-0.033016998 1.131348 -31.228516 7
-0.074918002 1.067261 -31.875 7
-0.066344 0.98449701 -31.748047 7
-0.085490003 -0.54296899 -29.485352 7
-0.070584998 -0.61206102 -29.279297 7
-0.046268001 -0.67761201 -28.945312 7
-0.078907996 -0.76062 -29.387695 7
-0.060601 -0.826904 -29.133789 7
-0.041850999 -0.89196801 -28.875977 7
-0.29484299 -3.861084 -32.051758 7
-0.27350801 -3.9061279 -31.751953 7
-0.241997 -4.0107422 -31.304688 7
0.216886 16.011963 21.453125 7
-0.089551002 4.7402339 -29.269531 7
-0.099864997 4.6882319 -29.418945 7
-0.118294 4.6522222 -29.678711 7
-0.13716599 4.6158452 -29.943359 7
-0.164581 4.5949712 -30.323242 7
-0.18942501 4.5673828 -30.668945 7
-0.025811 1.471069 -28.678711 7
-0.066195004 1.2080081 -29.233398 7
-0.061457999 -0.640625 -27.139648 7
-0.067087002 -0.709961 -27.208984 7
-0.092464998 -0.78662097 -27.527344 7
-0.068246998 -0.84594703 -27.21582 7
-0.056437999 -0.90905797 -27.0625 7
-0.276142 -3.943481 -29.545898 7
-0.28779799 -4.035645 -29.680664 7
-0.26585299 -4.0726318 -29.392578 7
-0.253564 -4.1246338 -29.227539 7
-0.245433 -4.1829829 -29.113281 7
-0.121225 4.7619629 -27.580078 7
-0.127709 4.7061772 -27.670898 7
-0.14331 4.6682129 -27.87793 7
-0.15984 4.6313481 -28.097656 7
-0.185065 4.610229 -28.425781 7
-0.19656099 4.5610352 -28.581055 7
-0.035036001 1.374878 -26.823242 7
-0.071475998 1.261353 -27.290039 7
-0.067937002 1.1912839 -27.246094 7
-0.090752997 -0.92040998 -25.431641 7
-0.062307999 -1.034546 -25.089844 7
-0.072919004 -1.165283 -25.207031 7
-0.071552999 -1.2275389 -25.186523 7
-0.28067699 -4.0769038 -27.328125 7
-0.256657 -4.1716309 -27.026367 7
-0.247876 -4.2233891 -26.912109 7
-0.26848 -4.3942871 -27.128906 7
-0.112517 4.786377 -25.334961 7
-0.123395 4.7451172 -25.473633 7
-0.13476799 4.7042241 -25.616211 7
-0.150589 4.6715088 -25.811523 7
-0.16936199 4.6439209 -26.041016 7
-0.18222301 4.6035161 -26.202148 7
-0.15470099 4.4851069 -25.889648 7
-0.042475998 1.598022 -24.841797 7
-0.063744001 1.550171 -25.095703 7
-0.038175002 1.470215 -24.796875 7
-0.048114002 1.414307 -24.916016 7
-0.068411998 1.364014 -25.158203 7
-0.046284001 1.288208 -24.898438 7
-0.078955002 -0.97289997 -23.518555 7
-0.087522 -1.035767 -23.610352 7
-0.096637003 -1.0994869 -23.706055 7
-0.079801999 -1.150269 -23.517578 7
-0.074621998 -1.206543 -23.457031 7
-0.090611003 -1.2744139 -23.62793 7
-0.27083999 -4.1705322 -25.258789 7
-0.27946001 -4.248291 -25.34082 7
-0.26897901 -4.2932129 -25.21582 7
-0.262739 -4.3450928 -25.136719 7
-0.26711801 -4.4154048 -25.171875 7
-0.121979 4.8443599 -23.595703 7
-0.12835599 4.7979741 -23.676758 7
-0.141048 4.7644038 -23.825195 7
-0.14796001 4.7182622 -23.910156 7
-0.168571 4.6993408 -24.144531 7
-0.18233199 4.6655269 -24.305664 7
-0.177633 4.5952148 -24.264648 7
-0.150805 4.4825439 -23.982422 7
-0.075774997 1.63269 -23.457031 7
-0.047855999 1.554199 -23.15332 7
-0.055325001 1.5007319 -23.238281 7
-0.075974002 1.455444 -23.467773 7
-0.058612999 1.3857419 -23.279297 7
-0.057636 1.3262939 -23.271484 7
-0.100888 -1.1413569 -22.121094 7
-0.097897999 -1.362427 -22.074219 7
-0.093482003 -1.415405 -22.025391 7
-0.26288599 -4.1821289 -23.405273 7
-0.279439 -4.2694092 -23.5625 7
-0.28636599 -4.3405762 -23.621094 7
-0.274023 -4.377686 -23.484375 7
-0.26677701 -4.4233398 -23.399414 7
-0.26464099 -4.4780269 -23.366211 7
-0.172181 4.7993159 -22.449219 7
-0.179543 4.7572021 -22.536133 7
-0.176217 4.693604 -22.512695 7
-0.294339 -4.3161621 -22.152344 7
-0.29745901 -4.3771968 -22.171875 7
-0.293363 -4.4255371 -22.120117 7
-0.068242997 1.58606 -20.359375 7
-0.059287 1.5280761 -20.277344 7
-0.059356999 1.476685 -20.279297 7
-0.076206997 1.4356689 -20.446289 7
-0.064268999 1.376343 -20.333008 7
-0.050523002 1.31665 -20.203125 7
-0.093134999 -1.297119 -19.260742 7
-0.113166 -1.4069819 -19.433594 7
-0.107498 -1.452881 -19.37793 7
-0.12232 -1.511719 -19.507812 7
-0.28514099 -4.1925049 -20.59668 7
-0.285889 -4.245728 -20.592773 7
-0.30076399 -4.3236079 -20.713867 7
-0.309856 -4.3917241 -20.783203 7
-0.29907799 -4.4249272 -20.675781 7
-0.295333 -4.470459 -20.630859 7
-0.134212 4.8513179 -19.141602 7
-0.136806 4.8076172 -19.176758 7
-0.184779 4.7067871 -19.646484 7
-0.052035 1.23584 -18.886719 7
-0.041882999 1.182007 -18.795898 7
-0.048969001 1.137695 -18.862305 7
-0.061792001 1.095703 -18.982422 7
-0.051624 1.04248 -18.890625 7
-0.038908001 0.98864698 -18.777344 7
-0.113754 -1.235718 -18.287109 7
-0.109872 -1.32666 -18.245117 7
-0.11673 -1.377197 -18.300781 7
-0.114884 -1.46936 -18.276367 7
-0.111588 -1.5137939 -18.243164 7
-0.119797 -1.565796 -18.30957 7
-0.088766001 -1.108521 -16.960938 7
-0.093167 -1.1544189 -16.994141 7
-0.107608 -1.205566 -17.107422 7
-0.093336001 -1.241577 -16.987305 7
-0.088385999 -1.282349 -16.944336 7
-0.31647399 -4.3876948 -18.300781 7
-0.31730601 -4.4355469 -18.295898 7
-0.31308001 -4.4744868 -18.250977 7
-0.306703 -4.509521 -18.19043 7
-0.30393401 -4.550415 -18.15625 7
-0.31484199 -4.6169429 -18.230469 7
-0.1041 -1.2199709 -16.053711 7
-0.102674 -1.260254 -16.038086 7
-0.098950997 -1.299438 -16.006836 7
-0.096000001 -1.339111 -15.980469 7
-0.107465 -1.386963 -16.063477 7
-0.114368 -1.432739 -16.112305 7
-0.109899 -1.471313 -16.074219 7
-0.107709 -1.511353 -16.052734 7
-0.117649 -1.5593261 -16.125977 7
-0.31727701 -4.4985352 -17.135742 7
-0.31509501 -4.538208 -17.108398 7
-0.31215101 -4.5765381 -17.074219 7
-0.30996901 -4.6160889 -17.046875 7
-0.318452 -4.6755371 -17.097656 7
-0.32692701 -4.7351069 -17.148438 7
-0.32932901 -4.7833252 -17.15332 7
-0.13174599 4.769043 -15.668945 7
-0.13404199 4.7331538 -15.696289 7
-0.137849 4.7000728 -15.735352 7
-0.140892 4.6654048 -15.769531 7
-0.152266 4.6470952 -15.865234 7
-0.171214 4.6434331 -16.016602 7
-0.16066501 4.5812988 -15.948242 7
-0.143272 4.5062261 -15.829102 7
-0.067546003 -0.67211902 -14.859375 7
-0.062015999 -0.70886201 -14.817383 7
-0.058873001 -0.746216 -14.791992 7
-0.060552001 -0.78527802 -14.801758 7
-0.067828998 -0.826294 -14.851562 7
-0.073527001 -0.866943 -14.890625 7
-0.068783 -0.903687 -14.853516 7
-0.068057999 -0.94177198 -14.845703 7
-0.093613997 -1.302368 -15 7
-0.09369 -1.341309 -14.99707 7
-0.118656 -1.395264 -15.172852 7
-0.1099 -1.428833 -15.105469 7
-0.109182 -1.467651 -15.095703 7
-0.103621 -1.50293 -15.052734 7
-0.117352 -1.55127 -15.146484 7
-0.120641 -1.592651 -15.166992 7
-0.31614101 -4.4960942 -16.041016 7
-0.313815 -4.5328369 -16.012695 7
-0.31069601 -4.5682368 -15.979492 7
-0.31079501 -4.6094971 -15.96875 7
-0.318941 -4.665771 -16.013672 7
-0.32629499 -4.7205811 -16.052734 7
-0.33202401 -4.772583 -16.080078 7
-0.076191001 -0.97082502 -14.078125 7
-0.073742002 -1.0062259 -14.057617 7
-0.077183001 -1.044556 -14.078125 7
-0.089922003 -1.087158 -14.163086 7
-0.087465003 -1.122925 -14.142578 7
-0.085833997 -1.158936 -14.128906 7
-0.081684001 -1.193481 -14.09668 7
-0.096947998 -1.238403 -14.197266 7
-0.094490997 -1.273926 -14.177734 7
-0.32917899 -4.4885249 -15.194336 7
-0.31657001 -4.5050049 -15.100586 7
-0.312428 -4.536499 -15.061523 7
-0.313366 -4.577148 -15.057617 7
-0.31090999 -4.6114502 -15.029297 7
-0.31862301 -4.6644292 -15.068359 7
-0.328051 -4.7210689 -15.119141 7
-0.33153 -4.766602 -15.129883 7
-0.092782997 -1.033936 -13.401367 7
-0.099060997 -1.0718991 -13.439453 7
-0.094697997 -1.104858 -13.408203 7
-0.084995002 -1.135132 -13.341797 7
-0.082393996 -1.1687011 -13.322266 7
-0.086894996 -1.205933 -13.348633 7
-0.10386 -1.250244 -13.454102 7
-0.096887998 -1.3162839 -13.401367 7
-0.091617003 -1.348145 -13.364258 7
-0.094362997 -1.384766 -13.376953 7
-0.122862 -1.437744 -13.557617 7
-0.10872 -1.464111 -13.461914 7
-0.110558 -1.500366 -13.470703 7
-0.103525 -1.531006 -13.420898 7
-0.32734999 -4.483398 -14.288086 7
-0.32744101 -4.5205078 -14.27832 7
-0.31773099 -4.539917 -14.206055 7
-0.31426001 -4.570312 -14.172852 7
-0.31523699 -4.6088872 -14.167969 7
-0.31175801 -4.6390381 -14.134766 7
-0.31898201 -4.6893311 -14.167969 7
-0.33520001 -4.793457 -14.244141 7
-0.121124 4.7281489 -12.860352 7
-0.12027 4.6923828 -12.865234 7
-0.124701 4.6672359 -12.904297 7
-0.122947 4.6296391 -12.905273 7
-0.125625 4.6010742 -12.931641 7
-0.129187 4.573853 -12.964844 7
-0.14337499 4.5675049 -13.063477 7
-0.14251301 4.5313721 -13.069336 7
-0.141636 4.4952388 -13.074219 7
-0.092937 -1.284912 -12.671875 7
-0.100451 -1.322632 -12.71582 7
-0.098650999 -1.35498 -12.701172 7
-0.101512 -1.390015 -12.714844 7
-0.115562 -1.432251 -12.796875 7
-0.099794999 -1.455811 -12.696289 7
-0.101733 -1.490356 -12.703125 7
-0.109247 -1.528687 -12.746094 7
-0.108385 -1.561646 -12.736328 7
-0.322431 -4.5438228 -13.430664 7
-0.316908 -4.5687261 -13.385742 7
-0.31419301 -4.5985112 -13.358398 7
-0.30773899 -4.62146 -13.308594 7
-0.304093 -4.649292 -13.275391 7
-0.31164601 -4.6982422 -13.30957 7
-0.31921199 -4.7471919 -13.341797 7
-0.32396501 -4.7911382 -13.358398 7
-0.12828 4.776001 -12.133789 7
-0.122734 4.7322998 -12.113281 7
-0.122742 4.7003169 -12.124023 7
-0.12555701 4.6737061 -12.151367 7
-0.131125 4.6524658 -12.195312 7
-0.133002 4.6239009 -12.216797 7
-0.136732 4.598877 -12.25 7
-0.147892 4.5882568 -12.326172 7
-0.156268 4.5718989 -12.386719 7
-0.14329199 4.5141602 -12.320312 7
-0.097126 -1.286621 -11.992188 7
-0.085423999 -1.3117681 -11.919922 7
-0.083540998 -1.342041 -11.905273 7
-0.087514997 -1.376099 -11.924805 7
-0.090512998 -1.409302 -11.939453 7
-0.107219 -1.45166 -12.03418 7
-0.102383 -1.480347 -12.001953 7
-0.098537996 -1.5093991 -11.974609 7
-0.100552 -1.542358 -11.982422 7
-0.101597 -1.5749511 -11.985352 7
-0.31737399 -4.5089111 -12.601562 7
-0.317458 -4.5419922 -12.59082 7
-0.30967799 -4.5609131 -12.536133 7
-0.30485001 -4.5849609 -12.49707 7
-0.308862 -4.625 -12.508789 7
-0.305994 -4.6524658 -12.481445 7
-0.31295899 -4.6983638 -12.507812 7
-0.32187599 -4.7481689 -12.546875 7
-0.32883301 -4.7940669 -12.573242 7
-0.08715 -1.314209 -11.328125 7
-0.089254998 -1.3455811 -11.336914 7
-0.088285998 -1.375122 -11.328125 7
-0.090383999 -1.406616 -11.335938 7
-0.106823 -1.447021 -11.424805 7
-0.107906 -1.4781491 -11.426758 7
-0.100804 -1.5037839 -11.382812 7
-0.101888 -1.534912 -11.384766 7
-0.102979 -1.565796 -11.386719 7
-0.107136 -1.598999 -11.40625 7
-0.31808501 -4.4980469 -11.917969 7
-0.31824499 -4.5611572 -11.895508 7
-0.31216499 -4.5814209 -11.850586 7
-0.311304 -4.642334 -11.823242 7
-0.31239501 -4.6755371 -11.818359 7
-0.32590401 -4.7635498 -11.867188 7
-0.090765998 -1.309814 -10.723633 7
-0.083305001 -1.333984 -10.680664 7
-0.083366998 -1.362671 -10.677734 7
-0.087723002 -1.393921 -10.697266 7
-0.089928001 -1.424072 -10.705078 7
-0.097493999 -1.457397 -10.742188 7
-0.105069 -1.491089 -10.77832 7
-0.095472999 -1.513428 -10.722656 7
-0.096602 -1.542969 -10.724609 7
-0.099881999 -1.573975 -10.738281 7
-0.313494 -4.480835 -11.172852 7
-0.31787199 -4.518311 -11.18457 7
-0.31903899 -4.5501709 -11.178711 7
-0.314798 -4.572144 -11.146484 7
-0.31165501 -4.5959468 -11.119141 7
-0.31172499 -4.6254878 -11.108398 7
-0.31394401 -4.6591802 -11.108398 7
-0.314035 -4.6888428 -11.097656 7
-0.32488301 -4.7390141 -11.139648 7
-0.32711801 -4.7728271 -11.139648 7
-0.091720998 -1.308105 -10.196289 7
-0.089523003 -1.3343509 -10.181641 7
-0.081743002 -1.357056 -10.138672 7
-0.084039003 -1.3857419 -10.145508 7
-0.084100001 -1.4130861 -10.141602 7
-0.088638999 -1.4432369 -10.162109 7
-0.10214 -1.47937 -10.226562 7
-0.102201 -1.50708 -10.223633 7
-0.096648 -1.530762 -10.19043 7
-0.100074 -1.560547 -10.204102 7
-0.099013001 -1.58728 -10.195312 7
-0.31389099 -4.4854741 -10.555664 7
-0.31862101 -4.5787349 -10.543945 7
-0.314197 -4.5987549 -10.512695 7
-0.31426501 -4.6269531 -10.500977 7
-0.31659201 -4.6593022 -10.500977 7
-0.315539 -4.6854248 -10.484375 7
-0.31449401 -4.7114258 -10.467773 7
-0.32579899 -4.7609859 -10.509766 7
-0.328134 -4.793335 -10.508789 7
-0.089203998 -1.30249 -9.6738281 7
-0.096267998 -1.332764 -9.7060547 7
-0.088128 -1.354248 -9.6621094 7
-0.087013997 -1.379761 -9.6542969 7
-0.088234998 -1.406616 -9.65625 7
-0.088296004 -1.432861 -9.6523438 7
-0.086023003 -1.457397 -9.6376953 7
-0.112958 -1.501343 -9.7646484 7
-0.108343 -1.524658 -9.7392578 7
-0.099036999 -1.544678 -9.6894531 7
-0.104941 -1.5749511 -9.7138672 7
-0.083284996 -1.294312 -9.1757812 7
-0.083346002 -1.319458 -9.171875 7
-0.094361 -1.351074 -9.2207031 7
-0.087099001 -1.371948 -9.1835938 7
-0.090806998 -1.39917 -9.1972656 7
-0.090860002 -1.424194 -9.1933594 7
-0.082377002 -1.443848 -9.1513672 7
-0.089739002 -1.473755 -9.1816406 7
-0.106864 -1.5098881 -9.2568359 7
-0.103249 -1.532837 -9.2363281 7
-0.10575 -1.55957 -9.2431641 7
-0.105788 -1.5849611 -9.2402344 7
-0.124227 4.7746582 -8.3291016 7
-0.121801 4.746582 -8.3300781 7
-0.118163 4.7158198 -8.3251953 7
-0.110886 4.6315918 -8.328125 7
-0.114532 4.6158452 -8.3544922 7
-0.120611 4.6047359 -8.390625 7
-0.079402998 -1.281738 -8.6777344 7
-0.083278 -1.307861 -8.6914062 7
-0.087145999 -1.334106 -8.7060547 7
-0.087199003 -1.358032 -8.7021484 7
-0.074513003 -1.3742681 -8.6425781 7
-0.075833 -1.3988039 -8.6445312 7
-0.080967002 -1.425903 -8.6650391 7
-0.082294002 -1.450439 -8.6660156 7
-0.093797997 -1.481812 -8.7138672 7
-0.100221 -1.51001 -8.7392578 7
-0.097726002 -1.532227 -8.7236328 7
-0.091411002 -1.552002 -8.6923828 7
-0.094003998 -1.577637 -8.6992188 7
-0.318883 -4.643188 -8.7871094 7
-0.316403 -4.662231 -8.7646484 7
-0.31647199 -4.6864009 -8.7539062 7
-0.31781501 -4.7130132 -8.7480469 7
-0.31788301 -4.736938 -8.7373047 7
-0.09527 -1.3762209 -8.3154297 7
-0.093996003 -1.39856 -8.3066406 7
-0.091394998 -1.419922 -8.2910156 7
-0.096743003 -1.446167 -8.3115234 7
-0.095468998 -1.468506 -8.3017578 7
-0.12456 4.7774658 -4.4111328 7
-0.12626199 4.7670898 -4.4257808 7
-0.12625401 4.7532959 -4.4375 7
-0.115986 4.7182622 -4.421875 7
-0.121113 4.7148442 -4.4462891 7
-0.127947 4.7148442 -4.4755859 7
-0.122806 4.6904302 -4.4726558 7
-0.110814 4.624146 -4.4746089 7
-0.100532 4.589355 -4.4599609 7
-0.095398001 4.565186 -4.4580078 7
-0.097107001 4.554565 -4.4726558 7
-0.120975 4.609375 -4.1767578 7
-0.120975 4.5959468 -4.1875 7
-0.122723 4.5863042 -4.202148 7
-0.119191 4.565918 -4.2050781 7
-0.12626199 4.5665278 -4.2324219 7
-0.122707 4.545898 -4.235352 7
-0.117398 4.5219731 -4.2324219 7
-0.126224 4.526001 -4.265625 7
-0.113836 4.4881592 -4.2451172 7
-0.119138 4.4851069 -4.2685552 7
-0.062960997 4.1909499 5.6958141 7
-0.060975999 4.2554469 5.5188251 7
-0.291619 -4.8370161 5.8874741 7
-0.078671999 -1.5919 -9.2759581 7
-0.04713 -1.511304 -7.5523171 7
-0.018289 -1.448034 -6.1972589 7
0.013155 -1.39533 -5.0649772 7
-0.055588 -1.7155941 -1.773123 7
-0.070223004 -1.768639 -0.89773601 7
-0.304838 -4.9044662 5.8633761 7
-0.30950499 -4.8094082 6.0381808 7
-0.058136001 -1.7276061 -0.67488199 7
-0.078087002 -1.904246 -0.70132899 7
-0.307506 -5.034863 5.2685962 7
-0.29519799 -4.9117389 5.416574 7
-0.27406999 -4.9232821 4.8160582 7
-0.273413 -4.853539 4.9789338 7
-0.294265 -4.6287022 1.411781 7
-0.298305 -4.7063289 1.563432 7
-0.324613 -5.0935102 3.216445 7
-0.32003301 -5.073575 3.387393 7
-0.30192199 -4.8813009 4.2568879 7
-0.292804 -4.808311 4.410336 7
-0.291798 -4.6671028 1.9386311 7
-0.29179099 -4.7123289 2.095274 7
-0.28245699 -4.7239432 2.260592 7
-0.28217101 -4.7555509 2.418808 7
-0.29335201 -4.8573632 3.217838 7
-0.27930599 -4.8098779 3.377898 7
-0.27001399 -4.4819479 2.004457 7
-0.26415899 -4.5086918 2.1582301 7
-0.265744 -4.5502 2.306334 7
-0.27288401 -4.601707 2.4524231 7
-0.157432 4.6261349 -16.375656 7
-0.108749 4.5213099 -12.167611 7
-0.10488 4.6313648 -4.384232 7
-0.105347 4.2687702 5.7101278 7
-0.109217 4.3688488 5.5706568 7
-0.109402 4.233747 5.4778771 7
-0.064095996 4.7435832 -16.011566 7
-0.193643 4.6355348 -12.336156 7
-0.12161 -1.346638 -9.9447432 7
-0.36833301 -4.547348 -13.174982 7
-0.075331002 -1.3639981 -8.0975857 7
-0.0056949998 1.376412 -7.157536 7
-0.048023 -1.3826489 -6.9048262 7
0.015276 1.368553 -6.1505079 7
-0.077779002 -1.383286 -6.0010548 7
-0.027799999 1.57745 -5.4574962 7
-0.030086 1.398885 -5.530231 7
-0.066816002 -1.417124 -5.4301729 7
-0.051536001 -1.424583 -4.915503 7
-0.048094001 -1.45362 -4.5534711 7
-0.069750004 -1.8502671 -1.86634 7
-0.072246 -1.900939 -1.7735749 7
-0.061264999 -1.9179831 -1.605564 7
-0.046179 -1.664099 -1.875881 7
-0.044615 -1.692485 -1.805292 7
-0.054109 -1.7554131 -1.74625 7
-0.050547 -1.778246 -1.6518461 7
-0.054412 -1.901996 -0.95533597 7
-0.051268 -1.88636 -0.87676603 7
-0.051226001 -1.8787251 -0.79702902 7
-0.052092999 -1.61747 -1.699051 7
-0.0438 -1.616967 -1.624388 7
-0.051607002 -1.741809 -0.89733601 7
-0.055048998 -1.746091 -0.82154399 7
-0.044431001 -1.653139 -0.91009301 7
-0.043046001 -1.641566 -0.84114599 7
