# .PCD v0.7 - Point Cloud Data file format
VERSION 0.7
FIELDS x y z intensity
SIZE 4 4 4 4
TYPE F F F F
COUNT 1 1 1 1
WIDTH 590
HEIGHT 1
VIEWPOINT 0 0 0 1 0 0 0
POINTS 590
DATA ascii
-0.55969501 -5.3726811 73.337891 7
-0.469816 -2.2275391 71.245117 7
-0.475582 -1.901001 71.417969 7
-0.205221 4.389648 -70.808594 7
-0.247913 4.2932129 -72.104492 7
-0.541475 -5.290771 66.054688 7
-0.58924401 -5.2277832 67.205078 7
-0.64385402 -5.1721191 68.517578 7
-0.116264 4.0672612 -60.634766 7
-0.172481 4.0155029 -62.15625 7
-0.64538002 -5.3244629 62.884766 7
-0.68624401 -5.2537842 63.789062 7
-0.41640601 3.4432371 58.262695 7
-0.37265 3.5180659 57.302734 7
-0.098820999 4.321167 -54.354492 7
-0.156471 4.2944341 -55.771484 7
-0.083862998 4.0294189 -54.001953 7
-0.14416 4.0013428 -55.482422 7
-0.187997 3.9389651 -56.558594 7
-0.336952 0.42578101 51.902344 7
-0.31954399 0.54150403 51.554688 7
-0.32140401 0.66088903 51.594727 7
-0.36860001 3.585815 52.509766 7
-0.33690399 3.6563721 51.859375 7
-0.072246 4.2280269 -48.532227 7
-0.12604401 4.2072749 -49.731445 7
-0.056465 3.962646 -48.196289 7
-0.095031001 3.9108889 -49.056641 7
-0.13963801 3.8652339 -50.051758 7
-0.18610699 3.817627 -51.087891 7
-0.341203 0.50402802 48.407227 7
-0.28195399 0.60095203 47.305664 7
-0.30473101 0.71630901 47.731445 7
-0.373377 3.672852 48.958984 7
-0.33837 3.733887 48.302734 7
-0.298985 3.7853999 47.56543 7
-0.094250999 4.2692871 -45.072266 7
-0.135593 4.1219478 -45.930664 7
-0.105769 3.9576421 -45.330078 7
-0.140986 3.905762 -46.055664 7
-0.18561 3.8657229 -46.973633 7
-0.029525001 -0.03833 -39.853516 7
-0.346156 -2.401001 44.583008 7
-0.354563 -2.306396 44.734375 7
-0.26596701 0.45324701 43.34375 7
-0.246347 0.54834002 43.008789 7
-0.34079099 3.6412351 44.548828 7
-0.30139101 3.685303 43.870117 7
-0.280085 3.753906 43.501953 7
-0.265255 3.8305659 43.241211 7
-0.127132 4.358398 -41.558594 7
-0.15194599 4.3022461 -42.027344 7
-0.176759 4.2434082 -42.49707 7
-0.21283101 4.202148 -43.176758 7
-0.030529 0.84338403 -39.885742 7
-0.044573002 0.65148902 -40.147461 7
-0.072581999 0.55981398 -40.667969 7
-0.104505 0.36523399 -41.261719 7
-0.063598 0.259399 -40.495117 7
-0.038982 0.158081 -40.03418 7
-0.054772001 0.060059 -40.327148 7
-0.071895003 -0.048950002 -37.422852 7
-0.075763002 -0.14123499 -37.486328 7
-0.051468 -0.230957 -37.06543 7
-0.31304601 -2.387939 40.972656 7
-0.32543299 -2.3056641 41.175781 7
-0.34299999 -2.227051 41.460938 7
-0.237266 0.59570301 39.893555 7
-0.26250601 0.69409198 40.295898 7
-0.23367999 0.77710003 39.838867 7
-0.321715 3.7337649 41.145508 7
-0.28558701 3.772949 40.56543 7
-0.27112401 3.8435061 40.330078 7
-0.27059001 3.9350591 40.314453 7
0.43077901 20.571777 21.399414 7
0.43096301 20.619141 21.350586 7
0.428644 20.695923 21.330078 7
0.429544 20.734497 21.272461 7
0.43044499 20.772949 21.214844 7
-0.13835 4.4199219 -38.388672 7
-0.164186 4.373291 -38.841797 7
-0.188686 4.3222661 -39.270508 7
-0.22707 4.2938228 -39.936523 7
-0.073692001 0.88610798 -37.436523 7
-0.059237 0.788818 -37.1875 7
-0.089222997 0.70642102 -37.703125 7
-0.107217 -0.20458999 -34.709961 7
-0.045981001 -0.36584499 -33.738281 7
-0.049933001 -0.53356898 -33.795898 7
-0.27492601 -3.6218259 -37.128906 7
-0.257283 -3.6864009 -36.84082 7
-0.234789 -3.7418211 -36.477539 7
-0.26696599 -2.3319089 37.226562 7
-0.29586899 -2.187866 37.662109 7
-0.25340199 0.55664098 37.15918 7
-0.253943 0.72619599 37.167969 7
-0.227908 0.80236799 36.786133 7
-0.22778501 0.88622999 36.785156 7
-0.285561 3.652344 37.516602 7
-0.31248 3.778687 37.90332 7
-0.284888 3.8226321 37.493164 7
-0.242842 3.92627 36.865234 7
0.36287701 18.657715 21.4375 7
0.36304501 18.705078 21.393555 7
0.36400601 18.744263 21.339844 7
0.36339599 18.799438 21.304688 7
0.36473799 18.834473 21.24707 7
-0.076608002 4.5335689 -34.033203 7
-0.101833 4.499023 -34.4375 7
-0.12739401 4.4631348 -34.847656 7
-0.15519001 4.4294429 -35.293945 7
-0.18704399 4.4013672 -35.803711 7
-0.22333699 4.3789058 -36.382812 7
-0.051270001 1.2229 -33.836914 7
-0.021407001 1.124023 -33.366211 7
-0.061461002 1.060303 -34 7
-0.036793999 0.96545398 -33.611328 7
-0.102118 0.82263201 -34.643555 7
-0.109067 -0.36254901 -32.384766 7
-0.070088997 -0.513794 -31.804688 7
-0.084872 -0.59643602 -32.018555 7
-0.059358001 -0.746216 -31.635742 7
-0.288553 -3.744873 -34.756836 7
-0.277585 -3.8132319 -34.584961 7
-0.28803799 -2.127197 35.328125 7
-0.204753 0.66540498 34.290039 7
-0.21513499 0.82482898 34.432617 7
-0.308456 3.7844241 35.584961 7
-0.28375599 3.827271 35.238281 7
-0.242815 3.9217529 34.663086 7
-0.252 4.0161128 34.78125 7
0.305464 17.265503 21.413086 7
0.30271101 17.339355 21.40332 7
0.302062 17.394287 21.370117 7
0.30222201 17.441772 21.329102 7
0.29990399 17.511841 21.314453 7
0.30297101 17.531982 21.242188 7
0.302322 17.58667 21.208984 7
-0.13427 4.74646 -32.490234 7
-0.10234 4.601562 -32.033203 7
-0.122172 4.5614009 -32.333008 7
-0.142417 4.5203862 -32.638672 7
-0.168199 4.4885249 -33.025391 7
-0.198329 4.4630132 -33.477539 7
-0.028534999 1.285889 -31.175781 7
-0.05672 1.223877 -31.59375 7
-0.042800002 1.049072 -31.422852 7
-0.080086999 -0.68652302 -29.416992 7
-0.0502 -0.74951202 -29.007812 7
-0.088431001 -0.83581501 -29.524414 7
-0.070116997 -0.90173298 -29.271484 7
-0.050957002 -0.966187 -29.006836 7
-0.30325699 -3.8830571 -32.202148 7
-0.28624001 -3.935425 -31.960938 7
-0.26793301 -3.9846189 -31.702148 7
-0.255202 -4.041748 -31.518555 7
-0.27765799 -4.1574712 -31.810547 7
-0.090277001 4.6726069 -29.300781 7
-0.10059 4.620605 -29.451172 7
-0.122443 4.5905762 -29.757812 7
-0.141726 4.5541992 -30.02832 7
-0.164015 4.5223389 -30.338867 7
-0.19101 4.4979248 -30.712891 7
-0.033619002 1.407837 -28.796875 7
-0.030377001 1.262329 -28.755859 7
-0.102348 -0.794312 -27.672852 7
-0.062674999 -0.91589397 -27.161133 7
-0.079846002 -1.059204 -27.373047 7
-0.073089004 -1.123901 -27.282227 7
-0.294741 -3.9820559 -29.811523 7
-0.29717401 -4.059937 -29.831055 7
-0.27982801 -4.10498 -29.602539 7
-0.26066801 -4.1456299 -29.348633 7
-0.26126301 -4.2193599 -29.34375 7
-0.122843 4.7694092 -27.613281 7
-0.130234 4.7155762 -27.71582 7
-0.144484 4.6750488 -27.905273 7
-0.187604 4.6192632 -28.469727 7
-0.19681799 4.56604 -28.595703 7
-0.061333999 1.52417 -27.165039 7
-0.053644001 1.451538 -27.069336 7
-0.04961 1.38147 -27.020508 7
-0.049702 1.314087 -27.023438 7
-0.072241999 1.259155 -27.311523 7
-0.067299001 1.188354 -27.250977 7
-0.098934002 -0.99157703 -25.539062 7
-0.077310003 -1.04541 -25.280273 7
-0.068019003 -1.104126 -25.167969 7
-0.098247997 -1.1826169 -25.519531 7
-0.085510001 -1.2392581 -25.365234 7
-0.075243004 -1.296875 -25.240234 7
-0.29090801 -4.170166 -27.462891 7
-0.27767399 -4.2156978 -27.295898 7
-0.26839799 -4.267334 -27.176758 7
-0.25764301 -4.31604 -27.039062 7
-0.258757 -4.3851318 -27.041016 7
-0.110893 4.7866211 -25.328125 7
-0.123273 4.7485352 -25.482422 7
-0.136622 4.7115479 -25.649414 7
-0.148491 4.671021 -25.799805 7
-0.17316701 4.6550288 -26.097656 7
-0.182588 4.6080322 -26.217773 7
-0.053732 1.545166 -24.988281 7
-0.043449 1.47583 -24.869141 7
-0.055372 1.4206541 -25.012695 7
-0.070230998 1.366943 -25.191406 7
-0.051573999 1.293213 -24.972656 7
-0.093851 -1.398926 -23.667969 7
-0.28626499 -4.2045898 -25.448242 7
-0.290622 -4.2756348 -25.484375 7
-0.279614 -4.3198242 -25.353516 7
-0.27603701 -4.3765869 -25.302734 7
-0.268738 -4.4265141 -25.211914 7
-0.120842 4.845459 -23.594727 7
-0.139401 4.7645259 -23.817383 7
-0.14998101 4.7259521 -23.943359 7
-0.16901299 4.7037349 -24.162109 7
-0.185406 4.6751709 -24.350586 7
-0.163857 4.5718989 -24.125977 7
-0.14809801 4.480835 -23.963867 7
-0.053024001 1.55957 -23.22168 7
-0.059966002 1.5057369 -23.300781 7
-0.075336002 1.456787 -23.473633 7
-0.063795999 1.390747 -23.348633 7
-0.058060002 1.328491 -23.287109 7
-0.105584 -1.1474611 -22.178711 7
-0.274674 -4.2094731 -23.541992 7
-0.29346901 -4.3010249 -23.72168 7
-0.29585701 -4.364502 -23.734375 7
-0.28463599 -4.4038091 -23.609375 7
-0.279663 -4.4538569 -23.546875 7
-0.27636799 -4.506958 -23.501953 7
-0.117204 -1.189209 -20.867188 7
-0.107181 -1.289185 -20.761719 7
-0.126118 4.842896 -20.496094 7
-0.127956 4.7944341 -20.524414 7
-0.12801 4.74231 -20.535156 7
-0.152595 4.7401118 -20.780273 7
-0.074830003 1.592285 -20.433594 7
-0.076089002 1.5411381 -20.449219 7
-0.063562997 1.480835 -20.331055 7
-0.054028999 1.423218 -20.241211 7
-0.082869999 1.389526 -20.523438 7
-0.069147997 1.3293459 -20.392578 7
-0.098304003 -1.303223 -19.310547 7
-0.116451 -1.461792 -19.464844 7
-0.119732 -1.513428 -19.489258 7
-0.31789899 -4.3598628 -20.876953 7
-0.32121 -4.4182129 -20.896484 7
-0.305397 -4.4951172 -20.731445 7
-0.30549601 -4.5476069 -20.72168 7
-0.14778399 4.7840581 -19.293945 7
-0.15420599 4.7479248 -19.361328 7
-0.16635799 4.7228999 -19.481445 7
-0.182377 4.6549072 -19.645508 7
-0.14989799 4.541748 -19.366211 7
-0.070889004 1.248535 -19.066406 7
-0.053132001 1.142212 -18.908203 7
-0.049996998 1.092285 -18.881836 7
-0.061553001 1.049438 -18.989258 7
-0.038754001 0.89489698 -18.786133 7
-0.034977999 0.84545898 -18.75293 7
-0.044025 0.752563 -18.839844 7
-0.046016999 0.70520002 -18.858398 7
-0.108695 -1.3288569 -18.239258 7
-0.33434701 -4.4912109 -19.693359 7
-0.32495701 -4.5240479 -19.602539 7
-0.31894699 -4.5626221 -19.541016 7
-0.33058 -4.6335449 -19.625977 7
-0.34427199 -4.7087402 -19.729492 7
-0.055491 0.70776403 -17.841797 7
-0.057658002 0.61718798 -17.862305 7
-0.049610998 0.56945801 -17.792969 7
-0.046301 0.52307099 -17.765625 7
-0.034256998 0.42968801 -17.663086 7
-0.030268 0.38391101 -17.628906 7
-0.020191001 0.33728001 -17.542969 7
-0.040927 -0.014648 -16.588867 7
-0.043862998 -0.057495002 -16.612305 7
-0.031064 -0.14856 -16.541992 7
-0.036876999 -0.19152801 -16.586914 7
-0.043391 -0.234863 -16.638672 7
-0.098131999 -1.2906491 -17.026367 7
-0.103945 -1.337769 -17.069336 7
-0.12554701 -1.394531 -17.239258 7
-0.114136 -1.431396 -17.143555 7
-0.110635 -1.473267 -17.111328 7
-0.117889 -1.5218509 -17.165039 7
-0.127279 -1.572144 -17.237305 7
-0.121159 4.7703862 -16.666016 7
-0.125484 4.7363281 -16.710938 7
-0.129107 4.700562 -16.749023 7
-0.129839 4.658813 -16.766602 7
-0.14132699 4.6384282 -16.867188 7
-0.142784 4.5977778 -16.889648 7
-0.142822 4.5541992 -16.900391 7
-0.14071 4.5067139 -16.893555 7
-0.045007002 0.156616 -16.623047 7
-0.040757999 0.113525 -16.587891 7
-0.035075001 0.070556998 -16.542969 7
-0.035145 0.027953999 -16.542969 7
-0.061608002 -0.345581 -15.779297 7
-0.056359999 -0.38549799 -15.737305 7
-0.052638002 -0.42541501 -15.707031 7
-0.048907999 -0.46520999 -15.677734 7
-0.056552 -0.507568 -15.734375 7
-0.057374999 -0.54821801 -15.739258 7
-0.058199 -0.58911097 -15.743164 7
-0.05675 -0.62927198 -15.729492 7
-0.104084 -1.3050539 -16.047852 7
-0.103397 -1.346069 -16.039062 7
-0.107257 -1.389771 -16.06543 7
-0.125549 -1.4423831 -16.199219 7
-0.117266 -1.4786381 -16.132812 7
-0.115824 -1.5194089 -16.117188 7
-0.120446 -1.563965 -16.149414 7
-0.33812001 -4.494751 -17.303711 7
-0.32909501 -4.5227051 -17.225586 7
-0.32538801 -4.5600591 -17.185547 7
-0.32318401 -4.5999761 -17.15918 7
-0.32100299 -4.639648 -17.130859 7
-0.33326799 -4.7062988 -17.209961 7
-0.34098801 -4.764771 -17.25293 7
-0.13426501 4.776978 -15.695312 7
-0.135051 4.737915 -15.712891 7
-0.13808601 4.7032471 -15.746094 7
-0.138887 4.664062 -15.762695 7
-0.154052 4.6534419 -15.884766 7
-0.16769101 4.6390381 -15.998047 7
-0.160917 4.5843511 -15.958008 7
-0.13900299 4.5006099 -15.806641 7
-0.079750001 -0.67797899 -14.945312 7
-0.074249998 -0.75366199 -14.901367 7
-0.066371001 -0.82788098 -14.838867 7
-0.071238004 -0.86840802 -14.871094 7
-0.079315998 -0.91015601 -14.927734 7
-0.07779 -0.94812 -14.913086 7
-0.096823998 -1.306641 -15.022461 7
-0.123423 -1.400635 -15.208008 7
-0.115474 -1.435059 -15.146484 7
-0.114735 -1.4736331 -15.136719 7
-0.112408 -1.511353 -15.116211 7
-0.122095 -1.557007 -15.181641 7
-0.335924 -4.493042 -16.191406 7
-0.32636601 -4.5170898 -16.112305 7
-0.32403901 -4.5544429 -16.085938 7
-0.32011101 -4.588501 -16.045898 7
-0.322606 -4.6341548 -16.051758 7
-0.33237001 -4.6937261 -16.108398 7
-0.34935001 -4.7669678 -16.213867 7
-0.085725002 -1.0137939 -14.138672 7
-0.082422003 -1.049194 -14.112305 7
-0.081635997 -1.085449 -14.104492 7
-0.099478997 -1.1680911 -14.220703 7
-0.096169002 -1.203369 -14.194336 7
-0.097976997 -1.27832 -14.200195 7
-0.107497 -1.148438 -13.484375 7
-0.103363 -1.322266 -13.441406 7
-0.101646 -1.356445 -13.425781 7
-0.102592 -1.39209 -13.428711 7
-0.099992 -1.4256589 -13.408203 7
-0.115141 -1.470459 -13.501953 7
-0.113479 -1.539917 -13.484375 7
-0.135718 4.7944341 -12.946289 7
-0.117152 4.7220459 -12.841797 7
-0.118953 4.691772 -12.864258 7
-0.126054 4.6723628 -12.918945 7
-0.130501 4.6469731 -12.957031 7
-0.12962399 4.6112061 -12.962891 7
-0.135849 4.5892329 -13.012695 7
-0.145597 4.5739751 -13.084961 7
-0.149175 4.5466309 -13.117188 7
-0.13857201 4.4914551 -13.061523 7
-0.10167 -1.29187 -12.722656 7
-0.103593 -1.326416 -12.731445 7
-0.101786 -1.358887 -12.716797 7
-0.099054001 -1.390625 -12.696289 7
-0.12145 -1.43811 -12.830078 7
-0.112206 -1.46582 -12.769531 7
-0.108537 -1.497192 -12.743164 7
-0.114174 -1.534302 -12.774414 7
-0.116103 -1.569214 -12.782227 7
-0.12503301 4.7393799 -12.133789 7
-0.120419 4.6977539 -12.117188 7
-0.123218 4.6711431 -12.144531 7
-0.128801 4.650269 -12.188477 7
-0.130686 4.621582 -12.209961 7
-0.139053 4.6057129 -12.270508 7
-0.147421 4.5897222 -12.331055 7
-0.151152 4.564209 -12.365234 7
-0.14096101 4.5117192 -12.313477 7
-0.106386 -1.293823 -12.043945 7
-0.091779001 -1.317261 -11.954102 7
-0.089878999 -1.347778 -11.939453 7
-0.089932002 -1.379517 -11.936523 7
-0.092931002 -1.412842 -11.950195 7
-0.116463 -1.4593509 -12.083984 7
-0.112596 -1.488892 -12.057617 7
-0.103854 -1.514771 -12.00293 7
-0.107828 -1.549438 -12.021484 7
-0.106897 -1.580566 -12.012695 7
-0.095853001 -1.290894 -11.376953 7
-0.092846997 -1.319214 -11.356445 7
-0.093923002 -1.350098 -11.358398 7
-0.091992997 -1.4094239 -11.339844 7
-0.107371 -1.449219 -11.422852 7
-0.115663 -1.515503 -11.460938 7
-0.104473 -1.53833 -11.394531 7
-0.109645 -1.572266 -11.419922 7
-0.092488997 -1.283813 -10.732422 7
-0.100049 -1.316895 -10.769531 7
-0.089377001 -1.339355 -10.708984 7
-0.089415997 -1.368042 -10.705078 7
-0.091636002 -1.3980711 -10.713867 7
-0.094893001 -1.428955 -10.727539 7
-0.10352 -1.463135 -10.770508 7
-0.116457 -1.500366 -10.833984 7
-0.102559 -1.520142 -10.756836 7
-0.103688 -1.549683 -10.758789 7
-0.10696 -1.580688 -10.772461 7
-0.090240002 -1.281372 -10.186523 7
-0.092520997 -1.310059 -10.194336 7
-0.099294998 -1.341797 -10.225586 7
-0.087021001 -1.361694 -10.160156 7
-0.090430997 -1.3913569 -10.173828 7
-0.090476997 -1.4187011 -10.169922 7
-0.089409001 -1.445557 -10.161133 7
-0.101873 -1.536011 -10.213867 7
-0.104162 -1.565063 -10.220703 7
-0.10533 -1.593384 -10.222656 7
-0.131429 4.7930908 -9.4619141 7
-0.110216 4.697998 -9.3847656 7
-0.106898 4.6398931 -9.390625 7
-0.106898 4.588501 -9.4130859 7
-0.109157 4.5413818 -9.4453115 7
-0.12146 4.5137939 -9.5244141 7
-0.091286004 -1.3050539 -9.6796885 7
-0.100692 -1.3369139 -9.7226562 7
-0.099578001 -1.3625489 -9.7128906 7
-0.091431998 -1.3837889 -9.6699219 7
-0.092643999 -1.410889 -9.6728516 7
-0.093864001 -1.437866 -9.6748047 7
-0.090402 -1.462036 -9.6542969 7
-0.111485 -1.5018311 -9.7529297 7
-0.117374 -1.532104 -9.7773438 7
-0.108076 -1.552246 -9.7285156 7
-0.110463 -1.580322 -9.7363281 7
-0.078189999 -1.292969 -9.1464844 7
-0.097724997 -1.329468 -9.234375 7
-0.102645 -1.357422 -9.2539062 7
-0.091721997 -1.3762209 -9.2001953 7
-0.095422 -1.40332 -9.2128906 7
-0.095468 -1.4287111 -9.2109385 7
-0.091866001 -1.451538 -9.1894531 7
-0.110182 -1.488525 -9.2714844 7
-0.106574 -1.511353 -9.25 7
-0.112715 -1.5406491 -9.2753906 7
-0.109091 -1.563599 -9.2548828 7
-0.110373 -1.5896 -9.2558594 7
-0.106846 4.648315 -8.3046885 7
-0.103215 4.618042 -8.2998047 7
-0.086893998 -1.2874759 -8.7060547 7
-0.090769 -1.313354 -8.71875 7
-0.088266999 -1.33606 -8.7050781 7
-0.097207002 -1.365479 -8.7412109 7
-0.083263002 -1.380859 -8.6757812 7
-0.084574997 -1.40564 -8.6777344 7
-0.088443004 -1.4317631 -8.6904297 7
-0.089754999 -1.456665 -8.6933594 7
-0.102531 -1.48877 -8.7460938 7
-0.105118 -1.514648 -8.7539062 7
-0.107703 -1.540405 -8.7617188 7
-0.101388 -1.560181 -8.7294922 7
-0.101434 -1.584229 -8.7265615 7
-0.097879 -1.425171 -8.3134766 7
-0.124159 4.787354 -4.78125 7
-0.082815997 4.540894 -4.7900391 7
-0.12114 4.6723628 -4.484375 7
-0.115998 4.6478271 -4.483398 7
-0.115991 4.633667 -4.4941411 7
-0.114274 4.616333 -4.5 7
-0.115975 4.6055908 -4.515625 7
-0.115968 4.5914311 -4.5263672 7
-0.114259 4.573853 -4.5332031 7
-0.110826 4.552856 -4.5351558 7
-0.102276 4.521729 -4.523438 7
-0.100559 4.504395 -4.530273 7
-0.097126998 4.483398 -4.53125 7
0.039453998 -1.549786 -11.636216 7
-0.062447 -1.455356 -9.1235867 7
-0.028555 -1.392449 -7.3877268 7
-0.0048560002 -1.6638 -5.152267 7
-0.067208 -1.595999 -4.3088632 7
-0.046495002 -1.542848 -3.6277201 7
0.0030489999 -1.452914 -2.47104 7
-0.31214401 -4.685195 -1.8943909 7
-0.28946301 -4.7690649 0.64612597 7
-0.28306201 -4.8075352 5.5180979 7
-0.271952 -4.572649 0.78143102 7
-0.287925 -4.7097998 0.90952897 7
-0.272751 -4.7499051 1.0981899 7
-0.28854001 -4.8755178 1.236652 7
-0.28373101 -4.920011 4.9110141 7
-0.276333 -4.8261542 5.0640359 7
-0.30460101 -4.565876 1.202522 7
-0.308873 -4.6523609 1.351426 7
-0.31127101 -4.7275848 1.506381 7
-0.29944101 -4.7551041 1.681572 7
-0.33218801 -5.1148081 3.000417 7
-0.331411 -5.1150999 3.1731639 7
-0.323385 -4.966825 4.190938 7
-0.314327 -4.896287 4.3485961 7
-0.28488699 -4.5234718 1.601505 7
-0.29247499 -4.6037011 1.744356 7
-0.29083601 -4.65207 1.900735 7
-0.27594399 -4.7296438 2.3834879 7
-0.27925199 -4.767096 2.5395601 7
-0.27322999 -4.7705121 2.701267 7
-0.27627501 -4.7947469 2.8591819 7
-0.29207999 -4.8511949 3.0158651 7
-0.29302299 -4.8566971 3.177428 7
-0.27064699 -4.5553432 2.265003 7
-0.264604 -4.5708418 2.4199541 7
-0.26599899 -4.6014452 2.570365 7
-0.263466 -4.614758 2.7234969 7
-0.26649499 -4.638144 2.8748679 7
-0.17846601 -3.511049 2.3196149 7
-0.18346199 -3.349602 2.2651789 7
-0.177315 -3.3728781 2.3701661 7
-0.188225 -3.42682 2.463891 7
-0.17944001 -3.4361789 2.5720439 7
-0.187793 -3.477026 2.671113 7
-0.186206 -3.4929271 2.7764211 7
-0.15466601 -3.230788 2.3147991 7
-0.148286 -3.2521961 2.4147079 7
-0.15934201 -3.3042879 2.5033441 7
-0.147765 -3.307148 2.6076951 7
-0.158703 -3.3516331 2.7001259 7
-0.154505 -3.3613231 2.801106 7
-0.150699 -3.2157011 2.7313221 7
-0.151428 -3.234509 2.8246181 7
-0.040902 4.557353 -8.7853384 7
0.0056230002 1.333093 -6.0383291 7
-0.058871001 -0.237372 -16.252491 7
-0.150865 -1.565917 -12.146938 7
-0.17494801 4.6235828 -11.985096 7
-0.110277 -1.593666 -9.7434616 7
-0.112343 4.5659428 -8.9594631 7
-0.075700998 -1.291315 -8.1124849 7
-0.089965001 -1.627502 -8.251111 7
-0.065291002 -1.6185451 -7.0618472 7
0.0020029999 1.244586 -6.3318672 7
-0.107567 -1.622298 -6.2278352 7
-0.111427 4.5169539 -4.6108708 7
-0.033840999 1.268187 -5.5989652 7
-0.039675999 1.091408 -5.6930232 7
-0.082390003 -1.411659 -5.5681901 7
-0.094058998 -1.633484 -5.6084328 7
-0.015327 1.276619 -5.0072498 7
-0.073665 -1.443657 -5.0900111 7
-0.083480999 -1.640805 -5.106154 7
-0.013348 1.463704 -4.5785751 7
-0.002385 1.285606 -4.5494628 7
-0.063127004 -1.45863 -4.6666632 7
-0.039147999 1.454829 -4.1965108 7
-0.034054998 1.309657 -4.2169881 7
-0.071385004 -1.283778 -4.2442851 7
-0.084948003 -1.451236 -4.2711759 7
-0.060903002 -1.300343 -3.946516 7
-0.072434999 -1.450716 -3.955694 7
-0.086778 -1.612762 -3.972214 7
-0.097999997 -1.769383 -3.9651909 7
-0.27460301 -4.7226672 -1.762852 7
-0.05229 -1.313157 -3.689523 7
-0.065614 -1.458313 -3.701798 7
-0.066348001 -1.569926 -3.6477871 7
-0.042399999 -1.3156689 -3.4521229 7
-0.052158002 -1.441465 -3.4432399 7
-0.053001001 -1.542563 -3.3897901 7
-0.056290999 -1.3045501 -3.2248559 7
-0.065995 -1.419421 -3.2103291 7
-0.047150001 -1.597656 -2.5391359 7
-0.040025 -1.326593 -2.514451 7
-0.049247 -1.4111151 -2.4844439 7
-0.038943 -1.439774 -2.4015379 7
-0.054007001 -1.539374 -2.378535 7
-0.039914001 -1.3292429 -2.4069159 7
-0.038649 -1.380422 -2.3497579 7
-0.048198 -1.4600821 -2.31511 7
-0.023851 -1.287155 -2.268667 7
