# .PCD v0.7 - Point Cloud Data file format
VERSION 0.7
FIELDS x y z intensity
SIZE 4 4 4 4
TYPE F F F F
COUNT 1 1 1 1
WIDTH 644
HEIGHT 1
VIEWPOINT 0 0 0 1 0 0 0
POINTS 644
DATA ascii
-0.52898401 -5.303833 72.491211 7
-0.59335101 -5.25769 74.196289 7
-0.208598 4.21875 -71.073242 7
-0.247339 4.1118159 -72.251953 7
-0.56236202 -5.3234859 66.516602 7
-0.61357099 -5.2659912 67.748047 7
-0.705118 -5.2762451 69.935547 7
-0.413519 -2.553345 63.223633 7
-0.035494 4.0631099 -58.567383 7
-0.127186 4.082397 -61.053711 7
-0.182631 4.0281978 -62.558594 7
-0.63472998 -5.296875 62.62207 7
-0.66110098 -5.2003169 63.211914 7
-0.115494 4.348877 -54.860352 7
-0.163289 4.3026118 -56.038086 7
-0.090773001 4.037354 -54.267578 7
-0.14882 4.0047612 -55.695312 7
-0.209949 3.9703369 -57.199219 7
-0.339935 0.310303 51.943359 7
-0.33068201 0.42846701 51.760742 7
-0.33663201 0.54919398 51.881836 7
-0.395329 3.5 53.041992 7
-0.35780501 3.5699461 52.286133 7
-0.31242499 3.625 51.375 7
-0.075898997 4.231812 -48.692383 7
-0.13117699 4.2133789 -49.925781 7
-0.16651601 4.1538091 -50.717773 7
-0.102825 3.9206541 -49.30957 7
-0.150766 3.879761 -50.380859 7
-0.220789 3.8692629 -51.941406 7
-0.123378 0.54907203 -49.826172 7
-0.36118099 0.39929199 48.782227 7
-0.30759299 0.500732 47.786133 7
-0.34262899 0.61926299 48.44043 7
-0.28339601 0.71362299 47.339844 7
-0.36868501 3.6698 48.875977 7
-0.33023101 3.7254641 48.155273 7
-0.28771901 3.771606 47.360352 7
-0.103556 4.1721191 -45.335938 7
-0.139284 4.1243901 -46.074219 7
-0.17556199 4.0740972 -46.824219 7
-0.107622 3.845459 -45.441406 7
-0.153595 3.80896 -46.387695 7
-0.212961 3.7893071 -47.610352 7
-0.334364 -2.3857419 44.366211 7
-0.26368701 0.55200201 43.300781 7
-0.248171 0.64721698 43.037109 7
-0.25450999 0.74792498 43.146484 7
-0.323329 3.721436 44.25 7
-0.29895699 3.7858889 43.827148 7
-0.27355501 3.8470459 43.386719 7
-0.131464 4.36377 -41.694336 7
-0.155927 4.3061519 -42.15918 7
-0.174134 4.235352 -42.506836 7
-0.21732999 4.206665 -43.320312 7
-0.028774001 0.835693 -39.912109 7
-0.071124002 0.75158697 -40.704102 7
-0.047166001 0.64465302 -40.254883 7
-0.081993997 0.55432099 -40.905273 7
-0.083010003 0.25317401 -40.919922 7
-0.065351002 -0.046142999 -37.251953 7
-0.090315998 -0.139404 -37.678711 7
-0.069393001 -0.229736 -37.31543 7
-0.04947 -0.318726 -36.970703 7
-0.31497601 -2.3859861 40.989258 7
-0.32001001 -2.296875 41.076172 7
-0.31304899 3.7237549 41.009766 7
-0.29564199 3.79126 40.727539 7
-0.26340401 3.9265139 40.203125 7
0.43459201 20.469727 21.393555 7
0.434425 20.52124 21.348633 7
0.43425 20.572632 21.304688 7
0.432282 20.644897 21.279297 7
0.433175 20.683594 21.223633 7
0.43283901 20.785522 21.132812 7
-0.119432 4.474854 -38.103516 7
-0.139478 4.4188228 -38.458008 7
-0.17002 4.380981 -38.990234 7
-0.20192 4.342896 -39.546875 7
-0.235185 4.304688 -40.126953 7
-0.065484002 0.87597698 -37.345703 7
-0.060504001 0.78210402 -37.259766 7
-0.097560003 0.701904 -37.899414 7
-0.101238 0.046142999 -37.87207 7
-0.099330001 -0.21167 -34.631836 7
-0.046149999 -0.540649 -33.780273 7
-0.285772 -3.6295171 -37.238281 7
-0.27590901 -3.706177 -37.071289 7
-0.257489 -3.7687991 -36.772461 7
-0.23832799 -3.828613 -36.460938 7
-0.29178101 -2.4377439 37.570312 7
-0.268911 -2.330322 37.244141 7
-0.289157 -2.2641599 37.546875 7
-0.306198 -2.193481 37.802734 7
-0.21300299 0.79711902 36.563477 7
-0.302091 3.679688 37.760742 7
-0.304317 3.7694089 37.787109 7
-0.25194299 3.8592529 37.006836 7
-0.245443 3.933228 36.90625 7
-0.089786999 4.647583 -34.279297 7
-0.085081004 4.5533452 -34.214844 7
-0.103952 4.500854 -34.509766 7
-0.132809 4.4710689 -34.972656 7
-0.15429699 4.425415 -35.319336 7
-0.187592 4.3996582 -35.852539 7
-0.224213 4.377686 -36.4375 7
-0.022132 1.201172 -33.419922 7
-0.039981 1.127441 -33.703125 7
-0.065206997 1.055908 -34.102539 7
-0.042399 0.96166998 -33.742188 7
-0.069479004 0.88903803 -34.171875 7
-0.102103 0.816284 -34.6875 7
-0.096802004 -0.35803199 -32.162109 7
-0.092973001 -0.43689001 -32.102539 7
-0.063331999 -0.50964397 -31.663086 7
-0.096017003 -0.59643602 -32.140625 7
-0.075902 -0.670044 -31.84082 7
-0.29140601 -3.6616211 -34.80957 7
-0.29671499 -3.7553711 -34.87793 7
-0.28058201 -3.81604 -34.629883 7
-0.27000999 -3.884521 -34.464844 7
-0.26475 -2.263062 34.984375 7
-0.27554399 -2.1164551 35.152344 7
-0.236518 0.597534 34.730469 7
-0.21941601 0.671875 34.494141 7
-0.233733 0.75488299 34.691406 7
-0.22300699 0.829956 34.542969 7
-0.201664 0.900635 34.249023 7
-0.28199399 3.7468259 35.222656 7
-0.288638 3.8374021 35.307617 7
-0.27961299 3.903564 35.175781 7
-0.25151899 3.938477 34.783203 7
-0.240367 3.9992681 34.624023 7
-0.25123599 4.096436 34.764648 7
0.30469301 17.31604 21.375 7
0.304441 17.367065 21.338867 7
0.30461001 17.414307 21.297852 7
0.30476999 17.461426 21.256836 7
0.30535001 17.504517 21.210938 7
0.30676201 17.539673 21.15625 7
-0.105725 4.6856689 -32.105469 7
-0.103445 4.6011958 -32.082031 7
-0.124445 4.5629878 -32.399414 7
-0.150188 4.5324712 -32.787109 7
-0.17948 4.5072021 -33.226562 7
-0.19575 4.4552002 -33.474609 7
-0.032187998 1.2824709 -31.266602 7
-0.06521 1.144043 -31.755859 7
-0.059145998 1.057861 -31.626953 7
-0.093379997 0.994385 -32.130859 7
-0.091764003 -0.62365699 -29.615234 7
-0.067042001 -0.68957502 -29.273438 7
-0.048737001 -0.756226 -29.021484 7
-0.085205004 -0.841919 -29.516602 7
-0.061765 -0.90588403 -29.192383 7
-0.054602999 -0.97534198 -29.09082 7
-0.30651399 -3.881104 -32.199219 7
-0.301945 -3.9532471 -32.126953 7
-0.28188401 -3.9998779 -31.844727 7
-0.25883299 -4.0402832 -31.522461 7
-0.25295201 -4.1082759 -31.431641 7
-0.092083998 4.6784668 -29.360352 7
-0.105371 4.6322021 -29.551758 7
-0.122496 4.5926509 -29.793945 7
-0.14218301 4.5571289 -30.070312 7
-0.175937 4.5472412 -30.537109 7
-0.19135299 4.5004878 -30.756836 7
-0.026976001 1.255371 -28.741211 7
-0.075428002 1.136597 -29.407227 7
-0.074170001 -0.64599597 -27.290039 7
-0.095407002 -0.720581 -27.557617 7
-0.099205002 -0.790649 -27.601562 7
-0.074987002 -0.85022002 -27.290039 7
-0.093477003 -0.925659 -27.521484 7
-0.074415997 -1.053833 -27.271484 7
-0.091990001 -1.130493 -27.490234 7
-0.298935 -3.9138179 -29.878906 7
-0.305053 -3.997437 -29.943359 7
-0.27129999 -4.089478 -29.49707 7
-0.25718901 -4.1385498 -29.307617 7
-0.11986 4.691772 -27.610352 7
-0.13361999 4.6505132 -27.794922 7
-0.145558 4.6046138 -27.955078 7
-0.16528399 4.5732422 -28.212891 7
-0.18773299 4.5457759 -28.506836 7
-0.059365001 1.596069 -27.129883 7
-0.049509998 1.5168459 -26.989258 7
-0.066582002 1.460327 -27.208008 7
-0.043302 1.378052 -26.914062 7
-0.060373001 1.320801 -27.133789 7
-0.085247003 1.26709 -27.452148 7
-0.09409 -0.98681599 -25.456055 7
-0.075418003 -1.0419919 -25.232422 7
-0.082442999 -1.108398 -25.311523 7
-0.095899999 -1.178833 -25.466797 7
-0.082664996 -1.235352 -25.306641 7
-0.28815401 -4.1646729 -27.433594 7
-0.272944 -4.206543 -27.244141 7
-0.26118201 -4.2539058 -27.094727 7
-0.25488901 -4.3100591 -27.009766 7
-0.27431801 -4.4119868 -27.225586 7
-0.111342 4.789185 -25.359375 7
-0.125164 4.7539058 -25.532227 7
-0.15279999 4.6812739 -25.875977 7
-0.17596599 4.6619868 -26.157227 7
-0.042603001 1.533203 -24.881836 7
-0.043166999 1.471069 -24.890625 7
-0.090829 -0.97949201 -23.639648 7
-0.088510998 -1.15625 -23.602539 7
-0.088076003 -1.215088 -23.59375 7
-0.297616 -4.223022 -25.574219 7
-0.28872201 -4.2713618 -25.466797 7
-0.27877501 -4.3173828 -25.34668 7
-0.27413699 -4.372437 -25.28418 7
-0.27212399 -4.4317632 -25.250977 7
-0.120056 4.8452148 -23.608398 7
-0.139111 4.7652588 -23.837891 7
-0.150728 4.7287598 -23.975586 7
-0.181408 4.6072998 -24.34082 7
-0.064589001 1.563477 -23.369141 7
-0.065762997 1.446411 -23.388672 7
-0.104478 -1.144775 -22.148438 7
-0.28395 -4.224731 -23.639648 7
-0.29099 -4.3552251 -23.686523 7
-0.27819899 -4.4506841 -23.53418 7
-0.123657 -1.190552 -20.911133 7
-0.107609 -1.287231 -20.748047 7
-0.153898 4.9547119 -20.764648 7
-0.12521701 4.8417969 -20.50293 7
-0.077026002 1.5899661 -20.47168 7
-0.073480003 1.5354 -20.441406 7
-0.064554997 1.477783 -20.357422 7
-0.050221998 1.4169919 -20.22168 7
-0.082641996 1.385254 -20.539062 7
-0.068315998 1.324707 -20.401367 7
-0.12513199 -1.217163 -19.547852 7
-0.1125 -1.309204 -19.426758 7
-0.119816 -1.461792 -19.479492 7
-0.32201001 -4.3664551 -20.916992 7
-0.318257 -4.4127202 -20.87207 7
-0.30756399 -4.4986572 -20.753906 7
-0.30577099 -4.5476069 -20.725586 7
-0.150224 4.7897949 -19.330078 7
-0.153451 4.7469478 -19.369141 7
-0.156662 4.704102 -19.40918 7
-0.175175 4.6912842 -19.585938 7
-0.177113 4.6453862 -19.614258 7
-0.143383 4.5294189 -19.323242 7
-0.074009001 1.246582 -19.108398 7
-0.069585003 1.195435 -19.070312 7
-0.054322001 1.13916 -18.93457 7
-0.044817999 1.08606 -18.849609 7
-0.055078 1.042847 -18.944336 7
-0.057677999 0.99536097 -18.97168 7
-0.038022 0.89074701 -18.794922 7
-0.033606 0.84106398 -18.756836 7
-0.029189 0.79150403 -18.717773 7
-0.038830999 0.74707001 -18.806641 7
-0.118138 -1.240479 -18.330078 7
-0.106712 -1.280762 -18.228516 7
-0.10408 -1.325806 -18.202148 7
-0.13598099 -1.391235 -18.47168 7
-0.124547 -1.4312741 -18.370117 7
-0.114478 -1.47168 -18.279297 7
-0.119291 -1.5213619 -18.316406 7
-0.13562299 -1.5793459 -18.452148 7
-0.060702 0.61865199 -17.87793 7
-0.056713 0.57202101 -17.844727 7
-0.055438999 0.52600098 -17.833984 7
-0.03994 0.477173 -17.702148 7
-0.038658001 0.43164101 -17.691406 7
-0.033989999 0.38537601 -17.652344 7
-0.031358998 0.33972201 -17.628906 7
-0.101459 -1.290894 -17.041016 7
-0.095081002 -1.330811 -16.986328 7
-0.123168 -1.3913569 -17.208008 7
-0.1175 -1.432007 -17.15918 7
-0.115434 -1.474609 -17.138672 7
-0.109774 -1.514771 -17.087891 7
-0.124221 -1.568359 -17.200195 7
-0.32800299 -4.5070801 -18.379883 7
-0.31947401 -4.5383301 -18.300781 7
-0.31526399 -4.577148 -18.254883 7
-0.324716 -4.6411128 -18.317383 7
-0.33775899 -4.711792 -18.408203 7
-0.34217599 -4.7669678 -18.431641 7
-0.119343 4.7669678 -16.662109 7
-0.127222 4.7401118 -16.736328 7
-0.128672 4.6999512 -16.757812 7
-0.132981 4.6654048 -16.802734 7
-0.142303 4.640625 -16.886719 7
-0.141624 4.5958252 -16.892578 7
-0.145225 4.5593262 -16.930664 7
-0.135957 4.4976811 -16.868164 7
-0.051476002 0.281982 -16.688477 7
-0.057257999 0.239746 -16.736328 7
-0.050147999 0.195923 -16.678711 7
-0.045906998 0.15258799 -16.643555 7
-0.040233001 0.109497 -16.59668 7
-0.035976 0.066528 -16.5625 7
-0.034603 0.024048001 -16.550781 7
-0.062500998 -0.34484899 -15.779297 7
-0.055743001 -0.38452101 -15.724609 7
-0.052021001 -0.424438 -15.694336 7
-0.052836999 -0.46520999 -15.700195 7
-0.060502999 -0.50732398 -15.755859 7
-0.062082 -0.54858398 -15.766602 7
-0.061395999 -0.58898902 -15.759766 7
-0.057681002 -0.62866199 -15.728516 7
-0.105938 -1.304688 -16.051758 7
-0.106007 -1.346069 -16.047852 7
-0.128875 -1.401245 -16.21875 7
-0.120591 -1.437866 -16.151367 7
-0.118395 -1.478027 -16.130859 7
-0.116953 -1.518555 -16.115234 7
-0.129189 -1.5682369 -16.204102 7
-0.133265 4.7341309 -15.709961 7
-0.13479 4.6966548 -15.732422 7
-0.13935301 4.6651611 -15.777344 7
-0.157545 4.619019 -15.933594 7
-0.167385 4.597168 -16.017578 7
-0.13642401 4.495728 -15.797852 7
-0.077362999 -0.67614698 -14.921875 7
-0.079842001 -0.715698 -14.936523 7
-0.076706998 -0.75329602 -14.912109 7
-0.075167 -0.79150403 -14.897461 7
-0.068805002 -0.82775903 -14.849609 7
-0.074495003 -0.86840802 -14.887695 7
-0.077784002 -0.90832502 -14.90918 7
-0.083466999 -0.94946301 -14.948242 7
-0.079521999 -0.98632801 -14.916016 7
-0.073962003 -1.0224611 -14.873047 7
-0.074846998 -1.061646 -14.876953 7
-0.085343003 -1.105347 -14.950195 7
-0.098279998 -1.1505131 -15.039062 7
-0.104756 -1.192871 -15.083984 7
-0.108044 -1.233765 -15.103516 7
-0.105702 -1.2713619 -15.083008 7
-0.098555997 -1.306396 -15.027344 7
-0.100225 -1.346313 -15.037109 7
-0.103521 -1.387207 -15.055664 7
-0.124468 -1.4393311 -15.202148 7
-0.11491 -1.472412 -15.129883 7
-0.118999 -1.514282 -15.154297 7
-0.115063 -1.550781 -15.12207 7
-0.095778003 -0.98034698 -14.203125 7
-0.091628999 -1.015503 -14.171875 7
-0.084940001 -1.049316 -14.12207 7
-0.081629999 -1.0843509 -14.09668 7
-0.086763002 -1.123657 -14.12793 7
-0.102027 -1.168335 -14.231445 7
-0.102103 -1.205444 -14.227539 7
-0.097946003 -1.240234 -14.196289 7
-0.101584 -1.2800291 -14.228516 7
-0.099953003 -1.316162 -14.212891 7
-0.102553 -1.354614 -14.227539 7
-0.101768 -1.391113 -14.217773 7
-0.12716199 -1.44397 -14.387695 7
-0.116246 -1.474365 -14.30957 7
-0.118855 -1.513306 -14.323242 7
-0.116391 -1.54895 -14.302734 7
-0.123211 -1.59082 -14.344727 7
-0.106376 -1.111572 -13.475586 7
-0.110884 -1.14917 -13.501953 7
-0.106705 -1.2880861 -13.461914 7
-0.104103 -1.321777 -13.44043 7
-0.105057 -1.3575439 -13.443359 7
-0.104233 -1.39209 -13.43457 7
-0.106964 -1.428833 -13.448242 7
-0.123914 -1.4749759 -13.554688 7
-0.116873 -1.505859 -13.504883 7
-0.118734 -1.542114 -13.510742 7
-0.121458 -1.579468 -13.525391 7
-0.127029 4.776123 -12.899414 7
-0.115542 4.7185059 -12.839844 7
-0.118212 4.6899409 -12.867188 7
-0.125306 4.6704102 -12.922852 7
-0.129738 4.6452641 -12.960938 7
-0.132416 4.616333 -12.987305 7
-0.139502 4.5961909 -13.042969 7
-0.137786 4.4897461 -13.063477 7
-0.094493002 -1.28772 -12.681641 7
-0.11039 -1.330444 -12.777344 7
-0.097406998 -1.3562011 -12.692383 7
-0.101183 -1.3918459 -12.711914 7
-0.111481 -1.4317631 -12.773438 7
-0.106896 -1.46228 -12.740234 7
-0.110681 -1.498413 -12.760742 7
-0.112602 -1.533203 -12.768555 7
-0.105227 -1.561646 -12.717773 7
-0.131806 4.7852778 -12.167969 7
-0.131814 4.7530522 -12.179688 7
-0.121623 4.6999512 -12.130859 7
-0.122561 4.6695561 -12.147461 7
-0.12443 4.6411128 -12.169922 7
-0.12629101 4.6125488 -12.191406 7
-0.12908401 4.5856929 -12.219727 7
-0.13560501 4.5661621 -12.268555 7
-0.145803 4.5534668 -12.339844 7
-0.15696301 4.5423579 -12.416016 7
-0.105051 -1.292358 -12.030273 7
-0.092396997 -1.316895 -11.952148 7
-0.093433999 -1.349121 -11.955078 7
-0.092510998 -1.380249 -11.946289 7
-0.102366 -1.417847 -11.999023 7
-0.117104 -1.458984 -12.083008 7
-0.105418 -1.483276 -12.009766 7
-0.106463 -1.515747 -12.011719 7
-0.107493 -1.548218 -12.014648 7
-0.111483 -1.582886 -12.033203 7
-0.097234003 -1.291504 -11.385742 7
-0.100346 -1.32373 -11.400391 7
-0.092221998 -1.349121 -11.351562 7
-0.092275999 -1.379395 -11.348633 7
-0.092344001 -1.409668 -11.344727 7
-0.099560998 -1.4443361 -11.381836 7
-0.114954 -1.484619 -11.463867 7
-0.112955 -1.513672 -11.448242 7
-0.106884 -1.540161 -11.410156 7
-0.110003 -1.572632 -11.423828 7
-0.092947997 -1.283203 -10.730469 7
-0.096228004 -1.313965 -10.744141 7
-0.093061998 -1.34082 -10.723633 7
-0.086662002 -1.365723 -10.686523 7
-0.091017999 -1.397095 -10.706055 7
-0.092155002 -1.426514 -10.708008 7
-0.101873 -1.461182 -10.755859 7
-0.111599 -1.49646 -10.803711 7
-0.107358 -1.5224611 -10.777344 7
-0.103125 -1.548584 -10.751953 7
-0.107465 -1.5802 -10.770508 7
-0.092896 -1.2830811 -10.203125 7
-0.097425997 -1.312988 -10.222656 7
-0.087440997 -1.362183 -10.164062 7
-0.088655002 -1.417725 -10.164062 7
-0.113415 -1.488403 -10.282227 7
-0.101188 -1.535522 -10.211914 7
-0.10353 -1.592163 -10.21582 7
-0.131055 4.7657471 -9.4755859 7
-0.127722 4.7331538 -9.4707031 7
-0.106508 4.66394 -9.3818359 7
-0.10538 4.6359859 -9.3867188 7
-0.108744 4.617188 -9.4140615 7
-0.109858 4.59375 -9.4306641 7
-0.106517 4.5610352 -9.4257812 7
-0.108751 4.539917 -9.4462891 7
-0.110994 4.5184331 -9.4677734 7
-0.1177 4.5056152 -9.5097656 7
-0.122177 4.4882808 -9.5419922 7
-0.097410999 -1.281738 -9.7089844 7
-0.097473003 -1.308228 -9.7060547 7
-0.104536 -1.338623 -9.7373047 7
-0.094062999 -1.358765 -9.6826172 7
-0.094109997 -1.38501 -9.6796885 7
-0.096496999 -1.41272 -9.6875 7
-0.095383003 -1.438477 -9.6787109 7
-0.104804 -1.470459 -9.7207031 7
-0.120052 -1.506714 -9.7900391 7
-0.110746 -1.527222 -9.7412109 7
-0.108458 -1.552124 -9.7265615 7
-0.110853 -1.580078 -9.734375 7
-0.086001001 -1.297485 -9.1855469 7
-0.083613001 -1.3212889 -9.1708984 7
-0.098282002 -1.355103 -9.2363281 7
-0.092225999 -1.376465 -9.2050781 7
-0.091066003 -1.401001 -9.1953115 7
-0.095978998 -1.429077 -9.2148438 7
-0.097245 -1.455078 -9.2177734 7
-0.098518997 -1.481079 -9.21875 7
-0.103432 -1.509521 -9.2382812 7
-0.111998 -1.540405 -9.2744141 7
-0.104744 -1.5606689 -9.2363281 7
-0.109664 -1.589233 -9.2558594 7
-0.089998998 -1.289307 -8.7207031 7
-0.087503999 -1.31189 -8.7060547 7
-0.096444003 -1.341064 -8.7431641 7
-0.087581001 -1.359741 -8.7001953 7
-0.083805002 -1.381348 -8.6796885 7
-0.085170999 -1.4300539 -8.6787109 7
-0.095407002 -1.460449 -8.7197266 7
-0.104362 -1.490234 -8.7558594 7
-0.113318 -1.520142 -8.7929688 7
-0.099352002 -1.5350339 -8.7275391 7
-0.099404998 -1.558838 -8.7226562 7
-0.103272 -1.585693 -8.7363281 7
-0.1009 -1.312012 -8.3457031 7
-0.102273 -1.335938 -8.3476562 7
-0.111579 -1.364502 -8.3847656 7
-0.098429002 -1.402832 -8.3212891 7
-0.101114 -1.427368 -8.3300781 7
-0.09984 -1.449829 -8.3203115 7
-0.106545 -1.500244 -8.3417969 7
-0.119825 -1.532227 -8.3945312 7
-0.11457 -1.5517581 -8.3681641 7
-0.112022 -1.596191 -8.3496094 7
-0.426429 -6.4156489 -6.1298828 7
-0.43095201 -6.444458 -6.1279302 7
-0.422066 -6.440063 -6.085938 7
-0.425109 -6.4654541 -6.0800781 7
-0.322164 -4.6861572 -6.0576172 7
-0.319006 -4.6976318 -6.0380859 7
-0.31747201 -4.7125239 -6.0224609 7
-0.31752601 -4.730103 -6.0107422 7
-0.31597 -4.7445068 -5.9951172 7
-0.32081401 -4.7712402 -5.9980469 7
-0.312866 -4.773438 -5.9628911 7
-0.31452799 -4.7940669 -5.9560552 7
-0.31496301 -4.4929199 -5.750977 7
-0.31169 -4.5036621 -5.7314448 7
-0.305116 -4.5084229 -5.7001948 7
-0.31014299 -4.5345459 -5.704102 7
-0.315162 -4.5604248 -5.7080078 7
-0.310242 -4.5681152 -5.6826172 7
-0.31692401 -4.597168 -5.6904302 7
-0.31531399 -4.6108398 -5.6757808 7
-0.33198199 -4.6584468 -5.710938 7
-0.32538301 -4.6629639 -5.6806641 7
-0.32047099 -4.6704102 -5.65625 7
-0.31388101 -4.6746831 -5.625977 7
-0.312271 -4.688354 -5.610352 7
-0.315642 -4.7111821 -5.608398 7
-0.315696 -4.7277832 -5.5976558 7
-0.31575 -4.7442632 -5.585938 7
-0.319121 -4.767334 -5.5839839 7
-0.31585699 -4.7773442 -5.563477 7
-0.312576 -4.7877202 -5.5429692 7
-0.048785999 4.2375498 5.3656378 7
-0.041044001 4.2546768 5.1782808 7
-0.315222 -4.9754968 5.8802361 7
-0.309163 -4.830843 6.1200991 7
-0.098580003 -1.470287 -9.5527163 7
-0.039914999 -1.396592 -7.5076089 7
-0.017012 -1.3495229 -6.2102742 7
-0.060791001 -1.3583421 -4.315958 7
-0.073481999 -1.677766 -4.3345418 7
-0.040463999 -1.326602 -3.6333899 7
-0.32435799 -4.7106848 -4.146008 7
-0.30288601 -4.678565 -3.3756709 7
-0.32583499 -4.7722511 -2.3803561 7
-0.30848801 -4.7241578 -1.835494 7
-0.049222998 -1.659897 -1.755219 7
-0.084521003 -1.893299 -1.869979 7
-0.299014 -4.6918111 -1.373197 7
-0.336546 -5.0838499 6.1746569 7
-0.30944899 -4.8816161 6.2835951 7
-0.299389 -4.7372909 0.177058 7
-0.30841401 -4.941515 5.8287649 7
-0.30376801 -4.8203349 5.984982 7
-0.012673 -1.344265 -0.58316302 7
-0.029425999 -1.510299 -0.61573601 7
-0.284491 -4.7543912 0.65631199 7
-0.289597 -4.8271232 5.52987 7
0.00049300003 -1.3260159 -0.37538299 7
-0.018138001 -1.4840519 -0.41445199 7
-0.27491999 -4.5810661 0.77558702 7
-0.27787799 -4.6805792 0.92804903 7
-0.26590699 -4.7295389 1.109928 7
-0.262027 -4.7949772 1.278661 7
-0.316053 -5.0703592 4.8259749 7
-0.305406 -4.9693089 4.981503 7
-0.282915 -4.827239 5.1140571 7
-0.29377201 -4.5360031 1.219754 7
-0.28857499 -4.7234001 1.69486 7
-0.28716901 -4.773809 1.856262 7
-0.32122201 -4.853755 4.558311 7
-0.27184799 -4.4873791 1.618461 7
-0.27033499 -4.5413852 1.770487 7
-0.27233401 -4.5992222 1.9203219 7
-0.27788299 -4.6613641 2.0689881 7
-0.27781099 -4.701263 2.2250271 7
-0.28785399 -4.7824559 3.8578269 7
-0.295432 -4.774652 4.0202041 7
-0.28206599 -4.609622 3.9860311 7
-0.28783199 -4.591022 4.1406059 7
-0.17180701 -3.4202919 2.576478 7
-0.172768 -3.4454491 2.678503 7
-0.183525 -3.4872489 2.777499 7
-0.179611 -3.496984 2.9097941 7
-0.18524601 -3.518749 3.0136981 7
-0.17846 -3.509702 3.1201899 7
-0.149984 -3.3116441 2.6064401 7
-0.14839999 -3.3305621 2.705061 7
-0.156783 -3.3660181 2.8002141 7
-0.150176 -3.369565 2.9268069 7
-0.15838601 -3.395926 3.024852 7
-0.15394001 -3.391928 3.125896 7
-0.143323 -3.2186689 2.827632 7
-0.14421 -3.236721 2.9443271 7
-0.150077 -3.2571321 3.0372829 7
-0.142691 -3.247556 3.132762 7
-0.134736 4.7333231 -15.832309 7
-0.112043 4.6758661 -12.102057 7
-0.048291001 4.4697189 -8.9584312 7
-0.097406998 4.4142098 5.3961492 7
-0.099977002 4.2849679 5.3151989 7
-0.078010999 4.2904038 5.1303172 7
-0.053525999 -0.234946 -16.098169 7
-0.17935 4.5347929 -12.093163 7
-0.157245 -1.3300821 -10.489352 7
-0.115372 4.5899348 -9.0004721 7
-0.104046 -1.359135 -8.4778929 7
-0.070991002 -1.380798 -7.1741071 7
-0.10868 -1.407607 -6.289742 7
-0.031672001 1.215613 -5.590549 7
-0.035595 1.034884 -5.6656151 7
-0.081463002 -1.409264 -5.5607028 7
-0.021872001 1.2523921 -5.0712838 7
-0.021298001 1.083735 -5.1085949 7
-0.067456998 -1.426989 -5.0445781 7
-0.083237 -1.640075 -5.1043959 7
-0.018208999 1.441403 -4.6267538 7
-0.054814 -1.435627 -4.6112828 7
-0.29012501 -4.6501698 -4.4826231 7
-0.28778401 -4.79527 -4.2910652 7
-0.071080998 -1.2830499 -4.2425308 7
-0.080968 -1.440714 -4.2485819 7
-0.092538998 -1.606391 -4.2569718 7
-0.112215 -1.8010989 -4.3019681 7
-0.32954901 -4.6196671 -3.648551 7
-0.32223499 -4.6992888 -3.442553 7
-0.31662101 -4.7804379 -3.238945 7
-0.059599001 -1.297112 -3.9395809 7
-0.069201 -1.44197 -3.9388089 7
-0.26128501 -4.598557 -1.894411 7
-0.258452 -4.6313939 -1.70186 7
-0.26272801 -4.702312 -1.511377 7
-0.262483 -4.7364392 -1.3149559 7
-0.048847001 -1.3044 -3.6726229 7
-0.059064001 -1.4402781 -3.670301 7
-0.070193 -1.581308 -3.665858 7
-0.04208 -1.314837 -3.4506719 7
-0.048535999 -1.431352 -3.427187 7
-0.046139002 -1.522091 -3.3601301 7
-0.05229 -1.2945189 -3.208941 7
-0.078635 -1.881071 -1.878183 7
-0.055353001 -1.694025 -1.888845 7
-0.058582 -1.7389621 -1.823149 7
-0.068089999 -1.80278 -1.762203 7
-0.058646001 -1.799511 -1.678188 7
-0.063334003 -1.841663 -1.60765 7
-0.066636004 -1.601683 -1.848087 7
-0.065180004 -1.62921 -1.780225 7
-0.056963999 -1.632736 -1.704186 7
-0.048735999 -1.632683 -1.628951 7
