# .PCD v0.7 - Point Cloud Data file format
VERSION 0.7
FIELDS x y z intensity
SIZE 4 4 4 4
TYPE F F F F
COUNT 1 1 1 1
WIDTH 697
HEIGHT 1
VIEWPOINT 0 0 0 1 0 0 0
POINTS 697
DATA ascii
-0.549124 -5.3460689 72.904297 7
-0.61806899 -5.3074951 74.724609 7
-0.47621799 -2.233521 71.260742 7
-0.48267201 -2.072998 71.441406 7
-0.48632801 -0.57983398 71.62207 7
-0.448697 -0.406616 70.628906 7
-0.177944 4.3339839 -69.882812 7
-0.24657699 4.2694092 -71.756836 7
-0.548388 -5.2987061 66.088867 7
-0.59573698 -5.2349849 67.226562 7
-0.64381701 -5.1672359 68.381836 7
-0.72810203 -5.1580811 70.395508 7
-0.44252101 0.22534201 63.96582 7
-0.45945299 3.365845 64.386719 7
-0.413591 3.454468 63.291992 7
-0.039553002 4.3546138 -58.477539 7
-0.0858 4.154541 -59.735352 7
-0.14901701 4.120728 -61.444336 7
-0.26617 4.1707759 -64.606445 7
-0.057300001 0.796875 -58.834961 7
-0.64699 -5.3226318 62.805664 7
-0.678783 -5.2355962 63.512695 7
-0.096777998 4.3001709 -54.119141 7
-0.14892 4.2634282 -55.395508 7
-0.065742001 3.9812009 -53.375 7
-0.121714 3.946655 -54.743164 7
-0.176015 3.902832 -56.072266 7
-0.34785399 0.42272899 52.035156 7
-0.33364201 0.53991699 51.753906 7
-0.32235101 0.65637201 51.530273 7
-0.38009501 3.592407 52.648438 7
-0.34573001 3.6643071 51.958008 7
-0.30025801 3.7164309 51.044922 7
-0.054995 4.1923828 -48.102539 7
-0.111507 4.1773682 -49.360352 7
-0.033417001 3.9185791 -47.638672 7
-0.083072998 3.8873291 -48.744141 7
-0.120364 3.8300779 -49.575195 7
-0.187168 3.8161621 -51.060547 7
-0.35696301 0.50720203 48.633789 7
-0.33256099 0.61328101 48.181641 7
-0.275433 0.70776403 47.12207 7
-0.39491099 3.585938 49.298828 7
-0.34836301 3.7446289 48.423828 7
-0.31237301 3.8015139 47.750977 7
0.56114602 24.301636 21.292969 7
0.56436402 24.303223 21.198242 7
-0.090469003 4.2481689 -44.865234 7
-0.124344 4.199707 -45.563477 7
-0.102591 3.9389651 -45.133789 7
-0.140798 3.8920901 -45.918945 7
-0.183856 3.8496089 -46.801758 7
-0.073279999 0.60192901 -44.945312 7
-0.038430002 0.484375 -44.226562 7
-0.047132999 0.377563 -44.40332 7
-0.335181 -2.492065 44.323242 7
-0.351832 -2.4064939 44.615234 7
-0.35820201 -2.309937 44.731445 7
-0.25834799 0.54699701 43.154297 7
-0.35699901 3.6607671 44.769531 7
-0.316181 3.7033689 44.067383 7
-0.292458 3.7685549 43.657227 7
-0.27283001 3.8382571 43.317383 7
-0.120368 4.3426509 -41.397461 7
-0.146456 4.2888179 -41.890625 7
-0.165022 4.2192378 -42.244141 7
-0.204587 4.184937 -42.986328 7
-0.076103002 0.258057 -40.621094 7
-0.044518001 0.15625 -40.032227 7
-0.067286 0.058350001 -40.452148 7
-0.053011999 -0.047363002 -37.22168 7
-0.081593998 -0.140625 -37.711914 7
-0.051266 -0.230225 -37.185547 7
-0.228027 -3.494873 -39.99707 7
-0.31488401 -2.389771 40.946289 7
-0.33062801 -2.3106689 41.203125 7
-0.345992 -2.2298579 41.455078 7
-0.241034 0.77905297 39.907227 7
-0.31601599 3.6274409 41.012695 7
-0.32467401 3.7344971 41.142578 7
-0.29180399 3.7788091 40.617188 7
-0.27510601 3.8457029 40.345703 7
-0.26467001 3.9216311 40.173828 7
0.43711799 20.452637 21.37793 7
0.43836901 20.487427 21.317383 7
0.43856701 20.534424 21.268555 7
0.43875 20.581421 21.220703 7
0.438232 20.636719 21.178711 7
0.43769801 20.691895 21.138672 7
-0.112311 4.460815 -37.905273 7
-0.134455 4.4094238 -38.293945 7
-0.159306 4.361084 -38.728516 7
-0.182799 4.3085942 -39.139648 7
-0.22460701 4.2866211 -39.864258 7
-0.237597 4.210938 -40.094727 7
-0.06899 0.88037097 -37.264648 7
-0.050402001 0.78210402 -36.945312 7
-0.085573003 0.701904 -37.548828 7
-0.091448002 0.045044001 -37.887695 7
-0.086436003 -0.288452 -34.303711 7
-0.054644 -0.36804199 -33.800781 7
-0.069976002 -0.45458999 -34.040039 7
-0.058596 -0.53613299 -33.857422 7
-0.043127 -0.61547899 -33.610352 7
-0.28069499 -3.639648 -37.330078 7
-0.256073 -3.69397 -36.932617 7
-0.24216101 -3.7633059 -36.703125 7
-0.272421 -2.33728 37.259766 7
-0.26157999 0.55468798 37.234375 7
-0.23737501 0.717529 36.880859 7
-0.239244 0.80212402 36.908203 7
-0.31882599 3.78479 37.955078 7
-0.24631999 3.927979 36.875 7
-0.074147001 4.526123 -33.970703 7
-0.094192997 4.4813228 -34.293945 7
-0.11314 4.4329829 -34.600586 7
-0.145017 4.4077148 -35.109375 7
-0.17985199 4.385498 -35.666992 7
-0.219135 4.3686519 -36.291992 7
-0.020435 1.123047 -33.329102 7
-0.024357 0.959961 -33.391602 7
-0.099018 0.82153302 -34.570312 7
-0.097073004 -0.360596 -32.300781 7
-0.078636996 -0.436768 -32.025391 7
-0.052671999 -0.51025403 -31.638672 7
-0.092726 -0.59912097 -32.227539 7
-0.063198999 -0.670044 -31.788086 7
-0.065305002 -0.74939001 -31.81543 7
-0.29519299 -3.6781011 -34.961914 7
-0.26397201 -3.8865969 -34.470703 7
-0.49585399 -5.334229 37.765625 7
-0.21406101 0.66760302 34.381836 7
-0.225723 0.82800299 34.541992 7
-0.30503801 3.776001 35.500977 7
-0.29091799 3.8349609 35.300781 7
-0.24696399 3.9250491 34.68457 7
-0.243441 3.998291 34.628906 7
0.30770701 17.296631 21.353516 7
0.30954501 17.328369 21.294922 7
0.30930099 17.379395 21.257812 7
0.30696699 17.449585 21.244141 7
0.30630401 17.50415 21.210938 7
0.30939299 17.523926 21.138672 7
0.30664 17.597778 21.12793 7
-0.127949 4.7307129 -32.37793 7
-0.100757 4.5955811 -31.989258 7
-0.119025 4.5523682 -32.266602 7
-0.134151 4.5018311 -32.496094 7
-0.164685 4.479126 -32.953125 7
-0.18573 4.4368901 -33.270508 7
-0.043726001 1.368286 -31.333984 7
-0.029158 1.282227 -31.120117 7
-0.050294001 1.216553 -31.433594 7
-0.034329001 1.127075 -31.389648 7
-0.056159999 1.059692 -31.713867 7
-0.081552997 0.99218798 -32.089844 7
-0.082234003 -0.68713403 -29.391602 7
-0.056163002 -0.75146502 -29.033203 7
-0.05071 -0.82153302 -28.955078 7
-0.077414997 -0.90429699 -29.31543 7
-0.052196998 -0.966187 -28.96875 7
-0.30120799 -3.888916 -32.257812 7
-0.28850099 -3.9481201 -32.075195 7
-0.27152899 -3.999634 -31.833984 7
-0.251544 -4.0449219 -31.552734 7
-0.26240599 -4.1413569 -31.6875 7
-0.086901002 4.6634521 -29.240234 7
-0.099792004 4.6166992 -29.424805 7
-0.118228 4.579834 -29.685547 7
-0.13411701 4.5371089 -29.90918 7
-0.158136 4.5087891 -30.243164 7
-0.185551 4.4854741 -30.624023 7
-0.021915 1.257202 -28.625 7
-0.065332003 1.136475 -29.220703 7
-0.092626996 -0.79199201 -27.619141 7
-0.086777002 -0.85852098 -27.541016 7
-0.30363101 -4.005249 -29.995117 7
-0.30057201 -4.0744629 -29.945312 7
-0.278687 -4.112061 -29.658203 7
-0.25375301 -4.2156978 -29.318359 7
-0.112334 4.7454829 -27.464844 7
-0.124295 4.7010498 -27.625977 7
-0.13809399 4.65979 -27.810547 7
-0.153724 4.6210942 -28.017578 7
-0.182632 4.6074219 -28.391602 7
-0.18772 4.5461431 -28.46582 7
-0.049743999 1.521118 -27.087891 7
-0.044358 1.4499511 -27.020508 7
-0.054046001 1.38855 -27.146484 7
-0.043168999 1.314453 -27.009766 7
-0.063841 1.258545 -27.275391 7
-0.082208999 1.200195 -27.512695 7
-0.066140004 -1.041748 -25.208984 7
-0.088413 -1.115723 -25.46875 7
-0.084081002 -1.177246 -25.414062 7
-0.073853001 -1.234985 -25.289062 7
-0.26583999 -4.2043462 -27.220703 7
-0.25709099 -4.2565918 -27.106445 7
-0.25326899 -4.3171391 -27.049805 7
-0.284513 -4.4407959 -27.402344 7
-0.107166 4.776978 -25.274414 7
-0.118555 4.7366939 -25.416992 7
-0.12896 4.6940918 -25.548828 7
-0.14773101 4.667603 -25.779297 7
-0.169967 4.646729 -26.048828 7
-0.17692301 4.5949712 -26.140625 7
-0.039616998 1.597168 -24.807617 7
-0.057443999 1.547363 -25.020508 7
-0.039282002 1.4725339 -24.808594 7
-0.050694 1.417603 -24.946289 7
-0.065582998 1.364014 -25.124023 7
-0.044445999 1.2886961 -24.876953 7
-0.085043997 -0.98071301 -23.651367 7
-0.082711004 -1.157593 -23.614258 7
-0.28808501 -4.2159419 -25.521484 7
-0.28450799 -4.273438 -25.470703 7
-0.27511799 -4.320312 -25.357422 7
-0.268482 -4.4346919 -25.261719 7
-0.12823699 4.9187012 -23.654297 7
-0.114058 4.8292241 -23.511719 7
-0.123074 4.7886958 -23.620117 7
-0.13366801 4.750854 -23.746094 7
-0.14532401 4.7146001 -23.883789 7
-0.16857301 4.7009282 -24.147461 7
-0.176026 4.6549072 -24.238281 7
-0.15131199 4.5456538 -23.978516 7
-0.073678002 1.632568 -23.436523 7
-0.077691004 1.455322 -23.463867 7
-0.10228 -1.315063 -22.178711 7
-0.106322 -1.373413 -22.216797 7
-0.101898 -1.426514 -22.166992 7
-0.102005 -1.482422 -22.164062 7
-0.117322 -1.548584 -22.317383 7
-0.277805 -4.2225342 -23.62207 7
-0.286403 -4.2966309 -23.697266 7
-0.295564 -4.3721919 -23.779297 7
-0.287204 -4.416748 -23.682617 7
-0.27770701 -4.4587402 -23.574219 7
-0.275015 -4.5126948 -23.535156 7
-0.28700599 -4.5939941 -23.645508 7
-0.06092 1.57312 -21.69043 7
-0.051408 1.511963 -21.595703 7
-0.04809 1.4552 -21.564453 7
-0.056046002 1.40564 -21.649414 7
-0.054993998 1.350098 -21.640625 7
-0.051683001 1.293457 -21.608398 7
-0.107285 -1.133301 -20.81543 7
-0.120565 -1.192749 -20.941406 7
-0.107461 -1.238525 -20.80957 7
-0.100359 -1.287231 -20.737305 7
-0.12532 4.839355 -20.481445 7
-0.122972 4.7824712 -20.469727 7
-0.074208997 1.5888669 -20.402344 7
-0.080288999 1.54126 -20.463867 7
-0.070730999 1.482788 -20.375 7
-0.056398999 1.421997 -20.239258 7
-0.061859999 1.373901 -20.294922 7
-0.076338999 1.330933 -20.436523 7
-0.042920999 1.157715 -20.121094 7
-0.120705 -1.218384 -19.558594 7
-0.094694003 -1.302856 -19.314453 7
-0.114748 -1.462769 -19.485352 7
-0.111644 -1.510254 -19.452148 7
-0.31421101 -4.3605962 -20.881836 7
-0.319428 -4.4226069 -20.917969 7
-0.31249499 -4.4628911 -20.844727 7
-0.306858 -4.505249 -20.782227 7
-0.30248699 -4.5496831 -20.731445 7
-0.31091699 -4.6174321 -20.794922 7
-0.158253 4.7547612 -19.392578 7
-0.165996 4.6712651 -19.482422 7
-0.14498 4.5802002 -19.305664 7
-0.14312001 4.5272222 -19.299805 7
-0.071184002 1.248657 -19.061523 7
-0.061648998 1.194824 -18.978516 7
-0.048948999 1.140015 -18.864258 7
-0.040695999 1.087769 -18.791992 7
-0.049704999 1.043823 -18.875977 7
-0.054869998 0.99804699 -18.924805 7
-0.117999 -1.1956789 -18.362305 7
-0.109296 -1.238037 -18.285156 7
-0.101263 -1.2800291 -18.211914 7
-0.058357999 0.61901897 -17.901367 7
-0.042973999 0.52380401 -17.768555 7
-0.040341001 0.47766101 -17.74707 7
-0.034331001 0.43115199 -17.695312 7
-0.027649 0.384644 -17.638672 7
-0.040548 0.341553 -17.75 7
-0.034814999 -0.015381 -16.521484 7
-0.039170001 -0.058104999 -16.557617 7
-0.035089001 -0.105835 -16.603516 7
-0.030871 -0.148193 -16.568359 7
-0.030215999 -0.190796 -16.561523 7
-0.032419998 -0.233643 -16.580078 7
-0.039643999 -0.2771 -16.636719 7
-0.097901002 -1.292114 -17.053711 7
-0.090823002 -1.331665 -16.991211 7
-0.123135 -1.39502 -17.249023 7
-0.11032 -1.431152 -17.141602 7
-0.111815 -1.476074 -17.150391 7
-0.106888 -1.516479 -17.105469 7
-0.12774301 -1.574463 -17.270508 7
-0.115487 4.7573242 -16.617188 7
-0.120522 4.724854 -16.667969 7
-0.130575 4.702271 -16.757812 7
-0.13133 4.660522 -16.774414 7
-0.14067499 4.6359859 -16.858398 7
-0.152147 4.6151118 -16.959961 7
-0.14146 4.5505371 -16.886719 7
-0.138616 4.5014648 -16.874023 7
-0.060226001 -0.345581 -15.794922 7
-0.052795999 -0.42578101 -15.735352 7
-0.049844999 -0.465698 -15.709961 7
-0.053681001 -0.50708002 -15.738281 7
-0.061400998 -0.59045398 -15.792969 7
-0.056915998 -0.62988299 -15.757812 7
-0.101969 -1.305542 -16.057617 7
-0.101282 -1.346558 -16.047852 7
-0.129483 -1.446777 -16.255859 7
-0.116676 -1.480347 -16.154297 7
-0.112962 -1.519531 -16.121094 7
-0.129704 -1.5723881 -16.245117 7
-0.138014 4.7834468 -15.720703 7
-0.133506 4.733521 -15.698242 7
-0.136558 4.698853 -15.732422 7
-0.138861 4.6628418 -15.760742 7
-0.147222 4.6384282 -15.832031 7
-0.164643 4.6318359 -15.972656 7
-0.15485699 4.5712891 -15.910156 7
-0.137473 4.496582 -15.791992 7
-0.072235003 -0.67627001 -14.914062 7
-0.077903003 -0.71679699 -14.952148 7
-0.073982 -0.75414997 -14.921875 7
-0.074036002 -0.79284698 -14.919922 7
-0.064493001 -0.828125 -14.848633 7
-0.066164002 -0.86706501 -14.858398 7
-0.076637 -0.90991199 -14.931641 7
-0.080710001 -0.95043898 -14.958008 7
-0.077568002 -0.98767102 -14.932617 7
-0.074432999 -1.025146 -14.908203 7
-0.070497997 -1.06189 -14.875977 7
-0.081779003 -1.106079 -14.954102 7
-0.095738001 -1.307739 -15.038086 7
-0.098218001 -1.348022 -15.051758 7
-0.107905 -1.392822 -15.118164 7
-0.115983 -1.437134 -15.173828 7
-0.11204 -1.473877 -15.141602 7
-0.112925 -1.51355 -15.143555 7
-0.116998 -1.55542 -15.168945 7
-0.094159998 -0.98168898 -14.219727 7
-0.089179002 -1.016602 -14.182617 7
-0.082480997 -1.050293 -14.133789 7
-0.079178996 -1.085693 -14.108398 7
-0.080940999 -1.123291 -14.117188 7
-0.100385 -1.169922 -14.24707 7
-0.099606998 -1.206665 -14.239258 7
-0.094609998 -1.240967 -14.201172 7
-0.10603 -1.148926 -13.494141 7
-0.103621 -1.2886961 -13.46582 7
-0.099250004 -1.321533 -13.433594 7
-0.101081 -1.357666 -13.441406 7
-0.109197 -1.433105 -13.487305 7
-0.115475 -1.47229 -13.523438 7
-0.116421 -1.508301 -13.526367 7
-0.11205 -1.540771 -13.494141 7
-0.125415 -1.585083 -13.576172 7
-0.136264 4.7946782 -12.949219 7
-0.113266 4.7132568 -12.817383 7
-0.115067 4.683228 -12.838867 7
-0.122153 4.6635742 -12.894531 7
-0.124838 4.6348882 -12.921875 7
-0.13017701 4.6113281 -12.96582 7
-0.133724 4.584229 -12.999023 7
-0.150582 4.5828862 -13.115234 7
-0.156799 4.5605469 -13.165039 7
-0.13999499 4.4934082 -13.070312 7
-0.103278 -1.294556 -12.750977 7
-0.092179999 -1.321655 -12.678711 7
-0.104331 -1.362183 -12.750977 7
-0.098816998 -1.392334 -12.712891 7
-0.117475 -1.4375 -12.824219 7
-0.11939 -1.47229 -12.832031 7
-0.104576 -1.496338 -12.736328 7
-0.112082 -1.53479 -12.77832 7
-0.11029 -1.567261 -12.763672 7
-0.137661 4.796875 -12.195312 7
-0.117265 4.7226558 -12.085938 7
-0.120995 4.697998 -12.120117 7
-0.119156 4.662231 -12.119141 7
-0.122887 4.6373291 -12.152344 7
-0.12477 4.6090088 -12.173828 7
-0.131285 4.5896001 -12.223633 7
-0.144298 4.5826421 -12.3125 7
-0.15082701 4.5626221 -12.360352 7
-0.141552 4.5119629 -12.316406 7
-0.101495 -1.292603 -12.030273 7
-0.094714001 -1.320435 -11.987305 7
-0.086963996 -1.347656 -11.9375 7
-0.088955 -1.380371 -11.946289 7
-0.093905002 -1.4150389 -11.97168 7
-0.108627 -1.456177 -12.053711 7
-0.115523 -1.492432 -12.09082 7
-0.102884 -1.515991 -12.011719 7
-0.10489 -1.549194 -12.020508 7
-0.10592 -1.581787 -12.022461 7
-0.100183 -1.294678 -11.415039 7
-0.096156001 -1.322632 -11.389648 7
-0.092120998 -1.3505861 -11.363281 7
-0.095248997 -1.38269 -11.376953 7
-0.093258001 -1.411743 -11.362305 7
-0.106592 -1.450317 -11.432617 7
-0.115837 -1.486816 -11.481445 7
-0.106707 -1.51123 -11.426758 7
-0.105738 -1.5411381 -11.416992 7
-0.108858 -1.573608 -11.430664 7
-0.090824999 -1.283936 -10.736328 7
-0.098392002 -1.317261 -10.773438 7
-0.092014998 -1.342285 -10.735352 7
-0.087774001 -1.368408 -10.708984 7
-0.088910997 -1.397949 -10.711914 7
-0.093244001 -1.4293211 -10.731445 7
-0.102954 -1.464355 -10.779297 7
-0.112642 -1.49939 -10.827148 7
-0.101978 -1.52124 -10.766602 7
-0.102047 -1.550171 -10.762695 7
-0.106372 -1.5819089 -10.782227 7
-0.085380003 -1.280151 -10.173828 7
-0.088789999 -1.30957 -10.188477 7
-0.097791001 -1.342407 -10.230469 7
-0.088889003 -1.364502 -10.182617 7
-0.087829001 -1.391235 -10.172852 7
-0.090109996 -1.4200439 -10.180664 7
-0.087920003 -1.4462889 -10.166016 7
-0.101422 -1.4823 -10.229492 7
-0.108172 -1.5144041 -10.260742 7
-0.102643 -1.538208 -10.227539 7
-0.10381 -1.566528 -10.230469 7
-0.104984 -1.594849 -10.232422 7
-0.105031 -1.622437 -10.228516 7
-0.13183799 4.793457 -9.4648438 7
-0.12626199 4.756104 -9.4492188 7
-0.102829 4.6566162 -9.3613281 7
-0.106201 4.612061 -9.3994141 7
-0.105095 4.5584722 -9.4150391 7
-0.107346 4.537231 -9.4365234 7
-0.116301 4.5289311 -9.4902344 7
-0.123021 4.4901118 -9.5429688 7
-0.089888997 -1.305542 -9.6835938 7
-0.096960001 -1.335815 -9.7138672 7
-0.101674 -1.3651119 -9.734375 7
-0.088875003 -1.3837889 -9.6679688 7
-0.092428997 -1.412109 -9.6816406 7
-0.094810002 -1.439941 -9.6904297 7
-0.090195 -1.463257 -9.6640615 7
-0.10076 -1.496338 -9.7109385 7
-0.117152 -1.533569 -9.7871094 7
-0.107869 -1.5537111 -9.7382812 7
-0.105588 -1.578613 -9.7236328 7
-0.083085999 -1.297119 -9.1796885 7
-0.092873 -1.328003 -9.2216797 7
-0.098996997 -1.356812 -9.2460938 7
-0.090530001 -1.3768311 -9.2041016 7
-0.100302 -1.408203 -9.2460938 7
-0.102797 -1.434814 -9.2539062 7
-0.096754998 -1.456055 -9.2216797 7
-0.098029003 -1.482056 -9.2236328 7
-0.102942 -1.5107419 -9.2431641 7
-0.110295 -1.540771 -9.2734385 7
-0.105474 -1.562744 -9.2470703 7
-0.107945 -1.5896 -9.2548828 7
-0.119346 4.719727 -8.3378906 7
-0.126637 4.7113042 -8.3789062 7
-0.113281 4.6610112 -8.3339844 7
-0.104792 4.5975342 -8.3203115 7
-0.110871 4.5865479 -8.3564453 7
-0.087076001 -1.288818 -8.7148438 7
-0.087113999 -1.312744 -8.7119141 7
-0.085878 -1.335938 -8.703125 7
-0.094833001 -1.365356 -8.7402344 7
-0.083423004 -1.382324 -8.6855469 7
-0.082202002 -1.4055181 -8.6767578 7
-0.086069003 -1.432007 -8.6904297 7
-0.087380998 -1.456421 -8.6923828 7
-0.098876998 -1.4881589 -8.7402344 7
-0.102752 -1.514526 -8.7529297 7
-0.110418 -1.543945 -8.7832031 7
-0.097747996 -1.5593261 -8.7236328 7
-0.095253997 -1.581665 -8.7089844 7
-0.42649901 -6.4595952 -8.3105469 7
-0.099280998 -1.289185 -8.3496094 7
-0.099319004 -1.312256 -8.3457031 7
-0.102012 -1.3369139 -8.3544922 7
-0.104705 -1.361572 -8.3623047 7
-0.104758 -1.384766 -8.359375 7
-0.096855998 -1.402954 -8.3212891 7
-0.09691 -1.426025 -8.3173828 7
-0.099601999 -1.450806 -8.3251953 7
-0.098329 -1.4729 -8.3164062 7
-0.107627 -1.502197 -8.3525391 7
-0.11826 -1.5324709 -8.3935547 7
-0.12228 -1.558228 -8.4072266 7
-0.110411 -1.573364 -8.3525391 7
-0.32048899 -4.6601558 -7.3408198 7
-0.32054999 -4.6809082 -7.329102 7
-0.32778201 -4.7149658 -7.34375 7
-0.324974 -4.7303472 -7.3222661 7
-0.32790399 -4.7564702 -7.320312 7
-0.32796499 -4.7772222 -7.3095698 7
-0.328026 -4.797852 -7.2988281 7
-0.32280099 -4.5004878 -6.9941411 7
-0.31243399 -4.501709 -6.9492192 7
-0.31994 -4.5350342 -6.9628911 7
-0.32296801 -4.5601811 -6.9619141 7
-0.33345699 -4.5991211 -6.9863281 7
-0.33649299 -4.6243901 -6.984375 7
-0.32909399 -4.6306152 -6.9492192 7
-0.33362499 -4.6586909 -6.953125 7
-0.33368599 -4.6784668 -6.9423828 7
-0.32183301 -4.6760249 -6.891602 7
-0.32187799 -4.6956792 -6.8798828 7
-0.323434 -4.7181401 -6.874023 7
-0.33242801 -4.7547612 -6.8925781 7
-0.323542 -4.7573242 -6.851562 7
-0.32808 -4.7853999 -6.8554692 7
-0.42840201 -6.4230962 -6.1386719 7
-0.42249 -6.426147 -6.1064448 7
-0.433002 -6.4698491 -6.1210942 7
-0.42710501 -6.4727778 -6.0888672 7
-0.43016401 -6.4980469 -6.0810552 7
-0.312938 -4.492188 -6.5654302 7
-0.311459 -4.5084229 -6.5498052 7
-0.31613401 -4.535522 -6.5537109 7
-0.31619501 -4.5544429 -6.5429692 7
-0.31470799 -4.5705571 -6.5273442 7
-0.32862899 -4.6147461 -6.5605469 7
-0.320963 -4.6193848 -6.5253911 7
-0.32718799 -4.6496582 -6.5341802 7
-0.33032301 -4.6741939 -6.532227 7
-0.318057 -4.6700439 -6.4824219 7
-0.32274801 -4.6972661 -6.485352 7
-0.32126099 -4.7131348 -6.469727 7
-0.32286999 -4.7347412 -6.4628911 7
-0.32446501 -4.7562261 -6.4570308 7
-0.321437 -4.769165 -6.436523 7
-0.32149801 -4.7877202 -6.4248052 7
-0.31624201 -4.6419678 -6.0664058 7
-0.324283 -4.674561 -6.079102 7
-0.32113901 -4.6862788 -6.0585942 7
-0.31960699 -4.7009282 -6.0419922 7
-0.32125399 -4.7216802 -6.0361328 7
-0.32291701 -4.742188 -6.030273 7
-0.32457301 -4.762939 -6.0224609 7
-0.31822601 -4.7684331 -5.9931641 7
-0.318295 -4.7858891 -5.9814448 7
-0.41795301 -6.4163818 -5.0957031 7
-0.41320899 -6.4199219 -5.0673828 7
-0.41648099 -6.4432368 -5.0605469 7
-0.41655701 -6.458374 -5.0449219 7
-0.416603 -6.4737549 -5.030273 7
-0.41667899 -6.4888921 -5.014648 7
-0.41995201 -6.512207 -5.0068359 7
-0.418396 -6.523438 -4.9873052 7
-0.42649001 -6.5587158 -4.9912109 7
-0.43137199 -6.585938 -4.9873052 7
-0.43944201 -6.6212158 -4.9912109 7
-0.449121 -6.6607671 -5 7
-0.44919801 -6.6759028 -4.983398 7
-0.446055 -6.6829829 -4.9599609 7
-0.31065801 -4.5041499 -5.7294922 7
-0.31070399 -4.5211182 -5.719727 7
-0.312428 -4.540894 -5.7138672 7
-0.31247401 -4.5578609 -5.703125 7
-0.31260401 -4.5744629 -5.6923828 7
-0.32261199 -4.6094971 -5.7099609 7
-0.320995 -4.6231689 -5.6943359 7
-0.319401 -4.637207 -5.6787109 7
-0.32444301 -4.6630859 -5.6806641 7
-0.31951499 -4.6705322 -5.65625 7
-0.31625801 -4.6810298 -5.6357422 7
-0.31464899 -4.6948242 -5.6201172 7
-0.316358 -4.714355 -5.6132808 7
-0.318082 -4.7342529 -5.6064448 7
-0.319783 -4.7541499 -5.6005859 7
-0.3132 -4.757935 -5.570312 7
-0.31658599 -4.7808838 -5.5683589 7
-0.316632 -4.7974849 -5.5566411 7
-0.112327 4.4571528 -4.6152339 7
-0.110596 4.4250488 -4.6318359 7
-0.103761 4.397583 -4.625 7
-0.105462 4.3864751 -4.639648 7
-0.103745 4.3686519 -4.6455078 7
-0.098618999 4.344604 -4.640625 7
-0.105462 4.3286128 -4.6806641 7
-0.10203 4.2929692 -4.6923828 7
-0.10203 4.278564 -4.702148 7
-0.102022 4.2640381 -4.7119141 7
-0.095187001 4.2365718 -4.704102 7
-0.098688997 4.229126 -4.7216802 7
-0.102098 4.2060552 -4.7529302 7
-0.096972004 4.1673579 -4.7568359 7
-0.33113801 -5.031949 5.9607191 7
-0.054719999 -1.579062 -8.9924059 7
-0.044551 -1.510082 -7.5251889 7
0.0091380002 -1.436399 -5.9375782 7
-0.26025599 -4.6839991 -7.1695852 7
0.022371 -1.391796 -4.9856901 7
-0.23435301 -4.6545 -5.8550501 7
-0.052694 -1.355747 -4.2570848 7
-0.31588101 -4.7239771 -4.790792 7
-0.30152199 -4.7163649 -3.9671929 7
0.0061900001 -1.510428 -2.4397621 7
-0.032384999 -1.470307 -2.000113 7
-0.31211901 -4.783555 -1.804912 7
-0.31155801 -4.6818891 0.023622001 7
-0.298704 -4.7643862 0.220219 7
-0.30956599 -4.9187522 5.8730168 7
-0.30643499 -4.8003941 6.031528 7
-0.0051429998 -1.341841 -0.55409598 7
-0.021876 -1.5066659 -0.58683002 7
-0.034311 -1.6719871 -0.59556901 7
-0.28361899 -4.7761679 0.69920999 7
0.0083109997 -1.323611 -0.34645501 7
-0.0057160002 -1.478333 -0.368862 7
-0.027466999 -1.640141 -0.41223699 7
-0.044783998 -1.80291 -0.43180799 7
-0.26745999 -4.5831051 0.82922399 7
-0.290867 -4.7443552 1.73192 7
-0.28767899 -4.7879539 1.8959171 7
-0.32280099 -5.064693 2.702395 7
-0.303702 -4.8971548 4.2175188 7
-0.30180001 -4.835073 4.4185791 7
-0.27421001 -4.509079 1.6528291 7
-0.269007 -4.5512352 1.809834 7
-0.28997099 -4.8250031 2.7342 7
-0.298935 -4.743504 3.2183859 7
-0.29579601 -4.7293868 3.3748529 7
-0.27897999 -4.5644102 3.219419 7
-0.26786301 -4.5284972 3.367604 7
-0.266422 -4.51403 3.514859 7
-0.177003 -3.437305 2.599122 7
-0.18040401 -3.4666729 2.700685 7
-0.188676 -3.5023201 2.801713 7
-0.150258 -3.31811 2.630681 7
-0.151143 -3.341099 2.7283549 7
-0.159493 -3.375566 2.8240969 7
-0.142747 -3.2049479 2.758106 7
-0.156661 -3.2485149 2.846277 7
-0.136415 4.7389121 -15.861058 7
-0.112844 4.678545 -12.113319 7
-0.193855 -1.3028001 -12.943765 7
-0.19145501 4.6201181 -12.298971 7
-0.129959 -1.365837 -10.07006 7
-0.122994 4.5598969 -9.1399784 7
-0.089455001 -1.399719 -8.2794056 7
-0.062050998 -1.420529 -7.0623512 7
-0.091417998 -1.41811 -6.123055 7
-0.111485 4.4303832 -4.6943178 7
-0.043657001 1.245005 -5.6977959 7
-0.044438999 1.0532041 -5.7454672 7
-0.078360997 -1.447945 -5.5231538 7
-0.349096 -4.573379 -6.6099591 7
-0.027433001 1.266726 -5.1161051 7
-0.066352002 -1.4655221 -5.023571 7
-0.315577 -4.6445079 -5.4567108 7
-0.044397 -1.297279 -4.57868 7
-0.053638998 -1.469362 -4.5902739 7
-0.073941998 -1.679696 -4.6666169 7
-0.070733003 -1.31522 -4.2284818 7
-0.084285997 -1.4829201 -4.2537842 7
-0.060231 -1.328588 -3.9306309 7
-0.071797997 -1.479141 -3.9386129 7
-0.27471799 -4.6974301 -1.859918 7
-0.276279 -4.7574911 -1.66629 7
-0.053846002 -1.370767 -3.4910879 7
-0.054770999 -1.4737149 -3.44085 7
-0.065361999 -1.350073 -3.248014 7
-0.072608002 -1.459751 -3.2219541 7
-0.058874 -1.391744 -2.5515549 7
-0.060582999 -1.457345 -2.499382 7
-0.059234001 -1.5123349 -2.43682 7
-0.043591 -1.296334 -2.4554191 7
-0.048617002 -1.366291 -2.4149849 7
-0.053550001 -1.435048 -2.3709071 7
-0.050678998 -1.480232 -2.305968 7
-0.050852999 -1.531649 -2.245918 7
-0.039358001 -1.340845 -2.290709 7
-0.050969001 -1.4227329 -2.260869 7
-0.048037 -1.46314 -2.196734 7
-0.037101001 -1.477157 -2.1158781 7
-0.045333002 -1.545107 -2.0701399 7
-0.033094 -1.3210191 -2.1814439 7
-0.030189 -1.358214 -2.121666 7
-0.037244 -1.421029 -2.079 7
-0.037583001 -1.4632289 -2.021276 7
-0.024679 -1.463521 -1.9404221 7
-0.042381998 -1.332659 -2.0208421 7
-0.035813998 -1.3532929 -1.955503 7
