# .PCD v0.7 - Point Cloud Data file format
VERSION 0.7
FIELDS x y z intensity
SIZE 4 4 4 4
TYPE F F F F
COUNT 1 1 1 1
WIDTH 1143
HEIGHT 1
VIEWPOINT 0 0 0 1 0 0 0
POINTS 1143
DATA ascii
0.104389 -1.436523 -69.825195 7
0.136604 -1.580322 -68.709961 7
0.10149 -1.776245 -69.899414 7
0.034260001 5.579834 -70.609375 7
0.059432998 5.344727 -69.769531 7
0.038486 5.22644 -70.477539 7
0.14612199 1.877808 -66.871094 7
-0.0086169997 -1.50708 -65.483398 7
0.057326999 -1.615356 -63.462891 7
0.104271 -1.729858 -62.018555 7
0.046287999 -1.932373 -63.775391 7
0.015835 5.1773682 -63.40625 7
-0.018501 5.1025391 -64.439453 7
0.151611 1.672241 -59.375 7
-0.055729002 -1.617798 -58.326172 7
0.040054001 -1.728271 -56.90625 7
0.069729 -1.8405761 -56.087891 7
0.030159 -2.01355 -57.154297 7
0.062854998 -2.119385 -56.254883 7
0.14576299 5.1268311 -52.989258 7
0.043995 5.2467041 -55.716797 7
0.12774301 4.910645 -53.486328 7
0.067818001 4.919312 -55.09375 7
2.7e-05 4.9381099 -56.912109 7
0.149101 1.496582 -52.980469 7
-0.048854999 -1.759766 -53.581055 7
0.043125 -1.9367681 -51.298828 7
0.076880999 -2.0288091 -50.458008 7
0.027771 -2.2016599 -51.657227 7
-0.61361301 -0.21435501 62.512695 7
0.094287999 5.0065918 -49.136719 7
0.041469999 5.0097661 -50.422852 7
0.118958 4.7095952 -48.553711 7
0.062286001 4.7166748 -49.933594 7
0.033519998 4.6567378 -50.637695 7
-0.053668998 -2.0289309 -47.668945 7
-0.0056799999 -2.0992429 -46.607422 7
0.0186 -2.188477 -46.064453 7
0.080177002 -2.2354741 -44.704102 7
-0.530415 -0.19189499 55.645508 7
-0.53694499 -0.063477002 55.780273 7
0.092151999 4.8753662 -44.472656 7
0.050694 4.8607178 -45.391602 7
0.13607401 4.5592041 -43.523438 7
0.078189999 4.5780029 -44.803711 7
0.011017 4.6104741 -46.287109 7
0.098274 1.154053 -44.462891 7
-0.093441002 -2.052979 -45.410156 7
-0.054382 -2.1265869 -44.599609 7
-0.005653 -2.186646 -43.589844 7
0.022616999 -2.263428 -42.999023 7
-0.040401001 -2.4375 -44.28418 7
0.002934 -2.496094 -43.385742 7
0.032616001 -2.5665281 -42.766602 7
-0.51769298 -3.144043 51.414062 7
-0.53122699 -2.921875 51.686523 7
-0.52324301 -0.056763001 51.753906 7
-0.45732501 0.061035 50.53125 7
0.069176003 4.8525391 -41.347656 7
0.025413999 4.8491211 -42.243164 7
-0.001125 4.8035889 -42.788086 7
0.070206001 4.5447998 -41.352539 7
0.033599999 4.52002 -42.101562 7
0.0018880001 4.4814448 -42.750977 7
-0.047908999 4.4763179 -43.768555 7
-0.040344 -2.320801 -40.246094 7
-0.006821 -2.382812 -39.610352 7
0.014835 -2.4554441 -39.196289 7
-0.036777001 -2.612061 -40.15332 7
-0.012611 -2.6807859 -39.69043 7
0.012486 -2.7463379 -39.211914 7
0.034488998 -2.8135991 -38.791016 7
0.051483002 -2.885376 -38.462891 7
-0.44975999 -3.0301509 46.217773 7
-0.46949801 -2.946167 46.563477 7
-0.484074 -2.85498 46.820312 7
-0.406757 0.053833 45.666016 7
-0.41788501 0.15918 45.858398 7
0.0041689998 4.756104 -38.790039 7
-0.020470001 4.7131348 -39.253906 7
0.01524 4.5415039 -38.602539 7
0.012592 4.4517822 -38.658203 7
-0.015205 4.4121089 -39.180664 7
0.119637 0.78088403 -36.813477 7
-0.062054001 -2.7115481 -37.34082 7
-0.036658999 -2.861938 -36.884766 7
-0.0043529999 -2.9095459 -36.319336 7
-0.39886501 -2.8569341 42.223633 7
-0.42270699 -2.7857671 42.608398 7
-0.43142301 -2.6973879 42.754883 7
-0.39727801 0.051514 42.40625 7
-0.372444 0.147339 42.014648 7
-0.38738999 0.244995 42.253906 7
-0.042266998 5.0246582 -36.423828 7
-0.007313 4.8570561 -35.838867 7
-0.027202999 4.811523 -36.185547 7
-0.072033003 4.72644 -36.967773 7
0.105331 1.148193 -34.116211 7
0.080794998 0.73474097 -34.536133 7
0.088402003 0.56189001 -34.405273 7
0.104649 0.47302201 -34.125977 7
-0.045910001 -2.883301 -33.805664 7
-0.064148001 -2.9907229 -34.083008 7
-0.041767001 -3.0439451 -33.72168 7
-0.029372999 -3.1094971 -33.514648 7
-0.033558 -3.1981201 -33.572266 7
-0.36838499 -2.692749 38.617188 7
-0.374264 -2.6108401 38.710938 7
-0.019936001 4.969727 -32.880859 7
-0.018562 4.8850098 -32.868164 7
-0.037590001 4.8448491 -33.175781 7
-0.081496999 4.856689 -33.870117 7
-0.106464 4.8251948 -34.268555 7
0.074013002 1.5406491 -31.651367 7
0.082080998 1.456421 -31.527344 7
0.074150003 1.383545 -31.652344 7
0.087421 1.296631 -31.446289 7
0.059044 1.234985 -31.892578 7
0.069762997 0.44116199 -31.725586 7
0.098655999 0.35742199 -31.270508 7
0.06208 0.28479001 -31.84375 7
0.090599 -0.035521999 -29.630859 7
-0.096901 -3.1512451 -32.186523 7
-0.082813002 -3.2106929 -31.970703 7
-0.065571003 -3.2645259 -31.707031 7
-0.056625001 -3.329468 -31.564453 7
-0.025906 4.9614258 -30.668945 7
-0.037909999 4.9116211 -30.852539 7
-0.059059002 4.8808589 -31.168945 7
-0.083774999 4.8563228 -31.539062 7
-0.116028 4.8458252 -32.018555 7
0.063908003 1.5944819 -29.621094 7
0.072971001 1.514038 -29.490234 7
0.058536999 1.450439 -29.704102 7
0.080302998 1.362305 -29.386719 7
0.059925001 1.301636 -29.6875 7
0.089736998 0.185059 -29.647461 7
0.076618001 0.112183 -29.841797 7
0.075939 -0.026366999 -27.150391 7
0.073688999 -0.094360001 -27.179688 7
0.061546002 -0.16320799 -27.341797 7
0.076916002 -0.229736 -27.131836 7
0.072513998 -0.298096 -27.189453 7
-0.110516 -3.2276609 -29.819336 7
-0.098690003 -3.2845459 -29.649414 7
-0.088558003 -3.342896 -29.501953 7
-0.079308003 -3.401978 -29.366211 7
-0.089259997 -3.4898679 -29.491211 7
-0.0076899999 5.1140141 -27.944336 7
0.000294 4.9559331 -27.859375 7
-0.017364999 4.9257808 -28.106445 7
-0.032875001 4.8895259 -28.325195 7
-0.055271 4.8674321 -28.637695 7
-0.078071997 4.844604 -28.954102 7
-0.094875 4.8079829 -29.19043 7
0.067123003 1.5419919 -27.261719 7
0.093226999 1.455322 -26.910156 7
0.081534997 1.395752 -27.070312 7
0.055656001 1.34436 -27.424805 7
0.050652001 -0.03064 -25.893555 7
0.049194001 -0.095458999 -25.911133 7
0.068249002 -0.158813 -25.666016 7
0.061771002 -0.223389 -25.74707 7
0.044785 -0.29028299 -25.962891 7
-0.137394 -3.395386 -28.032227 7
-0.124706 -3.4459231 -27.862305 7
-0.105751 -3.554688 -27.601562 7
-0.110451 -3.630615 -27.650391 7
-0.025036 5.074585 -26.160156 7
-0.028782001 5.017334 -26.217773 7
-0.038963001 4.9742432 -26.355469 7
-0.053261001 4.9398189 -26.545898 7
-0.073994003 4.918335 -26.816406 7
-0.088776 4.882812 -27.011719 7
0.077618003 1.559204 -25.213867 7
0.066494003 1.503906 -25.357422 7
0.059105001 1.451416 -25.774414 7
0.035769999 1.4021 -26.076172 7
0.068049997 1.316895 -25.664062 7
0.059344999 -0.32714799 -23.826172 7
0.074492998 -0.38415501 -23.644531 7
0.048351001 -0.44885299 -23.952148 7
0.054637998 -0.507568 -23.875 7
0.064888 -0.56457502 -23.751953 7
0.065765001 -0.62365699 -23.738281 7
-0.12596899 -3.5855711 -25.724609 7
-0.114754 -3.6318359 -25.583008 7
-0.103054 -3.676636 -25.435547 7
-0.095783003 -3.7280271 -25.339844 7
-0.103291 -3.803833 -25.418945 7
-0.028209999 5.0852051 -24.161133 7
-0.031757001 5.032227 -24.212891 7
-0.038731001 4.9868159 -24.305664 7
-0.049686 4.9499512 -24.442383 7
-0.068520002 4.929565 -24.671875 7
-0.087344997 4.9082031 -24.902344 7
-0.082493 4.8349609 -24.855469 7
0.075797997 1.626099 -23.327148 7
0.043460999 1.531494 -23.712891 7
0.049033999 -0.36267099 -22.261719 7
0.035785999 -0.42126501 -22.40625 7
0.048850998 -0.47485399 -22.258789 7
0.058768999 -0.52832001 -22.146484 7
0.032375 -0.591187 -22.4375 7
-0.113194 -3.5662839 -23.748047 7
-0.132286 -3.6560061 -23.946289 7
-0.128178 -3.709229 -23.891602 7
-0.11562 -3.7484131 -23.745117 7
-0.109417 -3.7976069 -23.666016 7
-0.106373 -3.851685 -23.62207 7
-0.049373999 5.0805659 -22.635742 7
-0.053661 5.032959 -22.694336 7
-0.060596 4.9908452 -22.780273 7
-0.068591997 4.9509282 -22.876953 7
-0.085570998 4.9299321 -23.071289 7
-0.100967 4.904541 -23.249023 7
-0.08783 4.8179932 -23.117188 7
0.043605998 1.876587 -22.021484 7
0.054115001 1.8117681 -21.910156 7
0.041866001 1.766479 -22.047852 7
0.057128999 1.698486 -21.882812 7
0.052825999 1.646484 -21.933594 7
0.038897999 1.545288 -22.092773 7
0.050163001 -0.65283197 -20.701172 7
0.040359002 -0.81335402 -20.795898 7
-0.120396 -3.679565 -22.136719 7
-0.130657 -3.7515869 -22.231445 7
-0.12964199 -3.805908 -22.210938 7
-0.119034 -3.84375 -22.092773 7
-0.114624 -3.8918459 -22.037109 7
-0.113609 -3.945435 -22.015625 7
-0.12725399 -4.0244141 -22.144531 7
-0.138081 -4.0991211 -22.244141 7
-0.053993002 5.0837402 -21.058594 7
-0.061393999 5.046875 -21.144531 7
-0.067661002 5.0070801 -21.21875 7
-0.079020999 4.9780269 -21.344727 7
0.051360998 1.905273 -20.415039 7
0.043938 1.859741 -20.495117 7
0.042739999 1.8087161 -20.510742 7
0.053986002 1.747314 -20.399414 7
0.043715999 1.703369 -20.507812 7
0.032336999 1.65979 -20.62793 7
0.0066829999 -0.67590302 -19.789062 7
0.022171 -0.72082502 -19.636719 7
0.029860999 -0.76794398 -19.557617 7
-0.0019340001 -0.82946801 -19.865234 7
0.0063709999 -0.87658697 -19.78125 7
0.014664 -0.923096 -19.698242 7
-0.152073 -3.8752439 -20.955078 7
-0.141994 -3.911011 -20.847656 7
-0.13488001 -3.9515381 -20.769531 7
-0.12960801 -3.994751 -20.708008 7
-0.13510101 -4.0566411 -20.75 7
-0.14779299 -4.1313481 -20.861328 7
-0.069426998 5.0639648 -19.791992 7
-0.077895999 5.032227 -19.883789 7
-0.086360998 5.0001221 -19.974609 7
-0.094821997 4.9675288 -20.066406 7
-0.110466 4.9501948 -20.225586 7
-0.124947 4.929565 -20.373047 7
-0.115387 4.8572998 -20.294922 7
0.030875999 1.906616 -19.291016 7
0.018787 1.867798 -19.411133 7
0.012081 1.823853 -19.478516 7
0.033675998 1.75647 -19.274414 7
0.02578 1.713501 -19.352539 7
0.011272 1.675293 -19.495117 7
0.020821 1.618408 -19.40625 7
0.0081630005 -1.009644 -18.450195 7
0.015114 -1.053223 -18.383789 7
0.0029219999 -1.106323 -18.492188 7
-0.0022509999 -1.156128 -18.536133 7
-0.145401 -3.8730471 -19.473633 7
-0.156994 -3.941895 -19.567383 7
-0.15136001 -3.981812 -19.504883 7
-0.14122801 -4.0135498 -19.404297 7
-0.136856 -4.0550542 -19.354492 7
-0.13504 -4.100708 -19.328125 7
-0.067703001 5.1278081 -18.381836 7
-0.074134998 5.0949712 -18.450195 7
-0.084412001 5.0706792 -18.552734 7
-0.090857998 5.0374761 -18.621094 7
-0.097926997 5.005249 -18.695312 7
-0.118435 5.0018311 -18.887695 7
-0.126801 4.971436 -18.973633 7
-0.103825 4.8737788 -18.782227 7
0.016883999 1.894653 -18.137695 7
0.028351 1.838257 -18.037109 7
0.020599 1.798462 -18.111328 7
0.00452 1.7648931 -18.259766 7
0.012138 1.712158 -18.195312 7
0.020408999 1.659302 -18.124023 7
0.024185 1.609863 -18.092773 7
0.003761 -0.999268 -17.375 7
-0.019249 -1.05481 -17.571289 7
-0.01123 -1.0955811 -17.499023 7
-0.0038989999 -1.136475 -17.430664 7
-0.020172 -1.189819 -17.567383 7
-0.01619 -1.2325439 -17.530273 7
-0.110935 5.2062988 -17.563477 7
-0.092712 5.1201172 -17.423828 7
-0.099524997 5.0904541 -17.491211 7
-0.104309 5.0560298 -17.541992 7
-0.0026209999 -0.98645002 -16.347656 7
-0.017059 -1.077515 -16.458984 7
-0.014984 -1.118896 -16.438477 7
-0.010056 -1.158325 -16.394531 7
-0.020850999 -1.206421 -16.480469 7
-0.162949 -4.177124 -17.163086 7
-0.157295 -4.2106929 -17.108398 7
-0.16528299 -4.269043 -17.160156 7
-0.179092 -4.3820801 -17.24707 7
-0.183502 -4.4343262 -17.270508 7
-0.183586 -4.4785161 -17.259766 7
-0.011349 -0.97534198 -15.430664 7
-0.01141 -1.015137 -15.427734 7
-0.018291 -1.058228 -15.477539 7
-0.035751 -1.106934 -15.609375 7
-0.022202 -1.140137 -15.500977 7
-0.026054 -1.182251 -15.527344 7
-0.022330999 -1.220215 -15.496094 7
-0.032990001 -1.266235 -15.575195 7
-0.182953 -4.1882319 -16.236328 7
-0.178497 -4.2219238 -16.191406 7
-0.17556 -4.2580571 -16.160156 7
-0.177917 -4.3039551 -16.166016 7
-0.1856 -4.3592529 -16.212891 7
-0.194786 -4.4180908 -16.269531 7
-0.194122 -4.458374 -16.253906 7
-0.002846 1.8848881 -15.146484 7
0.0024069999 1.841064 -15.110352 7
0.0053900001 1.799316 -15.09082 7
0.0076330001 1.7581789 -15.078125 7
0.0030100001 1.7225339 -15.117188 7
-0.0076600001 1.691406 -15.201172 7
0.0082210004 1.639771 -15.083984 7
0.0081749996 1.6005861 -15.088867 7
0.01572 1.55603 -15.03418 7
-0.012226 -0.99670398 -14.500977 7
-0.029964 -1.080688 -14.623047 7
-0.030819001 -1.119019 -14.625977 7
-0.024479 -1.153687 -14.578125 7
-0.024548 -1.191406 -14.574219 7
-0.028613999 -1.231323 -14.600586 7
-0.190155 -4.1656489 -15.262695 7
-0.186241 -4.1977539 -15.224609 7
-0.17917299 -4.2636719 -15.154297 7
-0.194603 -4.3699951 -15.240234 7
-0.1987 -4.416748 -15.257812 7
-0.200394 -4.459229 -15.258789 7
-0.092602 5.0587158 -14.212891 7
-0.092625 5.021606 -14.224609 7
-0.095875002 4.991333 -14.258789 7
-0.102306 4.9680181 -14.314453 7
-0.109547 4.9460449 -14.375977 7
-0.122414 4.9360352 -14.476562 7
-0.132874 4.9204102 -14.55957 7
-0.120094 4.8553472 -14.482422 7
0.013538 1.582764 -14.130859 7
0.019104 1.54187 -14.092773 7
0.018257 1.505371 -14.103516 7
0.001347 1.479858 -14.227539 7
0.01012 1.43689 -14.166992 7
0.018905999 1.394043 -14.107422 7
0.024460001 1.35376 -14.069336 7
0.027626 1.314941 -14.049805 7
0.016326999 1.28479 -14.133789 7
-0.016483 -1.019531 -13.72168 7
-0.025845001 -1.095825 -13.78125 7
-0.041976999 -1.176025 -13.884766 7
-0.026882 -1.204102 -13.77832 7
-0.025280001 -1.238892 -13.761719 7
-0.195152 -4.224854 -14.383789 7
-0.191944 -4.293457 -14.341797 7
-0.19202 -4.330811 -14.332031 7
-0.20224001 -4.3865972 -14.387695 7
-0.122395 5.1165771 -13.53418 7
-0.124111 5.0848389 -13.556641 7
-0.120777 5.041748 -13.546875 7
-0.12670501 5.019043 -13.59668 7
-0.134315 4.9996338 -13.658203 7
-0.13266 4.960083 -13.65918 7
-0.129326 4.9169922 -13.648438 7
-0.128517 4.8795171 -13.654297 7
-0.116756 4.8187261 -13.588867 7
0.013542 1.256958 -13.363281 7
0.0067210002 1.2255861 -13.412109 7
0.018494001 1.183838 -13.333984 7
0.023514001 1.145996 -13.302734 7
0.029381 1.10791 -13.264648 7
0.032706998 1.071411 -13.244141 7
0.025063001 1.040161 -13.298828 7
0.019096 1.007935 -13.34082 7
0.020744 0.97192401 -13.332031 7
-0.011726 -0.966187 -12.932617 7
-0.028613999 -1.00769 -13.039062 7
-0.016272999 -1.036011 -12.957031 7
-0.014572 -1.069214 -12.942383 7
-0.028782001 -1.110229 -13.032227 7
-0.026249001 -1.177124 -13.009766 7
-0.027241001 -1.24585 -13.008789 7
-0.022877 -1.277344 -12.977539 7
-0.210884 -4.181519 -13.652344 7
-0.20216399 -4.236938 -13.577148 7
-0.198696 -4.2661128 -13.543945 7
-0.19965699 -4.3032231 -13.539062 7
-0.19884899 -4.336792 -13.524414 7
-0.20426901 -4.3818359 -13.545898 7
-0.214195 -4.4709468 -13.585938 7
0.01667 0.92517102 -12.617188 7
0.024615999 0.88854998 -12.566406 7
0.027256001 0.85412598 -12.551758 7
0.036068 0.81762701 -12.496094 7
0.036922 0.78417999 -12.492188 7
0.032428999 0.75231898 -12.522461 7
0.033268001 0.71899402 -12.519531 7
0.024334 0.68859899 -12.578125 7
0.022511 0.65588403 -12.591797 7
-0.0063100001 -0.98205602 -12.211914 7
-0.028651999 -1.024536 -12.347656 7
-0.010139 -1.0480959 -12.229492 7
-0.015769999 -1.083252 -12.261719 7
-0.0074539999 -1.11145 -12.207031 7
-0.028866 -1.154541 -12.336914 7
-0.028930999 -1.187134 -12.333984 7
-0.023414999 -1.216675 -12.296875 7
-0.023460001 -1.249023 -12.293945 7
-0.020737 -1.279785 -12.273438 7
-0.201214 -4.2689209 -12.787109 7
-0.20222899 -4.3043208 -12.782227 7
-0.203228 -4.3396001 -12.77832 7
-0.19772001 -4.362915 -12.734375 7
-0.19780301 -4.3962402 -12.724609 7
-0.099045001 0.77038598 15.180664 7
-0.095146 0.80163598 15.155273 7
-0.097015001 0.83483899 15.165039 7
-0.095046997 0.86682099 15.151367 7
-0.098801002 0.90075701 15.172852 7
-0.094925001 0.93164098 15.147461 7
0.035130002 0.74768102 -11.839844 7
-0.01342 -0.966919 -11.576172 7
-0.015427 -0.99853498 -11.584961 7
-0.020354999 -1.031372 -11.611328 7
-0.0086820005 -1.056519 -11.540039 7
-0.011673 -1.088623 -11.553711 7
-0.0097810002 -1.1181639 -11.540039 7
-0.024467001 -1.156616 -11.624023 7
-0.030373 -1.1906739 -11.655273 7
-0.025551001 -1.21875 -11.624023 7
-0.022667 -1.247803 -11.604492 7
-0.023712 -1.279297 -11.606445 7
-0.207104 -4.1943359 -12.078125 7
-0.20816401 -4.2280269 -12.073242 7
-0.210201 -4.2633061 -12.074219 7
-0.20537899 -4.286499 -12.037109 7
-0.203503 -4.3148189 -12.015625 7
-0.199673 -4.3392329 -11.983398 7
-0.201694 -4.3746338 -11.984375 7
-0.201794 -4.40625 -11.97168 7
-0.204807 -4.4433589 -11.978516 7
-0.12778901 5.1086431 -11.206055 7
-0.115112 5.0507808 -11.148438 7
-0.099518001 4.9868159 -11.074219 7
-0.099541001 4.9570308 -11.084961 7
-0.102478 4.9334722 -11.113281 7
-0.102509 4.9038091 -11.125 7
-0.10157 4.8718262 -11.129883 7
-0.103539 4.8460689 -11.152344 7
-0.114304 4.8387451 -11.224609 7
-0.125084 4.8310552 -11.293945 7
0.036293 0.41015601 -11.18457 7
0.041138001 0.37951699 -11.15625 7
0.045012999 0.34887701 -11.134766 7
0.045944002 0.318726 -11.128906 7
0.041016001 0.289673 -11.15918 7
0.035973001 0.200195 -11.188477 7
0.040824998 0.16992199 -11.161133 7
0.043715999 0.139771 -11.143555 7
0.040748999 0.109863 -11.162109 7
0.041655999 0.079956003 -11.155273 7
-0.022629 -0.986206 -11.041992 7
-0.020622 -1.014526 -11.029297 7
-0.024773 -1.046021 -11.048828 7
-0.019707 -1.072998 -11.018555 7
-0.019753 -1.102173 -11.014648 7
-0.017821999 -1.1600339 -10.998047 7
-0.035216998 -1.19873 -11.092773 7
-0.036277998 -1.22876 -11.095703 7
-0.027161 -1.2531739 -11.041016 7
-0.21267299 -4.1982422 -11.444336 7
-0.21582399 -4.2341309 -11.450195 7
-0.22005101 -4.3023682 -11.452148 7
-0.21706 -4.3270259 -11.425781 7
-0.20997199 -4.344604 -11.37793 7
-0.20901901 -4.3729248 -11.361328 7
-0.211224 -4.4370122 -11.351562 7
-0.21538199 -4.474854 -11.362305 7
-0.120438 5.0358891 -10.529297 7
-0.102085 4.9675288 -10.445312 7
-0.101086 4.9370122 -10.452148 7
-0.103149 4.913208 -10.472656 7
-0.109291 4.8980708 -10.517578 7
-0.109314 4.8696289 -10.52832 7
-0.108315 4.8389888 -10.535156 7
0.025543001 -0.39624 -10.214844 7
0.022293 -0.424438 -10.231445 7
0.021172 -0.45202601 -10.236328 7
-0.017108999 -0.96362299 -10.405273 7
-0.020362999 -0.99279797 -10.420898 7
-0.020416001 -1.020874 -10.418945 7
-0.020470001 -1.048828 -10.416016 7
-0.014088 -1.073608 -10.378906 7
-0.015202 -1.102173 -10.380859 7
-0.018459 -1.1318361 -10.396484 7
-0.017445 -1.158936 -10.387695 7
-0.039978001 -1.198975 -10.505859 7
-0.036819 -1.225464 -10.485352 7
-0.022941999 -1.245728 -10.408203 7
-0.027275 -1.276123 -10.428711 7
-0.208782 -4.1602778 -10.743164 7
-0.20884299 -4.1889648 -10.734375 7
-0.21105599 -4.221313 -10.734375 7
-0.21865501 -4.2635498 -10.761719 7
-0.217655 -4.2902832 -10.746094 7
-0.21343599 -4.3112788 -10.714844 7
-0.214588 -4.3419189 -10.708984 7
-0.21464901 -4.3704829 -10.699219 7
-0.21257401 -4.3951421 -10.678711 7
-0.210499 -4.4197998 -10.65625 7
-0.215946 -4.4586182 -10.672852 7
-0.087592997 -1.914673 13.124023 7
-0.087569997 -1.887085 13.12793 7
-0.087531999 -1.859131 13.132812 7
-0.083091997 -1.827881 13.114258 7
-0.080848999 -1.798462 13.107422 7
-0.078606002 -1.769043 13.099609 7
-0.076378003 -1.739624 13.092773 7
-0.073563002 0.68896502 13.216797 7
-0.072411001 0.71643102 13.209961 7
-0.072371997 0.744385 13.208008 7
-0.071227998 0.77209502 13.201172 7
-0.072265998 0.80029303 13.204102 7
-0.073311001 0.82861298 13.208008 7
-0.071060002 0.85583502 13.195312 7
-0.072104998 0.88415498 13.198242 7
-0.072067 0.91198701 13.196289 7
-0.072006002 0.93981898 13.193359 7
0.0091589997 -0.32861301 -9.7949219 7
0.0068859998 -0.355591 -9.8066406 7
0.0057259998 -0.382202 -9.8115234 7
0.010147 -0.408081 -9.7871094 7
0.017929001 -0.43273899 -9.7460938 7
0.018997001 -0.45898399 -9.7392578 7
0.01561 -0.486206 -9.7548828 7
0.014458 -0.51281703 -9.7597656 7
0.0076939999 -0.54077101 -9.7929688 7
-0.000164 -0.569336 -9.8310547 7
0.0020330001 -0.59545898 -9.8193359 7
0.0075719999 -0.62048298 -9.7890615 7
-0.024433 -1.05835 -9.9160156 7
-0.024479 -1.085205 -9.9140615 7
-0.018948 -1.109131 -9.8828115 7
-0.018993 -1.1357419 -9.8798828 7
-0.021267001 -1.163574 -9.8886719 7
-0.026905 -1.193359 -9.9140615 7
-0.031661998 -1.356567 -9.9199219 7
-0.208572 -4.170166 -10.144531 7
-0.209755 -4.1994629 -10.140625 7
-0.209824 -4.2268071 -10.129883 7
-0.20764901 -4.2498779 -10.109375 7
-0.22005101 -4.2993159 -10.158203 7
-0.217876 -4.3226318 -10.137695 7
-0.21346299 -4.3416748 -10.105469 7
-0.21129601 -4.3649902 -10.083984 7
-0.209106 -4.388062 -10.063477 7
-0.21368399 -4.4234619 -10.073242 7
-0.209251 -4.4421391 -10.041992 7
-0.214928 -4.4797359 -10.058594 7
-0.123737 -2.2392581 12.736328 7
-0.091514997 -2.1550291 12.589844 7
-0.114422 -2.123291 12.711914 7
-0.10516 -2.0614009 12.675781 7
-0.097065002 -2.000977 12.647461 7
-0.098164 -1.94873 12.663086 7
0.001156 -0.64587402 -9.3330078 7
0.0046009999 -0.67016602 -9.3144531 7
0.0057140002 -0.69519001 -9.3066406 7
0.001019 -0.72204602 -9.3271484 7
-0.010677 -0.75146502 -9.3837891 7
-0.016551999 -0.77893102 -9.4091797 7
-0.013096 -0.80334502 -9.390625 7
-0.007305 -0.82653803 -9.3603516 7
-0.0073509999 -0.85205102 -9.3583984 7
-0.0050539998 -0.87658697 -9.3457031 7
-0.0039329999 -0.90148902 -9.3369141 7
-0.013317 -0.93078601 -9.3808594 7
-0.019199001 -0.95886201 -9.40625 7
-0.025065999 -0.98706102 -9.4326172 7
-0.025111999 -1.012695 -9.4306641 7
-0.028666999 -1.039795 -9.4433594 7
-0.033371001 -1.067749 -9.4658203 7
-0.034575999 -1.094116 -9.46875 7
-0.022961 -1.113892 -9.4082031 7
-0.023006 -1.1394041 -9.4052734 7
-0.026546 -1.16687 -9.4199219 7
-0.024273001 -1.1912839 -9.4052734 7
-0.028973 -1.21936 -9.4257812 7
-0.047690999 -1.255371 -9.5146484 7
-0.039565999 -1.276611 -9.4716797 7
-0.020579999 -0.96789598 -8.9541016 7
-0.016972 -0.99072301 -8.9335938 7
-0.013371 -1.013306 -8.9140615 7
-0.018284 -1.040161 -8.9345703 7
-0.029247001 -1.0699461 -8.9833984 7
-0.037806999 -1.0986331 -9.0205078 7
-0.025691999 -1.117188 -8.9609385 7
-0.033023998 -1.14563 -8.9931641 7
-0.029423 -1.168335 -8.9736328 7
-0.031895 -1.194092 -8.9814453 7
-0.035603002 -1.220703 -8.9951172 7
-0.036846001 -1.246094 -8.9990234 7
-0.044197001 -1.274658 -9.0292969 7
-0.000313 -0.961914 -8.3935547 7
-0.0028919999 -0.98632801 -8.4033203 7
-0.015636001 -1.015381 -8.4580078 7
-0.023312001 -1.042358 -8.4882812 7
-0.022067999 -1.064941 -8.4804688 7
-0.013218 -1.084106 -8.4384766 7
-0.010712 -1.106079 -8.4248047 7
-0.010757 -1.129395 -8.421875 7
-0.014606 -1.154541 -8.4365234 7
-0.017193001 -1.179077 -8.4443359 7
-0.01598 -1.20166 -8.4345703 7
-0.027454 -1.231445 -8.4833984 7
-0.031300001 -1.256958 -8.4980469 7
-0.213661 -4.433228 -8.4033203 7
-0.21116599 -4.4517822 -8.3828115 7
-0.213783 -4.4794922 -8.3828115 7
-0.070343003 -1.897339 11.129883 7
-0.075530998 -1.87854 11.158203 7
-0.067672998 -1.825928 11.133789 7
-0.062454 -1.7987061 11.116211 7
-0.058517002 -1.772705 11.102539 7
-0.058487002 -1.749756 11.106445 7
-0.055847 -1.7019041 11.104492 7
-0.061012 -1.682739 11.130859 7
-0.051842 -1.630005 11.098633 7
-0.055716999 -1.609863 11.119141 7
-0.088942997 4.7893071 -7.5673828 7
-0.088959001 4.7679439 -7.578125 7
-0.090232998 4.749146 -7.594727 7
-0.088982001 4.7249761 -7.6005859 7
-0.091522001 4.7087402 -7.6220698 7
-0.027690999 -0.97924799 -8.1074219 7
-0.017147001 -0.996948 -8.0595703 7
-0.015876999 -1.018677 -8.0517578 7
-0.019871 -1.042725 -8.0664062 7
-0.015945001 -1.063354 -8.046875 7
-0.021267001 -1.088257 -8.0673828 7
-0.035854001 -1.118042 -8.1259766 7
-0.029301001 -1.137207 -8.0947266 7
-0.025364 -1.1574709 -8.0751953 7
-0.026737001 -1.1806639 -8.078125 7
-0.026768001 -1.203003 -8.0751953 7
-0.030773001 -1.227661 -8.0898438 7
-0.030811001 -1.250122 -8.0859385 7
-0.036144 -1.2755131 -8.1054688 7
-0.21736901 -4.303833 -7.9980469 7
-0.21742199 -4.3260498 -7.9882808 7
-0.22809599 -4.3674321 -8.0195312 7
-0.23214699 -4.3969731 -8.0244141 7
-0.230873 -4.416748 -8.0087891 7
-0.222984 -4.424561 -7.967773 7
-0.22304501 -4.4465332 -7.9570308 7
-0.221779 -4.466187 -7.9414058 7
-0.081965998 -1.9198 10.773438 7
-0.084666997 -1.89978 10.790039 7
-0.081928 -1.875244 10.783203 7
-0.085964002 -1.856323 10.804688 7
-0.089993 -1.837402 10.825195 7
-0.091320001 -1.816162 10.834961 7
-0.071010999 -1.77771 10.756836 7
-0.073680997 -1.757812 10.771484 7
-0.068259999 -1.731567 10.753906 7
-0.068236999 -1.709473 10.757812 7
-0.073611997 -1.6912839 10.783203 7
-0.076289997 -1.671021 10.798828 7
-0.072215997 -1.645874 10.787109 7
-0.069485001 -1.6218261 10.779297 7
-0.111969 4.4946289 -7.3623052 7
-0.35335901 -6.7149658 9.1523438 7
-0.35196301 -6.6929932 9.1630859 7
-0.353374 -6.6782231 9.1835938 7
-0.35622001 -6.6672359 9.2080078 7
-0.36325499 -6.6671138 9.2451172 7
-0.35905099 -6.618896 9.2636719 7
-0.073429003 -1.9187011 10.338867 7
-0.074795 -1.898682 10.348633 7
-0.064940996 -1.869385 10.314453 7
-0.076159999 -1.857422 10.363281 7
-0.070506997 -1.831665 10.344727 7
-0.080334 -1.818481 10.388672 7
-0.062027 -1.782593 10.321289 7
-0.059195999 -1.759277 10.314453 7
-0.060585 -1.73938 10.324219 7
-0.060555 -1.718262 10.328125 7
-0.052085999 -1.6906739 10.297852 7
-0.063316002 -1.6781009 10.347656 7
-0.066105001 -1.658936 10.362305 7
-0.063277997 -1.635864 10.355469 7
-0.060431998 -1.6125489 10.347656 7
-0.21371099 -4.4223628 -7.014648 7
-0.213779 -4.4422612 -7.0039058 7
-0.213833 -4.4621582 -6.9931641 7
-0.062824003 -1.918579 9.9472656 7
-0.061344001 -1.897095 9.9462891 7
-0.061321001 -1.876953 9.9501953 7
-0.058394998 -1.8544919 9.9443359 7
-0.058357 -1.834229 9.9482422 7
-0.071452998 -1.824585 10.001953 7
-0.065609001 -1.799561 9.9833984 7
-0.061214 -1.775635 9.9726562 7
-0.053902 -1.749878 9.9492188 7
-0.048035 -1.725098 9.9306641 7
-0.049484 -1.706055 9.9404297 7
-0.047997002 -1.684692 9.9394531 7
-0.047981001 -1.6644289 9.9433594 7
-0.061069001 -1.653931 9.9970703 7
-0.052299 -1.627319 9.9677734 7
-0.050811999 -1.605957 9.9658203 7
-0.119041 4.7801509 -6.3457031 7
-0.113335 4.7497559 -6.3388672 7
-0.107635 4.719604 -6.329102 7
-0.107651 4.6824951 -6.351562 7
-0.223133 -4.1694341 -6.7695308 7
-0.215755 -4.1755371 -6.735352 7
-0.21730401 -4.1975098 -6.7304692 7
-0.226273 -4.2324219 -6.75 7
-0.22633401 -4.2518311 -6.7402339 7
-0.234009 -4.3419189 -6.7236328 7
-0.36292601 -6.7006841 8.171875 7
-0.356884 -6.6685791 8.1708984 7
-0.35689899 -6.6525879 8.1865234 7
-0.35841799 -6.6402588 8.2070312 7
-0.36903799 -6.651855 8.2509766 7
-0.35693699 -6.604248 8.234375 7
-0.35847101 -6.5919189 8.2539062 7
-0.36151499 -6.5834961 8.2783203 7
-0.36151499 -6.5672612 8.2929688 7
-0.35698301 -6.539185 8.296875 7
-0.35397699 -6.5150151 8.3046885 7
-0.352467 -6.494751 8.3154297 7
-0.065769002 -1.904907 9.6113281 7
-0.061198998 -1.881592 9.5996094 7
-0.064204998 -1.864868 9.6142578 7
-0.065701 -1.846558 9.6240234 7
-0.070225 -1.830811 9.6455078 7
-0.068691 -1.810059 9.6445312 7
-0.070170999 -1.79187 9.6542969 7
-0.074717999 -1.775635 9.6767578 7
-0.047462001 -1.734985 9.5820312 7
-0.048958 -1.716797 9.5917969 7
-0.047409002 -1.6962889 9.5898438 7
-0.056460999 -1.683838 9.6269531 7
-0.048889 -1.658936 9.6035156 7
-0.054912999 -1.643921 9.6289062 7
-0.060954999 -1.6287839 9.6542969 7
-0.063946001 -1.61145 9.6699219 7
-0.35981399 -6.7146001 7.6621089 7
-0.35670099 -6.6916499 7.670898 7
-0.062298 -1.909668 9.2949219 7
-0.05759 -1.887085 9.2832031 7
-0.06538 -1.875122 9.3144531 7
-0.065350004 -1.8375241 9.3232422 7
-0.070026003 -1.822632 9.3447266 7
-0.068432003 -1.80249 9.34375 7
-0.052761 -1.752563 9.2978516 7
-0.044907 -1.727905 9.2744141 7
-0.052723002 -1.71521 9.3056641 7
-0.049538001 -1.6756589 9.3027344 7
-0.055782001 -1.661499 9.328125 7
-0.060444001 -1.64624 9.3486328 7
-0.054141998 -1.604126 9.3339844 7
-0.223011 -4.4866939 -5.7998052 7
-0.226261 -4.5097661 -5.7988281 7
-0.22631501 -4.5266109 -5.7880859 7
-0.226368 -4.5435791 -5.7783198 7
-0.226421 -4.5606689 -5.7675781 7
-0.229679 -4.5836182 -5.765625 7
-0.34780499 -6.4373779 7.375 7
-0.058758002 -1.904053 8.9580078 7
-0.060368001 -1.887573 8.96875 7
-0.060345002 -1.869629 8.9726562 7
-0.060337 -1.851685 8.9775391 7
-0.057064001 -1.831055 8.9707031 7
-0.063525997 -1.818359 8.9960938 7
-0.061909001 -1.799194 8.9960938 7
-0.060268 -1.779907 8.9951172 7
-0.058612999 -1.7607419 8.9931641 7
-0.047253001 -1.733765 8.9609385 7
-0.045600999 -1.714722 8.9589844 7
-0.045586001 -1.697021 8.9628906 7
-0.042312998 -1.676514 8.9560547 7
-0.042296998 -1.658691 8.9599609 7
-0.048762999 -1.6455081 8.9853516 7
-0.060107999 -1.635986 9.0273438 7
-0.056857999 -1.615479 9.0205078 7
-0.123119 4.2172852 8.2861328 7
-0.121456 4.2305908 8.2714844 7
-0.121403 4.2469478 8.2617188 7
-0.124584 4.2689209 8.2607422 7
-0.121326 4.2790532 8.2421885 7
-0.12932999 4.3103032 8.2558594 7
-0.126049 4.3205571 8.2353516 7
-0.126003 4.3366699 8.2255859 7
-0.119495 4.3404541 8.1962891 7
-0.121059 4.3594971 8.1904297 7
-0.130703 4.394043 8.2099609 7
-0.141964 4.4316411 8.2324219 7
-0.15159599 4.466064 8.2490234 7
-0.236095 -4.5318599 -5.4345698 7
-0.23117401 -4.5386958 -5.4091802 7
-0.231236 -4.55481 -5.3994141 7
-0.231289 -4.5709229 -5.3876948 7
-0.229671 -4.5837402 -5.3720698 7
-0.228062 -4.5965581 -5.3564448 7
-0.233089 -4.6220698 -5.359375 7
-0.241436 -4.6539311 -5.3720698 7
-0.25309801 -4.6923828 -5.3935552 7
-0.24319801 -4.689209 -5.3544922 7
-0.25321999 -4.7243652 -5.3701172 7
-0.25161001 -4.737061 -5.3535161 7
-0.25001499 -4.75 -5.3378911 7
-0.255043 -4.7755132 -5.3408198 7
-0.25176999 -4.7849121 -5.320312 7
-0.32764801 -6.1243901 -4.476562 7
-0.33105099 -6.1464839 -4.46875 7
-0.337753 -6.1763921 -4.469727 7
-0.34114099 -6.1984859 -4.4628911 7
-0.33456001 -6.1959229 -4.4326172 7
-0.33626601 -6.2138672 -4.421875 7
-0.33634201 -6.2276611 -4.40625 7
-0.32808301 -6.2209468 -4.3730469 7
-0.32648101 -6.2303472 -4.3544922 7
-0.32156 -6.2315669 -4.328125 7
-0.324947 -6.2532959 -4.3212891 7
-0.32832 -6.275146 -4.3144531 7
-0.32838801 -6.2885742 -4.2988281 7
-0.33011201 -6.3062739 -4.2871089 7
-0.33017299 -6.3198242 -4.2724609 7
-0.32857901 -6.328979 -4.2539058 7
-0.33195901 -6.3505859 -4.2460942 7
-0.33864999 -6.3808589 -4.2460942 7
-0.064487003 -1.887817 8.6757812 7
-0.067828998 -1.873413 8.6914062 7
-0.062771 -1.8519289 8.6787109 7
-0.062762998 -1.834717 8.6845703 7
-0.072825998 -1.825684 8.7207031 7
-0.08123 -1.815186 8.7529297 7
-0.066067003 -1.785645 8.7070312 7
-0.059315 -1.74585 8.6943359 7
-0.055934999 -1.725952 8.6884766 7
-0.050861001 -1.687622 8.6796885 7
-0.049144998 -1.669312 8.6777344 7
-0.055874001 -1.657104 8.7050781 7
-0.057528999 -1.641113 8.7138672 7
-0.055813 -1.605347 8.7158203 7
-0.14680099 4.2086182 8.0244141 7
-0.163467 4.2545171 8.0605469 7
-0.143345 4.2338872 7.9941411 7
-0.128223 4.2219238 7.9423828 7
-0.126469 4.2495122 7.9169922 7
-0.124744 4.2619629 7.9033198 7
-0.122974 4.2894292 7.8779302 7
-0.13129 4.320312 7.891602 7
-0.129566 4.3322749 7.875977 7
-0.117809 4.3256841 7.8339839 7
-0.124409 4.3686519 7.8310552 7
-0.132732 4.3996582 7.844727 7
-0.142658 4.4490972 7.8496089 7
-0.24347299 -4.4836431 -5.124023 7
-0.234951 -4.4831538 -5.0898442 7
-0.229839 -4.4890141 -5.0664058 7
-0.223042 -4.4912109 -5.0361328 7
-0.226513 -4.512939 -5.0351558 7
-0.224842 -4.5249019 -5.0205078 7
-0.23005299 -4.5499272 -5.0224609 7
-0.231823 -4.5683589 -5.0175781 7
-0.23016 -4.5803218 -5.000977 7
-0.233639 -4.6019292 -5 7
-0.235416 -4.6202388 -4.9931641 7
-0.238903 -4.6419678 -4.9912109 7
-0.25096101 -4.6802979 -5.0117192 7
-0.24415199 -4.6821289 -4.9824219 7
-0.24419799 -4.697144 -4.9716802 7
-0.25628701 -4.7355962 -4.9912109 7
-0.25289199 -4.744019 -4.9716802 7
-0.251232 -4.7557368 -4.9550781 7
-0.25642401 -4.7808838 -4.9580078 7
-0.253052 -4.789062 -4.936523 7
-0.071819 -1.90686 8.4091797 7
-0.070064999 -1.888916 8.4082031 7
-0.063075997 -1.866455 8.390625 7
-0.070033997 -1.855713 8.4169922 7
-0.070018999 -1.839233 8.421875 7
-0.068255998 -1.8212889 8.4208984 7
-0.071727999 -1.807251 8.4365234 7
-0.076949999 -1.794678 8.4570312 7
-0.075188003 -1.776733 8.4550781 7
-0.075157002 -1.76001 8.4599609 7
-0.068187997 -1.738037 8.4423828 7
-0.055980999 -1.712036 8.4082031 7
-0.061191998 -1.699463 8.4287109 7
-0.057689998 -1.680176 8.421875 7
-0.057666998 -1.663574 8.4257812 7
-0.057659 -1.6468509 8.4296885 7
-0.059383001 -1.6318361 8.4384766 7
-0.062847003 -1.6175539 8.4541016 7
-0.038609002 0.97570801 8.5146484 7
-0.036839001 0.99182099 8.5068359 7
-0.047230002 1.013306 8.5380859 7
-0.031567 1.022949 8.4863281 7
-0.040226001 1.043823 8.5126953 7
-0.034977 1.058228 8.4931641 7
-0.033215001 1.073853 8.484375 7
-0.033160999 1.090698 8.4824219 7
-0.034878001 1.108276 8.4853516 7
-0.034846999 1.125 8.4824219 7
-0.034809001 1.1418459 8.4804688 7
-0.033000998 1.174316 8.46875 7
-0.046879001 1.198364 8.5107422 7
-0.050308 1.217163 8.5185547 7
-0.043331001 1.230103 8.4941406 7
-0.046771999 1.248901 8.5019531 7
-0.046726 1.265503 8.4990234 7
-0.14531299 4.1705322 7.6982422 7
-0.143528 4.182251 7.6845698 7
-0.141735 4.1938481 7.6689448 7
-0.13824099 4.2025151 7.6503911 7
-0.14857499 4.2359619 7.6679692 7
-0.151985 4.2570801 7.6669922 7
-0.146744 4.262207 7.6435552 7
-0.143253 4.270752 7.624023 7
-0.134541 4.2695308 7.5917969 7
-0.132771 4.2808838 7.578125 7
-0.125797 4.2825928 7.5488281 7
-0.127483 4.300293 7.5429692 7
-0.12743001 4.3148189 7.5332031 7
-0.12738401 4.329102 7.523438 7
-0.12734599 4.3436279 7.5126948 7
-0.13075601 4.364624 7.5117192 7
-0.128971 4.3757319 7.4970698 7
-0.127186 4.3868408 7.4814448 7
-0.12887201 4.4044189 7.4755859 7
-0.13229799 4.425415 7.4736328 7
-0.144356 4.462769 7.4941411 7
-0.25266299 -4.4984131 -4.7929692 7
-0.247379 -4.5032959 -4.7685552 7
-0.243885 -4.51123 -4.749023 7
-0.23504999 -4.5092769 -4.7158198 7
-0.240437 -4.5336909 -4.71875 7
-0.24225201 -4.5513921 -4.7128911 7
-0.236973 -4.5559082 -4.688477 7
-0.237011 -4.570435 -4.6777339 7
-0.24239001 -4.594604 -4.6806641 7
-0.244221 -4.6124272 -4.6738281 7
-0.242496 -4.6235352 -4.6582031 7
-0.24255 -4.6378169 -4.6474609 7
-0.242603 -4.6521001 -4.6357422 7
-0.247982 -4.6765141 -4.6386719 7
-0.248035 -4.6907959 -4.6269531 7
-0.253429 -4.7154541 -4.6289058 7
-0.248135 -4.7192378 -4.6054692 7
-0.25529099 -4.747437 -4.6113281 7
-0.257126 -4.7651372 -4.6035161 7
-0.26072699 -4.7860112 -4.601562 7
-0.25545099 -4.789917 -4.577148 7
-0.085022002 -1.913208 8.1806641 7
-0.072425999 -1.886719 8.1484385 7
-0.077804998 -1.875244 8.1679688 7
-0.077797003 -1.859253 8.1728516 7
-0.075974002 -1.8419189 8.1708984 7
-0.074157998 -1.8243411 8.1708984 7
-0.075951003 -1.809814 8.1806641 7
-0.077744 -1.795288 8.1904297 7
-0.079506002 -1.78064 8.1992188 7
-0.066898003 -1.754761 8.1660156 7
-0.077675 -1.74707 8.203125 7
-0.065067001 -1.721436 8.1689453 7
-0.066845 -1.706787 8.1787109 7
-0.065036997 -1.6893311 8.1767578 7
-0.061420001 -1.6706541 8.1699219 7
-0.061404999 -1.654541 8.1738281 7
-0.063198 -1.6398931 8.1835938 7
-0.061375 -1.622559 8.1816406 7
-0.068558 -1.611572 8.2080078 7
-0.077537999 -1.6019289 8.2382812 7
-0.143364 4.1738281 7.3632808 7
-0.137959 4.1782231 7.3388672 7
-0.14685801 4.208374 7.3525391 7
-0.152191 4.2320561 7.3564448 7
-0.146759 4.2364502 7.3320308 7
-0.15209199 4.2602539 7.335938 7
-0.15024599 4.270874 7.3212891 7
-0.15915699 4.301147 7.3330078 7
-0.146576 4.2922359 7.2919922 7
-0.137585 4.2895508 7.2597661 7
-0.132175 4.293457 7.235352 7
-0.128544 4.300415 7.2167969 7
-0.132076 4.3208008 7.2148442 7
-0.13382301 4.3378911 7.2089839 7
-0.128407 4.3415532 7.186523 7
-0.13553201 4.3685298 7.1943359 7
-0.131908 4.3754878 7.1748052 7
-0.131863 4.3891602 7.1650391 7
-0.130024 4.3991699 7.1494141 7
-0.129978 4.4127202 7.1386719 7
-0.137096 4.4398189 7.1464839 7
-0.144196 4.4672852 7.1533198 7
-0.129833 4.453125 7.1074219 7
-0.106871 -1.902741 11.018446 7
-0.059071999 -1.881953 9.9603329 7
-0.070363998 -1.656498 10.118622 7
-0.086824998 4.3009949 8.3176861 7
-0.097744003 -1.904268 9.2665138 7
-0.087784 -1.661846 9.2703533 7
-0.398478 -6.460567 7.5665731 7
-0.075148001 -1.7202671 8.7638969 7
-0.146935 4.3091779 7.6638732 7
-0.130246 4.3780661 7.4204469 7
-0.073770002 -1.7884721 8.3806782 7
-0.047555 1.098834 8.4355173 7
-0.049486998 -1.7891591 7.9174552 7
-0.047239002 -1.619694 7.9734449 7
-0.075553998 -1.796489 7.543324 7
-0.065104 -1.625095 7.5638409 7
-0.062408 -1.808553 7.2334652 7
-0.051367 -1.64799 7.2558341 7
-0.109006 -4.1728339 -16.126415 7
-0.106769 -4.2923489 -12.650846 7
-0.25164899 -4.369473 -10.182097 7
0.024351001 -1.373154 -6.8294082 7
-0.229892 -4.4167638 -8.2997723 7
-0.208776 -4.434639 -6.7947731 7
-0.0052629998 0.97444302 11.871953 7
-0.078884996 -1.831795 10.757094 7
-0.044849001 -1.583796 -4.1474271 7
-0.031399999 -1.739396 9.9111023 7
-0.004346 -1.521564 -3.3452461 7
-0.236918 -4.661839 -3.5079141 7
-0.0072849998 -1.6746269 9.3198681 7
-0.212984 -4.5991039 -2.7761309 7
-0.33985701 -6.658154 7.5818868 7
-0.015595 -1.873597 8.927433 7
-0.007617 -1.632926 8.9422932 7
-0.19592699 -4.549233 -2.164923 7
-0.065159999 -1.81445 8.5478659 7
-0.23921201 -4.6622849 -1.433789 7
-0.054008 -1.763527 8.2136059 7
-0.22393399 -4.600173 -0.977786 7
-0.052310001 -1.917214 7.9020052 7
-0.027229 -1.707002 7.8405752 7
-0.222067 -4.5733962 -0.60783499 7
-0.219561 -4.7100611 -0.43362999 7
-0.023637 -1.84971 7.5549402 7
-0.0056560002 -1.659175 7.5251002 7
-0.054111999 -1.797859 7.293962 7
-0.036454 -1.619174 7.2680192 7
-0.034931 -1.750309 7.0496001 7
-0.0021329999 -1.3015161 -0.54926997 7
-0.017283 -1.46496 -0.57778901 7
-0.247123 -4.6200371 0.69315797 7
-0.24682499 -4.712904 0.85383302 7
0.0083370004 -1.286276 -0.35266399 7
-0.0055579999 -1.440832 -0.376239 7
-0.235649 -4.5363321 0.96736699 7
-0.23979101 -4.631916 1.11534 7
-0.232381 -4.6867342 1.285843 7
-0.241199 -4.7842202 1.432816 7
-0.262831 -4.5052462 1.381356 7
-0.26845601 -4.5887542 1.525555 7
-0.26163501 -4.6304698 1.6889811 7
-0.25463599 -4.664793 1.8528841 7
-0.263446 -4.7395649 2.0009191 7
-0.26507199 -4.7869401 2.158988 7
-0.244266 -4.5068488 1.912679 7
-0.249533 -4.5685959 2.05761 7
-0.247393 -4.6030722 2.211544 7
-0.25245899 -4.652585 2.3610101 7
-0.24087 -4.6468048 2.522624 7
-0.245644 -4.6833591 2.6744781 7
-0.248523 -4.7082782 2.828747 7
-0.25122699 -4.7266202 2.984128 7
-0.254067 -4.7393479 3.179497 7
-0.25651601 -4.7431731 3.3363061 7
-0.25881499 -4.7404032 3.493335 7
-0.260934 -4.7309418 3.650296 7
-0.261141 -4.709651 3.806118 7
-0.232086 -4.498096 2.551863 7
-0.235055 -4.5281901 2.6982939 7
-0.23598 -4.5465999 2.8466749 7
-0.240614 -4.5699501 2.994864 7
-0.245369 -4.587913 3.18191 7
-0.24207599 -4.575026 3.3319581 7
-0.25013301 -4.5892272 3.4830489 7
-0.248449 -4.5692668 3.632473 7
-0.24863 -4.5488768 3.781532 7
-0.114849 4.4608841 7.7717671 7
-0.17071 4.2700109 7.9184332 7
-0.041691002 1.07391 8.5409088 7
-0.166085 4.2531819 7.5036912 7
-0.155268 4.3774638 7.301641 7
-0.146906 4.1902661 7.0775361 7
0.0042249998 1.5994869 -14.366771 7
-0.0309 -0.32659599 -10.050541 7
-0.103305 -1.230564 -11.313719 7
-0.33870399 -4.1692772 -15.216871 7
-0.232604 -4.3541632 -11.0622 7
-0.035495002 -1.331358 -7.5748639 7
-0.216998 -4.3865452 -9.2221956 7
-0.116811 4.7017298 -7.5460329 7
-0.017464001 -1.357565 -6.550952 7
-0.202889 -4.3719792 -7.7989569 7
-0.053690001 -1.371049 -5.774045 7
-0.217099 -4.488915 -5.2272282 7
-0.094522998 4.6853142 -3.319766 7
-0.100554 4.6096721 -3.52408 7
-0.104603 4.509789 -3.7171581 7
-0.000147 -1.350597 -4.2231469 7
-0.010806 -1.516011 -4.240797 7
-0.19899601 -4.5562921 -3.4944301 7
-0.195131 -4.6494999 -3.301029 7
-0.024592999 -1.351173 -3.9039831 7
-0.037944 -1.509099 -3.9250901 7
-0.22648001 -4.5339751 -2.3824439 7
-0.22521099 -4.597693 -2.1951029 7
-0.21883 -4.6194458 -1.99835 7
-0.017982 -1.357592 -3.6463871 7
-0.027365999 -1.4931279 -3.640692 7
-0.013019 -1.362991 -3.4234879 7
-0.021983 -1.488138 -3.411418 7
-0.0074760001 -1.361928 -3.2195289 7
