# .PCD v0.7 - Point Cloud Data file format
VERSION 0.7
FIELDS x y z intensity
SIZE 4 4 4 4
TYPE F F F F
COUNT 1 1 1 1
WIDTH 663
HEIGHT 1
VIEWPOINT 0 0 0 1 0 0 0
POINTS 663
DATA ascii
-0.54698002 -2.134155 73.272461 7
-0.54295897 -1.96106 73.178711 7
-0.59315097 -5.2443848 67.275391 7
-0.65048403 -5.193604 68.652344 7
-0.72798502 -5.1722412 70.507812 7
-0.50722301 -2.206665 65.49707 7
-0.55637199 -2.092407 66.677734 7
-0.47395101 3.384521 64.767578 7
0.010145 4.3901372 -57.123047 7
-0.035085998 4.339478 -58.345703 7
-0.053895999 4.089355 -58.862305 7
-0.105846 4.0378418 -60.268555 7
-0.64463001 -5.3322749 62.854492 7
-0.68227601 -5.255981 63.688477 7
-0.75989199 -5.2470698 65.390625 7
-0.52858698 -2.3105471 60.513672 7
-0.509884 -2.1556399 60.115234 7
-0.48928601 -2.0012209 59.675781 7
-0.47699699 -1.854614 59.416992 7
-0.41752401 3.575562 58.225586 7
-0.071227998 4.2585449 -53.609375 7
-0.100555 4.1812739 -54.330078 7
-0.034067001 3.930908 -52.712891 7
-0.091601998 3.9007571 -54.123047 7
-0.170403 3.899292 -56.051758 7
-0.40316999 0.42797899 53.217773 7
-0.36499801 0.54260302 52.456055 7
-0.38029301 0.66772503 52.764648 7
-0.466997 3.5887451 54.416016 7
-0.41132 3.6365969 53.297852 7
-0.36556599 3.693604 52.379883 7
0.015838999 4.168457 -46.523438 7
-0.040934 4.160522 -47.785156 7
-0.079017997 4.112793 -48.634766 7
-0.057859 3.956543 -48.170898 7
-0.090825997 3.7753911 -48.914062 7
-0.171083 3.784668 -50.696289 7
-0.39455 0.513794 49.355469 7
-0.34875101 0.616211 48.504883 7
-0.36274099 0.73205602 48.766602 7
-0.47112501 3.6923831 50.739258 7
-0.37077001 3.6655271 48.871094 7
-0.072443001 4.2198491 -44.577148 7
-0.105402 4.1705322 -45.257812 7
-0.14325701 4.126709 -46.036133 7
-0.081146002 3.9064939 -44.775391 7
-0.107851 3.841675 -45.327148 7
-0.165691 3.824707 -46.513672 7
-0.024815001 0.48376501 -43.999023 7
-0.022984 0.375732 -43.958984 7
-0.0022090001 -0.138184 -39.291992 7
-0.16855399 -3.4888921 -42.425781 7
-0.57896602 -5.4086909 48.242188 7
-0.59459502 -5.3278809 48.523438 7
-0.380541 -2.4404299 45.161133 7
-0.39202899 -2.3474121 45.364258 7
-0.30355501 0.55700701 43.939453 7
-0.31776601 0.66149902 44.18457 7
-0.29092199 0.75476098 43.726562 7
-0.36543801 3.6733401 44.93457 7
-0.338312 3.7366941 44.46582 7
-0.31764001 3.807373 44.107422 7
0.50012797 22.154785 21.360352 7
0.500319 22.202026 21.307617 7
0.50151598 22.236084 21.244141 7
0.50006098 22.304688 21.209961 7
0.49893999 22.369019 21.172852 7
0.499138 22.415894 21.120117 7
-0.075562 4.3536382 -40.552734 7
-0.110718 4.3199458 -41.214844 7
-0.130243 4.2545171 -41.584961 7
-0.157299 4.2008061 -42.09668 7
-0.17496499 4.1282959 -42.431641 7
-0.023158999 0.73852497 -39.701172 7
-0.044783 0.54858398 -40.101562 7
-0.057758 0.25451699 -40.337891 7
-0.029689999 0.153442 -39.813477 7
-0.0088290004 0.055054002 -39.420898 7
-0.067711003 -0.046142999 -37.514648 7
-0.032030001 -0.136108 -36.893555 7
-0.037599999 -0.22741701 -36.987305 7
-0.197607 -3.548584 -39.5 7
-0.181004 -3.716064 -39.191406 7
-0.35067201 -2.4304199 41.560547 7
-0.36564401 -2.3491211 41.805664 7
-0.30982 0.51892102 41.013672 7
-0.28059599 0.60546899 40.549805 7
-0.31614301 0.70837402 41.115234 7
-0.27588299 0.78967297 40.476562 7
-0.36452499 3.698364 41.799805 7
-0.34379199 3.76355 41.464844 7
-0.089945003 4.413208 -37.520508 7
-0.117855 4.3737788 -38.005859 7
-0.13560501 4.3129878 -38.318359 7
-0.185551 4.3092041 -39.183594 7
-0.210752 4.2575679 -39.624023 7
-0.017878 0.94970697 -36.43457 7
-0.020723 0.86084002 -36.484375 7
-0.026291 0.77294898 -36.579102 7
-0.057337001 0.69226098 -37.113281 7
-0.041228998 -0.36792001 -33.62793 7
-0.048765 -0.452759 -33.744141 7
-0.027401 -0.53100598 -33.404297 7
-0.028996 -0.61389202 -33.426758 7
-0.249063 -3.594238 -36.865234 7
-0.24885701 -3.684448 -36.850586 7
-0.227203 -3.7414551 -36.5 7
-0.204449 -3.7948 -36.129883 7
-0.3109 -2.2930911 37.868164 7
-0.356157 -2.158936 38.541992 7
-0.26851699 0.641357 37.344727 7
-0.269445 0.81213403 37.358398 7
-0.33912501 3.728394 38.273438 7
-0.34254801 3.8210449 38.316406 7
-0.29248601 3.9173579 37.572266 7
-0.28755799 3.995239 37.493164 7
-0.041058 4.539062 -33.443359 7
-0.059647001 4.4934082 -33.743164 7
-0.083025001 4.455688 -34.119141 7
-0.10494 4.4134521 -34.472656 7
-0.16123199 4.4346919 -35.363281 7
-0.093705997 4.2220459 -34.311523 7
-0.023909001 1.038574 -33.375 7
-0.0077300002 0.94860798 -33.121094 7
-0.049339 0.88330102 -33.776367 7
-0.06391 -0.51159698 -31.831055 7
-0.057472002 -0.66735798 -31.729492 7
-0.026911 -0.81298798 -31.271484 7
-0.276741 -3.8222661 -34.693359 7
-0.25867799 -3.8790281 -34.417969 7
-0.243797 -3.9394529 -34.188477 7
-0.247932 -4.030273 -34.236328 7
-0.248114 0.67663598 34.863281 7
-0.28239399 0.76660198 35.333008 7
-0.305168 3.857666 35.511719 7
-0.290613 3.915771 35.304688 7
-0.275639 3.972168 35.091797 7
0.30597699 17.614258 21.145508 7
-0.062579997 4.59375 -31.419922 7
-0.080879003 4.5523682 -31.696289 7
-0.098384999 4.5083008 -31.961914 7
-0.15670601 4.4605708 -32.834961 7
-0.0098780002 1.270874 -30.873047 7
-0.03376 1.207153 -31.226562 7
-0.0085049998 1.1168211 -30.855469 7
-0.013632 1.041748 -31.112305 7
-0.050044999 0.980591 -31.651367 7
-0.027464001 -0.81542999 -28.666992 7
-0.029524 -1.030396 -28.683594 7
-0.269638 -3.919189 -31.84375 7
-0.25181201 -3.9688721 -31.589844 7
-0.236572 -4.0213618 -31.37207 7
-0.222157 -4.0744629 -31.166016 7
-0.291866 3.867065 32.916016 7
-0.27579501 3.9163821 32.703125 7
-0.254711 3.9564209 32.427734 7
-0.242277 4.0097661 32.261719 7
-0.247143 4.0913091 32.31543 7
-0.063568003 4.6846919 -28.916016 7
-0.070502996 4.6268311 -29.019531 7
-0.0898 4.5935059 -29.290039 7
-0.10099 4.542603 -29.451172 7
-0.120731 4.507812 -29.726562 7
-0.152439 4.494751 -30.166016 7
-0.010866 1.389526 -28.464844 7
-0.00036999999 1.241699 -28.325195 7
-0.050652001 1.12561 -29.013672 7
-0.072044 -0.85192901 -27.37207 7
-0.048948001 -0.97827101 -27.070312 7
-0.049635001 -1.11377 -27.072266 7
-0.273029 -4.0299072 -29.615234 7
-0.26813301 -4.0950928 -29.541992 7
-0.24229801 -4.1965332 -29.192383 7
-0.23739401 -4.2601318 -29.119141 7
-0.090567 4.7657471 -27.181641 7
-0.095219001 4.707397 -27.25 7
-0.111765 4.672852 -27.467773 7
-0.12740099 4.635376 -27.674805 7
-0.14762101 4.6062012 -27.94043 7
-0.165997 4.572021 -28.181641 7
-0.029022001 1.575195 -26.695312 7
-0.015705001 1.500366 -26.673828 7
-0.037725002 1.447876 -26.958008 7
-0.01363 1.3656009 -26.652344 7
-0.026048999 1.306519 -26.8125 7
-0.050342999 1.253296 -27.124023 7
-0.061627999 -0.97619599 -25.176758 7
-0.069118001 -1.042603 -25.262695 7
-0.053963002 -1.098389 -25.078125 7
-0.048159 -1.1580811 -25.005859 7
-0.075367004 -1.235352 -25.323242 7
-0.060706999 -1.290283 -25.145508 7
-0.055879999 -1.35022 -25.083984 7
-0.262997 -4.1999512 -27.203125 7
-0.253279 -4.2506099 -27.077148 7
-0.242043 -4.2979741 -26.93457 7
-0.231831 -4.3465581 -26.803711 7
-0.24035101 -4.4287109 -26.891602 7
-0.078296997 4.776855 -24.927734 7
-0.091660999 4.742065 -25.09375 7
-0.102074 4.700439 -25.225586 7
-0.116428 4.6661382 -25.40332 7
-0.1362 4.6419678 -25.644531 7
-0.14957 4.6040039 -25.810547 7
-0.126001 4.4932861 -25.544922 7
-0.014061 1.637573 -24.498047 7
-0.028942 1.586792 -24.676758 7
-0.018181 1.517212 -24.551758 7
-0.022206999 1.458374 -24.603516 7
-0.037098002 1.405884 -24.78125 7
-0.041627999 1.346436 -24.836914 7
-0.078116998 -1.391235 -23.561523 7
-0.071382999 -1.445923 -23.481445 7
-0.25884199 -4.1665039 -25.216797 7
-0.26479301 -4.239624 -25.269531 7
-0.27443501 -4.3197021 -25.363281 7
-0.26188701 -4.3604741 -25.21582 7
-0.255144 -4.4112549 -25.129883 7
-0.24787501 -4.4604492 -25.039062 7
-0.093693003 4.8431401 -23.28125 7
-0.10911 4.7574458 -23.469727 7
-0.118141 4.7167969 -23.577148 7
-0.137178 4.6958008 -23.795898 7
-0.153053 4.667603 -23.978516 7
-0.14047401 4.582397 -23.851562 7
-0.031445999 1.7149661 -22.960938 7
-0.035215002 1.659912 -23.004883 7
-0.030632 1.5406491 -22.959961 7
-0.07564 -1.299316 -21.917969 7
-0.083169997 -1.4144289 -21.986328 7
-0.083825998 -1.470215 -21.989258 7
-0.258039 -4.4822998 -23.375 7
-0.26098999 -4.5462651 -23.392578 7
-0.041099999 1.7199709 -21.47168 7
-0.038918 1.664062 -21.453125 7
-0.033426002 1.551392 -21.402344 7
-0.035753001 1.498901 -21.429688 7
-0.032450002 1.4423831 -21.397461 7
-0.025195999 1.383667 -21.325195 7
-0.032602001 1.334106 -21.404297 7
-0.972956 -24.593872 17.154297 7
-0.96360397 -24.483032 17.165039 7
-0.95927 -24.411377 17.201172 7
-0.101656 4.788208 -20.256836 7
-0.114889 4.7637939 -20.393555 7
-0.118536 4.7194819 -20.438477 7
-0.052620001 1.57373 -20.207031 7
-0.050285 1.52063 -20.188477 7
-0.063565999 1.477905 -20.320312 7
-0.046831001 1.415771 -20.160156 7
-0.035503 1.3575439 -20.052734 7
-0.032575998 1.304932 -20.027344 7
-0.056655999 1.2674561 -20.262695 7
-0.101694 -1.207886 -19.395508 7
-0.085813999 -1.248413 -19.248047 7
-0.076316997 -1.2919919 -19.15918 7
-0.15406799 4.7939448 -19.344727 7
-0.158567 4.7537842 -19.396484 7
-0.156708 4.700439 -19.389648 7
-0.145914 4.6295171 -19.304688 7
-0.034037001 0.93847698 -18.731445 7
-0.032830998 0.89013702 -18.72168 7
-0.023296 0.83862299 -18.637695 7
-0.013784 0.78759801 -18.551758 7
-0.0080949999 0.738159 -18.501953 7
-0.0075300001 0.69067401 -18.49707 7
-0.017836001 0.64660603 -18.591797 7
-0.090286002 -1.31958 -18.121094 7
-0.090378001 -1.365723 -18.117188 7
-0.104733 -1.467407 -18.232422 7
-0.102118 -1.512329 -18.205078 7
-0.048563 0.61755401 -17.825195 7
-0.038509 0.56958002 -17.739258 7
-0.033194002 0.52282703 -17.694336 7
-0.037983 0.478394 -17.736328 7
-0.035344999 0.43261701 -17.713867 7
-0.025307 0.38549799 -17.62793 7
-0.021323999 0.3396 -17.59375 7
-0.030626001 -0.016357001 -16.496094 7
-0.024227001 -0.058837999 -16.444336 7
-0.020718001 -0.101196 -16.415039 7
-0.022732001 -0.14672901 -16.510742 7
-0.026379 -0.18945301 -16.539062 7
-0.024303 -0.231812 -16.522461 7
-0.020086 -0.27380401 -16.486328 7
-0.017996 -0.315918 -16.466797 7
-0.089097999 -1.286621 -16.989258 7
-0.084155999 -1.327515 -16.945312 7
-0.077076003 -1.366455 -16.883789 7
-0.107229 -1.428589 -17.125 7
-0.099449001 -1.4675291 -17.056641 7
-0.089510001 -1.504517 -16.97168 7
-0.097939998 4.7623291 -16.46875 7
-0.100838 4.725708 -16.501953 7
-0.110174 4.702271 -16.586914 7
-0.115934 4.671021 -16.642578 7
-0.1217 4.639771 -16.698242 7
-0.13462301 4.622437 -16.810547 7
-0.146093 4.601685 -16.913086 7
-0.118231 4.503418 -16.703125 7
-0.049578 -0.38366699 -15.71875 7
-0.051165 -0.42456099 -15.729492 7
-0.045938 -0.464111 -15.6875 7
-0.045237001 -0.50451702 -15.680664 7
-0.046967998 -0.62634301 -15.688477 7
-0.046429001 -0.74780297 -15.677734 7
-0.089015998 -1.2976069 -15.964844 7
-0.091372997 -1.340088 -15.978516 7
-0.086894996 -1.37854 -15.941406 7
-0.115004 -1.437378 -16.151367 7
-0.103708 -1.471558 -16.061523 7
-0.105309 -1.513916 -16.069336 7
-0.10235 -1.553345 -16.041992 7
-0.133114 4.7720952 -15.683594 7
-0.14070299 4.7468262 -15.751953 7
-0.14151201 4.7076421 -15.767578 7
-0.143053 4.6697998 -15.791016 7
-0.146111 4.6350098 -15.824219 7
-0.14615799 4.5939941 -15.834961 7
-0.12425 4.5102539 -15.682617 7
-0.047343999 -0.66821301 -14.741211 7
-0.053036001 -0.70825201 -14.779297 7
-0.06109 -0.749268 -14.835938 7
-0.068389997 -0.79028302 -14.885742 7
-0.063646004 -0.82714802 -14.849609 7
-0.058116999 -0.86340302 -14.806641 7
-0.056582998 -0.90136701 -14.792969 7
-0.069527 -0.98376501 -14.881836 7
-0.068856999 -1.060547 -14.871094 7
-0.060924999 -1.095215 -14.810547 7
-0.067391999 -1.137085 -14.854492 7
-0.085890003 -1.185059 -14.984375 7
-0.084500998 -1.3006589 -14.963867 7
-0.082961999 -1.338623 -14.949219 7
-0.084641002 -1.378418 -14.958008 7
-0.10795 -1.431641 -15.121094 7
-0.099215999 -1.46521 -15.054688 7
-0.102497 -1.5062259 -15.074219 7
-0.099353999 -1.543213 -15.046875 7
-0.084229 -1.0137939 -14.154297 7
-0.070032001 -1.080688 -14.051758 7
-0.069332004 -1.15332 -14.039062 7
-0.080352999 -1.195923 -14.112305 7
-0.088013001 -1.236694 -14.160156 7
-0.086448997 -1.30957 -14.142578 7
-0.089965999 -1.385254 -14.160156 7
-0.116228 -1.47583 -14.331055 7
-0.105335 -1.505859 -14.25293 7
-0.103735 -1.5419919 -14.238281 7
-0.090530001 -1.31604 -13.381836 7
-0.090590999 -1.350952 -13.378906 7
-0.090651996 -1.386108 -13.375977 7
-0.092491001 -1.422363 -13.384766 7
-0.092566997 -1.457275 -13.379883 7
-0.104147 -1.499878 -13.452148 7
-0.103338 -1.5344239 -13.442383 7
-0.101631 -1.568359 -13.426758 7
-0.101349 4.721436 -12.732422 7
-0.099609002 4.6842041 -12.733398 7
-0.104057 4.6595459 -12.771484 7
-0.110273 4.6384282 -12.821289 7
-0.112967 4.6099849 -12.847656 7
-0.115644 4.5814209 -12.875 7
-0.126293 4.5683589 -12.953125 7
-0.139587 4.5603032 -13.045898 7
-0.137848 4.5224609 -13.045898 7
-0.095238 -1.289185 -12.705078 7
-0.086939 -1.317749 -12.649414 7
-0.091646001 -1.353882 -12.675781 7
-0.089853004 -1.386108 -12.661133 7
-0.088983998 -1.418823 -12.651367 7
-0.105774 -1.462891 -12.751953 7
-0.102127 -1.494019 -12.725586 7
-0.095674999 -1.5230711 -12.681641 7
-0.097604997 -1.557861 -12.688477 7
-0.093950003 -1.588745 -12.662109 7
-0.42594501 -6.3851318 -13.426758 7
-0.120558 4.7606201 -12.094727 7
-0.128002 4.7436519 -12.150391 7
-0.11688 4.6888428 -12.095703 7
-0.117834 4.6585689 -12.112305 7
-0.12158 4.6339111 -12.144531 7
-0.117887 4.5942378 -12.133789 7
-0.124401 4.5749512 -12.183594 7
-0.136492 4.5664058 -12.264648 7
-0.135584 4.5319819 -12.270508 7
-0.086208001 -1.283325 -11.945312 7
-0.087254003 -1.3156739 -11.948242 7
-0.077542998 -1.341553 -11.885742 7
-0.080526002 -1.374756 -11.900391 7
-0.080595002 -1.406372 -11.896484 7
-0.093349002 -1.446045 -11.96875 7
-0.108063 -1.487061 -12.051758 7
-0.094462998 -1.51001 -11.966797 7
-0.092570998 -1.540283 -11.951172 7
-0.094577998 -1.573364 -11.958984 7
-0.086340003 -1.2861331 -11.339844 7
-0.090473004 -1.3187259 -11.360352 7
-0.092587002 -1.35022 -11.368164 7
-0.082433999 -1.37439 -11.307617 7
-0.084532 -1.405762 -11.31543 7
-0.084578 -1.435913 -11.3125 7
-0.095881999 -1.473389 -11.37207 7
-0.110239 -1.513062 -11.449219 7
-0.099072002 -1.536011 -11.381836 7
-0.09708 -1.564941 -11.367188 7
-0.101231 -1.598022 -11.385742 7
-0.089247003 -1.3112791 -10.726562 7
-0.080779999 -1.36377 -10.674805 7
-0.081909001 -1.393066 -10.677734 7
-0.084114 -1.423218 -10.685547 7
-0.097035997 -1.460083 -10.751953 7
-0.1003 -1.490845 -10.764648 7
-0.090704001 -1.513306 -10.708984 7
-0.097264998 -1.575195 -10.736328 7
-0.080476999 -1.304077 -10.147461 7
-0.086127996 -1.334717 -10.172852 7
-0.077242002 -1.356689 -10.123047 7
-0.077288002 -1.384155 -10.121094 7
-0.080689996 -1.413574 -10.134766 7
-0.080751002 -1.440918 -10.130859 7
-0.089759998 -1.474121 -10.172852 7
-0.100996 -1.508911 -10.227539 7
-0.092101999 -1.530396 -10.176758 7
-0.091034003 -1.557251 -10.167969 7
-0.096678004 -1.588379 -10.192383 7
-0.094504997 -1.614502 -10.177734 7
-0.10574 -1.6500241 -10.231445 7
-0.082383998 -1.300781 -9.6494141 7
-0.089438997 -1.331055 -9.6796885 7
-0.095321998 -1.36084 -9.7050781 7
-0.081368998 -1.378662 -9.6337891 7
-0.082581997 -1.4055181 -9.6357422 7
-0.084969997 -1.43335 -9.6435547 7
-0.086199 -1.460205 -9.6464844 7
-0.097923003 -1.494019 -9.7001953 7
-0.109646 -1.5280761 -9.7539062 7
-0.102705 -1.549805 -9.7148438 7
-0.101576 -1.575317 -9.7050781 7
-0.076595001 -1.292847 -9.1513672 7
-0.082727 -1.321411 -9.1757812 7
-0.099812999 -1.356567 -9.2519531 7
-0.085244998 -1.373047 -9.1806641 7
-0.085299 -1.398193 -9.1777344 7
-0.087785996 -1.424805 -9.1855469 7
-0.086617999 -1.449097 -9.1767578 7
-0.102491 -1.484497 -9.2460938 7
-0.112263 -1.5163569 -9.2890615 7
-0.102592 -1.534912 -9.2392578 7
-0.102638 -1.560181 -9.2353516 7
-0.110418 -1.590698 -9.2675781 7
-0.076466002 -1.282104 -8.6689453 7
-0.077785 -1.306885 -8.671875 7
-0.079112999 -1.331421 -8.6738281 7
-0.086786002 -1.359863 -8.7041016 7
-0.077923 -1.378296 -8.6621094 7
-0.075444996 -1.400757 -8.6474609 7
-0.078038998 -1.426147 -8.6552734 7
-0.080623999 -1.451538 -8.6630859 7
-0.088298999 -1.4805911 -8.6943359 7
-0.098526001 -1.510986 -8.7353516 7
-0.104927 -1.5394289 -8.7597656 7
-0.092257001 -1.554688 -8.7001953 7
-0.089771003 -1.577026 -8.6845703 7
-0.32861701 -4.643188 -8.8427734 7
-0.322308 -4.6556401 -8.8056641 7
-0.32363501 -4.6820068 -8.7998047 7
-0.32626 -4.71106 -8.7988281 7
-0.32121801 -4.725708 -8.7675781 7
-0.322561 -4.7521968 -8.7617188 7
-0.32902101 -4.7884521 -8.7753906 7
-0.092286997 -1.284546 -8.3193359 7
-0.091204002 -1.398926 -8.2978516 7
-0.095201001 -1.424316 -8.3115234 7
-0.095262997 -1.4473881 -8.3085938 7
-0.093973003 -1.4694819 -8.2988281 7
-0.099313997 -1.496094 -8.3183594 7
-0.330746 -4.7119141 -8.3115234 7
-0.32947901 -4.7324219 -8.2958984 7
-0.33087501 -4.757935 -8.2890615 7
-0.33227199 -4.7834468 -8.2832031 7
-0.315193 -4.487793 -7.8505859 7
-0.31803101 -4.514648 -7.8496089 7
-0.31814599 -4.5584722 -7.828125 7
-0.33064699 -4.6031489 -7.8632808 7
-0.330769 -4.6470952 -7.8408198 7
-0.329458 -4.6663818 -7.8251948 7
-0.31847399 -4.667603 -7.7724609 7
-0.318535 -4.6893311 -7.7617192 7
-0.319969 -4.713623 -7.7558589 7
-0.318665 -4.7327881 -7.7392578 7
-0.32701701 -4.7702641 -7.757812 7
-0.31447601 -4.4820561 -7.4082031 7
-0.31453699 -4.5028081 -7.3974609 7
-0.31318101 -4.5211182 -7.3818359 7
-0.313227 -4.5419922 -7.3710942 7
-0.31902301 -4.5733638 -7.3798828 7
-0.31908399 -4.5941162 -7.3691411 7
-0.32202101 -4.6201172 -7.3681641 7
-0.32494399 -4.6462402 -7.3681641 7
-0.32500499 -4.6672359 -7.3564448 7
-0.316477 -4.671875 -7.3154302 7
-0.320824 -4.7006841 -7.3193359 7
-0.31946599 -4.7186279 -7.3037109 7
-0.32095301 -4.742065 -7.296875 7
-0.32102999 -4.7626948 -7.2861328 7
-0.32251701 -4.7860112 -7.2792969 7
-0.31998399 -4.4942632 -6.984375 7
-0.31262401 -4.5006099 -6.9482422 7
-0.31862599 -4.5313721 -6.9580078 7
-0.323158 -4.5593262 -6.9619141 7
-0.31575999 -4.5655522 -6.9267578 7
-0.32177699 -4.5961909 -6.9355469 7
-0.32183799 -4.6158452 -6.9248052 7
-0.330832 -4.6522222 -6.9423828 7
-0.32345599 -4.6582031 -6.907227 7
-0.31755301 -4.666626 -6.875977 7
-0.32058099 -4.691895 -6.875977 7
-0.32511899 -4.7198491 -6.8789058 7
-0.31624001 -4.7226558 -6.8388672 7
-0.32226801 -4.753418 -6.8466802 7
-0.325302 -4.778687 -6.844727 7
-0.41330701 -6.4038091 -5.0820308 7
-0.41176599 -6.4151611 -5.0625 7
-0.41181901 -6.4304199 -5.047852 7
-0.41027799 -6.441772 -5.0283198 7
-0.413551 -6.4650879 -5.0214839 7
-0.418432 -6.492188 -5.0175781 7
-0.41687801 -6.50354 -4.9980469 7
-0.41855401 -6.5227051 -4.9863281 7
-0.41540501 -6.5297852 -4.9628911 7
-0.4251 -6.5690918 -4.9707031 7
-0.436398 -6.6124272 -4.9824219 7
-0.438061 -6.6317139 -4.9707031 7
-0.44292599 -6.658936 -4.9667969 7
-0.44459701 -6.6782231 -4.9550781 7
-0.45107999 -6.7094731 -4.9550781 7
-0.444727 -6.708374 -4.9238281 7
-0.42564201 -6.4307861 -4.109375 7
-0.41880801 -6.4267578 -4.079102 7
-0.41886899 -6.4399409 -4.063477 7
-0.417198 -6.4486079 -4.0449219 7
-0.41382 -6.4530029 -4.0224609 7
-0.41559801 -6.4699712 -4.0107422 7
-0.41738299 -6.4873052 -3.999023 7
-0.420883 -6.5085449 -3.9912109 7
-0.420937 -6.5214839 -3.9755859 7
-0.42272899 -6.5384521 -3.9638669 7
-0.42450699 -6.5556641 -3.952148 7
-0.429739 -6.5811772 -3.9462891 7
-0.431517 -6.5982671 -3.9345701 7
-0.43502599 -6.6196289 -3.9248049 7
-0.44370699 -6.6540532 -3.9267581 7
-0.44547701 -6.671021 -3.9150391 7
-0.44554499 -6.6835942 -3.898438 7
-0.450762 -6.7093511 -3.8935549 7
-0.44911599 -6.7176509 -3.874023 7
-0.10704 4.474731 -4.579102 7
-0.098481998 4.4438481 -4.5673828 7
-0.100191 4.4328609 -4.5820308 7
-0.105164 4.4290771 -4.6054692 7
-0.100008 4.3905029 -4.6132808 7
-0.094890997 4.3519292 -4.6201172 7
-0.084615998 4.3182368 -4.6035161 7
-0.100008 4.3328862 -4.6533198 7
-0.094890997 4.3088379 -4.6503911 7
-0.098291002 4.3009028 -4.6699219 7
-0.091464996 4.2590332 -4.670898 7
-0.086324997 4.220459 -4.6777339 7
-0.088032 4.209106 -4.6923828 7
-0.091449998 4.2008061 -4.7119141 7
-0.089725003 4.1829829 -4.717773 7
-0.088033997 4.1652832 -4.7226558 7
-0.42725399 -6.5137939 -3.516602 7
-0.42910001 -6.5299072 -3.503906 7
-0.42916101 -6.5415039 -3.4892581 7
-0.42742199 -6.548584 -3.469727 7
-0.425697 -6.5556641 -3.4511721 7
-0.43110701 -6.580688 -3.445312 7
-0.43116 -6.5922852 -3.429688 7
-0.440153 -6.6260991 -3.429688 7
-0.441984 -6.6422119 -3.417969 7
-0.447384 -6.6671138 -3.4111331 7
-0.44744501 -6.6784668 -3.3964839 7
-0.452847 -6.7033691 -3.389648 7
-0.447559 -6.7011719 -3.3642581 7
-0.31187201 -5.001348 5.7718229 7
-0.30311501 -4.8714242 5.9588952 7
0.042711001 -1.394111 -11.644602 7
-0.434293 -6.3739161 -9.3734283 7
-0.26353899 -4.4891648 -7.3172669 7
-0.013458 -1.581851 -5.2493129 7
-0.058711998 -1.513787 -4.2660809 7
-0.313793 -4.79564 -4.7255831 7
-0.046247002 -1.4715281 -3.6422341 7
-0.28513199 -4.737885 -3.8255839 7
-0.41873801 -6.5065169 -3.353797 7
-0.27490401 -4.7233429 -3.1368711 7
-0.32128301 -4.9272351 5.9389882 7
-0.296662 -4.6338048 0.386843 7
-0.29528201 -4.735816 0.551871 7
-0.33015499 -4.9955549 5.51862 7
-0.30797699 -4.8345132 5.64498 7
-0.037092999 -1.721836 -0.42647201 7
-0.054435998 -1.886132 -0.442258 7
-0.32104301 -5.1177592 4.745842 7
-0.29886901 -4.835948 5.2191348 7
-0.300165 -4.5915222 1.286581 7
-0.309636 -4.6894999 1.429149 7
-0.30313799 -4.7358718 1.5969321 7
-0.34063399 -5.0940118 3.82093 7
-0.32825199 -4.9010601 4.483808 7
-0.326112 -4.840014 4.6442008 7
-0.28692999 -4.497354 1.523613 7
-0.30045101 -4.7038822 1.969016 7
-0.28766999 -4.7106729 2.1382611 7
-0.289372 -4.7529669 2.2948191 7
-0.28725201 -4.7777448 2.4552901 7
-0.29510701 -4.8586502 2.974823 7
-0.30348 -4.8881221 3.136112 7
-0.29815999 -4.8468661 3.622225 7
-0.29303601 -4.810616 3.780699 7
-0.29696199 -4.7950869 3.9418349 7
-0.298922 -4.7674222 4.1014142 7
-0.27703899 -4.5128012 2.034713 7
-0.27688199 -4.5542569 2.1846969 7
-0.27851799 -4.5948 2.3346419 7
-0.276205 -4.6180959 2.4884391 7
-0.287453 -4.640204 3.9131329 7
-0.279926 -4.5868859 4.0600672 7
-0.047596 -0.54200202 -15.926828 7
-0.086378001 4.7734499 -16.664009 7
-0.144327 -1.3195471 -12.048306 7
-0.210361 4.6268921 -12.654501 7
-0.094709001 -1.37335 -9.5315323 7
-0.069196001 -1.4211839 -8.0080128 7
-0.050709002 -1.451306 -6.9235492 7
-0.29880601 -4.653441 -8.9168901 7
-0.002605 1.588622 -6.311461 7
0.006972 1.33971 -6.2544808 7
-0.082456 -1.447234 -6.0307078 7
-0.36514199 -4.7093101 -7.5510249 7
-0.327867 -4.772717 -7.098074 7
-0.109874 4.374146 -4.725142 7
-0.068558 -1.467546 -5.43152 7
-0.023367999 1.214385 -5.0944352 7
-0.017942 1.034565 -5.0907331 7
-0.045021001 -1.286832 -4.9040632 7
-0.054974001 -1.4746031 -4.9275661 7
-0.011078 1.235454 -4.6359138 7
-0.0073859999 1.077845 -4.6508169 7
-0.036986001 -1.314432 -4.517024 7
-0.048629001 -1.491672 -4.5436268 7
-0.26835099 -4.746789 -4.1191649 7
-0.062259998 -1.326769 -4.167624 7
-0.071177997 -1.4799989 -4.1660829 7
-0.30512199 -4.7639961 -3.113996 7
-0.05517 -1.3452851 -3.8913591 7
-0.063722998 -1.486431 -3.8828239 7
-0.048317999 -1.357083 -3.6448519 7
-0.053295001 -1.478074 -3.615025 7
-0.038256999 -1.3539931 -3.4079559 7
-0.044675 -1.469382 -3.382417 7
