# .PCD v0.7 - Point Cloud Data file format
VERSION 0.7
FIELDS x y z intensity
SIZE 4 4 4 4
TYPE F F F F
COUNT 1 1 1 1
WIDTH 630
HEIGHT 1
VIEWPOINT 0 0 0 1 0 0 0
POINTS 630
DATA ascii
-0.56288099 -1.973022 73.705078 7
-0.554012 -0.60046399 73.547852 7
-0.203815 4.376709 -70.833008 7
-0.178959 4.1611328 -70.083008 7
-0.24267 4.098877 -72.014648 7
-0.62831497 -5.3096919 68.121094 7
-0.68541098 -5.2564702 69.493164 7
-0.74469799 -5.2008061 70.916016 7
-0.53094703 -2.224365 66.070312 7
-0.023731001 4.320435 -58.171875 7
-0.074919 4.2756348 -59.558594 7
-0.028858 4.0462651 -58.320312 7
-0.077238001 3.989624 -59.630859 7
-0.173847 4.0087891 -62.245117 7
-0.033241 0.640625 -58.446289 7
-0.65504801 -5.2043462 63.101562 7
-0.69589603 -5.1313481 64.004883 7
-0.440777 0.47534201 58.80957 7
-0.44150501 3.6142581 58.838867 7
-0.031789999 4.3156738 -52.75293 7
-0.087736003 4.292603 -54.12793 7
-0.074963003 4.0057368 -53.827148 7
-0.097303003 3.91272 -54.378906 7
-0.45504001 0.31298801 54.260742 7
-0.392046 0.42797899 53.001953 7
-0.408813 0.553711 53.339844 7
-0.44641501 3.5623779 54.070312 7
-0.383522 3.5994871 52.808594 7
-0.32735601 3.640137 51.678711 7
-0.014828 4.2298579 -47.286133 7
-0.064940996 4.2080078 -48.402344 7
0.013012 3.94751 -46.680664 7
-0.046293002 3.937866 -48.00293 7
-0.073797002 3.8674321 -48.618164 7
-0.130226 3.8421631 -49.875977 7
-0.37563899 0.508057 49.056641 7
-0.40782899 0.62866199 49.657227 7
-0.35174 0.72705102 48.615234 7
-0.447254 3.664062 50.361328 7
-0.39595601 3.706665 49.401367 7
-0.359707 3.766968 48.723633 7
-0.059356999 4.1977539 -44.391602 7
-0.089143999 4.1430659 -45.006836 7
-0.117487 4.0831299 -45.59375 7
-0.071447 3.8917241 -44.65918 7
-0.096938998 3.825073 -45.186523 7
-0.147541 3.7966311 -46.228516 7
-0.038518999 -0.046997 -40.041016 7
-0.208351 -3.42627 -42.969727 7
-0.17834499 -3.486938 -42.402344 7
-0.39192799 -2.4501951 45.358398 7
-0.399326 -2.352905 45.493164 7
-0.40430799 -2.2528081 45.585938 7
-0.31858101 0.558716 44.243164 7
-0.39177501 3.7128911 45.430664 7
-0.35921901 3.769165 44.868164 7
-0.33414501 3.834229 44.433594 7
-0.310444 3.899292 44.023438 7
-0.128416 4.4576421 -41.599609 7
-0.090728998 4.2843022 -40.90625 7
-0.119287 4.2362061 -41.445312 7
-0.13753299 4.1671138 -41.792969 7
-0.170765 4.1225591 -42.420898 7
-0.0059239999 0.63244599 -39.444336 7
-0.047313999 0.150269 -40.209961 7
-0.012386 0.050903 -39.555664 7
-0.068623997 -0.045775998 -37.356445 7
-0.032759 -0.13562 -36.736328 7
-0.024078 -0.22521999 -36.583984 7
-0.034063 -0.31652799 -36.751953 7
-0.017902 -0.404053 -36.470703 7
-0.22604799 -3.478271 -39.822266 7
-0.21771801 -3.563354 -39.667969 7
-0.19812401 -3.6304929 -39.321289 7
-0.184668 -3.705811 -39.080078 7
-0.35626799 -2.339355 41.660156 7
-0.38695499 -2.174561 42.161133 7
-0.29252401 0.793823 40.779297 7
-0.360502 3.6968989 41.783203 7
-0.35958701 3.7915039 41.761719 7
-0.315222 3.9138179 41.045898 7
-0.079576001 4.4875488 -37.387695 7
-0.11059 4.3618159 -37.9375 7
-0.15639301 4.3535161 -38.730469 7
-0.193388 4.3253169 -39.375977 7
-0.026394 0.950562 -36.639648 7
-0.015660999 0.85607898 -36.454102 7
-0.039537001 0.77453601 -36.865234 7
-0.060201999 -0.291504 -33.978516 7
-0.028860001 -0.37023899 -33.481445 7
-0.032682002 -0.45373499 -33.539062 7
-0.032437999 -0.53662097 -33.532227 7
-0.013683 -0.61425799 -33.233398 7
-0.24487901 -3.574219 -36.650391 7
-0.24408001 -3.752686 -36.615234 7
-0.224934 -3.8123779 -36.303711 7
-0.20466 -3.8686521 -35.974609 7
-0.33534601 -2.314697 38.229492 7
-0.37862 -2.177002 38.876953 7
-0.26016 0.63793898 37.257812 7
-0.26467699 0.809448 37.324219 7
-0.349558 3.745239 38.459961 7
-0.32595599 3.7974851 38.108398 7
-0.27792901 3.895874 37.392578 7
-0.078162998 4.701416 -34.057617 7
-0.053144 4.565918 -33.674805 7
-0.070223004 4.516602 -33.952148 7
-0.092472002 4.4763179 -34.310547 7
-0.113235 4.4312739 -34.645508 7
-0.14950401 4.4143071 -35.224609 7
-0.17952 4.38269 -35.704102 7
0.0036849999 1.186523 -32.984375 7
-0.025637001 1.119751 -33.448242 7
0.0023650001 1.0238039 -33.006836 7
-0.057794999 0.88403302 -33.957031 7
-0.060504999 -0.50903302 -31.65625 7
-0.026884001 -0.81005901 -31.147461 7
-0.28083399 -3.8149409 -34.625 7
-0.244579 -3.926636 -34.071289 7
-0.234009 -3.9929199 -33.905273 7
-0.26767701 0.68078601 35.161133 7
-0.25821099 0.75781202 35.03125 7
-0.27209499 0.84228498 35.222656 7
-0.24693701 0.913086 34.875 7
-0.325151 3.8924561 35.819336 7
-0.296202 3.9285891 35.415039 7
-0.27405 3.973511 35.103516 7
-0.29804 4.0931401 35.424805 7
0.305262 17.606689 21.136719 7
0.302935 17.677002 21.121094 7
-0.057573002 4.5855708 -31.385742 7
-0.071486004 4.535522 -31.598633 7
-0.096450999 4.5063481 -31.973633 7
-0.13969199 4.42981 -32.625977 7
-0.159143 4.385376 -32.920898 7
-0.0089739999 1.268555 -30.902344 7
-0.028082 1.202026 -31.18457 7
-0.021065 1.121094 -31.083008 7
-0.031073 1.049072 -31.276367 7
-0.056671001 0.97973597 -31.62207 7
-0.057992999 -0.68603498 -29.125 7
-0.032829002 -0.74987799 -28.77832 7
-0.020541999 -0.81713903 -28.607422 7
-0.057034001 -0.90307599 -29.102539 7
-0.032297 -0.96447802 -28.761719 7
-0.246904 -3.8701169 -31.424805 7
-0.255638 -3.961792 -31.53125 7
-0.23959699 -4.0905762 -31.292969 7
-0.22643299 -4.14502 -31.103516 7
-0.187222 0.54077101 31.762695 7
-0.229992 0.623779 32.30957 7
-0.223499 0.695068 32.226562 7
-0.2325 0.77087402 32.34082 7
-0.223728 0.841187 32.229492 7
-0.28533599 3.858398 32.857422 7
-0.26607499 3.902344 32.605469 7
-0.254572 3.9577639 32.451172 7
-0.26309201 4.0456538 32.552734 7
-0.26887301 4.129395 32.617188 7
-0.062208001 4.68396 -28.926758 7
-0.078919999 4.6459961 -29.163086 7
-0.094801001 4.6054692 -29.387695 7
-0.111948 4.5661621 -29.629883 7
-0.138926 4.5450439 -30.003906 7
-0.155228 4.5018311 -30.235352 7
-0.0050809998 1.313477 -28.420898 7
-0.037346002 1.189087 -28.865234 7
-0.035301 1.115967 -28.837891 7
-0.071468003 -0.84912097 -27.272461 7
-0.043682002 -0.97302198 -26.912109 7
-0.052164 -1.111328 -27.012695 7
-0.056403998 -1.180786 -27.061523 7
-0.26625299 -4.0065918 -29.43457 7
-0.26730499 -4.0811772 -29.436523 7
-0.25411001 -4.1317139 -29.259766 7
-0.24137101 -4.1821289 -29.087891 7
-0.235056 -4.2431641 -28.99707 7
-0.092463002 4.7033691 -27.244141 7
-0.103516 4.6578369 -27.393555 7
-0.119114 4.620728 -27.600586 7
-0.13517 4.583374 -27.813477 7
-0.160852 4.5638428 -28.147461 7
-0.165049 4.5013428 -28.209961 7
-0.024220999 1.570557 -26.666992 7
-0.011591 1.495605 -26.551758 7
-0.046463002 1.448853 -26.974609 7
-0.017685 1.363647 -26.610352 7
-0.036106002 1.308105 -26.84668 7
-0.059902001 -0.97265601 -25.077148 7
-0.071358003 -1.040527 -25.208008 7
-0.054166999 -1.095215 -25.001953 7
-0.04933 -1.155273 -24.941406 7
-0.073152997 -1.230713 -25.217773 7
-0.059413999 -1.285767 -25.050781 7
-0.065456003 -1.352173 -25.118164 7
-0.26343501 -4.1890869 -27.12793 7
-0.253649 -4.239502 -27.00293 7
-0.244854 -4.2911382 -26.889648 7
-0.231621 -4.334106 -26.723633 7
-0.234726 -4.40625 -26.74707 7
-0.079787999 4.7818599 -24.966797 7
-0.084770001 4.7293701 -25.037109 7
-0.097134002 4.6920171 -25.19043 7
-0.109011 4.652832 -25.339844 7
-0.12483 4.620728 -25.53418 7
-0.14947499 4.6053472 -25.833008 7
-0.153969 4.5493159 -25.896484 7
-0.024775 1.58252 -24.65332 7
-0.033737 1.526733 -24.760742 7
-0.015087 1.452271 -24.542969 7
-0.031433001 1.401001 -24.739258 7
-0.047781002 1.348511 -24.935547 7
-0.091063999 -1.33606 -23.639648 7
-0.077946 -1.3874511 -23.491211 7
-0.073812 -1.443604 -23.441406 7
-0.26315701 -4.2259521 -25.183594 7
-0.272295 -4.30481 -25.271484 7
-0.260746 -4.34729 -25.134766 7
-0.25292999 -4.395874 -25.037109 7
-0.249863 -4.4526372 -24.993164 7
-0.096642002 4.7921138 -23.34375 7
-0.105658 4.7519531 -23.453125 7
-0.113605 4.7089839 -23.549805 7
-0.126848 4.6765141 -23.703125 7
-0.14796799 4.658936 -23.944336 7
-0.151188 4.60498 -23.989258 7
-0.119114 4.4820561 -23.650391 7
-0.030125 1.539062 -22.977539 7
-0.034419999 1.484131 -23.026367 7
-0.048737001 1.435303 -23.186523 7
-0.037728999 1.3701169 -23.068359 7
-0.034641001 1.309937 -23.037109 7
-0.081410997 -1.299561 -21.916992 7
-0.091113999 -1.3605959 -22.011719 7
-0.086111002 -1.412964 -21.957031 7
-0.085073002 -1.4675291 -21.941406 7
-0.026474001 1.545532 -21.350586 7
-0.042888999 1.502319 -21.522461 7
-0.032257002 1.44104 -21.415039 7
-0.022745 1.380859 -21.320312 7
-0.032402001 1.332642 -21.421875 7
-0.084908001 -1.327148 -20.541992 7
-0.105518 -1.444092 -20.732422 7
-0.101408 -1.493652 -20.688477 7
-0.102993 4.8438721 -20.273438 7
-0.11021 4.807373 -20.353516 7
-0.116838 4.7692871 -20.427734 7
-0.041367002 1.411377 -20.125 7
-0.030030999 1.3531491 -20.018555 7
-0.054136001 1.2648931 -20.255859 7
-0.102949 -1.205933 -19.361328 7
-0.074965 -1.288574 -19.099609 7
-0.140549 4.7674561 -19.237305 7
-0.15588801 4.7493901 -19.383789 7
-0.158489 4.7052002 -19.418945 7
-0.153431 4.6455078 -19.384766 7
-0.056380998 1.140137 -18.942383 7
-0.025345 0.93347198 -18.667969 7
-0.035627 0.88977098 -18.762695 7
-0.029312 0.83960003 -18.707031 7
-0.019159 0.788086 -18.615234 7
-0.0077249999 0.73669398 -18.512695 7
-0.0090680001 0.68969703 -18.526367 7
-0.012318 0.64331102 -18.556641 7
-0.086848997 -1.315063 -18.050781 7
-0.085561998 -1.360352 -18.037109 7
-0.106033 -1.465454 -18.204102 7
-0.100702 -1.508423 -18.154297 7
-0.024623999 0.38452101 -17.580078 7
-0.025364 0.33947799 -17.586914 7
-0.025482001 -0.060669001 -16.46582 7
-0.021020999 -0.145386 -16.469727 7
-0.028656 -0.18945301 -16.520508 7
-0.029433999 -0.231934 -16.525391 7
-0.022318 -0.27380401 -16.467773 7
-0.018793 -0.315552 -16.438477 7
-0.084891997 -1.28186 -16.918945 7
-0.085693002 -1.325806 -16.922852 7
-0.077868 -1.364502 -16.855469 7
-0.108805 -1.427002 -17.100586 7
-0.096678004 -1.4630131 -16.999023 7
-0.096754 -1.506592 -16.995117 7
-0.092519999 -1.547485 -16.957031 7
-0.096754 4.7183838 -16.480469 7
-0.112513 4.7081299 -16.614258 7
-0.120424 4.6812739 -16.6875 7
-0.12907401 4.6125488 -16.776367 7
-0.14769199 4.605957 -16.933594 7
-0.11912 4.5063481 -16.720703 7
-0.040778998 -0.341187 -15.620117 7
-0.046918999 -0.38269001 -15.665039 7
-0.051518999 -0.424072 -15.700195 7
-0.050840002 -0.46435499 -15.692383 7
-0.049383 -0.50463903 -15.679688 7
-0.043365002 -0.54357898 -15.632812 7
-0.040405001 -0.58313 -15.607422 7
-0.044257998 -0.62451202 -15.634766 7
-0.048264001 -0.746948 -15.658203 7
-0.048308998 -0.78759801 -15.657227 7
-0.047630001 -0.82763702 -15.649414 7
-0.088600002 -1.295166 -15.929688 7
-0.090178996 -1.337158 -15.938477 7
-0.087205999 -1.376343 -15.911133 7
-0.113094 -1.4337161 -16.104492 7
-0.103292 -1.468628 -16.026367 7
-0.104124 -1.510498 -16.02832 7
-0.100393 -1.549438 -15.996094 7
-0.13650499 4.7393799 -15.729492 7
-0.14410201 4.7139888 -15.795898 7
-0.14715201 4.6790771 -15.830078 7
-0.144171 4.6322021 -15.818359 7
-0.146467 4.5957031 -15.84668 7
-0.138924 4.5400391 -15.800781 7
-0.056557 -0.97656202 -14.758789 7
-0.068663001 -1.020386 -14.842773 7
-0.073530003 -1.061035 -14.876953 7
-0.067183003 -1.096558 -14.826172 7
-0.063231997 -1.1331789 -14.794922 7
-0.069723003 -1.174683 -14.837891 7
-0.083424002 -1.2205811 -14.93457 7
-0.085155003 -1.299072 -14.94043 7
-0.082820997 -1.3363039 -14.919922 7
-0.083697997 -1.37561 -14.921875 7
-0.097398996 -1.422852 -15.016602 7
-0.106308 -1.467285 -15.077148 7
-0.100754 -1.502686 -15.033203 7
-0.100014 -1.5411381 -15.024414 7
-0.104897 -1.583496 -15.054688 7
-0.065880001 -0.967529 -14.005859 7
-0.074377 -1.007812 -14.060547 7
-0.082050003 -1.047974 -14.111328 7
-0.081251003 -1.0843509 -14.103516 7
-0.072044 -1.116577 -14.035156 7
-0.071243003 -1.15271 -14.027344 7
-0.072150998 -1.189941 -14.03125 7
-0.091632999 -1.236938 -14.161133 7
-0.090000004 -1.272827 -14.146484 7
-0.087774001 -1.3125 -13.34082 7
-0.089612998 -1.348511 -13.349609 7
-0.091444001 -1.384521 -13.358398 7
-0.093282998 -1.4206541 -13.366211 7
-0.092450999 -1.4552 -13.357422 7
-0.103176 -1.497192 -13.421875 7
-0.104122 -1.532837 -13.424805 7
-0.104191 -1.567871 -13.420898 7
-0.112009 4.7442632 -12.803711 7
-0.097868003 4.681396 -12.727539 7
-0.101439 4.6550288 -12.759766 7
-0.106762 4.6320801 -12.804688 7
-0.112101 4.6090088 -12.847656 7
-0.111225 4.5734859 -12.853516 7
-0.120979 4.5585942 -12.924805 7
-0.13428301 4.5506592 -13.018555 7
-0.14138401 4.5301509 -13.073242 7
-0.091948003 -1.285522 -12.664062 7
-0.080828004 -1.312622 -12.591797 7
-0.087394997 -1.349609 -12.628906 7
-0.091177002 -1.385254 -12.648438 7
-0.096830003 -1.421997 -12.680664 7
-0.104351 -1.460083 -12.722656 7
-0.101599 -1.4918211 -12.702148 7
-0.107258 -1.528809 -12.732422 7
-0.099873997 -1.557495 -12.682617 7
-0.090622 -1.584229 -12.620117 7
-0.129868 4.7808838 -12.154297 7
-0.115971 4.7199712 -12.083984 7
-0.124331 4.704834 -12.144531 7
-0.121569 4.6669922 -12.139648 7
-0.118807 4.629272 -12.133789 7
-0.124392 4.6081538 -12.177734 7
-0.123484 4.5739751 -12.183594 7
-0.132782 4.559937 -12.249023 7
-0.138372 4.538208 -12.292969 7
-0.088287003 -1.2830811 -11.9375 7
-0.086390004 -1.313599 -11.922852 7
-0.075686999 -1.338745 -11.857422 7
-0.079653002 -1.372437 -11.875977 7
-0.079708003 -1.403931 -11.873047 7
-0.094437003 -1.444824 -11.956055 7
-0.106237 -1.484009 -12.022461 7
-0.094543003 -1.5081789 -11.949219 7
-0.088739 -1.535889 -11.911133 7
-0.094673 -1.571533 -11.941406 7
-0.085123003 -1.28418 -11.317383 7
-0.091311 -1.317749 -11.348633 7
-0.089318998 -1.3469239 -11.333984 7
-0.082217999 -1.372803 -11.290039 7
-0.085345998 -1.404663 -11.303711 7
-0.085391998 -1.434692 -11.300781 7
-0.099762 -1.474243 -11.37793 7
-0.104935 -1.507935 -11.40332 7
-0.099876001 -1.53479 -11.370117 7
-0.098907001 -1.564453 -11.361328 7
-0.099982999 -1.5955811 -11.363281 7
-0.086604998 -1.308594 -10.698242 7
-0.084576003 -1.364624 -10.680664 7
-0.079259999 -1.3898931 -10.648438 7
-0.080380999 -1.419189 -10.650391 7
-0.082571 -1.449219 -10.65918 7
-0.093363002 -1.484863 -10.712891 7
-0.101997 -1.519287 -10.754883 7
-0.093464002 -1.542236 -10.705078 7
-0.093516998 -1.570801 -10.701172 7
-0.080778003 -1.302979 -10.136719 7
-0.092037 -1.337036 -10.189453 7
-0.080885001 -1.3575439 -10.129883 7
-0.077568002 -1.383057 -10.109375 7
-0.079855002 -1.411743 -10.117188 7
-0.081029996 -1.439819 -10.120117 7
-0.092297003 -1.474121 -10.172852 7
-0.101305 -1.50769 -10.213867 7
-0.092387997 -1.529053 -10.165039 7
-0.093562998 -1.557251 -10.166992 7
-0.098086998 -1.587769 -10.186523 7
-0.32161501 -4.6162109 -10.547852 7
-0.319426 -4.6402588 -10.526367 7
-0.321753 -4.672729 -10.525391 7
-0.32293499 -4.7032471 -10.520508 7
-0.32525399 -4.7357178 -10.518555 7
-0.32980701 -4.7723389 -10.529297 7
-0.11512 4.784668 -9.3769531 7
-0.119606 4.7680659 -9.4091797 7
-0.100636 4.7032471 -9.3310547 7
-0.09059 4.657227 -9.2949219 7
-0.087250002 4.6248779 -9.2900391 7
-0.091725998 4.608398 -9.3212891 7
-0.091725998 4.5830078 -9.3330078 7
-0.090635002 4.5551758 -9.3388672 7
-0.092877999 4.533936 -9.3603516 7
-0.095121004 4.5126948 -9.3808594 7
-0.106304 4.5091548 -9.4443359 7
-0.116365 4.5029302 -9.5029297 7
-0.085988998 -1.301636 -9.6552734 7
-0.087217003 -1.328491 -9.6572266 7
-0.09544 -1.359619 -9.6933594 7
-0.083792001 -1.378906 -9.6337891 7
-0.083838001 -1.4050291 -9.6308594 7
-0.083890997 -1.431152 -9.6269531 7
-0.081596002 -1.455811 -9.6123047 7
-0.100361 -1.4942631 -9.6992188 7
-0.108583 -1.525879 -9.7353516 7
-0.100452 -1.546875 -9.6923828 7
-0.100506 -1.57312 -9.6884766 7
-0.071557999 -1.288818 -9.1162109 7
-0.089864999 -1.3243411 -9.1982422 7
-0.091131002 -1.350098 -9.2011719 7
-0.083916001 -1.395874 -9.1601562 7
-0.092488997 -1.42627 -9.1962891 7
-0.090108998 -1.450073 -9.1816406 7
-0.099933997 -1.506592 -9.2207031 7
-0.102428 -1.533447 -9.2275391 7
-0.103687 -1.55957 -9.2294922 7
-0.077363998 -1.281738 -8.6640615 7
-0.079949997 -1.307129 -8.671875 7
-0.081276 -1.331665 -8.6748047 7
-0.087669 -1.359253 -8.6992188 7
-0.074998997 -1.375488 -8.6396484 7
-0.076319002 -1.400146 -8.6416016 7
-0.077630997 -1.424805 -8.6445312 7
-0.077684 -1.448608 -8.640625 7
-0.090446003 -1.480713 -8.6943359 7
-0.095587 -1.508057 -8.7128906 7
-0.10326 -1.537231 -8.7441406 7
-0.089309998 -1.551636 -8.6777344 7
-0.091888003 -1.577271 -8.6855469 7
-0.32882699 -4.6409912 -8.8369141 7
-0.32505199 -4.6580811 -8.8105469 7
-0.32000199 -4.672852 -8.7792969 7
-0.32390001 -4.704102 -8.7832031 7
-0.318865 -4.7186279 -8.7509766 7
-0.32403001 -4.7524409 -8.7607422 7
-0.32791901 -4.7836909 -8.765625 7
-0.091705002 -1.283203 -8.3085938 7
-0.097035997 -1.309204 -8.328125 7
-0.091782004 -1.329224 -8.3027344 7
-0.097120002 -1.355469 -8.3212891 7
-0.099806003 -1.380005 -8.3300781 7
-0.089256003 -1.396729 -8.2822266 7
-0.091964997 -1.421265 -8.2890615 7
-0.093330003 -1.445068 -8.2910156 7
-0.096015997 -1.469727 -8.2988281 7
-0.105337 -1.4987791 -8.3339844 7
-0.112003 -1.526245 -8.359375 7
-0.11867 -1.553955 -8.3837891 7
-0.105459 -1.568115 -8.3242188 7
-0.105513 -1.591187 -8.3193359 7
-0.329126 -4.6833501 -8.3134766 7
-0.32784501 -4.7038569 -8.2978516 7
-0.331909 -4.7344971 -8.3007812 7
-0.33064499 -4.7547612 -8.2841797 7
-0.32937801 -4.775269 -8.2675781 7
-0.31924799 -4.4929199 -7.860352 7
-0.315144 -4.5073242 -7.8349609 7
-0.31937 -4.5367432 -7.8388672 7
-0.31941599 -4.5587158 -7.828125 7
-0.323627 -4.5881348 -7.8330078 7
-0.32506001 -4.6125488 -7.827148 7
-0.32927099 -4.6422119 -7.8310552 7
-0.32657099 -4.658813 -7.8095698 7
-0.31971401 -4.6678472 -7.773438 7
-0.319767 -4.6895752 -7.7626948 7
-0.321217 -4.7138672 -7.7558589 7
-0.32542801 -4.7436519 -7.7597661 7
-0.31995001 -4.7548828 -7.7294922 7
-0.32554999 -4.7868652 -7.7382808 7
-0.31596199 -4.6685791 -7.3105469 7
-0.31607601 -4.7099609 -7.289062 7
-0.32194301 -4.7619629 -7.2851558 7
-0.31513801 -4.4837651 -6.9648442 7
-0.318167 -4.5089111 -6.9638672 7
-0.31374899 -4.520874 -6.938477 7
-0.31828099 -4.548584 -6.9423828 7
-0.307899 -4.549438 -6.8964839 7
-0.324352 -4.598999 -6.9404302 7
-0.32716799 -4.6236572 -6.9404302 7
-0.322752 -4.6351318 -6.9150391 7
-0.333233 -4.6740718 -6.9375 7
-0.32883099 -4.6855469 -6.9111328 7
-0.31844899 -4.6859131 -6.8662109 7
-0.31851 -4.7054439 -6.8554692 7
-0.320066 -4.7277832 -6.8486328 7
-0.326078 -4.758667 -6.8564448 7
-0.32166901 -4.7697749 -6.8310552 7
-0.32024199 -4.786377 -6.8144531 7
-0.31058699 -4.59375 -6.0693359 7
-0.31064799 -4.6113281 -6.0585942 7
-0.317101 -4.6409912 -6.0664058 7
-0.318748 -4.6616211 -6.0595698 7
-0.325216 -4.6912842 -6.0683589 7
-0.310877 -4.6820068 -6.0136719 7
-0.309313 -4.6965332 -5.9980469 7
-0.317368 -4.729248 -6.0107422 7
-0.314219 -4.7407231 -5.9902339 7
-0.315882 -4.76123 -5.983398 7
-0.309526 -4.766602 -5.953125 7
-0.31279901 -4.7901611 -5.9511719 7
-0.30487299 -4.4909668 -5.7119141 7
-0.30327201 -4.5048828 -5.6962891 7
-0.30000699 -4.515625 -5.6757808 7
-0.311663 -4.5535889 -5.6982422 7
-0.31503499 -4.576416 -5.6962891 7
-0.31343299 -4.590332 -5.6806641 7
-0.32179299 -4.622437 -5.6933589 7
-0.310213 -4.6176758 -5.6494141 7
-0.31690401 -4.6468511 -5.657227 7
-0.31696501 -4.6635742 -5.6464839 7
-0.317011 -4.6802979 -5.6347661 7
-0.30876499 -4.6811519 -5.6005859 7
-0.3055 -4.6915278 -5.5800781 7
-0.31549999 -4.7270508 -5.5976558 7
-0.312235 -4.7374272 -5.5761719 7
-0.31228799 -4.7540278 -5.5654302 7
-0.31068799 -4.7672119 -5.5488281 7
-0.31239501 -4.7869868 -5.5429692 7
-0.110102 4.7758789 -4.7324219 7
-0.113413 4.7680659 -4.7529302 7
-0.115046 4.7567139 -4.7685552 7
-0.108448 4.728394 -4.7617192 7
-0.111742 4.720459 -4.782227 7
-0.10677 4.6955571 -4.780273 7
-0.088592999 4.5848389 -4.7861328 7
-0.081987001 4.5567632 -4.7783198 7
-0.077027999 4.532227 -4.7753911 7
-0.077027999 4.5174561 -4.7871089 7
-0.31570601 -4.8017578 -5.15625 7
-0.314053 -4.8139648 -5.140625 7
-0.31924599 -4.839355 -5.1425781 7
-0.32447201 -4.8648682 -5.1435552 7
-0.324518 -4.8803711 -5.1318359 7
-0.32974201 -4.9058838 -5.1337891 7
-0.116869 4.624146 -4.507812 7
-0.111736 4.599854 -4.5048828 7
-0.106594 4.5753169 -4.5029302 7
-0.108311 4.5648189 -4.5175781 7
-0.110004 4.5539551 -4.5332031 7
-0.10317 4.5263672 -4.5263672 7
-0.103163 4.512207 -4.5371089 7
-0.101446 4.4945068 -4.5439448 7
-0.108265 4.4936519 -4.5722661 7
0.050794002 -1.390924 -11.516061 7
-0.083838001 -1.332944 -9.4169073 7
-0.33560401 -4.5903101 -9.3776484 7
-0.016841 -1.58375 -5.2782731 7
-0.080296002 -1.523953 -4.4223099 7
-0.29593301 -4.7435498 -4.6154728 7
-0.27778101 -4.7162919 -3.7844651 7
-0.028173 -1.432618 -3.065639 7
-0.257236 -4.6712322 -3.046947 7
-0.25297001 -4.6653829 -2.473402 7
-0.271797 -4.5626049 -0.93533498 7
-0.28291601 -4.7531662 -0.80302799 7
-0.013337 -1.406278 -0.41247499 7
-0.024385 -1.56285 -0.41998699 7
-0.29519299 -4.8589101 2.9748039 7
-0.29434299 -4.860599 3.136888 7
-0.29883999 -4.872056 3.298882 7
-0.30508301 -4.8823891 3.4619851 7
-0.087315999 4.375113 -1.35816 7
-0.031814002 -0.67548603 -15.470038 7
-0.203291 4.7603512 -20.098015 7
-0.127156 -1.393909 -11.732347 7
-0.23442601 4.6609879 -13.099226 7
-0.080931999 -1.425863 -9.3151121 7
-0.071089998 -1.4991601 -8.0211391 7
-0.29486799 -4.7161078 -8.8376198 7
-0.012942 1.341493 -6.4882388 7
-0.117765 -1.596037 -6.3322978 7
-0.32480401 -4.7542558 -7.0750861 7
-0.106452 4.520577 -4.539113 7
-0.101087 -1.605667 -5.6788492 7
-0.040693 1.214124 -5.2455721 7
-0.031133 1.02 -5.2078161 7
-0.027659001 1.240099 -4.768867 7
-0.023212001 1.075598 -4.778152 7
-0.28054601 -4.6708488 -4.35149 7
-0.060031999 4.3328772 -1.031598 7
-0.075338997 4.395999 -1.398325 7
-0.080917001 4.39853 -1.5838211 7
-0.120289 4.414772 -1.213315 7
-0.084129997 -1.415539 -4.2798338 7
-0.089275002 -1.563565 -4.2535 7
-0.32672 -4.6654668 -3.548347 7
-0.32025501 -4.7459178 -3.3434031 7
-0.292337 -4.6292992 -2.4072731 7
-0.29581001 -4.7228999 -2.2224431 7
-0.28923899 -4.746428 -2.0205519 7
-0.058653001 -1.465487 -3.1402249 7
-0.043724999 -1.353786 -2.988425 7
-0.057700001 -1.472402 -2.9830761 7
-0.05508 -1.543918 -2.915102 7
