# .PCD v0.7 - Point Cloud Data file format
VERSION 0.7
FIELDS x y z intensity
SIZE 4 4 4 4
TYPE F F F F
COUNT 1 1 1 1
WIDTH 717
HEIGHT 1
VIEWPOINT 0 0 0 1 0 0 0
POINTS 717
DATA ascii
-0.55133802 -1.792969 73.352539 7
-0.52631199 -0.424683 72.764648 7
-0.150801 4.274292 -69.131836 7
-0.197023 4.1878662 -70.532227 7
-0.036060002 0.71411097 -65.726562 7
-0.58881402 -5.231689 67.141602 7
-0.65012902 -5.1885991 68.612305 7
-0.71907198 -5.1521001 70.263672 7
-0.79195201 -5.1142578 72.008789 7
-0.53287297 -2.2244871 66.070312 7
-0.54986203 -2.0843511 66.484375 7
-0.471764 0.22399899 64.734375 7
0.0051190001 4.259521 -57.324219 7
-0.039416999 4.203979 -58.53125 7
-0.110147 4.1903081 -60.445312 7
-0.056899998 3.9494629 -59.012695 7
-0.12677599 3.9246831 -60.902344 7
-0.043093 0.64306599 -58.638672 7
-0.64411497 -5.326416 62.808594 7
-0.67723697 -5.2418208 63.542969 7
-0.74202198 -5.2102051 64.966797 7
-0.501297 -2.1534419 59.969727 7
-0.472996 0.35388201 59.505859 7
-0.430323 0.61914098 58.579102 7
-0.460619 3.5092771 59.237305 7
-0.411791 3.5793459 58.166992 7
-0.070412003 4.2554932 -53.643555 7
-0.100883 4.1804199 -54.393555 7
-0.040679999 3.940918 -52.926758 7
-0.093119003 3.9016111 -54.214844 7
-0.17804299 3.9099121 -56.295898 7
-0.40305099 0.42919901 53.189453 7
-0.43324301 0.55847198 53.795898 7
-0.375498 0.66747999 52.641602 7
-0.454391 3.5709231 54.193359 7
-0.41362801 3.6391599 53.374023 7
-0.36530301 3.6925049 52.40332 7
-0.045387 4.167603 -47.925781 7
-0.084500998 4.1213379 -48.797852 7
-0.0083349999 3.8675539 -47.117188 7
-0.066386998 3.851562 -48.408203 7
-0.089704998 3.771729 -48.931641 7
-0.402197 0.52197301 49.547852 7
-0.34608501 0.62231398 48.505859 7
-0.37452099 0.74218798 49.036133 7
-0.45319599 3.67749 50.454102 7
-0.41036201 3.7323 49.652344 7
-0.360926 3.77356 48.728516 7
-0.33283001 3.8431399 48.201172 7
0.56370401 24.353882 21.146484 7
-0.080948003 4.1246338 -44.795898 7
-0.109329 4.065063 -45.382812 7
-0.15912201 4.0396729 -46.40625 7
-0.089643002 3.809448 -44.993164 7
-0.118614 3.7462161 -45.591797 7
-0.165554 3.7086179 -46.556641 7
-0.020400999 -0.046509001 -39.665039 7
0.0023439999 -0.142456 -39.238281 7
-0.22297899 -3.4490969 -43.266602 7
-0.183918 -3.4971919 -42.529297 7
-0.159273 -3.5635991 -42.060547 7
-0.57847399 -5.4046631 48.220703 7
-0.59237897 -5.3208008 48.470703 7
-0.38364199 -2.4412839 45.195312 7
-0.401995 -2.354248 45.515625 7
-0.41931701 -2.2650149 45.819336 7
-0.289621 0.75231898 43.725586 7
-0.37016299 3.6893311 45.056641 7
-0.33588201 3.742188 44.46582 7
-0.304867 3.897949 43.923828 7
-0.079558998 4.360352 -40.657227 7
-0.107506 4.3127441 -41.185547 7
-0.132021 4.2564702 -41.649414 7
-0.155293 4.1959229 -42.09082 7
-0.181684 4.1385498 -42.588867 7
-0.019704999 0.63598597 -39.666992 7
-0.053989001 0.54675299 -40.305664 7
-0.029507 0.149048 -39.84082 7
-0.010851 0.051024999 -39.489258 7
-0.040284999 -0.135986 -36.887695 7
-0.045517001 -0.227295 -36.974609 7
-0.019173 -0.314697 -36.519531 7
-0.22335801 -3.4761961 -39.798828 7
-0.201765 -3.5415039 -39.417969 7
-0.19477101 -3.6274409 -39.286133 7
-0.193239 -3.7211909 -39.249023 7
-0.55664301 -5.3886719 44.495117 7
-0.56759602 -5.3078609 44.681641 7
-0.36681601 -2.4438479 41.800781 7
-0.372583 -2.3535161 41.899414 7
-0.37688401 -2.261353 41.974609 7
-0.276398 0.61022902 40.520508 7
-0.304941 0.71105999 40.974609 7
-0.28016499 0.796875 40.581055 7
-0.35829499 3.6976321 41.735352 7
-0.33978999 3.765991 41.435547 7
-0.32165 3.833252 41.141602 7
-0.298002 3.890625 40.760742 7
-0.093163997 4.418457 -37.601562 7
-0.121738 4.3798828 -38.098633 7
-0.141157 4.322021 -38.44043 7
-0.17818999 4.2946782 -39.084961 7
-0.20880701 4.252686 -39.618164 7
-0.019686 0.94702101 -36.492188 7
-0.01572 0.85546899 -36.424805 7
-0.037237 0.773193 -36.793945 7
-0.068258002 0.69201702 -37.328125 7
-0.062578 -0.291504 -33.990234 7
-0.039742 -0.37170401 -33.626953 7
-0.014671 -0.449707 -33.228516 7
-0.046668999 -0.53967297 -33.729492 7
-0.017525 -0.61499 -33.267578 7
-0.24894901 -3.581665 -36.731445 7
-0.251719 -3.6759031 -36.763672 7
-0.23109999 -3.734375 -36.428711 7
-0.212322 -3.794189 -36.123047 7
-0.318432 -2.2983401 37.967773 7
-0.34734899 -2.14978 38.404297 7
-0.27206799 0.38452101 37.413086 7
-0.27472901 0.47045901 37.452148 7
-0.28378299 0.55798298 37.585938 7
-0.26890799 0.639893 37.368164 7
-0.27237099 0.72607398 37.419922 7
-0.26587099 0.80932599 37.324219 7
-0.33783099 3.734375 38.285156 7
-0.33806601 3.8222661 38.282227 7
-0.28687501 3.9163821 37.519531 7
-0.27598199 3.984375 37.353516 7
0.36699301 18.90686 21.137695 7
-0.048289999 4.5531011 -33.575195 7
-0.059838999 4.4929199 -33.765625 7
-0.080242001 4.4492192 -34.094727 7
-0.109516 4.4213872 -34.564453 7
-0.139929 4.393188 -35.049805 7
-0.16773 4.3581538 -35.495117 7
-0.015228 1.196045 -33.257812 7
-0.0083179995 1.1101069 -33.149414 7
-0.030638 1.038574 -33.501953 7
-0.052338 0.881226 -33.845703 7
-0.074652001 -0.43359399 -31.884766 7
-0.042006001 -0.58288598 -31.398438 7
-0.029856 -0.65685999 -31.21582 7
-0.033279002 -0.81286597 -31.258789 7
-0.26852599 -3.797729 -34.462891 7
-0.25096101 -3.9387209 -34.181641 7
-0.238003 -4.0014648 -33.980469 7
-0.27174199 0.60778803 35.214844 7
-0.24742299 0.68102998 34.879883 7
-0.27276999 0.76831102 35.229492 7
-0.30976301 3.8721919 35.597656 7
-0.28886199 3.920166 35.304688 7
-0.27304801 3.9750979 35.080078 7
-0.299173 4.0982671 35.429688 7
0.30781901 17.581665 21.112305 7
-0.112999 4.776001 -32.166016 7
-0.067653999 4.603394 -31.512695 7
-0.083939001 4.5577388 -31.760742 7
-0.103792 4.5180659 -32.060547 7
-0.12640999 4.4821782 -32.402344 7
-0.156149 4.4584961 -32.84668 7
-0.01643 1.271973 -30.988281 7
-0.039902002 1.207764 -31.335938 7
-0.017263001 1.035645 -31.072266 7
-0.051114999 0.97778302 -31.557617 7
-0.056403998 -0.68518102 -29.083984 7
-0.053084999 -0.75647002 -29.035156 7
-0.028343 -0.81958002 -28.694336 7
-0.064015999 -0.90527302 -29.177734 7
-0.028687 -1.033936 -28.6875 7
-0.27348301 -3.9138179 -31.795898 7
-0.259022 -3.9688721 -31.589844 7
-0.245003 -4.0236821 -31.389648 7
-0.22883201 -4.073853 -31.15918 7
-0.22640599 -4.1463618 -31.114258 7
-0.22688501 0.62231398 32.256836 7
-0.29007 3.871094 32.915039 7
-0.27127501 3.9160161 32.668945 7
-0.25383601 3.9619141 32.438477 7
-0.24277499 4.0174561 32.290039 7
-0.26176801 4.1228032 32.524414 7
-0.070625 4.6990972 -29.024414 7
-0.074124999 4.633667 -29.082031 7
-0.090433002 4.5941162 -29.3125 7
-0.103752 4.5474849 -29.501953 7
-0.128611 4.5224609 -29.847656 7
-0.15602501 4.5007319 -30.228516 7
-0.034605 1.330322 -28.806641 7
-0.0026070001 1.240356 -28.371094 7
-0.047738999 1.12146 -28.989258 7
-0.071792997 -0.84985399 -27.290039 7
-0.044968002 -0.97399902 -26.941406 7
-0.057103999 -1.11438 -27.087891 7
-0.049415998 -1.177734 -26.985352 7
-0.28590599 -4.0404048 -29.695312 7
-0.280514 -4.10498 -29.617188 7
-0.25906399 -4.1418462 -29.334961 7
-0.23587599 -4.24646 -29.020508 7
-0.241522 -4.3283691 -29.079102 7
-0.095945001 4.7081299 -27.273438 7
-0.112497 4.673584 -27.491211 7
-0.129934 4.639771 -27.72168 7
-0.15478501 4.549561 -28.053711 7
-0.16721 4.5030522 -28.22168 7
-0.027376 1.571777 -26.689453 7
-0.012938 1.4906009 -26.568359 7
-0.039886001 1.44519 -26.904297 7
-0.015706999 1.3631589 -26.597656 7
-0.030451 1.305298 -26.789062 7
-0.053463001 1.251343 -27.083008 7
-0.052141 -0.96960402 -24.995117 7
-0.075451002 -1.042847 -25.266602 7
-0.060722001 -1.098877 -25.089844 7
-0.048992001 -1.15564 -24.947266 7
-0.076246001 -1.23291 -25.263672 7
-0.065490998 -1.289795 -25.132812 7
-0.052250002 -1.344727 -24.973633 7
-0.076077998 -1.422241 -25.249023 7
-0.264072 -4.1916499 -27.145508 7
-0.258764 -4.2497559 -27.072266 7
-0.24650601 -4.2954102 -26.917969 7
-0.238224 -4.3476558 -26.810547 7
-0.232914 -4.404541 -26.736328 7
-0.080816001 4.7817378 -24.966797 7
-0.092196003 4.7425542 -25.110352 7
-0.104576 4.7049561 -25.264648 7
-0.118916 4.6705322 -25.442383 7
-0.14212599 4.6530762 -25.723633 7
-0.154018 4.612061 -25.87207 7
-0.130953 4.5020752 -25.612305 7
-0.013521 1.635132 -24.50293 7
-0.034809001 1.588745 -24.756836 7
-0.015665 1.513428 -24.533203 7
-0.028563 1.460327 -24.688477 7
-0.043947 1.407959 -24.873047 7
-0.036137 1.34082 -24.782227 7
-0.082413003 -1.390747 -23.549805 7
-0.07564 -1.445435 -23.469727 7
-0.087913997 -1.5124511 -23.600586 7
-0.098086998 4.8518071 -23.336914 7
-0.102894 4.8031011 -23.399414 7
-0.112436 4.7637939 -23.514648 7
-0.12514301 4.7304692 -23.663086 7
-0.142603 4.7061772 -23.863281 7
-0.15479299 4.6704102 -24.005859 7
-0.144297 4.5891109 -23.90332 7
-0.120132 4.4820561 -23.649414 7
-0.031525001 1.713135 -22.970703 7
-0.031219 1.539185 -22.975586 7
-0.066572003 -1.291382 -21.772461 7
-0.087090999 -1.41394 -21.974609 7
-0.082103997 -1.466064 -21.918945 7
-0.031399 1.547974 -21.391602 7
-0.033229999 1.440796 -21.416016 7
-0.023161 1.380249 -21.314453 7
-0.102198 -1.337769 -20.716797 7
-0.109489 -1.3944089 -20.782227 7
-0.106583 -1.445068 -20.75 7
-0.102457 -1.494995 -20.706055 7
-0.105082 4.7946782 -20.295898 7
-0.117109 4.7678218 -20.420898 7
-0.121954 4.7258301 -20.477539 7
-0.038809001 1.357666 -20.092773 7
-0.035886999 1.304932 -20.066406 7
-0.061149999 1.268188 -20.313477 7
-0.055819001 1.213623 -20.264648 7
-0.100437 -1.205078 -19.34375 7
-0.089002997 -1.247925 -19.236328 7
-0.078844003 -1.2911381 -19.140625 7
-0.091719002 -1.347412 -19.253906 7
-0.11484 -1.410522 -19.458984 7
-0.096997999 -1.448608 -19.292969 7
-0.094534002 -1.495972 -19.266602 7
-0.111246 -1.5562741 -19.414062 7
-0.156624 4.749146 -19.384766 7
-0.162405 4.7113042 -19.447266 7
-0.159904 4.6566162 -19.435547 7
-0.15294801 4.5933838 -19.383789 7
-0.053427 1.137817 -18.907227 7
-0.053488001 1.0896 -18.910156 7
-0.024297999 0.93237299 -18.650391 7
-0.032658 0.888062 -18.728516 7
-0.035928998 0.84143102 -18.759766 7
-0.027052 0.79040498 -18.679688 7
-0.018173 0.73962402 -18.600586 7
-0.010561 0.68969703 -18.532227 7
-0.010019 0.64221197 -18.526367 7
-0.094962999 -1.32019 -18.126953 7
-0.083521001 -1.359497 -18.025391 7
-0.109325 -1.421509 -18.242188 7
-0.106031 -1.466064 -18.209961 7
-0.104757 -1.511597 -18.194336 7
-0.098061003 -1.553467 -18.132812 7
-0.095435999 -1.5979 -18.105469 7
-0.024736 0.294312 -17.588867 7
-0.016682001 0.248413 -17.518555 7
-0.012701 0.203247 -17.484375 7
-0.016819 0.15856899 -17.519531 7
-0.0074209999 0.113281 -17.438477 7
-0.018993 0.069091998 -17.537109 7
-0.024471 0.02417 -17.583008 7
-0.034161001 -0.018555 -16.530273 7
-0.029926 -0.061035 -16.495117 7
-0.019608 -0.14929201 -16.458984 7
-0.030215999 -0.189697 -16.539062 7
-0.028852001 -0.23205601 -16.526367 7
-0.021027001 -0.27380401 -16.461914 7
-0.090708002 -1.242065 -16.974609 7
-0.084324002 -1.2819819 -16.919922 7
-0.079457998 -1.365967 -16.873047 7
-0.10321 -1.42395 -17.060547 7
-0.099694997 -1.465332 -17.02832 7
-0.092670001 -1.547974 -16.962891 7
-0.103792 4.7740479 -16.519531 7
-0.101686 4.7269292 -16.513672 7
-0.111015 4.7033691 -16.597656 7
-0.118208 4.6750488 -16.666016 7
-0.123966 4.6436772 -16.72168 7
-0.1383 4.6291499 -16.844727 7
-0.14978801 4.6082759 -16.946289 7
-0.12837601 4.5229492 -16.787109 7
-0.052530002 -0.464966 -15.710938 7
-0.051089998 -0.50524902 -15.696289 7
-0.049267001 -0.78820801 -15.668945 7
-0.050106 -0.82910198 -15.672852 7
-0.091063 -1.296997 -15.953125 7
-0.091139004 -1.338135 -15.950195 7
-0.086668 -1.376587 -15.911133 7
-0.107218 -1.43042 -16.064453 7
-0.105768 -1.470825 -16.049805 7
-0.104326 -1.511108 -16.03418 7
-0.099841997 -1.549316 -15.996094 7
-0.13256501 4.7703862 -15.68457 7
-0.14165699 4.748291 -15.763672 7
-0.1485 4.7211909 -15.824219 7
-0.149294 4.6817632 -15.84082 7
-0.150833 4.6439209 -15.863281 7
-0.14557099 4.5922852 -15.835938 7
-0.051541999 -0.66870099 -14.746094 7
-0.051619001 -0.70703101 -14.743164 7
-0.069384001 -0.78979498 -14.868164 7
-0.067117997 -0.86596698 -14.84668 7
-0.057546999 -0.90075701 -14.775391 7
-0.054403 -0.93762201 -14.749023 7
-0.06329 -0.97961402 -14.810547 7
-0.074587002 -1.023438 -14.890625 7
-0.064296998 -1.095459 -14.808594 7
-0.076456003 -1.1787111 -14.891602 7
-0.090170003 -1.224609 -14.986328 7
-0.093442999 -1.265137 -15.006836 7
-0.081468999 -1.297241 -14.917969 7
-0.085547999 -1.338257 -14.943359 7
-0.097135998 -1.539551 -15.006836 7
-0.066197999 -0.968018 -14.011719 7
-0.069637001 -1.006104 -14.032227 7
-0.084879003 -1.049561 -14.134766 7
-0.070666999 -1.116333 -14.030273 7
-0.081766002 -1.19519 -14.100586 7
-0.091170996 -1.273926 -14.158203 7
-0.101379 -1.21521 -13.443359 7
-0.085574999 -1.311646 -13.329102 7
-0.090089999 -1.348999 -13.355469 7
-0.092813 -1.3857419 -13.370117 7
-0.095536999 -1.422485 -13.383789 7
-0.092936002 -1.455811 -13.363281 7
-0.106316 -1.49939 -13.445312 7
-0.101944 -1.531738 -13.413086 7
-0.10556 -1.5693361 -13.432617 7
-0.1045 4.7276611 -12.753906 7
-0.098321997 4.6811519 -12.726562 7
-0.101 4.6529541 -12.753906 7
-0.111649 4.6408691 -12.831055 7
-0.114326 4.6123052 -12.858398 7
-0.11611 4.5819092 -12.880859 7
-0.127644 4.5705571 -12.962891 7
-0.140947 4.5626221 -13.056641 7
-0.14097001 4.5281978 -13.067383 7
-0.097971 -1.2894289 -12.706055 7
-0.086864002 -1.316528 -12.632812 7
-0.087856002 -1.350342 -12.634766 7
-0.092564002 -1.386353 -12.660156 7
-0.084248997 -1.414673 -12.605469 7
-0.112251 -1.465332 -12.773438 7
-0.10206 -1.4925539 -12.707031 7
-0.093754001 -1.520264 -12.651367 7
-0.104982 -1.561401 -12.717773 7
-0.094806999 -1.587646 -12.649414 7
-0.121038 4.793335 -12.088867 7
-0.13405199 4.7879639 -12.176758 7
-0.122946 4.7327881 -12.12207 7
-0.120201 4.6627202 -12.128906 7
-0.12673 4.6113281 -12.189453 7
-0.13048901 4.5540771 -12.232422 7
-0.139788 4.5396729 -12.297852 7
-0.085928001 -1.2819819 -11.926758 7
-0.092831001 -1.317627 -11.962891 7
-0.077239998 -1.340088 -11.869141 7
-0.079254001 -1.372681 -11.876953 7
-0.079308003 -1.404053 -11.873047 7
-0.089139998 -1.442017 -11.927734 7
-0.101917 -1.481689 -11.999023 7
-0.098057002 -1.510986 -11.972656 7
-0.092244998 -1.5386961 -11.93457 7
-0.095236003 -1.572144 -11.948242 7
-0.086760998 -1.2854 -11.329102 7
-0.089887999 -1.317261 -11.342773 7
-0.083816998 -1.343872 -11.304688 7
-0.086937003 -1.375854 -11.319336 7
-0.090103 -1.4382319 -11.330078 7
-0.104534 -1.507935 -11.40332 7
-0.101536 -1.536255 -11.381836 7
-0.097493999 -1.563843 -11.355469 7
-0.100607 -1.596069 -11.369141 7
-0.31576699 -4.6862788 -11.837891 7
-0.32000199 -4.7568359 -11.836914 7
-0.085198998 -1.308105 -10.692383 7
-0.084161997 -1.335938 -10.68457 7
-0.078859001 -1.361572 -10.652344 7
-0.081064001 -1.3913569 -10.660156 7
-0.082185999 -1.420776 -10.662109 7
-0.090828001 -1.454712 -10.705078 7
-0.100538 -1.489868 -10.75293 7
-0.099523999 -1.517822 -10.743164 7
-0.094208002 -1.5430911 -10.710938 7
-0.097473003 -1.573975 -10.724609 7
-0.31826201 -4.4936519 -11.198242 7
-0.321711 -4.5891109 -11.182617 7
-0.31855199 -4.612793 -11.155273 7
-0.319704 -4.6445308 -11.149414 7
-0.32086399 -4.67627 -11.143555 7
-0.319857 -4.7042241 -11.126953 7
-0.32422799 -4.7419429 -11.137695 7
-0.33291599 -4.7880859 -11.168945 7
-0.075916 -1.300537 -10.114258 7
-0.084940001 -1.333252 -10.15625 7
-0.081623003 -1.358398 -10.135742 7
-0.077189997 -1.383057 -10.109375 7
-0.079493999 -1.411743 -10.116211 7
-0.081782997 -1.44043 -10.125 7
-0.082951002 -1.468506 -10.126953 7
-0.094223 -1.50354 -10.180664 7
-0.098747 -1.533813 -10.200195 7
-0.093203001 -1.5576169 -10.166992 7
-0.092127003 -1.584229 -10.157227 7
-0.32047701 -4.6425781 -10.53125 7
-0.323915 -4.6773682 -10.537109 7
-0.323984 -4.7055659 -10.525391 7
-0.32518199 -4.7359619 -10.519531 7
-0.33310899 -4.7791748 -10.545898 7
-0.119938 4.793457 -9.3984385 7
-0.115477 4.7585449 -9.3867188 7
-0.112135 4.7259521 -9.3828115 7
-0.096520998 4.668335 -9.3203115 7
-0.089817002 4.6291499 -9.2998047 7
-0.088717997 4.60144 -9.3056641 7
-0.092083 4.5826421 -9.3320312 7
-0.093209997 4.5592041 -9.3476562 7
-0.093225002 4.5336909 -9.359375 7
-0.095468998 4.5125728 -9.3808594 7
-0.103294 4.5023189 -9.4277344 7
-0.114477 4.498291 -9.4921885 7
-0.118971 4.4812012 -9.5234385 7
-0.085689999 -1.3017581 -9.6552734 7
-0.086916 -1.328613 -9.6572266 7
-0.095140003 -1.359863 -9.6943359 7
-0.088174999 -1.381714 -9.65625 7
-0.085879996 -1.406494 -9.6416016 7
-0.085925996 -1.432739 -9.6386719 7
-0.085987002 -1.459106 -9.6347656 7
-0.095392004 -1.4912111 -9.6767578 7
-0.108305 -1.526001 -9.7353516 7
-0.106003 -1.550903 -9.7207031 7
-0.100212 -1.5732419 -9.6884766 7
-0.076071002 -1.291748 -9.1386719 7
-0.085864998 -1.32251 -9.1806641 7
-0.089565001 -1.349609 -9.1953115 7
-0.089619003 -1.374878 -9.1923828 7
-0.087231003 -1.398438 -9.1767578 7
-0.090916 -1.425903 -9.1914062 7
-0.087321997 -1.448608 -9.1699219 7
-0.080061004 -1.468994 -9.1328115 7
-0.095934004 -1.504395 -9.203125 7
-0.102076 -1.533691 -9.2285156 7
-0.104553 -1.5606689 -9.2353516 7
-0.103388 -1.5849611 -9.2255859 7
-0.075805999 -1.281128 -8.6582031 7
-0.079657003 -1.307129 -8.671875 7
-0.082243003 -1.33252 -8.6806641 7
-0.088656999 -1.360229 -8.7050781 7
-0.08106 -1.379517 -8.6689453 7
-0.076003999 -1.400391 -8.6425781 7
-0.078606002 -1.4256589 -8.6503906 7
-0.081205003 -1.451172 -8.6582031 7
-0.085065998 -1.477417 -8.671875 7
-0.097836003 -1.5098881 -8.7246094 7
-0.10807 -1.5406491 -8.765625 7
-0.095379002 -1.556152 -8.7060547 7
-0.09161 -1.5773931 -8.6855469 7
-0.32879299 -4.6411128 -8.8378906 7
-0.32247701 -4.653564 -8.8007812 7
-0.32381201 -4.6801758 -8.7949219 7
-0.32388899 -4.7042241 -8.7832031 7
-0.32139599 -4.7236328 -8.7617188 7
-0.324018 -4.752563 -8.7607422 7
-0.32790899 -4.7840581 -8.7646484 7
-0.091434002 -1.306396 -8.3066406 7
-0.087507002 -1.327148 -8.2861328 7
-0.091618001 -1.398315 -8.2929688 7
-0.091655999 -1.421265 -8.2890615 7
-0.093029 -1.445312 -8.2919922 7
-0.091748998 -1.4675291 -8.2822266 7
-0.098422997 -1.494873 -8.3066406 7
-0.103899 -1.590454 -8.3144531 7
-0.106623 -1.638428 -8.3183594 7
-0.33069399 -4.6870122 -8.3193359 7
-0.330755 -4.7099609 -8.3076172 7
-0.33214399 -4.7354741 -8.3007812 7
-0.33089301 -4.755981 -8.2841797 7
-0.32961801 -4.7762451 -8.2675781 7
-0.32064801 -4.4954829 -7.8652339 7
-0.31938201 -4.5369868 -7.8388672 7
-0.32081601 -4.561523 -7.8339839 7
-0.32641599 -4.5935059 -7.842773 7
-0.32653001 -4.637207 -7.8212891 7
-0.32383001 -4.6538091 -7.7998052 7
-0.32526401 -4.6782231 -7.7939448 7
-0.319857 -4.7115479 -7.7519531 7
-0.322685 -4.7384028 -7.75 7
-0.32551599 -4.7653809 -7.749023 7
-0.42816401 -6.4147949 -7.186523 7
-0.42546999 -6.4284668 -7.1621089 7
-0.42830101 -6.4555659 -7.157227 7
-0.43113899 -6.482666 -7.1503911 7
-0.432596 -6.5063481 -7.1386719 7
-0.43966699 -6.5639648 -7.1298828 7
-0.45636401 -6.625977 -7.1699219 7
-0.455044 -6.6428218 -7.148438 7
-0.45512 -6.6629639 -7.132812 7
-0.45795101 -6.6904302 -7.125977 7
-0.45801899 -6.7105708 -7.110352 7
-0.31285301 -4.4981689 -7.3876948 7
-0.31865099 -4.5292969 -7.3964839 7
-0.31297499 -4.5396729 -7.3652339 7
-0.31875801 -4.5710449 -7.375 7
-0.318811 -4.592041 -7.3642578 7
-0.321749 -4.6179199 -7.3632808 7
-0.32180199 -4.6386719 -7.3525391 7
-0.32042101 -4.6568599 -7.3369141 7
-0.31474701 -4.666748 -7.3056641 7
-0.316248 -4.690063 -7.2988281 7
-0.32204601 -4.7215581 -7.3076172 7
-0.32353401 -4.744873 -7.3017578 7
-0.326464 -4.7709961 -7.3007808 7
-0.32653201 -4.791626 -7.289062 7
-0.41863599 -6.4155269 -6.617188 7
-0.421581 -6.4415278 -6.610352 7
-0.424519 -6.467773 -6.6044922 7
-0.42458701 -6.4866939 -6.5878911 7
-0.42753199 -6.5126948 -6.5820308 7
-0.43046799 -6.53894 -6.5751948 7
-0.44060501 -6.5830078 -6.5898442 7
-0.447853 -6.6202388 -6.5966802 7
-0.45367199 -6.653564 -6.5986328 7
-0.45804399 -6.6833501 -6.5957031 7
-0.458105 -6.7023931 -6.579102 7
-0.31815499 -4.4893799 -6.9755859 7
-0.31672901 -4.5064702 -6.9599609 7
-0.32124501 -4.5344238 -6.9638672 7
-0.31682199 -4.5461431 -6.938477 7
-0.32135201 -4.5740972 -6.9423828 7
-0.334824 -4.6184082 -6.9755859 7
-0.330421 -4.6300049 -6.9492192 7
-0.326006 -4.641602 -6.9248052 7
-0.32306901 -4.6558838 -6.9033198 7
-0.32015401 -4.6700439 -6.882812 7
-0.32764599 -4.7034912 -6.8964839 7
-0.32324401 -4.7148442 -6.8701172 7
-0.32033899 -4.7286382 -6.8476558 7
-0.33082801 -4.7680659 -6.8701172 7
-0.326395 -4.7792969 -6.8457031 7
-0.319004 -4.7843022 -6.8085942 7
-0.43096501 -6.4263921 -6.140625 7
-0.42506799 -6.4294429 -6.108398 7
-0.425129 -6.4475098 -6.09375 7
-0.429676 -6.47644 -6.0908198 7
-0.42972901 -6.4941411 -6.0761719 7
-0.42382601 -6.4969478 -6.0439448 7
-0.42537501 -6.5184331 -6.032227 7
-0.431416 -6.5507808 -6.0332031 7
-0.446419 -6.605957 -6.0605469 7
-0.443499 -6.6160889 -6.0361328 7
-0.44803599 -6.64502 -6.0332031 7
-0.45855501 -6.689209 -6.046875 7
-0.45414701 -6.6955571 -6.0185552 7
-0.45420101 -6.7131348 -6.0029302 7
-0.086994 4.4779048 -5.9951172 7
-0.084041998 4.4543462 -5.9951172 7
-0.088482 4.445435 -6.0205078 7
-0.100334 4.4508061 -6.070312 7
-0.41998899 -6.4061279 -5.6298828 7
-0.42313999 -6.4304199 -5.6220698 7
-0.42783201 -6.4586182 -5.6191411 7
-0.42634401 -6.471313 -5.5996089 7
-0.42486399 -6.4841309 -5.5810552 7
-0.43111801 -6.5161128 -5.5820308 7
-0.428076 -6.5249019 -5.5585942 7
-0.434322 -6.5570068 -5.5595698 7
-0.42974699 -6.5618901 -5.53125 7
-0.439091 -6.601562 -5.5400391 7
-0.44532201 -6.633667 -5.5410161 7
-0.450014 -6.6618652 -5.5371089 7
-0.451639 -6.6821289 -5.5253911 7
-0.4517 -6.6986079 -5.5097661 7
-0.4533 -6.7191162 -5.4980469 7
-0.10302 4.364624 -5.766602 7
-0.104546 4.3504639 -5.782227 7
-0.099962004 4.324707 -5.7773442 7
-0.101496 4.3104248 -5.7919922 7
-0.096879996 4.2845459 -5.789062 7
-0.096895002 4.2674561 -5.797852 7
-0.106087 4.2675781 -5.8378911 7
-0.096902996 4.2158198 -5.828125 7
-0.101496 4.2071528 -5.8535161 7
-0.093837999 4.1756592 -5.8388672 7
-0.30428299 -4.5473628 -6.0712891 7
-0.31564099 -4.6212158 -6.0722661 7
-0.31250599 -4.632812 -6.0517578 7
-0.31575599 -4.6564941 -6.0498052 7
-0.31901199 -4.6801758 -6.047852 7
-0.312666 -4.6859131 -6.0185552 7
-0.314329 -4.7064209 -6.0126948 7
-0.311178 -4.7180181 -5.9912109 7
-0.314428 -4.7414551 -5.9892578 7
-0.31607601 -4.762085 -5.983398 7
-0.31453499 -4.7766109 -5.9667969 7
-0.31138599 -4.7878418 -5.9462891 7
-0.310087 -4.5006099 -5.7246089 7
-0.303505 -4.5053711 -5.695312 7
-0.30023399 -4.5161128 -5.6748052 7
-0.308586 -4.5480962 -5.688477 7
-0.31692299 -4.5802002 -5.7011719 7
-0.31034899 -4.5849609 -5.671875 7
-0.31205601 -4.6046138 -5.6660161 7
-0.31542 -4.627563 -5.664062 7
-0.315474 -4.6444092 -5.6523442 7
-0.31553501 -4.6611328 -5.641602 7
-0.31557301 -4.677856 -5.6308589 7
-0.32060799 -4.7038569 -5.6337891 7
-0.31568 -4.71106 -5.608398 7
-0.30743399 -4.7119141 -5.5732422 7
-0.30914301 -4.731812 -5.5673828 7
-0.30920401 -4.748291 -5.5556641 7
-0.31423199 -4.774292 -5.5585942 7
-0.31096601 -4.7844238 -5.5380859 7
-0.053128 4.2457309 5.416934 7
-0.051127002 4.298492 5.2379112 7
-0.29600099 -4.8360181 5.1139712 7
-0.001346 -1.572575 -12.282428 7
-0.098112002 -1.470094 -9.5471621 7
-0.34340999 -4.6188488 -11.183266 7
-0.069201998 -1.4072731 -7.8166761 7
-0.31067601 -4.6434169 -9.0712452 7
-0.032373998 -1.354528 -6.3561039 7
-0.28317899 -4.648221 -7.4236679 7
-0.230726 -4.5553279 -5.8830652 7
-0.36344701 -6.411171 -5.8094001 7
-0.079747997 -1.284306 -4.4703212 7
-0.26384401 -4.7516041 -3.033041 7
-0.252433 -4.7187262 -2.4251051 7
-0.30239099 -4.657548 -1.855571 7
-0.283544 -4.8233728 0.78220803 7
-0.30858999 -4.9902382 0.904755 7
-0.29764599 -4.874301 5.5033679 7
-0.271083 -4.8037229 1.223249 7
-0.29859799 -4.9658689 4.9306288 7
-0.28449401 -4.8508649 5.0758619 7
-0.333435 -5.0402932 2.311769 7
-0.301541 -4.7298121 2.0468521 7
-0.29414901 -4.749053 2.211767 7
-0.310146 -4.8589759 2.522239 7
-0.276162 -4.5320449 2.110255 7
0.049421001 1.2893699 -4.8068142 7
-0.1014 4.250423 5.3900032 7
-0.081128001 4.26473 5.2077332 7
-0.030605 -0.67383897 -15.435124 7
-0.107404 -1.347335 -11.378934 7
-0.235901 4.539536 -13.15792 7
-0.075176999 -1.4108059 -9.2289419 7
-0.106599 4.6082358 -8.8456621 7
-0.077324003 -1.516625 -8.1011295 7
-0.35901201 -4.64294 -11.143041 7
-0.30459899 -4.746429 -10.337692 7
-0.065022998 -1.554724 -7.0716801 7
-0.29244101 -4.7872381 -8.7731857 7
-0.066621996 4.389327 -5.869473 7
-0.0030139999 1.258103 -6.3880892 7
-0.107771 -1.568619 -6.2433572 7
-0.350196 -4.6955538 -7.394238 7
-0.44250101 -6.4493341 -7.258841 7
-0.035663001 1.272826 -5.615222 7
-0.044013999 1.100809 -5.73211 7
-0.092549004 -1.6290621 -5.5963778 7
-0.30668199 -4.7423182 -6.0347118 7
-0.029379999 1.482427 -5.0699339 7
-0.026935 1.307533 -5.100533 7
-0.083319999 -1.640324 -5.1049962 7
-0.071892999 4.44484 -2.4112921 7
-0.016985999 1.474861 -4.604671 7
-0.016487001 1.324478 -4.6520991 7
-0.27657399 -4.685039 -4.2895889 7
-0.043967001 1.5017641 -4.2117848 7
-0.035700001 1.313984 -4.2271032 7
-0.081063002 -1.440964 -4.2491202 7
-0.087107003 -1.590712 -4.2266951 7
-0.27684501 -4.552773 -2.3355229 7
-0.270955 -4.6993399 -1.75985 7
-0.077133 -1.711648 -3.635385 7
-0.090043001 -1.8626601 -3.6255231 7
