# .PCD v0.7 - Point Cloud Data file format
VERSION 0.7
FIELDS x y z intensity
SIZE 4 4 4 4
TYPE F F F F
COUNT 1 1 1 1
WIDTH 741
HEIGHT 1
VIEWPOINT 0 0 0 1 0 0 0
POINTS 741
DATA ascii
-0.037113 4.119873 -72.333984 7
0.026566001 4.336792 -62.568359 7
0.106388 4.0297852 -60.201172 7
0.017798999 4.048584 -62.833008 7
-0.048145 4.0145259 -64.793945 7
-0.69391602 -5.2686772 69.783203 7
-0.76585001 -5.2348628 71.509766 7
-0.82476801 -5.170166 72.928711 7
-0.89962399 -5.1254878 74.726562 7
-0.66084301 -2.002686 69.289062 7
0.073723003 4.3243408 -54.483398 7
0.027073 4.283813 -55.724609 7
-0.0091779996 4.2210689 -56.759766 7
0.047764 3.976685 -55.251953 7
0.012581 3.9050291 -56.191406 7
-0.734478 -5.197998 64.935547 7
-0.77871299 -5.1242681 65.915039 7
-0.84543598 -5.0837402 67.385742 7
-0.60001397 -2.228271 62.265625 7
-0.548931 0.640625 61.210938 7
-0.58577698 3.5272219 62.029297 7
-0.533485 3.602051 60.883789 7
0.079758003 4.1560059 -49.193359 7
0.02726 4.1361079 -50.462891 7
-0.0071029998 4.0766602 -51.294922 7
0.050590999 3.847168 -49.910156 7
0.0055889999 3.8035891 -50.999023 7
-0.043559998 3.7619629 -52.186523 7
0.056483999 0.43701199 -51.258789 7
-0.48009899 0.451294 54.834961 7
-0.50244099 0.710693 55.289062 7
-0.535007 3.5579829 55.868164 7
-0.476868 3.7349851 54.695312 7
0.061066002 4.1368408 -44.896484 7
-0.0053369999 4.1524658 -46.351562 7
0.040511999 3.842896 -45.361328 7
0.012833 3.7797849 -45.97168 7
-0.017769 3.7186279 -46.644531 7
-0.082557999 3.7103269 -48.06543 7
0.087169997 0.493164 -44.414062 7
0.087883003 0.275269 -44.393555 7
-0.091109999 -3.052979 -45.375 7
-0.147507 -3.2419429 -46.523438 7
-0.114231 -3.307251 -45.827148 7
-0.072150998 -3.356323 -44.949219 7
-0.045113001 -3.4241941 -44.381836 7
-0.44420201 0.52477998 50.358398 7
-0.48261601 0.65026897 51.076172 7
-0.423069 0.75097698 49.970703 7
-0.519638 3.647583 51.738281 7
-0.46489 3.69104 50.714844 7
-0.41892201 3.7419429 49.855469 7
0.56333202 24.516724 21.085938 7
0.561432 24.595093 21.052734 7
-0.0088010002 4.260376 -42.737305 7
-0.030621 4.1965332 -43.183594 7
-0.065738998 4.1551509 -43.897461 7
-0.102303 4.1131592 -44.641602 7
-0.099766001 3.889648 -44.602539 7
-0.114388 3.8044429 -44.902344 7
0.052444 0.575073 -42.640625 7
0.053096998 0.47045901 -42.624023 7
0.014999 0.37255901 -43.40918 7
0.051144 0.157471 -42.655273 7
0.035946 -0.043334998 -38.142578 7
0.052574001 -0.135986 -37.830078 7
0.04163 -0.230225 -38.029297 7
-0.180447 -3.415894 -42.864258 7
-0.14576299 -3.4689939 -42.203125 7
-0.12698001 -3.5432129 -41.839844 7
-0.43582901 -2.3817141 46.162109 7
-0.44215 -2.2813721 46.27832 7
-0.38176301 0.58044398 45.380859 7
-0.38978201 0.68689001 45.520508 7
-0.46825799 3.7202151 46.765625 7
-0.39458099 3.826416 45.495117 7
-0.391323 3.9263921 45.433594 7
0.49517101 22.587646 21.083008 7
0.495361 22.634033 21.029297 7
0.49555999 22.68042 20.975586 7
0.49443799 22.744629 20.9375 7
0.49331999 22.808472 20.899414 7
0.49384701 22.85022 20.841797 7
-0.012547 4.375854 -38.90625 7
-0.038959999 4.3312988 -39.398438 7
-0.064113997 4.2819819 -39.869141 7
-0.084845997 4.22229 -40.256836 7
-0.124866 4.1959229 -41.000977 7
0.036469001 0.80200201 -38.151367 7
0.004406 0.051270001 -38.726562 7
-0.017131999 -0.134766 -36.805664 7
0.021113999 -0.221313 -36.139648 7
-0.001625 -0.31359899 -36.530273 7
0.015079 -0.40039101 -36.237305 7
0.036807999 -0.48461899 -35.855469 7
-0.172043 -3.6195071 -39.222656 7
-0.15332399 -3.6859131 -38.887695 7
-0.142708 -3.763916 -38.693359 7
-0.44342399 -2.2185061 43.097656 7
-0.46533999 -2.1374509 43.453125 7
-0.38621101 0.53564501 42.27832 7
-0.37742999 0.72705102 42.141602 7
-0.417465 3.78125 42.700195 7
-0.36794299 3.901855 41.90332 7
0.42584601 21.06189 21.114258 7
0.42710501 21.095825 21.052734 7
0.011978 4.4335942 -35.360352 7
-0.021721 4.4134521 -35.939453 7
-0.046859998 4.3737788 -36.373047 7
-0.073578 4.3370361 -36.859375 7
-0.109634 4.3137212 -37.478516 7
-0.132706 4.2635498 -37.87793 7
0.061473999 1.075317 -34.696289 7
0.040268 0.91259801 -35.057617 7
0.039421 0.82641602 -35.071289 7
0.005653 0.75146502 -35.645508 7
0.039466999 0.653198 -35.068359 7
0.0067329998 -0.35925299 -32.548828 7
0.013939 -0.51879901 -32.429688 7
0.042969 -0.59094203 -31.972656 7
0.006916 -0.68151897 -32.532227 7
0.030727001 -0.75353998 -32.15625 7
0.0021019999 -0.84423798 -32.59668 7
-0.213879 -3.7331541 -36.44043 7
-0.198227 -3.797729 -36.180664 7
-0.182182 -3.860229 -35.916992 7
-0.18310501 -3.9499509 -35.918945 7
-0.37942499 -2.262573 38.910156 7
-0.43452799 -2.1298831 39.730469 7
-0.31523901 0.65905797 38.102539 7
-0.339764 0.75317401 38.462891 7
-0.31294301 0.83227497 38.070312 7
-0.413773 3.753906 39.419922 7
-0.35364899 3.9317629 38.521484 7
-0.335991 3.9918211 38.255859 7
0.0087200003 4.5562739 -32.322266 7
-0.001087 4.4962158 -32.483398 7
-0.022841999 4.4593511 -32.831055 7
-0.067013003 4.465332 -33.524414 7
-0.087260999 4.4217529 -33.848633 7
0.067822002 1.2194819 -31.617188 7
0.049759001 1.150757 -31.899414 7
0.054455001 1.069092 -31.826172 7
0.021438999 1.005615 -32.341797 7
0.0050349999 -0.650024 -30.927734 7
-0.019886 -0.73486298 -31.294922 7
-0.0078090001 -0.80773902 -31.111328 7
0.01527 -0.87560999 -30.765625 7
-0.237064 -3.856323 -34.230469 7
-0.224213 -3.919678 -34.029297 7
-0.34623 0.62231398 36.251953 7
-0.40055501 3.8430181 36.879883 7
-0.38050801 3.8968511 36.598633 7
-0.35199699 3.936157 36.201172 7
-0.333626 3.9898679 35.942383 7
-0.363087 4.1195068 36.338867 7
-0.045681 4.7486572 -30.850586 7
-0.012276 4.6019292 -30.376953 7
-0.026752001 4.5561519 -30.594727 7
-0.045616001 4.5180659 -30.87793 7
-0.070877001 4.4914551 -31.25293 7
-0.091330998 4.4550781 -31.576172 7
-0.095062003 4.3835449 -31.637695 7
0.016682001 1.242432 -30.196289 7
0.045727 1.151733 -29.773438 7
0.019623 1.090698 -30.154297 7
0.0087090004 1.035645 -30.907227 7
0.015217 -0.65661597 -27.848633 7
0.017658001 -0.72522002 -27.811523 7
-0.0070989998 -0.803711 -28.142578 7
0.018596999 -0.93273902 -27.789062 7
-0.010906 -1.015747 -28.182617 7
0.016163001 -1.07251 -27.813477 7
-0.26821899 0.78796399 32.823242 7
-0.27489099 0.86486799 32.908203 7
-0.351448 3.8883059 33.716797 7
-0.30105999 3.961792 33.061523 7
-0.01376 4.6844478 -27.983398 7
-0.02462 4.637207 -28.139648 7
-0.053153999 4.625854 -28.53125 7
-0.070568003 4.5179439 -28.78418 7
-0.100826 4.5058589 -29.198242 7
0.045315001 1.272949 -27.46582 7
-0.017738 -0.96679699 -26.766602 7
-0.010109 -1.0300291 -26.665039 7
-0.039406002 -1.111084 -27.035156 7
-0.015838999 -1.165771 -26.729492 7
-0.016845999 -1.233032 -26.739258 7
-0.036037002 4.7475591 -26.256836 7
-0.044891 4.7001948 -26.376953 7
-0.060215 4.665894 -26.578125 7
-0.075974002 4.6314702 -26.785156 7
-0.097278997 4.6074219 -27.061523 7
-0.111206 4.5672612 -27.245117 7
0.018616 1.592773 -25.870117 7
0.018044 1.52832 -25.879883 7
0.0082820002 1.4892581 -26.463867 7
0.022736 1.413574 -26.280273 7
0.013531 1.3536381 -26.400391 7
-0.0065990002 1.299683 -26.660156 7
-0.040375002 -1.093994 -25.001953 7
-0.027575999 -1.336182 -24.833008 7
-0.025234001 -1.396729 -24.800781 7
-0.037895001 4.7813721 -24.251953 7
-0.046916999 4.7392578 -24.367188 7
-0.058398999 4.7020259 -24.509766 7
-0.072371997 4.669189 -24.681641 7
-0.090805002 4.6447749 -24.904297 7
-0.102798 4.6060791 -25.054688 7
0.024204001 1.656372 -23.861328 7
0.02351 1.536743 -23.875 7
0.021908 1.477661 -23.895508 7
0.00096899999 1.431152 -24.143555 7
0.0053329999 1.367798 -24.094727 7
0.015163 1.301147 -23.981445 7
-0.048266999 -1.434082 -23.301758 7
-0.052581999 -1.495605 -23.344727 7
-0.104958 4.7767329 -23.248047 7
-0.104519 4.717041 -23.25293 7
-0.108299 4.6660161 -23.305664 7
-0.085564002 4.561523 -23.069336 7
0.0096319998 1.6706541 -22.344727 7
0.0093419999 1.501465 -22.355469 7
0.0092510004 1.444824 -22.360352 7
-0.058735002 -1.182251 -21.818359 7
-0.052508999 -1.452759 -21.732422 7
-0.002758 1.5723881 -20.94043 7
0.0096279997 1.51062 -20.816406 7
0.021473 1.449829 -20.698242 7
-0.003578 1.413452 -20.957031 7
0.0059810001 1.354248 -20.862305 7
0.014973 1.296021 -20.772461 7
-0.060805999 -1.3182369 -20.418945 7
-0.073112004 4.8027339 -19.838867 7
-0.082878001 4.7219238 -19.951172 7
-0.087158002 4.67981 -20.00293 7
-0.091041997 4.4832759 -20.080078 7
-0.013359 1.234253 -19.711914 7
-0.003796 1.178833 -19.621094 7
0.008804 1.122437 -19.501953 7
-0.0099870004 1.082031 -19.685547 7
0.005535 0.97473103 -19.538086 7
-0.054333001 -1.281616 -19.012695 7
-0.049975999 -1.327515 -18.96875 7
-0.066726997 -1.434448 -19.112305 7
-0.064269997 -1.481445 -19.085938 7
-0.073905997 -1.536377 -19.169922 7
0.0039479998 0.63513201 -18.279297 7
0.010303 0.58666998 -18.22168 7
0.0173 0.53833002 -18.160156 7
0.024924999 0.49011201 -18.091797 7
0.028687 0.442871 -18.057617 7
0.031184999 0.395996 -18.036133 7
0.027237 0.350586 -18.071289 7
-0.059025001 -1.349121 -17.896484 7
-0.068810001 4.7409668 -17.272461 7
-0.066898003 4.6478271 -17.27832 7
0.001865 0.292725 -17.443359 7
0.003124 0.247803 -17.431641 7
-0.0043600001 0.20373499 -17.496094 7
0.002968 0.15856899 -17.432617 7
0.0062640002 0.113647 -17.404297 7
0.012245 0.068970002 -17.351562 7
0.0094760004 0.024658 -17.375 7
-0.011406 -0.14587399 -16.464844 7
-0.0093459999 -0.18810999 -16.446289 7
-0.0065609999 -0.22998001 -16.421875 7
-0.0030670001 -0.27172899 -16.392578 7
-0.0031280001 -0.31396499 -16.392578 7
-0.062111001 -1.3162839 -16.811523 7
-0.060775999 -1.3586431 -16.795898 7
-0.072994001 -1.4094239 -16.891602 7
-0.080952004 -1.4580081 -16.952148 7
-0.074588999 -1.496948 -16.896484 7
-0.072529003 -1.538818 -16.875977 7
-0.081196003 -1.588257 -16.941406 7
-0.082626 4.7930908 -16.241211 7
-0.069018997 4.7226558 -16.145508 7
-0.073399 4.6898189 -16.19043 7
-0.079917997 4.6612549 -16.251953 7
-0.084282003 4.6280522 -16.296875 7
-0.092956997 4.603394 -16.375 7
-0.109547 4.5942378 -16.515625 7
-0.102413 4.537354 -16.470703 7
-0.028778 -0.66223103 -15.586914 7
-0.02507 -0.701294 -15.557617 7
-0.026657 -0.741943 -15.566406 7
-0.035046 -0.78515601 -15.628906 7
-0.035877001 -0.82580602 -15.632812 7
-0.032173 -0.86450201 -15.601562 7
-0.033004999 -0.90515101 -15.605469 7
-0.035339002 -0.94653302 -15.621094 7
-0.069228999 -1.288208 -15.853516 7
-0.065513998 -1.326782 -15.822266 7
-0.064834997 -1.36731 -15.813477 7
-0.082324997 -1.418823 -15.942383 7
-0.089207001 -1.464478 -15.991211 7
-0.082478002 -1.501099 -15.935547 7
-0.080288 -1.5406491 -15.915039 7
-0.084911004 -1.584717 -15.945312 7
-0.28871199 -4.6386719 -16.954102 7
-0.045006 -0.97424299 -14.741211 7
-0.040282998 -1.010376 -14.705078 7
-0.041954 -1.049316 -14.713867 7
-0.048411999 -1.0905761 -14.757812 7
-0.055698 -1.1324461 -14.806641 7
-0.050167002 -1.167969 -14.763672 7
-0.048645001 -1.205322 -14.749023 7
-0.048714001 -1.243652 -14.74707 7
-0.069580004 -1.293823 -14.893555 7
-0.063267 -1.328735 -14.84375 7
-0.064938001 -1.3681639 -14.852539 7
-0.061016001 -1.404175 -14.821289 7
-0.092280999 -1.462769 -15.041992 7
-0.079558998 -1.4931639 -14.946289 7
-0.079627998 -1.53186 -14.942383 7
-0.076514997 -1.568359 -14.916016 7
-0.301094 -4.5273442 -15.994141 7
-0.29719499 -4.5612788 -15.955078 7
-0.29167199 -4.592041 -15.904297 7
-0.28615999 -4.6225591 -15.854492 7
-0.28786099 -4.6663818 -15.855469 7
-0.29759201 -4.725708 -15.911133 7
-0.30250499 -4.7758789 -15.933594 7
-0.077956997 -1.3062741 -14.120117 7
-0.067088999 -1.33667 -14.041992 7
-0.068843998 -1.3742681 -14.050781 7
-0.064709 -1.408203 -14.018555 7
-0.079925999 -1.454468 -14.119141 7
-0.087577999 -1.4962161 -14.166016 7
-0.082611002 -1.529663 -14.12793 7
-0.086891003 -1.569458 -14.152344 7
-0.301186 -4.5710449 -15.038086 7
-0.29622301 -4.6005859 -14.993164 7
-0.29464301 -4.63623 -14.97168 7
-0.294727 -4.6749272 -14.959961 7
-0.298199 -4.7202148 -14.97168 7
-0.310112 -4.7817378 -15.038086 7
-0.082053997 4.7357178 -13.351562 7
-0.069424003 4.674438 -13.280273 7
-0.074542999 4.6499019 -13.323242 7
-0.077950001 4.6217041 -13.357422 7
-0.078002997 4.5866699 -13.367188 7
-0.080573998 4.5566411 -13.394531 7
-0.089905001 4.5400391 -13.466797 7
-0.099238999 4.5230708 -13.538086 7
-0.068591997 -1.30481 -13.272461 7
-0.068660997 -1.339722 -13.269531 7
-0.071383998 -1.375977 -13.283203 7
-0.074123003 -1.412231 -13.296875 7
-0.082157001 -1.4523931 -13.344727 7
-0.080448002 -1.486084 -13.330078 7
-0.082286999 -1.522095 -13.338867 7
-0.084132999 -1.55835 -13.345703 7
-0.082432002 -1.592041 -13.331055 7
-0.30477101 -4.532227 -14.181641 7
-0.30752599 -4.573853 -14.1875 7
-0.30141801 -4.5993652 -14.137695 7
-0.294415 -4.6229248 -14.083008 7
-0.297176 -4.6644292 -14.087891 7
-0.29459801 -4.6962891 -14.060547 7
-0.30623999 -4.7550049 -14.121094 7
-0.093650997 4.7564702 -12.608398 7
-0.072375998 4.6789551 -12.488281 7
-0.074192002 4.6496582 -12.509766 7
-0.078677997 4.6256099 -12.547852 7
-0.083157003 4.60144 -12.586914 7
-0.086739004 4.5751948 -12.619141 7
-0.093001999 4.5541992 -12.668945 7
-0.110813 4.5560298 -12.789062 7
-0.117058 4.5345459 -12.838867 7
-0.079173997 -1.281494 -12.634766 7
-0.071823001 -1.310547 -12.585938 7
-0.068168998 -1.341431 -12.55957 7
-0.069168001 -1.375 -12.5625 7
-0.065513998 -1.405884 -12.536133 7
-0.083218001 -1.450073 -12.641602 7
-0.087932996 -1.486328 -12.666992 7
-0.078708999 -1.51355 -12.606445 7
-0.083416 -1.549805 -12.631836 7
-0.076987997 -1.578613 -12.587891 7
-0.293221 -4.505127 -13.306641 7
-0.30447 -4.5603032 -13.361328 7
-0.29897699 -4.585083 -13.318359 7
-0.29254901 -4.6077881 -13.268555 7
-0.29730201 -4.6513672 -13.28418 7
-0.294586 -4.6807861 -13.256836 7
-0.296547 -4.7189941 -13.257812 7
-0.072594002 -1.308594 -11.889648 7
-0.059009999 -1.332031 -11.805664 7
-0.060047001 -1.363892 -11.808594 7
-0.060100999 -1.395264 -11.804688 7
-0.060176998 -1.426392 -11.800781 7
-0.081696004 -1.471802 -11.924805 7
-0.084686004 -1.505127 -11.938477 7
-0.074019998 -1.529541 -11.871094 7
-0.077995002 -1.563599 -11.890625 7
-0.076095998 -1.59375 -11.875977 7
-0.29815701 -4.487793 -12.539062 7
-0.304111 -4.5316162 -12.5625 7
-0.30225399 -4.5610352 -12.540039 7
-0.2994 -4.588623 -12.512695 7
-0.294579 -4.6124272 -12.473633 7
-0.298592 -4.65271 -12.484375 7
-0.29671499 -4.6818848 -12.462891 7
-0.29973599 -4.7203369 -12.467773 7
-0.30765501 -4.768311 -12.500977 7
-0.071383998 -1.309204 -11.28125 7
-0.079596996 -1.343872 -11.323242 7
-0.068447001 -1.36731 -11.256836 7
-0.066471003 -1.395996 -11.242188 7
-0.068568997 -1.427368 -11.250977 7
-0.068630002 -1.457397 -11.246094 7
-0.090111002 -1.501465 -11.362305 7
-0.090186998 -1.531616 -11.358398 7
-0.082084998 -1.5562741 -11.30957 7
-0.084183 -1.587769 -11.316406 7
-0.30432901 -4.6424561 -11.827148 7
-0.304405 -4.6738281 -11.816406 7
-0.301422 -4.6992192 -11.789062 7
-0.301514 -4.7307129 -11.777344 7
-0.311829 -4.7813721 -11.821289 7
-0.068393998 -1.3006589 -10.640625 7
-0.074932002 -1.36145 -10.669922 7
-0.063216999 -1.382935 -10.602539 7
-0.066478997 -1.413452 -10.616211 7
-0.067607999 -1.442749 -10.618164 7
-0.070881002 -1.473145 -10.632812 7
-0.084868997 -1.510986 -10.704102 7
-0.079577997 -1.5361331 -10.671875 7
-0.083976999 -1.596191 -10.6875 7
-0.298298 -4.4952388 -11.123047 7
-0.30804399 -4.542603 -11.161133 7
-0.31241599 -4.5802002 -11.171875 7
-0.309288 -4.6040039 -11.144531 7
-0.301853 -4.619751 -11.095703 7
-0.30515301 -4.655396 -11.101562 7
-0.302021 -4.6790771 -11.074219 7
-0.305325 -4.7146001 -11.079102 7
-0.308624 -4.7503662 -11.083008 7
-0.31085199 -4.7840581 -11.083008 7
-0.095454998 4.7860112 -9.8027344 7
-0.097622 4.763916 -9.8251953 7
-0.084784999 4.7104492 -9.7724609 7
-0.077289999 4.668457 -9.7460938 7
-0.068737 4.624023 -9.7148438 7
-0.067707002 4.595459 -9.7207031 7
-0.073092997 4.579834 -9.7578115 7
-0.069889002 4.5467529 -9.7519531 7
-0.069920003 4.5201421 -9.7636719 7
-0.074238002 4.5021968 -9.7958984 7
-0.086066999 4.4989009 -9.8652344 7
-0.062378 -1.294922 -10.078125 7
-0.066909999 -1.324585 -10.097656 7
-0.066955999 -1.3519289 -10.094727 7
-0.064788997 -1.377686 -10.080078 7
-0.064827003 -1.4050291 -10.077148 7
-0.067130998 -1.4337161 -10.084961 7
-0.063842997 -1.458618 -10.063477 7
-0.085116997 -1.499878 -10.169922 7
-0.082943 -1.525757 -10.154297 7
-0.077412002 -1.549194 -10.12207 7
-0.085285001 -1.582153 -10.158203 7
-0.306591 -4.4838872 -10.553711 7
-0.307785 -4.5141602 -10.547852 7
-0.31138599 -4.6052251 -10.53125 7
-0.309223 -4.629272 -10.509766 7
-0.31153899 -4.6616211 -10.509766 7
-0.31163001 -4.6899409 -10.498047 7
-0.310581 -4.7159419 -10.481445 7
-0.31178701 -4.7463379 -10.475586 7
-0.323082 -4.7957759 -10.517578 7
-0.092193998 4.7747798 -9.2099609 7
-0.087729998 4.7402339 -9.2001953 7
-0.081042998 4.7010498 -9.1796885 7
-0.066497996 4.645874 -9.1220703 7
-0.065413997 4.6184082 -9.1279297 7
-0.069904 4.6022949 -9.1601562 7
-0.071048997 4.5794678 -9.1767578 7
-0.072192997 4.5566411 -9.1923828 7
-0.074459001 4.5358891 -9.2148438 7
-0.076724999 4.5150151 -9.2353516 7
-0.085712001 4.5075679 -9.2880859 7
-0.099182002 4.5085449 -9.3623047 7
-0.070641004 -1.2950439 -9.6142578 7
-0.076526999 -1.324707 -9.6396484 7
-0.081234001 -1.3536381 -9.6591797 7
-0.075451002 -1.376343 -9.6279297 7
-0.072013997 -1.400146 -9.6074219 7
-0.074401997 -1.427734 -9.6152344 7
-0.072121002 -1.452271 -9.6005859 7
-0.078014001 -1.482422 -9.6259766 7
-0.096725002 -1.520874 -9.7138672 7
-0.094443999 -1.5456541 -9.6992188 7
-0.087513 -1.567139 -9.6611328 7
-0.092243001 -1.59668 -9.6806641 7
-0.074424997 -1.317627 -9.1591797 7
-0.074538998 -1.3675539 -9.1513672 7
-0.083095998 -1.397827 -9.1875 7
-0.077072002 -1.419067 -9.15625 7
-0.074753001 -1.467773 -9.1386719 7
-0.085743003 -1.499878 -9.1865234 7
-0.091868997 -1.528931 -9.2119141 7
-0.088329002 -1.576782 -9.1865234 7
-0.061893001 -1.393433 -8.6074219 7
-0.063212998 -1.417847 -8.609375 7
-0.067065999 -1.444214 -8.6230469 7
-0.067126997 -1.4680181 -8.6201172 7
-0.321201 -4.6333008 -8.8320312 7
-0.31363299 -4.643311 -8.7900391 7
-0.31497601 -4.6697998 -8.7841797 7
-0.311234 -4.6868901 -8.7578115 7
-0.31128699 -4.710815 -8.7460938 7
-0.31136301 -4.7349849 -8.7353516 7
-0.31270599 -4.761353 -8.7294922 7
-0.316616 -4.792603 -8.7333984 7
-0.41239899 -6.3851318 -8.3076172 7
-0.082382001 -1.302979 -8.2939453 7
-0.083747998 -1.32666 -8.2958984 7
-0.090405002 -1.3536381 -8.3212891 7
-0.090449996 -1.376587 -8.3183594 7
-0.082572997 -1.394653 -8.28125 7
-0.081298999 -1.416748 -8.2714844 7
-0.083999999 -1.441406 -8.2802734 7
-0.084045 -1.464355 -8.2763672 7
-0.084091 -1.487183 -8.2734385 7
-0.099995002 -1.520752 -8.3378906 7
-0.102688 -1.545532 -8.3457031 7
-0.101429 -1.567627 -8.3359385 7
-0.093533002 -1.585327 -8.296875 7
-0.096225999 -1.6101069 -8.3056641 7
-0.097599 -1.634155 -8.3066406 7
-0.098972 -1.657959 -8.3085938 7
-0.32191801 -4.67627 -8.3085938 7
-0.319332 -4.6943359 -8.2871094 7
-0.31674999 -4.7122798 -8.265625 7
-0.32078901 -4.7425542 -8.2695312 7
-0.319538 -4.763062 -8.2539062 7
-0.32095 -4.7883301 -8.2470703 7
-0.311836 -4.5068359 -7.844727 7
-0.30913499 -4.5238042 -7.8242192 7
-0.30507699 -4.5379639 -7.797852 7
-0.30513 -4.559937 -7.7871089 7
-0.30934101 -4.5891109 -7.7910161 7
-0.31768799 -4.6263428 -7.811523 7
-0.32053399 -4.6531978 -7.8105469 7
-0.31784099 -4.6697998 -7.789062 7
-0.31652799 -4.689209 -7.773438 7
-0.30968499 -4.6977539 -7.7363281 7
-0.30562201 -4.7115479 -7.7099609 7
-0.312576 -4.7463379 -7.7246089 7
-0.311279 -4.7652588 -7.7080078 7
-0.315483 -4.7947998 -7.7119141 7
-0.308121 -4.558105 -7.359375 7
-0.313972 -4.6101069 -7.358398 7
-0.31552899 -4.6542969 -7.3408198 7
-0.308498 -4.6821289 -7.2939448 7
-0.31006199 -4.7260742 -7.2763672 7
-0.31306499 -4.772583 -7.2626948 7
-0.30040401 -4.481689 -6.9248052 7
-0.30046499 -4.5014648 -6.914062 7
-0.294586 -4.5102539 -6.8837891 7
-0.31842801 -4.5733638 -6.953125 7
-0.30215099 -4.5632319 -6.8867192 7
-0.31112301 -4.5991211 -6.90625 7
-0.318634 -4.63269 -6.9199219 7
-0.31869501 -4.6522222 -6.9082031 7
-0.31131399 -4.6580811 -6.8730469 7
-0.31139001 -4.6777339 -6.8623052 7
-0.31145099 -4.6972661 -6.8505859 7
-0.317467 -4.7280269 -6.858398 7
-0.31752801 -4.7476811 -6.8476558 7
-0.31164199 -4.7557368 -6.8164058 7
-0.31766099 -4.7867432 -6.8251948 7
-0.41612601 -6.4150391 -6.1035161 7
-0.41767499 -6.436523 -6.0917969 7
-0.41595101 -6.435791 -5.6044922 7
-0.417568 -6.4562988 -5.59375 7
-0.42534301 -6.492065 -5.5996089 7
-0.42387 -6.5047612 -5.5800781 7
-0.42394599 -6.5213618 -5.5644531 7
-0.42401499 -6.5379639 -5.547852 7
-0.42407599 -6.5541992 -5.532227 7
-0.42876801 -6.582397 -5.5292969 7
-0.43502 -6.6143799 -5.530273 7
-0.436638 -6.634644 -5.5185552 7
-0.44749501 -6.6785889 -5.53125 7
-0.44757101 -6.6949458 -5.515625 7
-0.44764701 -6.7113042 -5.499023 7
-0.097153001 4.797729 -5.4375 7
-0.306339 -4.5914311 -6.0742192 7
-0.31119201 -4.618042 -6.077148 7
-0.30646899 -4.6270752 -6.0517578 7
-0.31132099 -4.6534419 -6.0556641 7
-0.312969 -4.6741939 -6.0488281 7
-0.311436 -4.6888428 -6.0332031 7
-0.30509901 -4.6942139 -6.0029302 7
-0.30675501 -4.7149658 -5.9960942 7
-0.30681601 -4.7324219 -5.985352 7
-0.30687699 -4.7498779 -5.9746089 7
-0.31013101 -4.77356 -5.9726558 7
-0.308586 -4.7879639 -5.9570308 7
-0.071114004 4.4931641 -5.1337891 7
-0.42182201 -6.4267578 -4.609375 7
-0.420219 -6.4371338 -4.5908198 7
-0.416969 -6.4429932 -4.5683589 7
-0.41536701 -6.453125 -4.547852 7
-0.41709101 -6.471313 -4.5371089 7
-0.420486 -6.4936519 -4.5292969 7
-0.42221799 -6.5118408 -4.5175781 7
-0.41729 -6.5135498 -4.4902339 7
-0.43066001 -6.5606689 -4.5048828 7
-0.430729 -6.5748291 -4.4892578 7
-0.31344599 -4.8024902 -5.1660161 7
-0.31178999 -4.8146968 -5.1503911 7
-0.30670199 -4.820312 -5.125977 7
-0.32220101 -4.8657231 -5.1542969 7
-0.32569501 -4.887939 -5.1513672 7
-0.318878 -4.8900151 -5.1220698 7
-0.32581699 -4.9189448 -5.1279302 7
-0.33280599 -4.9633789 -5.1220698 7
-0.41730499 -6.4143071 -4.1035161 7
-0.41909 -6.4317632 -4.0908198 7
-0.41571 -6.4360352 -4.0683589 7
-0.410595 -6.4361572 -4.0429692 7
-0.40722299 -6.4406738 -4.0205078 7
-0.415894 -6.474731 -4.0224609 7
-0.412498 -6.479126 -4 7
-0.41607699 -6.5131841 -3.976562 7
-0.419586 -6.534668 -3.967773 7
-0.423141 -6.568604 -3.9443359 7
-0.424927 -6.5856929 -3.9326169 7
-0.431885 -6.6157231 -3.9316411 7
-0.43711501 -6.641479 -3.925781 7
-0.440685 -6.675293 -3.9013669 7
-0.44592699 -6.7011719 -3.8955081 7
-0.42247 -6.5169678 -3.5029299 7
-0.429672 -6.5463872 -3.5019529 7
-0.42794001 -6.5535889 -3.4814451 7
-0.42266101 -6.5516362 -3.4560549 7
-0.42272201 -6.5632319 -3.4404299 7
-0.422791 -6.574585 -3.4248049 7
-0.42819199 -6.5994868 -3.4189451 7
-0.43893799 -6.637939 -3.4248049 7
-0.442577 -6.6584468 -3.414062 7
-0.444408 -6.674438 -3.402344 7
-0.44804001 -6.6948242 -3.3925779 7
-0.44452301 -6.697144 -3.371094 7
0.056538999 -1.282526 -14.450225 7
-0.03537 -1.615922 -7.3964429 7
-0.020048 -1.546559 -6.1877618 7
-0.252866 -4.7623348 -7.046659 7
0.015097 -1.480406 -5.0270181 7
-0.23210301 -4.7354612 -5.782136 7
-0.059145 -1.436059 -4.287004 7
-0.31300399 -4.7157559 -4.772933 7
-0.041852001 -1.398448 -3.6280999 7
-0.29832301 -4.7071438 -3.9491761 7
-0.418046 -6.4417839 -3.4167631 7
-0.27754501 -4.6690159 -3.1978271 7
-0.011657 -1.284794 -1.6456569 7
-0.019702001 -1.4906501 -1.646379 7
-0.27952701 -4.7071638 0.965123 7
-0.27894899 -4.7884779 1.1283799 7
-0.30765 -4.593534 1.2363141 7
-0.30654299 -4.6634521 1.394104 7
-0.310583 -4.7417169 1.547267 7
-0.32537401 -5.0574389 2.572973 7
-0.33203101 -5.0976019 2.7416151 7
-0.326906 -5.092535 3.43102 7
-0.33461201 -5.1024442 3.60425 7
-0.34035301 -5.0994072 3.77793 7
-0.33883199 -5.0672131 3.948215 7
-0.34430599 -5.0497479 4.1214962 7
-0.33295199 -4.874351 4.6109142 7
-0.299503 -4.7011552 1.969962 7
-0.29381701 -4.728559 2.13289 7
-0.290914 -4.813385 2.613224 7
-0.293971 -4.841012 2.7729499 7
-0.29124099 -4.8502889 3.2582309 7
-0.29190499 -4.8454828 3.419508 7
-0.29795799 -4.8505321 3.581883 7
-0.30199501 -4.843133 3.744278 7
-0.30221 -4.8180089 3.904773 7
-0.309692 -4.807981 4.068799 7
-0.27415699 -4.5047979 2.0374899 7
-0.26811001 -4.5296078 2.192102 7
0.043302 1.150944 -6.7597489 7
0.060892001 1.120101 -4.7604208 7
-0.063955002 4.7423191 -16.007608 7
-0.117608 -1.591064 -11.542533 7
-0.119763 4.5348001 -9.0960293 7
-0.063548997 -1.621718 -7.9005132 7
0.010036 1.268755 -6.9671202 7
-0.041896999 -1.607203 -6.788012 7
-0.310251 -4.6346149 -9.072547 7
-0.109533 4.521966 -5.4362888 7
-0.034694001 1.565701 -6.0529361 7
-0.027448 1.284384 -6.0429621 7
-0.084881 -1.609915 -6.0128722 7
-0.33594599 -4.6829982 -7.243607 7
-0.062362 -1.405234 -5.3943019 7
-0.30036399 -4.759963 -5.9512048 7
-0.00093400001 1.515069 -4.8049388 7
-0.00055400003 1.3563 -4.8535662 7
-0.00073600002 1.19791 -4.9009161 7
0.0038429999 0.98780102 -4.9128299 7
-0.053403001 -1.42974 -4.9291158 7
-0.065419003 -1.627722 -4.9613838 7
0.0056349998 1.511034 -4.4024968 7
0.015071 1.341923 -4.3871469 7
0.0067469999 1.224807 -4.494319 7
0.012704 1.067439 -4.49227 7
-0.042043 -1.436444 -4.5133128 7
-0.26677901 -4.699132 -4.1583319 7
-0.072755001 -1.451732 -4.1886129 7
-0.30043799 -4.7083678 -3.149065 7
-0.29220101 -4.7603669 -2.939702 7
-0.05384 -1.31239 -3.896791 7
-0.063368 -1.455868 -3.894815 7
-0.27767301 -4.8088861 -1.468846 7
-0.038532 -1.304714 -3.6097679 7
-0.052864 -1.4500819 -3.6268661 7
-0.033358 -1.316534 -3.398663 7
-0.046337999 -1.44976 -3.403693 7
-0.044950001 -1.542541 -3.340313 7
-0.020802001 -1.487249 -1.874463 7
-0.025917999 -1.5362639 -1.820142 7
-0.030991999 -1.583343 -1.762991 7
-0.031939998 -1.3783031 -1.8940049 7
-0.042900998 -1.442803 -1.852263 7
-0.034435999 -1.449899 -1.782061 7
-0.025963999 -1.4536099 -1.712497 7
-0.026309 -1.480638 -1.652686 7
-0.019018 -1.295303 -1.849179 7
-0.024970001 -1.342841 -1.8036259 7
-0.027265999 -1.378696 -1.750936 7
-0.031328999 -1.417635 -1.698366 7
-0.029941 -1.438813 -1.638294 7
-0.017185999 -1.329883 -1.664417 7
-0.012126 -1.339205 -1.604524 7
