# .PCD v0.7 - Point Cloud Data file format
VERSION 0.7
FIELDS x y z intensity
SIZE 4 4 4 4
TYPE F F F F
COUNT 1 1 1 1
WIDTH 798
HEIGHT 1
VIEWPOINT 0 0 0 1 0 0 0
POINTS 798
DATA ascii
0.236755 4.532959 -72.967773 7
0.236725 4.1789551 -72.970703 7
0.26447299 4.2866211 -63.818359 7
0.33911899 3.970825 -61.280273 7
0.276573 3.9511721 -63.410156 7
0.194061 3.96106 -66.217773 7
0.31277499 4.2648931 -55.246094 7
0.26483899 4.2357178 -56.704102 7
0.234207 4.1628418 -57.635742 7
0.278694 3.9304199 -56.291016 7
0.249222 3.8518071 -57.1875 7
0.29842401 4.2015381 -49.563477 7
0.24675 4.1920171 -50.966797 7
0.221802 4.119751 -51.646484 7
0.26690701 3.9016111 -50.431641 7
0.23333 3.8443601 -51.345703 7
0.184624 3.808594 -52.603516 7
0.25852999 0.45166001 -50.605469 7
0.17198899 -3.003418 -48.051758 7
0.124962 -3.193115 -49.194336 7
0.154465 -3.265137 -48.458008 7
0.19180299 -3.320801 -47.52832 7
-1.056084 -5.1075439 72.007812 7
-1.142906 -5.072876 73.916992 7
-0.89073199 -2.1464839 68.631836 7
-0.97287798 -2.040405 70.438477 7
-0.954979 -1.866455 70.057617 7
-1.036049 -1.747681 71.838867 7
0.215996 4.085083 -46.727539 7
0.18775199 4.0274658 -47.425781 7
0.23998301 3.80896 -46.152344 7
0.20768701 3.756958 -46.948242 7
0.18229701 3.688843 -47.576172 7
0.31061599 0.264038 -44.861328 7
0.23458099 -0.034545999 -41.827148 7
0.084259003 -3.0618899 -45.361328 7
0.055008002 -3.328613 -45.989258 7
0.101761 -3.36499 -44.936523 7
0.119392 -3.4450679 -44.53125 7
0.14096101 -3.516602 -44.040039 7
-0.977539 -5.15979 64.433594 7
-1.039055 -5.1082759 65.676758 7
-1.113701 -5.0710449 67.180664 7
-1.203568 -5.0493159 68.990234 7
-0.86624098 -2.3830571 62.447266 7
-0.90984303 -2.2705081 63.329102 7
-0.91665602 -2.128418 63.475586 7
-0.80352801 0.50244099 61.322266 7
-0.81672698 0.64733899 61.59082 7
-0.80396998 3.6313479 61.326172 7
0.186234 4.1818848 -42.883789 7
0.158287 4.1335449 -43.510742 7
0.13218699 4.0784912 -44.09668 7
0.104233 4.024292 -44.724609 7
0.111977 3.8999021 -44.558594 7
0.095931999 3.7094729 -44.926758 7
0.193626 0.38415501 -42.749023 7
0.22962999 0.171387 -41.943359 7
0.205505 0.069091998 -42.475586 7
0.211533 -0.056519002 -39.266602 7
0.191223 -0.154541 -39.681641 7
0.21888 -0.248291 -39.107422 7
0.246536 -0.33947799 -38.53418 7
-0.002724 -3.4686279 -43.423828 7
0.036926001 -3.5098879 -42.599609 7
0.060631 -3.573853 -42.100586 7
0.071540996 -3.657593 -41.865234 7
0.071648002 -3.7597661 -41.850586 7
-1.094788 -5.2618408 62.137695 7
-1.127014 -5.168457 62.75 7
-0.75951397 0.45813 56.220703 7
-0.839966 3.5440669 57.701172 7
-0.78268403 3.6081541 56.631836 7
-0.72695899 3.6690669 55.589844 7
0.13945 4.342773 -40.325195 7
0.120537 4.2827148 -40.719727 7
0.090813003 4.2426758 -41.334961 7
0.059074 4.2036128 -41.990234 7
0.035622001 4.1455078 -42.477539 7
0.208832 0.71606398 -39.341797 7
0.228256 0.61328101 -38.94043 7
0.198586 0.52539098 -39.549805 7
0.180199 0.040282998 -39.915039 7
0.215462 -0.31420901 -35.59668 7
0.191971 -0.406616 -36.03418 7
0.21859001 -0.488525 -35.530273 7
0.021645 -3.60498 -38.966797 7
0.033348002 -3.6802981 -38.737305 7
0.048140999 -3.749023 -38.448242 7
-0.63703901 0.52063 49.750977 7
-0.61467701 0.63012701 49.370117 7
-0.628479 0.747437 49.607422 7
-0.69727302 3.6899409 50.692383 7
-0.64219701 3.7342529 49.745117 7
-0.61437201 3.8112791 49.264648 7
0.460419 23.652344 20.771484 7
0.140228 4.4124761 -36.607422 7
0.118004 4.368896 -37.03125 7
0.097305 4.32019 -37.424805 7
0.069137998 4.2850342 -37.958984 7
0.038146999 4.252563 -38.543945 7
0.19722 1.027832 -35.666016 7
0.18675999 0.94458002 -35.861328 7
0.203209 0.84899902 -35.553711 7
0.179939 0.77014202 -35.989258 7
0.146965 0.69238299 -36.604492 7
0.161911 -0.38012701 -33.644531 7
0.182716 -0.458496 -33.282227 7
0.19269601 -0.538086 -33.104492 7
0.17432401 -0.62536597 -33.418945 7
0.188362 -0.70300299 -33.170898 7
-0.025276 -3.75647 -36.598633 7
-0.012932 -3.824707 -36.375 7
-0.63042402 -2.273315 46.076172 7
-0.58900499 0.579956 45.541016 7
-0.56349897 0.67846698 45.135742 7
-0.57154799 0.78234899 45.228516 7
-0.54676098 0.87829602 44.833984 7
-0.63500202 3.7780759 46.164062 7
-0.56967902 3.8981929 45.115234 7
0.39717099 22.004517 20.768555 7
0.398056 22.041504 20.709961 7
0.150658 4.547852 -33.425781 7
0.143829 4.47998 -33.552734 7
0.124466 4.438477 -33.893555 7
0.106468 4.392334 -34.210938 7
0.075286999 4.3721919 -34.755859 7
0.057280999 4.3226318 -35.073242 7
0.189468 0.952393 -32.928711 7
0.16564199 0.88110399 -33.339844 7
0.120461 -0.643188 -31.112305 7
0.148834 -0.71020502 -30.660156 7
0.14759099 -0.786865 -30.675781 7
0.13415501 -0.86889601 -30.884766 7
0.17716999 -0.94921899 -30.443359 7
-0.62149799 -2.284668 42.473633 7
-0.64368403 -2.2047119 42.805664 7
-0.50390601 0.706177 40.873047 7
-0.53680402 0.80957001 41.356445 7
-0.505211 0.89392102 40.892578 7
-0.59883898 3.827759 42.138672 7
-0.54180098 3.8438721 41.297852 7
-0.53192902 4.0189209 41.139648 7
0.32408899 20.18689 20.848633 7
0.32194501 20.258057 20.826172 7
0.130348 4.6687012 -30.768555 7
0.126213 4.60144 -30.841797 7
0.10955 4.5612788 -31.114258 7
0.087990001 4.4519038 -31.47168 7
0.067253001 4.4168701 -31.805664 7
0.044303998 4.3848882 -32.175781 7
0.092491001 4.2080078 -31.425781 7
0.16703001 1.260864 -30.405273 7
0.15582301 1.191895 -30.583008 7
0.180466 1.102295 -30.193359 7
0.154503 1.040405 -30.606445 7
0.143417 -0.686279 -28.844727 7
0.12515301 -0.76464802 -29.111328 7
0.144356 -0.82897902 -28.823242 7
0.154099 -0.89636201 -28.675781 7
0.14713299 -1.042114 -28.769531 7
0.14582101 -1.11438 -28.78418 7
-0.56681103 -2.2814939 39.191406 7
-0.50631702 0.66198701 38.457031 7
-0.47903401 0.74218798 38.081055 7
-0.50817102 0.838135 38.482422 7
-0.47791299 0.91577101 38.06543 7
-0.549721 3.8857419 38.933594 7
-0.52415502 3.9375 38.577148 7
-0.51172602 4.0075679 38.399414 7
-0.53569001 4.1317139 38.719727 7
0.103615 4.6351318 -29.001953 7
0.092887998 4.5861821 -29.168945 7
0.077049002 4.5476069 -29.412109 7
0.058029 4.5145259 -29.699219 7
0.034676 4.4892578 -30.051758 7
0.160118 1.253418 -28.407227 7
0.14537799 1.19104 -28.625977 7
0.123131 1.131714 -28.956055 7
0.147949 1.046753 -28.589844 7
0.094512999 -0.967529 -27.021484 7
0.111946 -1.0263669 -26.780273 7
0.121269 -1.088501 -26.650391 7
0.092032999 -1.171387 -27.041992 7
0.10862 -1.229004 -26.8125 7
-0.46658301 0.68884301 35.368164 7
-0.44958499 0.76428199 35.149414 7
-0.47817999 0.85351598 35.514648 7
-0.45208001 0.92517102 35.181641 7
-0.52773303 3.912231 35.985352 7
-0.499825 3.9533689 35.62207 7
-0.4842 4.0109859 35.415039 7
-0.46766701 4.0665278 35.198242 7
0.089905001 4.7186279 -26.838867 7
0.088554002 4.6542969 -26.867188 7
0.065056004 4.6384282 -27.194336 7
0.041870002 4.5513921 -27.527344 7
0.017921001 4.5324712 -27.861328 7
0.016556 4.4655762 -27.888672 7
0.137398 1.570435 -26.482422 7
0.156509 1.48999 -26.223633 7
0.13380399 1.440186 -26.535156 7
0.15370201 1.360352 -26.24707 7
0.119858 1.316162 -26.711914 7
-0.45572701 0.64160198 33.09082 7
-0.42690301 0.70898402 32.746094 7
-0.424355 0.78234899 32.714844 7
-0.43495199 0.86022902 32.84082 7
-0.411484 0.92627001 32.55957 7
-0.50521898 3.865356 33.527344 7
-0.48761001 3.915894 33.30957 7
-0.46610999 3.959595 33.044922 7
-0.44219199 3.9984131 32.750977 7
-0.451271 4.0869141 32.852539 7
0.139336 15.821533 20.745117 7
0.137108 15.885864 20.730469 7
0.139671 15.912964 20.669922 7
0.137428 15.977173 20.655273 7
0.067985997 4.7674561 -25.175781 7
0.063804999 4.713501 -25.238281 7
0.050514001 4.6791992 -25.416016 7
0.034926999 4.6489258 -25.624023 7
0.010666 4.636353 -25.939453 7
0.001015 4.5914311 -26.071289 7
0.12619799 1.598511 -24.742188 7
0.109192 1.54895 -24.960938 7
0.130592 1.470947 -24.691406 7
0.115417 1.408569 -25.073242 7
0.119347 1.2805181 -25.02832 7
0.036635999 4.788208 -23.575195 7
0.032660998 4.7375488 -23.632812 7
0.026711 4.6906738 -23.712891 7
0.0055240002 4.6763921 -23.970703 7
0.003487 4.6202388 -24.004883 7
0.03241 4.499146 -23.675781 7
0.112274 1.726318 -23.015625 7
0.115158 1.665894 -22.985352 7
0.103645 1.558594 -23.125 7
0.10891 1.4382319 -23.068359 7
0.103409 1.383667 -23.135742 7
0.056297 -1.203613 -22.148438 7
0.070862003 -1.306152 -21.979492 7
0.09832 1.5682369 -21.545898 7
0.107216 1.507202 -21.450195 7
0.092384003 1.463257 -21.617188 7
0.100197 1.403198 -21.533203 7
0.10331 1.346558 -21.501953 7
0.109024 1.288574 -21.44043 7
0.054977 -1.282349 -20.624023 7
0.061638001 -1.330322 -20.550781 7
0.050857998 -1.389282 -20.65918 7
0.041182999 -1.447998 -20.754883 7
0.046714999 -1.49646 -20.693359 7
0.048317 -1.5476069 -20.670898 7
0.032356001 4.862061 -20.300781 7
0.039032001 4.7954102 -20.244141 7
0.032806002 4.7574458 -20.317383 7
0.023201 4.7268071 -20.425781 7
0.106117 1.25769 -19.981445 7
0.103798 1.20813 -20.007812 7
0.091330998 1.16394 -20.138672 7
0.100845 1.107666 -20.041992 7
0.110916 1.051514 -19.94043 7
0.115341 0.99853498 -19.895508 7
0.028976001 -1.268921 -19.542969 7
0.043242998 -1.309814 -19.399414 7
0.046760999 -1.356689 -19.362305 7
0.024513001 -1.420532 -19.574219 7
0.024429001 -1.470215 -19.571289 7
0.029732 -1.516113 -19.514648 7
0.029633 -1.5656739 -19.510742 7
0.078941002 0.90685999 -18.964844 7
0.088454999 0.85461402 -18.873047 7
0.090186998 0.80578601 -18.857422 7
0.080513 0.76086402 -18.952148 7
0.083457999 0.71130401 -18.925781 7
0.10936 0.64465302 -18.822266 7
0.115265 0.59509301 -18.765625 7
0.114601 0.54724097 -18.773438 7
0.109749 0.50060999 -18.821289 7
0.032584999 -1.281494 -18.21582 7
0.040160999 -1.3232419 -18.143555 7
0.048347 -1.364136 -18.064453 7
0.019585 -1.429199 -18.322266 7
0.026512001 -1.471069 -18.254883 7
0.030251 -1.515015 -18.217773 7
0.034630001 -1.558228 -18.172852 7
-0.18149599 -4.4876709 -19.679688 7
-0.17648301 -4.52771 -19.624023 7
-0.172768 -4.57019 -19.580078 7
-0.169037 -4.6123052 -19.535156 7
-0.17234001 -4.668335 -19.551758 7
-0.18843099 -4.7498779 -19.682617 7
0.095794998 0.30261201 -17.55957 7
0.096367002 0.25744599 -17.554688 7
0.093108997 0.21264599 -17.583984 7
0.093039997 0.16748001 -17.584961 7
0.099358 0.121948 -17.526367 7
0.103752 0.076782003 -17.485352 7
0.10498 0.031738002 -17.474609 7
0.075255997 -0.023193 -16.807617 7
0.075180002 -0.066405997 -16.807617 7
0.079163 -0.109253 -16.772461 7
0.079773001 -0.15222199 -16.766602 7
0.080375999 -0.195068 -16.759766 7
0.077591002 -0.238647 -16.783203 7
0.080902003 -0.28125 -16.75293 7
0.027184 -1.300293 -17.15625 7
0.024413999 -1.345947 -17.176758 7
0.021629 -1.391724 -17.196289 7
0.015991 -1.527588 -17.232422 7
-0.193123 -4.5402832 -18.532227 7
-0.191872 -4.5848389 -18.509766 7
-0.18386801 -4.6160889 -18.430664 7
-0.192757 -4.6804199 -18.494141 7
-0.000107 4.7614751 -16.770508 7
0.001877 4.7137451 -16.765625 7
-0.006935 4.6893311 -16.849609 7
-0.011665 4.6558838 -16.900391 7
-0.01709 4.6236572 -16.957031 7
-0.03466 4.6164551 -17.114258 7
-0.046158001 4.5959468 -17.220703 7
-0.017212 4.4925542 -16.988281 7
0.021561 -1.3117681 -16.132812 7
0.021484001 -1.353271 -16.129883 7
0.025002001 -1.392578 -16.097656 7
-0.0051500001 -1.4538569 -16.336914 7
0.0076600001 -1.487183 -16.229492 7
0.0068660001 -1.5294189 -16.232422 7
0.014648 -1.56543 -16.164062 7
-0.206589 -4.5273442 -17.444336 7
-0.200241 -4.5594478 -17.381836 7
-0.19532 -4.5942378 -17.331055 7
-0.19328301 -4.6342769 -17.302734 7
-0.197685 -4.6871338 -17.326172 7
-0.20783199 -4.7513428 -17.393555 7
0.037719999 -0.80139202 -15.073242 7
0.028564001 -0.84399402 -15.140625 7
0.023193 -0.88537598 -15.178711 7
0.032219 -0.92077601 -15.107422 7
0.04039 -0.994995 -15.038086 7
0.030486999 -1.038818 -15.112305 7
0.019058 -1.083496 -15.196289 7
0.025803 -1.119141 -15.141602 7
0.028763 -1.156738 -15.116211 7
0.026404999 -1.197021 -15.128906 7
0.014992 -1.242676 -15.212891 7
0.012581 -1.322754 -15.224609 7
0.010223 -1.363647 -15.238281 7
0.0093839997 -1.40332 -15.241211 7
-0.013382 -1.457886 -15.411133 7
-0.001343 -1.489502 -15.314453 7
-0.00293 -1.5300291 -15.323242 7
-0.002258 -1.569214 -15.313477 7
-0.217125 -4.5484619 -16.416016 7
-0.21039601 -4.5775151 -16.354492 7
-0.208221 -4.6152339 -16.325195 7
-0.208305 -4.657227 -16.314453 7
-0.21524 -4.7125239 -16.354492 7
-0.22367901 -4.7711182 -16.405273 7
0.02816 -0.98193401 -14.214844 7
0.02729 -1.019165 -14.217773 7
0.021637 -1.05896 -14.257812 7
0.0087510003 -1.1025389 -14.34668 7
0.015099 -1.136475 -14.298828 7
0.027008001 -1.167114 -14.207031 7
0.026154 -1.204712 -14.210938 7
0.017264999 -1.246704 -14.271484 7
0.0019990001 -1.292847 -14.37793 7
0.01075 -1.324707 -14.3125 7
0.011475 -1.361572 -14.303711 7
0.012192 -1.398193 -14.293945 7
-0.00067099999 -1.4437259 -14.382812 7
-0.0087590003 -1.486572 -14.4375 7
-0.0032200001 -1.520264 -14.392578 7
-0.0040890002 -1.558105 -14.395508 7
-0.0041499999 -1.5955811 -14.391602 7
-0.216766 -4.5733638 -15.350586 7
-0.216057 -4.6115718 -15.333984 7
-0.212936 -4.6451421 -15.300781 7
-0.209824 -4.6783452 -15.267578 7
-0.214745 -4.7271729 -15.290039 7
-0.029395999 4.7910161 -13.870117 7
-0.0070500001 4.706665 -13.727539 7
-0.0030670001 4.6621089 -13.709961 7
-0.0031049999 4.6262212 -13.719727 7
6.9000002e-05 4.5834961 -13.708984 7
-0.00235 4.5523682 -13.736328 7
-0.015961001 4.5444341 -13.842773 7
-0.026374999 4.529541 -13.924805 7
-0.023209 4.4863281 -13.913086 7
0.0084300004 -1.294189 -13.530273 7
0.006691 -1.330444 -13.538086 7
0.004929 -1.367065 -13.546875 7
0.001511 -1.404541 -13.566406 7
-0.0078119999 -1.446045 -13.626953 7
-0.0045090001 -1.4794919 -13.600586 7
-0.0087890001 -1.517822 -13.625 7
-0.011391 -1.555176 -13.639648 7
-0.0097810002 -1.5896 -13.623047 7
-0.218742 -4.4962158 -14.474609 7
-0.231491 -4.5577388 -14.547852 7
-0.227364 -4.5872798 -14.508789 7
-0.223244 -4.6168208 -14.469727 7
-0.222473 -4.652832 -14.454102 7
-0.221733 -4.6887212 -14.436523 7
-0.22521199 -4.7329102 -14.447266 7
-0.232048 -4.7836909 -14.481445 7
-0.034522999 4.7672119 -13.063477 7
-0.014359 4.6895752 -12.942383 7
-0.01355 4.6538091 -12.947266 7
-0.016930001 4.626709 -12.982422 7
-0.016945001 4.5925288 -12.993164 7
-0.022857999 4.570435 -13.041992 7
-0.024574 4.5394292 -13.0625 7
-0.034690998 4.5255132 -13.139648 7
-0.044792 4.5111079 -13.217773 7
-0.0093989996 -1.306519 -12.890625 7
0.000267 -1.334473 -12.825195 7
-0.0024639999 -1.369995 -12.838867 7
-0.00075499999 -1.4024661 -12.823242 7
-0.0079039996 -1.440918 -12.867188 7
-0.027450999 -1.487793 -12.990234 7
-0.013336 -1.512085 -12.894531 7
-0.013405 -1.545898 -12.890625 7
-0.013474 -1.579834 -12.886719 7
-0.22773699 -4.5004878 -13.671875 7
-0.236702 -4.552856 -13.716797 7
-0.23412301 -4.5834961 -13.689453 7
-0.230667 -4.6123052 -13.65625 7
-0.228981 -4.6445308 -13.633789 7
-0.229057 -4.6801758 -13.623047 7
-0.236267 -4.7296138 -13.655273 7
-0.238129 -4.7687988 -13.65625 7
-0.33877599 -6.3424072 -13.740234 7
-0.34419999 -6.3918462 -13.757812 7
-0.011497 -1.309937 -12.216797 7
-0.01342 -1.343262 -12.225586 7
-0.0051119998 -1.370239 -12.169922 7
-0.0089039998 -1.404785 -12.189453 7
0.00034299999 -1.430908 -12.128906 7
-0.001595 -1.463989 -12.135742 7
-0.013733 -1.504517 -12.208008 7
-0.017517 -1.539185 -12.227539 7
-0.014786 -1.569458 -12.206055 7
-0.22998799 -4.4898682 -12.897461 7
-0.23660301 -4.5360112 -12.925781 7
-0.23304 -4.5966802 -12.881836 7
-0.227623 -4.653564 -12.827148 7
-0.235153 -4.7016602 -12.859375 7
-0.23151401 -4.7281489 -12.827148 7
-0.24092101 -4.7801509 -12.870117 7
-0.002228 -1.300293 -11.479492 7
-0.0062099998 -1.33313 -11.499023 7
-0.0072329999 -1.3642581 -11.501953 7
0.00051099999 -1.3898931 -11.453125 7
-0.001503 -1.421509 -11.460938 7
-0.00057999999 -1.451538 -11.452148 7
-0.013321 -1.490479 -11.523438 7
-0.020233 -1.525635 -11.558594 7
-0.013451 -1.551514 -11.515625 7
-0.013557 -1.612793 -11.508789 7
-0.23259 -4.4989009 -12.134766 7
-0.238701 -4.6060791 -12.134766 7
-0.23593099 -4.6645508 -12.09668 7
-0.23895299 -4.702148 -12.102539 7
-0.23896 -4.7307129 -12.085938 7
-0.25178501 -4.7877202 -12.144531 7
-0.0099560004 -1.304688 -10.94043 7
-0.017151 -1.338257 -10.977539 7
-0.010071 -1.3631589 -10.933594 7
-0.0080869999 -1.390869 -10.918945 7
-0.011208 -1.422119 -10.932617 7
-0.0092240004 -1.449829 -10.917969 7
-0.021523001 -1.487305 -10.983398 7
-0.032806002 -1.524536 -11.042969 7
-0.022667 -1.546509 -10.981445 7
-0.02272 -1.57605 -10.977539 7
-0.250801 -4.6633301 -11.500977 7
-0.25088501 -4.6937261 -11.490234 7
-0.247894 -4.7183838 -11.461914 7
-0.247971 -4.7486572 -11.451172 7
-0.258286 -4.7993159 -11.494141 7
-0.048424002 4.754272 -10.239258 7
-0.027046001 4.6812739 -10.138672 7
-0.019936001 4.6387939 -10.112305 7
-0.017898999 4.6069341 -10.112305 7
-0.017921001 4.5794678 -10.123047 7
-0.016899001 4.5499272 -10.128906 7
-0.019981001 4.5288091 -10.155273 7
-0.0059429999 -1.294312 -10.314453 7
-0.010284 -1.324585 -10.333984 7
-0.014633 -1.354858 -10.352539 7
-0.007187 -1.3781739 -10.310547 7
-0.0040279999 -1.403809 -10.290039 7
-0.0072940001 -1.433472 -10.303711 7
-0.0084149996 -1.4619139 -10.305664 7
-0.022399999 -1.498901 -10.375977 7
-0.02887 -1.531372 -10.407227 7
-0.024658 -1.5562741 -10.379883 7
-0.020424001 -1.581177 -10.353516 7
-0.244247 -4.4855962 -10.826172 7
-0.24862701 -4.522583 -10.837891 7
-0.250595 -4.5523682 -10.833008 7
-0.25927001 -4.5974121 -10.864258 7
-0.25505099 -4.6184082 -10.833008 7
-0.250824 -4.638916 -10.799805 7
-0.251968 -4.6699219 -10.793945 7
-0.249908 -4.6947021 -10.772461 7
-0.24996901 -4.7236328 -10.761719 7
-0.255447 -4.7628169 -10.775391 7
-0.258728 -4.7980962 -10.78125 7
-0.049858 4.7888179 -9.5673828 7
-0.050934002 4.7648931 -9.5839844 7
-0.048804998 4.7342529 -9.5839844 7
-0.024216 4.6560059 -9.4746094 7
-0.018882999 4.618896 -9.4589844 7
-0.018913001 4.5930181 -9.46875 7
-0.019997001 4.5693359 -9.4853516 7
-0.020004001 4.5432129 -9.4960938 7
-0.02108 4.5195308 -9.5126953 7
-0.022156 4.495605 -9.5283203 7
-0.032852001 4.4912109 -9.5927734 7
-0.010506 -1.293335 -9.8212891 7
-0.016159 -1.32312 -9.8457031 7
-0.017318999 -1.3505861 -9.8486328 7
-0.020737 -1.379272 -9.8632812 7
-0.014076 -1.401733 -9.8251953 7
-0.016372999 -1.429688 -9.8320312 7
-0.017548 -1.457031 -9.8339844 7
-0.016479 -1.482788 -9.8261719 7
-0.027725 -1.516968 -9.8789062 7
-0.03672 -1.549927 -9.9199219 7
-0.028937999 -1.571045 -9.8769531 7
-0.027884999 -1.597046 -9.8671885 7
-0.032402001 -1.626953 -9.8857422 7
-0.029099001 -1.651245 -9.8662109 7
-0.24527 -4.4822998 -10.22168 7
-0.260223 -4.6472168 -10.237305 7
-0.25469199 -4.6638179 -10.198242 7
-0.25814101 -4.6981201 -10.203125 7
-0.25820899 -4.7254639 -10.192383 7
-0.25940701 -4.755127 -10.185547 7
-0.263969 -4.7912598 -10.196289 7
-0.047394 4.7747798 -8.9853516 7
-0.048514999 4.7523189 -9.0019531 7
-0.041824002 4.7133789 -8.9814453 7
-0.027336 4.657959 -8.9257812 7
-0.022880999 4.6237788 -8.9150391 7
-0.022880999 4.5993652 -8.9267578 7
-0.027350999 4.5838618 -8.9589844 7
-0.027367 4.5593262 -8.96875 7
-0.025146 4.5297852 -8.96875 7
-0.029610001 4.5140381 -9.0009766 7
-0.038550999 4.5074458 -9.0537109 7
-0.047478002 4.5006099 -9.1074219 7
-0.021072 -1.294189 -9.3808594 7
-0.024628 -1.321655 -9.3945312 7
-0.02935 -1.3499759 -9.4150391 7
-0.024788 -1.398193 -9.3847656 7
-0.023727 -1.448486 -9.3720703 7
-0.021438999 -1.472412 -9.3564453 7
-0.042511001 -1.512085 -9.4550781 7
-0.047217999 -1.5411381 -9.4746094 7
-0.039101001 -1.560913 -9.4316406 7
-0.038695998 -1.396729 -8.9882812 7
-0.035156 -1.443604 -8.9648438 7
-0.035202 -1.4680181 -8.9609385 7
-0.041428 -1.545898 -8.9785156 7
-0.045113001 -1.57312 -8.9921885 7
-0.047600001 -1.599365 -8.9990234 7
-0.268471 -4.7729492 -9.0830078 7
-0.268547 -4.797729 -9.0712891 7
-0.020256 -1.299561 -8.4443359 7
-0.021584 -1.323486 -8.4462891 7
-0.02417 -1.348267 -8.4550781 7
-0.01664 -1.390137 -8.4150391 7
-0.019226 -1.4150389 -8.4228516 7
-0.02314 -1.463989 -8.4326172 7
-0.037200999 -1.520142 -8.4882812 7
-0.046158001 -1.549561 -8.5234385 7
-0.034813002 -1.588379 -8.4658203 7
-0.25833899 -4.5163569 -8.5830078 7
-0.25711101 -4.5377202 -8.5673828 7
-0.267456 -4.6038818 -8.5869141 7
-0.27012599 -4.6560059 -8.5761719 7
-0.26128399 -4.6625981 -8.5283203 7
-0.263962 -4.714478 -8.5166016 7
-0.264038 -4.7380371 -8.5048828 7
-0.26664701 -4.7663569 -8.5039062 7
-0.270538 -4.7972412 -8.5078115 7
-0.26802099 -4.4854741 -8.1523438 7
-0.27073699 -4.512939 -8.1513672 7
-0.27212501 -4.5379639 -8.1464844 7
-0.27352101 -4.5631099 -8.140625 7
-0.27359 -4.5855708 -8.1289062 7
-0.278954 -4.6181641 -8.1386719 7
-0.27902201 -4.640625 -8.1279297 7
-0.285721 -4.6757808 -8.1416016 7
-0.27649701 -4.6806641 -8.0957031 7
-0.27655801 -4.703125 -8.0849609 7
-0.27795401 -4.728271 -8.0791016 7
-0.27801499 -4.7506099 -8.0673828 7
-0.27808401 -4.7729492 -8.0556641 7
-0.27816001 -4.7952881 -8.0439453 7
-0.263046 -4.50354 -7.6289058 7
-0.263107 -4.5250239 -7.6181641 7
-0.26870701 -4.5566411 -7.6269531 7
-0.267387 -4.5753169 -7.6113281 7
-0.26743299 -4.5966802 -7.601562 7
-0.27857199 -4.6387939 -7.6308589 7
-0.27861801 -4.6600342 -7.6201172 7
-0.27039301 -4.665771 -7.578125 7
-0.263565 -4.6738281 -7.5410161 7
-0.26637301 -4.7001948 -7.5410161 7
-0.269196 -4.7268071 -7.5400391 7
-0.26926401 -4.7479248 -7.5283198 7
-0.27208701 -4.774292 -7.5273442 7
-0.27079001 -4.7927251 -7.5107422 7
-0.378746 -6.3192139 -7.0380859 7
-0.385811 -6.3763428 -7.030273 7
-0.383118 -6.3891602 -7.0058589 7
-0.37349701 -6.3847661 -6.9580078 7
-0.372192 -6.4012451 -6.938477 7
-0.37918901 -6.4382319 -6.945312 7
-0.38062999 -6.4614258 -6.9345698 7
-0.38209501 -6.4846191 -6.9238281 7
-0.38494101 -6.5114751 -6.9179692 7
-0.38500199 -6.5311279 -6.9033198 7
-0.39200601 -6.5683589 -6.9091802 7
-0.39621699 -6.5987549 -6.907227 7
-0.40599799 -6.643188 -6.921875 7
-0.41159099 -6.677124 -6.9248052 7
-0.411659 -6.6967769 -6.9091802 7
-0.37369499 -6.4022222 -6.4277339 7
-0.37522101 -6.4243159 -6.4169922 7
-0.37527499 -6.4428711 -6.4013672 7
-0.27046999 -4.696167 -6.6787109 7
-0.27797699 -4.7297359 -6.6923828 7
-0.28101301 -4.7546391 -6.6904302 7
-0.27214801 -4.7564702 -6.6503911 7
-0.27519199 -4.78125 -6.648438 7
-0.1735 -1.915894 10.03418 7
-0.168945 -1.891968 10.021484 7
-0.162872 -1.866699 10.004883 7
-0.159821 -1.843994 9.9970703 7
-0.16433699 -1.827148 10.018555 7
-0.16433001 -1.806885 10.023438 7
-0.15673099 -1.780762 9.9990234 7
-0.15974399 -1.762573 10.014648 7
-0.159721 -1.742188 10.019531 7
-0.150612 -1.71521 9.9902344 7
-0.149078 -1.6937259 9.9882812 7
-0.14451601 -1.670288 9.9755859 7
-0.152069 -1.655273 10.007812 7
-0.15051299 -1.6337889 10.004883 7
-0.13992301 -1.606323 9.9707031 7
-0.26756299 -4.504272 -6.389648 7
-0.26767001 -4.5410161 -6.3691411 7
-0.27239999 -4.5864258 -6.3613281 7
-0.27246901 -4.6047359 -6.3505859 7
-0.270996 -4.6202388 -6.3349609 7
-0.28186801 -4.677124 -6.3466802 7
-0.27575701 -4.6838379 -6.3164058 7
-0.272751 -4.6962891 -6.2949219 7
-0.27594 -4.7385249 -6.2832031 7
-0.272926 -4.7507319 -6.2617192 7
-0.27143899 -4.7658691 -6.2460942 7
-0.257507 -4.4827881 -5.9472661 7
-0.257561 -4.5 -5.936523 7
-0.26242101 -4.5263672 -5.9394531 7
-0.26567101 -4.549561 -5.938477 7
-0.265724 -4.5670171 -5.9277339 7
-0.273781 -4.5992432 -5.9404302 7
-0.27224699 -4.613647 -5.9248052 7
-0.27230099 -4.630981 -5.914062 7
-0.27555799 -4.6542969 -5.9121089 7
-0.27880099 -4.6776118 -5.9111328 7
-0.27406299 -4.685791 -5.8847661 7
-0.27092701 -4.6968989 -5.8652339 7
-0.27577999 -4.7233891 -5.8681641 7
-0.27583301 -4.7406011 -5.8574219 7
-0.27109501 -4.748291 -5.8310552 7
-0.27433801 -4.771729 -5.8300781 7
-0.27440599 -4.7888179 -5.8173828 7
-0.39726999 -6.4144292 -4.007812 7
-0.39561501 -6.4229741 -3.9892581 7
-0.39567599 -6.4356689 -3.9736331 7
-0.394012 -6.4442139 -3.9550779 7
-0.39407301 -6.456665 -3.9394529 7
-0.388969 -6.4562988 -3.9130859 7
-0.390762 -6.4733891 -3.9013669 7
-0.39425701 -6.4945068 -3.8935549 7
-0.39431801 -6.506958 -3.8779299 7
-0.39609501 -6.5239258 -3.8662109 7
-0.39444 -6.5319819 -3.8466799 7
-0.27388799 -4.6550288 -4.7587891 7
-0.28639999 -4.6931152 -4.7783198 7
-0.29356399 -4.721436 -4.7851558 7
-0.29006201 -4.729248 -4.764648 7
-0.28832999 -4.740356 -4.749023 7
-0.28305101 -4.7446289 -4.7246089 7
-0.28488201 -4.7625728 -4.717773 7
-0.28848299 -4.783813 -4.7148442 7
-0.28498101 -4.7915039 -4.695312 7
-0.41558099 -6.487061 -3.5136721 7
-0.40315199 -6.4675288 -3.4755859 7
-0.40677601 -6.487915 -3.4658201 7
-0.40148899 -6.4858398 -3.441406 7
-0.405121 -6.5063481 -3.4316411 7
-0.39625499 -6.4953609 -3.4003911 7
-0.394539 -6.5021968 -3.3808589 7
-0.39279899 -6.5091548 -3.363281 7
-0.39821601 -6.533813 -3.3574221 7
-0.39647701 -6.5406489 -3.3388669 7
-0.39834601 -6.5562739 -3.3261721 7
-0.400177 -6.572021 -3.3144529 7
-0.40380099 -6.5922852 -3.304688 7
-0.40919501 -6.617065 -3.2988279 7
-0.41460401 -6.6418462 -3.292969 7
-0.425354 -6.6801758 -3.2949221 7
-0.430756 -6.7050781 -3.2900391 7
-0.137814 -1.848823 10.072416 7
0.112829 -1.438844 -13.292905 7
0.12776899 -1.3605779 -10.291943 7
-0.237923 -4.7173958 -9.8155107 7
0.012536 -1.623662 -5.8538871 7
-0.20240401 -4.7044969 -6.5659289 7
-0.34394601 -6.4488831 -6.8032541 7
-0.27760699 -4.6900978 -4.5024838 7
-0.267068 -4.752018 -3.675359 7
-0.15471999 -1.771737 10.22797 7
-0.252166 -4.716589 -2.974051 7
-0.27980801 -4.766232 -1.173926 7
-0.048170999 -1.76072 -0.62593502 7
-0.295697 -4.6581912 0.429151 7
-0.300345 -4.7760859 0.58239001 7
-0.026331 -1.714455 -0.38758501 7
-0.038879 -1.8731689 -0.386751 7
-0.28330401 -4.5809488 0.71984297 7
-0.299117 -4.7198062 0.84835601 7
-0.29523301 -4.7959919 1.018463 7
-0.325259 -4.6029491 1.130653 7
-0.338184 -4.716424 1.268271 7
-0.32460901 -4.7491708 1.448157 7
-0.36864999 -5.0707469 4.3523321 7
-0.361193 -4.9987311 4.5150232 7
-0.34820899 -4.9046068 4.667891 7
-0.30388501 -4.4926839 1.387282 7
-0.30960399 -4.575911 1.531003 7
-0.30787101 -4.7368689 2.001225 7
-0.307661 -4.7789068 2.1607571 7
-0.33316401 -4.9020538 3.961607 7
-0.33683199 -4.8784418 4.1268201 7
-0.32929099 -4.8158121 4.2825642 7
-0.294085 -4.5713191 2.056123 7
-0.29559299 -4.616518 2.20713 7
-0.30125999 -4.7462239 2.9824259 7
-0.29821301 -4.7415948 3.1399641 7
-0.30641401 -4.7635241 3.297122 7
-0.30882099 -4.7624049 3.4550359 7
-0.28345099 -4.5729899 2.9943421 7
-0.28023699 -4.5680861 3.144599 7
-0.29056001 -4.5953679 3.2945459 7
-0.287108 -4.578012 3.4444821 7
-0.016144 4.6520329 -13.530358 7
0.011424 4.5135279 -10.165403 7
0.021923 1.0412689 -5.9814591 7
0.079639003 -0.083369002 -17.06781 7
0.006114 -1.17953 -14.364223 7
-0.29977599 -4.6904831 -14.387873 7
-0.035257999 -1.306355 -8.6311731 7
-0.04772 -1.663298 -8.7745924 7
-0.26504099 -4.671495 -11.488812 7
-0.024414999 -1.634298 -7.3758912 7
-0.244978 -4.6608329 -9.5165634 7
0.019384 1.1823 -6.8573551 7
-0.012671 -1.627617 -6.4370942 7
-0.241474 -4.7047582 -8.1439877 7
0.032632999 1.213305 -5.9786162 7
0.035973001 1.000272 -5.9785371 7
-0.060005002 -1.636011 -5.765378 7
-0.081445001 -1.9080909 -5.8916059 7
-0.28680101 -4.7817669 -6.6229262 7
-0.41544601 -6.4685392 -6.9023819 7
0.0058729998 1.2104419 -5.2339568 7
0.0020330001 1.045064 -5.3081889 7
-0.048154999 -1.630159 -5.2007561 7
-0.070372999 -1.8817821 -5.312922 7
-0.043179002 4.4648519 -2.779669 7
0.015706001 1.232331 -4.7469449 7
0.016361 1.076872 -4.7831469 7
-0.016449001 -1.402568 -4.6351252 7
-0.027625 -1.587472 -4.661818 7
-0.056093 -1.7177809 -3.948525 7
-0.28509101 -4.6399179 -3.062973 7
-0.044845 -1.684788 -3.6527779 7
-0.070423 -1.883426 -3.709059 7
