# .PCD v0.7 - Point Cloud Data file format
VERSION 0.7
FIELDS x y z intensity
SIZE 4 4 4 4
TYPE F F F F
COUNT 1 1 1 1
WIDTH 801
HEIGHT 1
VIEWPOINT 0 0 0 1 0 0 0
POINTS 801
DATA ascii
0.160561 4.2116699 -67.916992 7
0.210838 3.9462891 -66.198242 7
0.143425 3.9150391 -68.515625 7
0.24029499 4.1672359 -57.867188 7
0.21476001 4.0792241 -58.652344 7
0.241028 3.884033 -57.856445 7
0.21682 3.7896731 -58.601562 7
0.25871301 4.1776118 -50.899414 7
0.21058699 4.154541 -52.21582 7
0.181107 4.0871582 -53.025391 7
0.23223899 3.8565669 -51.639648 7
0.19869199 3.794678 -52.558594 7
0.14195301 3.7711179 -54.108398 7
0.24011201 0.44860801 -51.477539 7
0.082184002 -2.9602051 -49.448242 7
0.119934 -3.025269 -48.525391 7
0.063727997 -3.2290039 -49.873047 7
0.099045001 -3.294312 -49.006836 7
0.12834901 -3.365479 -48.286133 7
-0.952492 -5.087769 69.539062 7
-1.025368 -5.040894 71.137695 7
-1.092056 -4.977417 72.602539 7
-1.169479 -4.9224849 74.300781 7
0.223656 4.081665 -46.800781 7
0.19445799 4.026123 -47.527344 7
0.156487 3.9842529 -48.470703 7
0.213898 3.7563479 -47.061523 7
0.148247 3.762207 -48.686523 7
0.27354401 0.380615 -45.006836 7
0.0057219998 -3.235718 -46.375977 7
0.034102999 -3.4165039 -45.729492 7
0.077347003 -3.4567871 -44.769531 7
0.093422003 -3.5388179 -44.40625 7
-0.94199401 -5.2347412 63.569336 7
-0.99723798 -5.1774902 64.683594 7
-1.064491 -5.1340332 66.037109 7
-0.82791102 -2.4866941 61.522461 7
-0.74691802 -2.28125 59.915039 7
-0.86651599 -2.230103 62.310547 7
-0.77185798 0.63903803 60.530273 7
-0.76219898 3.575073 60.304688 7
0.175934 4.2119141 -43.282227 7
0.13457499 4.190186 -44.211914 7
0.120651 4.109375 -44.530273 7
0.083449997 4.0722661 -45.367188 7
0.107147 3.9163821 -44.84668 7
0.102615 3.814697 -44.955078 7
0.074303001 3.754761 -45.59375 7
0.194557 0.37707499 -42.984375 7
0.20859499 0.26965299 -42.670898 7
0.200638 0.16577099 -42.845703 7
0.215446 0.060059 -42.512695 7
0.18946099 -0.051392 -39.165039 7
0.165161 -0.14929201 -39.657227 7
0.194077 -0.243164 -39.064453 7
-0.026718 -3.4547119 -43.323242 7
0.0077439998 -3.5050049 -42.616211 7
0.032387 -3.5682371 -42.105469 7
0.045784 -3.648315 -41.824219 7
-0.69172698 0.45324701 54.844727 7
-0.67803198 0.57727098 54.591797 7
-0.73387903 0.71704102 55.631836 7
-0.74285901 3.6875 55.757812 7
-0.68923199 3.7467041 54.756836 7
-0.60420197 3.7587891 53.173828 7
0.12381 4.285645 -40.832031 7
0.102196 4.229248 -41.28418 7
0.076041996 4.1794429 -41.829102 7
0.049065001 4.1289058 -42.392578 7
0.019797999 4.079834 -43.001953 7
0.158287 0.72912598 -39.814453 7
0.189217 0.62182599 -39.185547 7
0.14825401 0.53649902 -40.016602 7
0.133911 0.14465301 -40.300781 7
0.15965299 0.04541 -39.773438 7
0.122604 -0.130127 -37.231445 7
0.179344 -0.311279 -35.799805 7
0.15145101 -0.405029 -36.3125 7
0.173096 -0.489014 -35.908203 7
0.186859 -0.57348597 -35.650391 7
-0.022583 -3.62854 -39.292969 7
-0.0075759999 -3.699219 -39.00293 7
0.0039670002 -3.774658 -38.779297 7
-0.59096497 0.62768602 48.836914 7
-0.59764898 0.74182099 48.951172 7
-0.56703901 0.844971 48.429688 7
-0.65799701 3.7537839 49.918945 7
-0.616135 3.812012 49.198242 7
-0.58113098 3.8764651 48.595703 7
0.122131 4.3665771 -37.068359 7
0.093162999 4.3352051 -37.620117 7
0.071967997 4.2853999 -38.025391 7
0.052322 4.2305908 -38.402344 7
0.019623 4.1992192 -39.022461 7
0.17968801 0.94470203 -36.166992 7
0.161873 0.863159 -36.50293 7
0.17546099 0.76770002 -36.24707 7
0.15203901 0.68615699 -36.6875 7
0.13605499 -0.37634301 -33.68457 7
0.13696299 -0.459351 -33.666992 7
0.160759 -0.53613299 -33.255859 7
0.135712 -0.62585402 -33.681641 7
-0.617836 -2.25647 45.783203 7
-0.62065101 -2.1533201 45.834961 7
-0.53659099 0.67419398 44.59668 7
-0.530792 0.87707502 44.505859 7
-0.59609199 3.828979 45.455078 7
-0.56211102 3.8856201 44.910156 7
-0.53767401 3.953491 44.515625 7
0.40158799 21.81543 20.788086 7
0.40069601 21.87439 20.748047 7
0.40267199 21.898315 20.677734 7
0.40463999 21.921753 20.606445 7
0.405891 21.953979 20.542969 7
0.110207 4.5594478 -34.22168 7
0.105438 4.4849849 -34.313477 7
0.065575004 4.3977051 -35.019531 7
0.026031001 4.3031011 -35.71875 7
0.13658901 0.89025903 -33.989258 7
0.105957 -0.57922399 -31.483398 7
0.13166 -0.649414 -31.073242 7
0.11454 -0.81018102 -31.338867 7
0.141663 -0.87585402 -30.666016 7
-0.76351899 -5.3404541 44.15918 7
-0.558281 -2.3223879 41.46875 7
-0.58854699 -2.2518311 41.917969 7
-0.61119097 -2.173584 42.255859 7
-0.470406 0.699341 40.292969 7
-0.50018299 0.80041498 40.728516 7
-0.54559302 3.848022 41.285156 7
-0.51200098 3.894165 40.787109 7
-0.49832201 3.9672849 40.579102 7
0.105354 4.660522 -31.291016 7
0.106773 4.5794678 -31.27832 7
0.089461997 4.5393071 -31.561523 7
0.072875999 4.4962158 -31.832031 7
0.048965 4.467041 -32.21875 7
0.028343 4.429565 -32.553711 7
0.052161999 4.3005371 -32.1875 7
0.161957 1.338379 -30.602539 7
0.143867 1.273438 -30.892578 7
0.137161 1.200562 -31 7
0.158066 1.112061 -30.669922 7
0.13443799 1.047974 -31.045898 7
0.126274 0.97460902 -31.177734 7
0.098403998 -0.76318401 -29.208008 7
0.13006601 -0.894409 -28.738281 7
0.111145 -1.046631 -29.007812 7
0.122192 -1.112671 -28.841797 7
-0.467354 0.74218798 37.862305 7
-0.466286 0.91491699 37.847656 7
-0.54094702 3.8712161 38.746094 7
-0.52172101 3.932251 38.475586 7
-0.495285 3.980835 38.106445 7
-0.476051 4.0388179 37.835938 7
0.27430001 18.692871 20.739258 7
0.27282 18.755005 20.711914 7
0.27298 18.800537 20.667969 7
0.274391 18.833984 20.610352 7
0.082336001 4.6134028 -29.385742 7
0.073242001 4.559814 -29.529297 7
0.059036002 4.5162349 -29.749023 7
0.044052001 4.4735112 -29.979492 7
0.013687 4.4613042 -30.43457 7
0.005386 4.4021001 -30.567383 7
0.052559 4.2324219 -29.882812 7
0.124985 1.128296 -29.03418 7
0.099724002 1.0687259 -29.410156 7
0.075759999 -0.91784698 -27.386719 7
0.095702998 -0.97668499 -27.110352 7
0.10672 -1.039185 -26.956055 7
0.078079 -1.121704 -27.344727 7
0.094627 -1.180786 -27.114258 7
0.1035 -1.2431639 -26.989258 7
-0.43050399 0.67980999 34.84668 7
-0.429939 0.75891101 34.839844 7
-0.433487 0.83923298 34.883789 7
-0.416031 0.91259801 34.660156 7
-0.49705499 3.866699 35.542969 7
-0.475952 3.916626 35.266602 7
-0.458031 3.9699709 35.03125 7
-0.43967399 4.0218511 34.790039 7
-0.47190899 4.1517329 35.191406 7
0.207573 17.317993 20.547852 7
0.20774101 17.363281 20.506836 7
0.074676998 4.695435 -27.139648 7
0.059753001 4.6601558 -27.352539 7
0.047401 4.6182861 -27.530273 7
0.03035 4.5855708 -27.771484 7
0.0069499998 4.5654302 -28.100586 7
-0.0067059998 4.523315 -28.294922 7
0.125916 1.577759 -26.706055 7
0.129265 1.508545 -26.663086 7
0.117279 1.450317 -26.828125 7
0.13339201 1.372192 -26.610352 7
0.118431 1.315063 -26.817383 7
0.098343 1.260254 -27.094727 7
0.072327003 -1.111084 -25.365234 7
0.054175999 -1.248535 -25.587891 7
0.079787999 -1.359741 -25.255859 7
-0.42030299 0.71008301 32.62207 7
-0.39487499 0.77648902 32.317383 7
-0.431297 0.86181599 32.751953 7
-0.39807099 0.92407203 32.353516 7
-0.469612 3.8873291 33.041992 7
-0.459259 3.947021 32.911133 7
-0.43435699 3.984009 32.606445 7
-0.41525999 4.028564 32.371094 7
-0.409309 4.0926509 32.292969 7
0.050841998 4.744873 -25.442383 7
0.043533001 4.697144 -25.545898 7
0.031181 4.659668 -25.711914 7
0.016571 4.6263428 -25.90625 7
-0.00031999999 4.5968022 -26.131836 7
-0.014015 4.5596919 -26.31543 7
-0.012688 4.4908452 -26.308594 7
0.105629 1.550415 -25.081055 7
0.098297 1.4925539 -25.177734 7
0.101524 1.408691 -25.025391 7
0.093154997 1.351562 -25.132812 7
0.102737 1.282593 -25.014648 7
0.051261999 -1.220215 -23.696289 7
0.025893999 4.760376 -23.772461 7
0.022918999 4.7067871 -23.818359 7
0.015533 4.6627202 -23.916016 7
-0.006058 4.6481929 -24.178711 7
-0.017364999 4.6109619 -24.322266 7
0.000237 4.5133061 -24.125977 7
0.098480001 1.678467 -23.242188 7
0.097457998 1.620605 -23.257812 7
0.078247003 1.5762939 -23.488281 7
0.078598 1.39856 -23.493164 7
0.035896 -1.203735 -22.206055 7
0.045372002 -1.254028 -22.097656 7
0.048988 -1.307373 -22.053711 7
0.073982 1.585327 -21.868164 7
0.082344003 1.5238039 -21.779297 7
0.073311001 1.419556 -21.884766 7
0.083763003 1.3575439 -21.770508 7
0.038445 -1.280884 -20.646484 7
0.041191 -1.3312989 -20.615234 7
0.026306 -1.445557 -20.760742 7
0.028480999 -1.49646 -20.733398 7
0.026047001 4.7788091 -20.428711 7
0.018715 4.7429199 -20.513672 7
0.0097200004 4.7102051 -20.616211 7
0.001289 4.6759028 -20.713867 7
-0.018944001 4.6660161 -20.929688 7
-0.011124 4.5965581 -20.860352 7
-0.000481 4.5213618 -20.763672 7
0.085648 1.268066 -20.239258 7
0.088425003 1.2149661 -20.212891 7
0.068130001 1.174805 -20.425781 7
0.084960997 1.113892 -20.253906 7
0.093346 1.058228 -20.168945 7
0.096657 1.005249 -20.135742 7
0.020645 -1.312988 -19.493164 7
0.024193 -1.3601069 -19.455078 7
-0.0042880001 -1.4781491 -19.72168 7
0.010696 -1.517578 -19.572266 7
0.019066 -1.561157 -19.487305 7
-0.186813 -4.4980469 -21.041992 7
-0.182182 -4.5948491 -20.975586 7
-0.176247 -4.6361079 -20.907227 7
-0.189629 -4.71521 -21.021484 7
0.067551002 0.95813 -19.115234 7
0.073471002 0.90673798 -19.058594 7
0.071044996 0.85888702 -19.083984 7
0.067413002 0.81140101 -19.121094 7
0.070952997 0.76135302 -19.088867 7
0.084807999 0.65014601 -18.931641 7
0.025673 -1.3218991 -18.160156 7
0.026862999 -1.3675539 -18.145508 7
-0.002716 -1.433105 -18.410156 7
0.010696 -1.470825 -18.28418 7
0.015121 -1.514282 -18.240234 7
-0.000359 -1.5718991 -18.375 7
-0.198837 -4.4927979 -19.720703 7
-0.190567 -4.5267329 -19.635742 7
-0.190018 -4.5751948 -19.619141 7
-0.18882 -4.622437 -19.59668 7
-0.20048501 -4.6949458 -19.6875 7
-0.20828199 -4.760376 -19.745117 7
0.085182004 0.30041501 -17.696289 7
0.083221003 0.25524899 -17.713867 7
0.079346001 0.210205 -17.749023 7
0.081871003 0.164307 -17.726562 7
0.087563001 0.11853 -17.673828 7
0.090691 0.072998002 -17.644531 7
0.091934003 0.027832 -17.633789 7
-0.001709 -1.308472 -17.305664 7
0.0056759999 -1.348022 -17.238281 7
0.011726 -1.388428 -17.183594 7
-0.024994001 -1.456421 -17.493164 7
-0.010117 -1.491089 -17.362305 7
-0.0074769999 -1.533691 -17.334961 7
0.0026400001 -1.5706789 -17.244141 7
-0.21930701 -4.5179439 -18.666992 7
-0.215317 -4.5577388 -18.62207 7
-0.21064 -4.5959468 -18.572266 7
-0.204605 -4.6314702 -18.509766 7
-0.20468099 -4.6785889 -18.499023 7
-0.23673999 -4.78894 -18.75293 7
-0.020988001 4.7674561 -16.981445 7
-0.0095600002 4.6990972 -16.898438 7
-0.018990001 4.675415 -16.987305 7
-0.025734 4.645752 -17.054688 7
-0.029793 4.610352 -17.099609 7
-0.045952 4.5996089 -17.24707 7
-0.060782999 4.5853271 -17.381836 7
-0.044640001 4.5080571 -17.257812 7
0.044716001 -0.67578101 -15.900391 7
0.046103999 -0.716187 -15.886719 7
0.042442001 -0.75842297 -15.914062 7
0.034469999 -0.80236799 -15.977539 7
0.035126001 -0.84314001 -15.969727 7
0.040114999 -0.88232398 -15.926758 7
0.044372998 -0.92138702 -15.888672 7
0.00351 -1.3137209 -16.189453 7
0.007057 -1.353394 -16.157227 7
0.012741 -1.391235 -16.108398 7
-0.007462 -1.445923 -16.265625 7
-0.011841 -1.4906009 -16.296875 7
-0.007584 -1.5294189 -16.259766 7
-0.004776 -1.5693361 -16.232422 7
-0.221031 -4.4862061 -17.482422 7
-0.227608 -4.5430908 -17.522461 7
-0.219025 -4.5716548 -17.444336 7
-0.215508 -4.6091309 -17.404297 7
-0.211266 -4.6452641 -17.359375 7
-0.211357 -4.6896968 -17.348633 7
-0.221527 -4.7540278 -17.416992 7
0.015968001 -0.96044898 -15.149414 7
0.022758 -0.99646002 -15.095703 7
0.021942001 -1.035889 -15.098633 7
0.010483 -1.080566 -15.182617 7
0.0035860001 -1.123535 -15.233398 7
0.011887 -1.158203 -15.166016 7
0.012573 -1.197021 -15.158203 7
0.013275 -1.235962 -15.149414 7
-0.009598 -1.28833 -15.319336 7
-0.003571 -1.324219 -15.269531 7
-0.0036160001 -1.363647 -15.267578 7
-0.0059659998 -1.404785 -15.28125 7
-0.018188 -1.452271 -15.370117 7
-0.017509 -1.491333 -15.360352 7
-0.01757 -1.531128 -15.357422 7
-0.016106 -1.569702 -15.341797 7
-0.236237 -4.5201421 -16.492188 7
-0.23326901 -4.5568848 -16.458984 7
-0.227249 -4.5875239 -16.404297 7
-0.223526 -4.622437 -16.363281 7
-0.225128 -4.6672359 -16.363281 7
-0.228249 -4.7154541 -16.375 7
-0.234428 -4.7695308 -16.410156 7
-0.002022 -1.2874759 -14.336914 7
-0.010109 -1.32959 -14.391602 7
-0.001328 -1.361328 -14.325195 7
-0.002991 -1.39978 -14.333008 7
-0.00145 -1.435791 -14.318359 7
-0.024017001 -1.4881589 -14.476562 7
-0.018463001 -1.5218509 -14.431641 7
-0.018509001 -1.559448 -14.428711 7
-0.014557 -1.593872 -14.396484 7
-0.22611199 -4.4912109 -15.37207 7
-0.238258 -4.5534668 -15.445312 7
-0.23512299 -4.5875239 -15.413086 7
-0.22957601 -4.616333 -15.362305 7
-0.227226 -4.6513672 -15.333984 7
-0.223259 -4.683228 -15.295898 7
-0.22657 -4.729126 -15.306641 7
-0.23793 -4.790894 -15.373047 7
-0.017371999 4.69519 -13.822266 7
-0.011803 4.6472168 -13.794922 7
-0.011795 4.6109619 -13.805664 7
-0.013405 4.5782471 -13.827148 7
-0.022194 4.559937 -13.900391 7
-0.037369002 4.554565 -14.016602 7
-0.034187 4.5114751 -14.004883 7
-0.0087430002 -1.297241 -13.586914 7
-0.006271 -1.331177 -13.56543 7
-0.0080180001 -1.367676 -13.574219 7
-0.0097580003 -1.404175 -13.583008 7
-0.019104 -1.4456789 -13.642578 7
-0.020012001 -1.481812 -13.645508 7
-0.020081 -1.517334 -13.640625 7
-0.022667 -1.554932 -13.655273 7
-0.025269 -1.592285 -13.667969 7
-0.22985099 -4.4980469 -14.492188 7
-0.23669399 -4.5483398 -14.525391 7
-0.243561 -4.598999 -14.558594 7
-0.235153 -4.6204829 -14.493164 7
-0.234383 -4.6564941 -14.475586 7
-0.236992 -4.6990972 -14.481445 7
-0.23455 -4.7315669 -14.453125 7
-0.242241 -4.7841802 -14.492188 7
-0.044876002 4.7918701 -13.143555 7
-0.023071 4.676147 -13.021484 7
-0.028968999 4.619751 -13.082031 7
-0.031525001 4.5559082 -13.119141 7
-0.034035001 4.5263672 -13.147461 7
-0.055016 4.5341802 -13.296875 7
-0.030448999 -1.312134 -12.970703 7
-0.016266 -1.337646 -12.876953 7
-0.013664 -1.369629 -12.855469 7
-0.017264999 -1.405762 -12.875977 7
-0.011108 -1.435425 -12.830078 7
-0.029839 -1.481689 -12.948242 7
-0.030785 -1.516235 -12.950195 7
-0.02462 -1.5456541 -12.90625 7
-0.030890999 -1.583984 -12.942383 7
-0.238777 -4.5024409 -13.688477 7
-0.24953499 -4.558228 -13.744141 7
-0.24961901 -4.5939941 -13.733398 7
-0.243439 -4.6179199 -13.683594 7
-0.24173 -4.650269 -13.662109 7
-0.241791 -4.6860352 -13.650391 7
-0.24276701 -4.723145 -13.644531 7
-0.24641401 -4.7657471 -13.655273 7
-0.018211 -1.3076169 -12.208984 7
-0.022003001 -1.341797 -12.229492 7
-0.012718 -1.368286 -12.167969 7
-0.017426001 -1.403442 -12.194336 7
-0.01561 -1.434448 -12.179688 7
-0.016602 -1.467285 -12.181641 7
-0.037163001 -1.513306 -12.304688 7
-0.019493001 -1.533325 -12.191406 7
-0.027953999 -1.571533 -12.240234 7
-0.244781 -4.504272 -12.947266 7
-0.25608101 -4.559082 -13.00293 7
-0.25427201 -4.5897222 -12.981445 7
-0.25153399 -4.6184082 -12.954102 7
-0.24133299 -4.63269 -12.881836 7
-0.240463 -4.6646729 -12.865234 7
-0.24146301 -4.7003169 -12.860352 7
-0.241547 -4.7340088 -12.848633 7
-0.251892 -4.7879639 -12.897461 7
-0.016441001 -1.302734 -11.519531 7
-0.025299 -1.338501 -11.568359 7
-0.011642 -1.36084 -11.484375 7
-0.013657 -1.3924561 -11.492188 7
-0.013695 -1.422974 -11.489258 7
-0.016693 -1.455444 -11.50293 7
-0.028503001 -1.493896 -11.567383 7
-0.033447001 -1.527954 -11.592773 7
-0.024666 -1.552368 -11.538086 7
-0.028648 -1.585938 -11.556641 7
-0.249451 -4.5141602 -12.189453 7
-0.25638601 -4.5592041 -12.216797 7
-0.25450099 -4.5878911 -12.195312 7
-0.25260901 -4.6160889 -12.172852 7
-0.25268599 -4.648315 -12.161133 7
-0.24980199 -4.6748052 -12.133789 7
-0.25183901 -4.7105708 -12.133789 7
-0.25287601 -4.7446289 -12.12793 7
-0.259819 -4.7900391 -12.155273 7
-0.37015501 -6.443604 -12.149414 7
-0.018851999 -1.304077 -10.950195 7
-0.020950001 -1.334595 -10.958984 7
-0.030228 -1.369507 -11.006836 7
-0.017982 -1.391113 -10.93457 7
-0.019035 -1.420898 -10.9375 7
-0.019096 -1.450073 -10.933594 7
-0.021187 -1.480835 -10.941406 7
-0.040695 -1.523193 -11.045898 7
-0.037666 -1.550537 -11.026367 7
-0.030540001 -1.574829 -10.982422 7
-0.25947601 -4.667603 -11.516602 7
-0.25851399 -4.696167 -11.5 7
-0.257561 -4.7246089 -11.483398 7
-0.25865901 -4.7570801 -11.477539 7
-0.038925 4.6794429 -10.21582 7
-0.027718 4.6282959 -10.167969 7
-0.029747 4.605103 -10.19043 7
-0.027718 4.5731201 -10.19043 7
-0.026703 4.543457 -10.195312 7
-0.026703 4.5157471 -10.206055 7
-0.015694 -1.294556 -10.330078 7
-0.020042 -1.324829 -10.349609 7
-0.022232 -1.353882 -10.358398 7
-0.023353999 -1.3824461 -10.360352 7
-0.015869001 -1.405396 -10.317383 7
-0.016991001 -1.43396 -10.320312 7
-0.017021 -1.461548 -10.316406 7
-0.021369999 -1.49231 -10.335938 7
-0.038612001 -1.53186 -10.423828 7
-0.037590001 -1.559082 -10.414062 7
-0.031189 -1.582397 -10.375977 7
-0.25257099 -4.4868159 -10.836914 7
-0.25801799 -4.5256348 -10.852539 7
-0.261314 -4.5609131 -10.858398 7
-0.26351899 -4.5938721 -10.858398 7
-0.26467901 -4.6246338 -10.852539 7
-0.257195 -4.6395259 -10.804688 7
-0.26049 -4.674561 -10.808594 7
-0.26055101 -4.7033691 -10.797852 7
-0.26168099 -4.7342529 -10.791992 7
-0.261749 -4.7631841 -10.780273 7
-0.054016002 4.7720952 -9.6015615 7
-0.055091999 4.7481689 -9.6181641 7
-0.036919001 4.6835942 -9.5400391 7
-0.029441999 4.6417241 -9.5146484 7
-0.027298 4.6112061 -9.5146484 7
-0.027298 4.5852051 -9.5253906 7
-0.030517999 4.5656738 -9.5517578 7
-0.029433999 4.537354 -9.5576172 7
-0.029433999 4.5111079 -9.5683594 7
-0.041175999 4.508667 -9.6376953 7
-0.055077001 4.510376 -9.7167969 7
-0.057213001 4.4881592 -9.7382812 7
-0.025390999 -1.296875 -9.8652344 7
-0.024307 -1.322876 -9.8564453 7
-0.028839 -1.352295 -9.8759766 7
-0.031136001 -1.380249 -9.8847656 7
-0.024452001 -1.40271 -9.8466797 7
-0.028976001 -1.432251 -9.8662109 7
-0.027900999 -1.45813 -9.8564453 7
-0.030182 -1.486328 -9.8642578 7
-0.042564001 -1.521484 -9.9238281 7
-0.043724 -1.54895 -9.9257812 7
-0.040413 -1.573364 -9.9052734 7
-0.26385501 -4.670898 -10.219727 7
-0.26729599 -4.704834 -10.224609 7
-0.26960799 -4.7366939 -10.223633 7
-0.27304801 -4.7706299 -10.228516 7
-0.055305 4.7918701 -9.0263672 7
-0.051964 4.7597661 -9.0205078 7
-0.056426998 4.7442632 -9.0537109 7
-0.054191999 4.7147222 -9.0537109 7
-0.037475999 4.6546631 -8.9853516 7
-0.031891 4.6182861 -8.9707031 7
-0.029655 4.5888672 -8.9707031 7
-0.034102999 4.5733638 -9.0029297 7
-0.036331002 4.5531011 -9.0244141 7
-0.035209998 4.526001 -9.0302734 7
-0.037445001 4.5054932 -9.0517578 7
-0.044135999 4.494019 -9.09375 7
-0.053061999 4.486938 -9.1464844 7
-0.031592999 -1.295166 -9.4023438 7
-0.035149001 -1.322754 -9.4160156 7
-0.035186999 -1.348389 -9.4130859 7
-0.041092001 -1.377686 -9.4384766 7
-0.037620999 -1.401001 -9.4179688 7
-0.034148999 -1.424316 -9.3974609 7
-0.03418 -1.4499511 -9.3945312 7
-0.031883001 -1.473999 -9.3789062 7
-0.043632999 -1.507202 -9.4326172 7
-0.058890998 -1.543457 -9.5029297 7
-0.055427998 -1.56665 -9.4814453 7
-0.049605999 -1.588257 -9.4501953 7
-0.041572999 -1.4187011 -8.9736328 7
-0.041648999 -1.467651 -8.9667969 7
-0.053986002 -1.549438 -9.0117188 7
-0.054031 -1.574097 -9.0078115 7
-0.27474201 -4.750854 -9.1035156 7
-0.27240801 -4.7957759 -9.0712891 7
-0.023948999 -1.297119 -8.4375 7
-0.031638999 -1.3249511 -8.4677734 7
-0.030379999 -1.3475339 -8.4599609 7
-0.036789 -1.374878 -8.484375 7
-0.027915999 -1.392578 -8.4423828 7
-0.02668 -1.4150389 -8.4326172 7
-0.029259 -1.440063 -8.4414062 7
-0.028038001 -1.462402 -8.4316406 7
-0.033172999 -1.489136 -8.4501953 7
-0.049773999 -1.523682 -8.5195312 7
-0.051086001 -1.5480959 -8.5224609 7
-0.046027999 -1.567993 -8.4960938 7
-0.042243998 -1.588501 -8.4755859 7
-0.259514 -4.5097661 -8.5722656 7
-0.271065 -4.554688 -8.609375 7
-0.273682 -4.5831299 -8.6083984 7
-0.27757299 -4.6138921 -8.6132812 7
-0.282722 -4.6472168 -8.6230469 7
-0.27383399 -4.6539311 -8.5751953 7
-0.271332 -4.672852 -8.5537109 7
-0.26884499 -4.6912842 -8.5322266 7
-0.268906 -4.7148442 -8.5205078 7
-0.27407101 -4.7481689 -8.5302734 7
-0.27283499 -4.7692871 -8.5136719 7
-0.041168001 -1.299072 -8.1054688 7
-0.046500999 -1.324707 -8.1259766 7
-0.049201999 -1.348755 -8.1337891 7
-0.047905002 -1.370483 -8.125 7
-0.051918 -1.3955081 -8.1386719 7
-0.041343998 -1.411377 -8.0898438 7
-0.041389 -1.4337161 -8.0859385 7
-0.042755 -1.457153 -8.0888672 7
-0.045433 -1.4812011 -8.0966797 7
-0.049454 -1.50647 -8.1103516 7
-0.062758997 -1.537964 -8.1630859 7
-0.066788003 -1.563354 -8.1748047 7
-0.057533 -1.57959 -8.1318359 7
-0.27409399 -4.4884028 -8.1601562 7
-0.27678701 -4.5157471 -8.1601562 7
-0.28083801 -4.5457759 -8.1660156 7
-0.280891 -4.568481 -8.1552734 7
-0.28228 -4.5935059 -8.1484385 7
-0.29029101 -4.6308589 -8.1689453 7
-0.29035199 -4.653687 -8.1572266 7
-0.29172501 -4.6787109 -8.1523438 7
-0.28514099 -4.6885991 -8.1152344 7
-0.282547 -4.7061772 -8.0947266 7
-0.28259301 -4.7285161 -8.0830078 7
-0.283981 -4.75354 -8.0771484 7
-0.284035 -4.7758789 -8.0654297 7
-0.281441 -4.7932129 -8.0429688 7
-0.398193 -6.4021001 -7.6318359 7
-0.390259 -6.403564 -7.5888672 7
-0.39166301 -6.4282231 -7.578125 7
-0.391716 -6.4494629 -7.563477 7
-0.393105 -6.473999 -7.5527339 7
-0.395836 -6.5019531 -7.545898 7
-0.39190701 -6.513062 -7.516602 7
-0.40129101 -6.5576172 -7.5332031 7
-0.40799701 -6.5955811 -7.5410161 7
-0.41339901 -6.6306152 -7.5439448 7
-0.41479501 -6.6550288 -7.532227 7
-0.42550701 -6.7033691 -7.5527339 7
-0.422905 -6.717773 -7.5283198 7
-0.26756999 -4.5040278 -7.6337891 7
-0.269005 -4.5279541 -7.6289058 7
-0.27321601 -4.5568848 -7.632812 7
-0.274643 -4.580811 -7.6269531 7
-0.281616 -4.6152339 -7.641602 7
-0.27615401 -4.6260991 -7.609375 7
-0.27758801 -4.650146 -7.6025391 7
-0.277641 -4.6715088 -7.5917969 7
-0.27768701 -4.692749 -7.5820308 7
-0.27220899 -4.7032471 -7.5498052 7
-0.27226999 -4.7244868 -7.5380859 7
-0.27784699 -4.7563481 -7.546875 7
-0.277908 -4.7775879 -7.5361328 7
-0.276573 -4.796021 -7.5205078 7
-0.38708499 -6.4094238 -6.9941411 7
-0.38020301 -6.4119868 -6.9570308 7
-0.385811 -6.4456792 -6.9599609 7
-0.39003 -6.4759521 -6.9580078 7
-0.39010599 -6.4954829 -6.9414058 7
-0.38599399 -6.5047612 -6.9130859 7
-0.38883999 -6.5316162 -6.90625 7
-0.393051 -6.5617681 -6.9042969 7
-0.40004 -6.598999 -6.9101558 7
-0.41259 -6.6507568 -6.9355469 7
-0.419579 -6.6882319 -6.9423828 7
-0.42381299 -6.7186279 -6.9394531 7
-0.28343999 -4.7138672 -6.7119141 7
-0.277504 -4.7215581 -6.6826172 7
-0.27906001 -4.7434082 -6.6748052 7
-0.27910599 -4.7625728 -6.664062 7
-0.283638 -4.7902832 -6.6669922 7
-0.396667 -6.4090581 -6.0019531 7
-0.39674401 -6.4265141 -5.9863281 7
-0.38633001 -6.4179692 -5.9414058 7
-0.39086899 -6.4465332 -5.9394531 7
-0.39242601 -6.4676509 -5.9277339 7
-0.398453 -6.5 -5.929688 7
-0.39701101 -6.5135498 -5.9101558 7
-0.39707199 -6.5308838 -5.8945308 7
-0.398628 -6.5517578 -5.882812 7
-0.400177 -6.572876 -5.8720698 7
-0.40770701 -6.6091309 -5.8779302 7
-0.409264 -6.630127 -5.8652339 7
-0.41529801 -6.6625981 -5.8662109 7
-0.42433199 -6.7026372 -5.875 7
-0.419907 -6.708374 -5.8476558 7
-0.26965299 -4.501709 -6.389648 7
-0.28051001 -4.5400391 -6.4121089 7
-0.27592501 -4.5498052 -6.3876948 7
-0.280586 -4.5769038 -6.391602 7
-0.27910599 -4.5925288 -6.375977 7
-0.28070101 -4.6138921 -6.3691411 7
-0.27920499 -4.629272 -6.3535161 7
-0.28698 -4.6621089 -6.3662109 7
-0.28548399 -4.6776118 -6.3505859 7
-0.280884 -4.6871338 -6.3251948 7
-0.27631399 -4.6966548 -6.2998052 7
-0.27790099 -4.717773 -6.2929692 7
-0.27795401 -4.7359619 -6.282227 7
-0.278 -4.7541499 -6.2714839 7
-0.276512 -4.769165 -6.2548828 7
-0.27809101 -4.7904048 -6.2480469 7
-0.391258 -6.4207759 -4.967773 7
-0.39130399 -6.4359131 -4.953125 7
-0.39617199 -6.4631348 -4.9492192 7
-0.38981599 -6.4619141 -4.9179692 7
-0.38986999 -6.476685 -4.9023442 7
-0.39153299 -6.495728 -4.891602 7
-0.388374 -6.502563 -4.8691411 7
-0.393242 -6.5294189 -4.8652339 7
-0.39650699 -6.5523682 -4.8564448 7
-0.40297699 -6.5834961 -4.8564448 7
-0.411057 -6.6187739 -4.860352 7
-0.41271999 -6.6376948 -4.8486328 7
-0.41919699 -6.6689448 -4.8486328 7
-0.424072 -6.6959229 -4.84375 7
-0.424126 -6.7106929 -4.828125 7
-0.39537799 -6.4373779 -4.4628911 7
-0.40042901 -6.463623 -4.4589839 7
-0.397156 -6.4692378 -4.436523 7
-0.39721701 -6.4829102 -4.420898 7
-0.39059401 -6.47998 -4.390625 7
-0.400635 -6.5186772 -4.398438 7
-0.40069601 -6.5324712 -4.3818359 7
-0.402428 -6.5501709 -4.3691411 7
-0.40581501 -6.5722661 -4.3613281 7
-0.410851 -6.5986328 -4.3564448 7
-0.409233 -6.6079102 -4.3378911 7
-0.40762299 -6.61731 -4.3183589 7
-0.420982 -6.664917 -4.3320308 7
-0.42271399 -6.6826172 -4.3193359 7
-0.42610201 -6.7047119 -4.3105469 7
-0.42448401 -6.7138672 -4.2910161 7
-0.278465 -4.6442871 -4.7783198 7
-0.29455599 -4.7038569 -4.795898 7
-0.29104599 -4.7116699 -4.7763672 7
-0.29108399 -4.7263179 -4.765625 7
-0.29291499 -4.7443848 -4.757812 7
-0.28939801 -4.7520752 -4.7382808 7
-0.289444 -4.7663569 -4.726562 7
-0.28949699 -4.7810059 -4.7158198 7
-0.34652799 -4.9605222 6.2989588 7
-0.33473599 -4.8180709 5.7654109 7
-0.332681 -4.7556362 5.0960522 7
0.077166997 -1.528722 -11.038896 7
-0.006825 -1.432371 -8.4629955 7
-0.37429199 -6.3507309 -10.495754 7
0.002533 -1.381111 -7.0596519 7
0.029513 -1.3343641 -5.7686052 7
0.024623999 -1.644659 -4.9006491 7
-0.054067999 -1.588827 -4.213984 7
-0.264754 -4.7266698 -4.372323 7
-0.25926501 -4.7286792 -3.6320231 7
-0.245792 -4.6974769 -2.941854 7
-0.239282 -4.6792779 -2.3645511 7
-0.281555 -4.7714219 -1.180057 7
-0.26656401 -4.5478048 -0.91784602 7
-0.27611399 -4.7330709 -0.78120899 7
-0.372123 -5.1009698 6.3874478 7
-0.32883099 -4.9223952 5.9966979 7
-0.342457 -4.847724 6.1928072 7
-0.28992799 -4.6417489 0.44189399 7
-0.291363 -4.7497501 0.60108399 7
-0.27435899 -4.7342181 1.054937 7
-0.32334399 -4.968504 5.1321568 7
-0.30901101 -4.845758 5.2755699 7
-0.306407 -4.5512328 1.161214 7
-0.30870399 -4.6338062 1.312513 7
-0.30748001 -4.7002392 1.471766 7
-0.30951801 -4.7696218 1.628926 7
-0.33493099 -4.7880569 4.8549099 7
-0.344859 -4.7467518 5.026484 7
-0.28827 -4.5171232 1.559379 7
-0.29201901 -4.5881929 1.706539 7
-0.29198 -4.6426611 1.860711 7
-0.30095601 -4.7169218 2.0079091 7
-0.29702401 -4.7478719 2.1697209 7
-0.306739 -4.513494 4.9150419 7
-0.279376 -4.5303459 2.069859 7
-0.28460199 -4.5855479 2.21608 7
-0.29809099 -4.714797 2.7089641 7
-0.30853701 -4.7601061 2.8623741 7
-0.276124 -4.5265641 2.698163 7
-0.01445 4.4904079 -13.636825 7
-0.109374 4.6190228 -17.36264 7
-0.108966 -1.351018 -11.406878 7
-0.279558 -4.707252 -14.00587 7
-0.065076999 -1.384378 -9.077692 7
-0.108232 4.5333772 -8.9037971 7
-0.038476001 -1.4077851 -7.602644 7
-0.016059 1.211363 -7.322124 7
-0.016331 -1.411624 -6.5270958 7
-0.023495 -1.664578 -6.557045 7
-0.28291401 -4.7269478 -8.6772432 7
0.011124 1.220016 -6.2296691 7
0.012455 1.0014009 -6.2522712 7
-0.056109998 -1.426888 -5.7836061 7
-0.065918997 -1.654476 -5.8174138 7
-0.39718601 -6.4025269 -6.7247291 7
-0.0176 1.226815 -5.45399 7
-0.019554 1.047807 -5.5117321 7
-0.040339001 -1.433053 -5.192522 7
-0.051897001 -1.642067 -5.2303071 7
-0.36647701 -6.476552 -5.1086521 7
0.00098699995 1.233168 -4.8761349 7
-0.0072869998 1.093137 -4.984818 7
-0.028706999 -1.4383529 -4.7239151 7
-0.254545 -4.7760329 -4.6501899 7
0.0048019998 1.265794 -4.4971509 7
-0.013457 -1.286985 -4.3476052 7
-0.022585001 -1.450469 -4.358428 7
-0.24139699 -4.607882 -3.9657149 7
-0.24425 -4.7664552 -3.7949071 7
-0.036054 -1.291383 -4.0057569 7
-0.059604 -1.479715 -4.087337 7
-0.29308099 -4.7153411 -3.036458 7
-0.027166 -1.300555 -3.731688 7
-0.046401002 -1.466141 -3.779623 7
-0.25643599 -4.7398758 -0.96754903 7
-0.25428 -4.7389379 -0.76840699 7
-0.041078001 -1.469201 -3.5430961 7
