# .PCD v0.7 - Point Cloud Data file format
VERSION 0.7
FIELDS x y z intensity
SIZE 4 4 4 4
TYPE F F F F
COUNT 1 1 1 1
WIDTH 703
HEIGHT 1
VIEWPOINT 0 0 0 1 0 0 0
POINTS 703
DATA ascii
0.230042 3.7572019 -72.75293 7
0.31207299 3.7445071 -62.441406 7
0.271698 3.6698 -63.824219 7
0.208832 -3.0406489 -57.936523 7
0.173958 -3.236938 -58.96875 7
0.300652 4.0379639 -55.794922 7
0.268814 3.9676509 -56.766602 7
0.318703 3.729248 -55.251953 7
0.280922 3.6672361 -56.405273 7
0.22260299 3.6376951 -58.183594 7
0.126076 -2.9606929 -53.826172 7
0.154449 -3.0487061 -53.053711 7
0.13726801 -3.3336179 -53.489258 7
0.282684 4.00354 -50.071289 7
0.24511699 3.95752 -51.094727 7
0.29954499 3.724854 -49.621094 7
0.26089501 3.6772461 -50.674805 7
0.22912601 3.611938 -51.542969 7
0.155205 3.617676 -53.552734 7
0.040909 -3.041626 -50.729492 7
0.098922998 -3.0792241 -49.30957 7
0.12687699 -3.1560061 -48.619141 7
0.16468 -3.2137451 -47.6875 7
0.104614 -3.428833 -49.132812 7
-1.096954 -4.8249512 72.786133 7
-1.172646 -4.7634282 74.448242 7
-0.97466999 -0.074828997 70.418945 7
0.231995 3.9512939 -46.4375 7
0.20359799 3.8929441 -47.140625 7
0.168808 3.84375 -48.001953 7
0.224167 3.623657 -46.645508 7
0.200752 3.551147 -47.225586 7
0.14767499 3.5271001 -48.535156 7
0.26248199 0.264893 -45.53125 7
0.267609 0.153198 -45.40332 7
0.264099 0.042479999 -45.484375 7
0.249054 -0.033447001 -41.578125 7
0.239006 -0.239014 -41.793945 7
-1.012321 -4.9078369 65.045898 7
-1.131927 -4.9353032 67.443359 7
-0.87020099 -2.09375 62.428711 7
-0.92356098 -1.9831541 63.50293 7
-0.899872 0.37048301 63.125977 7
-0.843346 0.65100098 62.000977 7
-0.83933997 0.793823 61.923828 7
-0.89131898 3.7312009 62.945312 7
-0.824287 3.7928469 61.600586 7
0.19035301 4.0776372 -42.833008 7
0.162994 4.0267329 -43.449219 7
0.113365 4.0162349 -44.55957 7
0.25997201 0.57665998 -41.353516 7
0.24906901 0.47766101 -41.594727 7
0.20017999 0.28015101 -42.676758 7
0.19013201 0.070800997 -42.893555 7
0.14970399 -0.060059 -40.174805 7
0.186272 -0.15564001 -39.425781 7
0.20102701 -0.250366 -39.121094 7
0.18914799 -0.34814501 -39.359375 7
0.217392 -0.43835399 -38.780273 7
-1.050667 -5.0393071 61.231445 7
-1.083878 -4.9482422 61.860352 7
-1.170357 -4.932251 63.476562 7
-0.858109 0.60974097 57.999023 7
-0.74695599 0.71667498 55.933594 7
-0.78512597 0.85705602 56.645508 7
-0.82316601 3.7883301 57.31543 7
-0.77117199 3.853394 56.34375 7
0.54078698 26.12793 19.787109 7
0.156746 4.2186279 -40.029297 7
0.12938701 4.175415 -40.598633 7
0.098609999 4.136353 -41.236328 7
0.068389997 4.0932622 -41.863281 7
0.033348002 4.0561519 -42.589844 7
0.211365 0.60998499 -38.930664 7
0.182579 0.52197301 -39.516602 7
0.14893299 0.43225101 -40.201172 7
0.18918601 0.32714799 -39.37793 7
0.167336 -0.40991199 -36.199219 7
0.19770101 -0.491211 -35.630859 7
0.176842 -0.58508301 -36.015625 7
-0.64928401 0.752563 49.874023 7
-0.66312402 0.87182599 50.111328 7
-0.63527697 0.977539 49.634766 7
-0.67594898 3.893188 50.263672 7
-0.64849102 3.970947 49.789062 7
0.195961 4.3883061 -35.569336 7
0.179993 4.3345952 -35.875977 7
0.16122399 4.285645 -36.234375 7
0.131531 4.2573242 -36.795898 7
0.112114 4.205811 -37.165039 7
0.073409997 4.1907959 -37.896484 7
0.043715999 4.1546631 -38.459961 7
0.215927 0.93359399 -35.350586 7
0.199883 0.85302699 -35.651367 7
0.215019 0.75927699 -35.365234 7
0.18837699 0.68078601 -35.864258 7
0.154419 -0.62841803 -33.520508 7
0.18116 -0.70165998 -33.056641 7
0.163368 -0.78991699 -33.358398 7
0.16937301 -0.86950701 -33.250977 7
0.18425 -0.94445801 -32.993164 7
-0.58649403 0.78820801 45.423828 7
-0.60399598 0.898193 45.702148 7
-0.58103901 0.99487299 45.336914 7
-0.67256898 3.9342041 46.706055 7
-0.62466401 3.973877 45.94043 7
-0.59732801 4.0401611 45.5 7
0.154938 4.462769 -33.359375 7
0.145035 4.4012451 -33.537109 7
0.129776 4.3503418 -33.808594 7
0.11483 4.2974849 -34.075195 7
0.085724004 4.2720952 -34.583008 7
0.076508 4.2047119 -34.75 7
0.21300501 1.105347 -32.541016 7
0.211418 0.94458002 -32.569336 7
0.164536 0.80139202 -33.379883 7
0.142067 -0.86645502 -30.770508 7
0.15965299 -1.102661 -30.516602 7
-0.62806702 -2.1903081 42.512695 7
-0.64431798 -2.1048579 42.758789 7
-0.68769097 -2.03772 43.400391 7
-0.560776 0.72094703 41.639648 7
-0.53474402 0.80847198 41.258789 7
-0.54137403 0.905029 41.356445 7
-0.62396997 3.9580081 42.457031 7
-0.56414801 3.969116 41.575195 7
-0.53334802 4.0189209 41.120117 7
0.332436 21.126099 19.745117 7
0.33417499 21.151489 19.679688 7
0.33435801 21.194702 19.628906 7
0.33241999 21.307373 19.550781 7
0.126984 4.606812 -30.819336 7
0.12908199 4.5253911 -30.793945 7
0.115013 4.4790039 -31.025391 7
0.092727996 4.3708501 -31.392578 7
0.068718001 4.342041 -31.780273 7
0.047279 4.3059082 -32.125977 7
0.173637 1.184204 -30.3125 7
0.19418301 1.09729 -29.989258 7
0.177101 1.031372 -30.259766 7
0.150078 0.96899402 -30.6875 7
0.11747 -0.97949201 -29.047852 7
0.138023 -1.0411381 -28.742188 7
0.115662 -1.12439 -29.06543 7
0.121521 -1.192871 -28.975586 7
0.13848899 -1.254395 -28.720703 7
-0.037666 -4.2845459 -30.986328 7
-0.031830002 -4.3493652 -30.888672 7
-0.52922797 0.75732398 38.737305 7
-0.53234899 0.93554699 38.780273 7
-0.60450703 3.9613039 39.647461 7
-0.57469898 4.0089111 39.231445 7
-0.54360998 4.0523682 38.796875 7
-0.524391 4.112061 38.527344 7
0.276878 19.672485 19.836914 7
0.27831301 19.703247 19.77832 7
0.2789 19.74231 19.727539 7
0.27658799 19.811279 19.705078 7
0.27512401 19.871704 19.673828 7
0.27902201 19.875977 19.59082 7
0.27921301 19.919067 19.543945 7
0.107307 4.5605469 -28.942383 7
0.093047999 4.519043 -29.160156 7
0.077225 4.4798579 -29.402344 7
0.059813999 4.442749 -29.666992 7
0.037666 4.414062 -30.001953 7
0.022614 4.369751 -30.231445 7
0.071373001 4.1973882 -29.524414 7
0.148453 1.263184 -28.579102 7
0.166115 1.181519 -28.320312 7
0.13956501 1.125122 -28.713867 7
0.141045 1.052734 -28.693359 7
0.102333 -1.099609 -26.90332 7
0.124634 -1.2874759 -26.584961 7
0.105713 -1.366577 -26.837891 7
0.119522 -1.437378 -26.72168 7
-0.073532 -4.244751 -29.030273 7
-0.084824003 -4.3381348 -29.170898 7
-0.069885001 -4.381104 -28.958984 7
-0.057983 -4.4290771 -28.786133 7
-0.049072001 -4.4822998 -28.652344 7
-0.49303401 0.77636701 35.65332 7
-0.53148699 3.9156489 35.999023 7
-0.54865998 4.0231929 36.209961 7
-0.52483398 4.0700679 35.899414 7
-0.48599201 4.0925288 35.397461 7
0.21701001 18.080078 19.764648 7
0.218536 18.111084 19.708008 7
0.21823899 18.158569 19.669922 7
0.21769699 18.25293 19.591797 7
0.21743 18.300049 19.552734 7
0.101959 4.6306152 -26.664062 7
0.076782003 4.618896 -27.015625 7
0.068191998 4.5695801 -27.141602 7
0.044624001 4.4825439 -27.480469 7
0.022414999 4.4595952 -27.791992 7
0.15248901 1.5612791 -26.251953 7
0.15197 1.495728 -26.261719 7
0.143272 1.369751 -26.385742 7
0.13677201 1.307739 -26.476562 7
0.120903 1.250977 -26.695312 7
0.084679 -1.174805 -25.311523 7
0.078148 -1.241943 -25.391602 7
0.100578 -1.29126 -25.102539 7
0.092483997 -1.484741 -25.19043 7
-0.090744004 -4.264648 -27.189453 7
-0.102837 -4.3553472 -27.329102 7
-0.096496999 -4.410645 -27.238281 7
-0.086037003 -4.45752 -27.094727 7
-0.076468997 -4.5057368 -26.961914 7
-0.079360999 -4.5783691 -26.985352 7
-0.45028701 0.79089397 32.998047 7
-0.47633401 0.95019501 33.308594 7
-0.542099 3.993408 33.928711 7
-0.483055 4.0579829 33.208008 7
-0.46447 4.1047359 32.979492 7
0.151649 16.734619 19.828125 7
0.15612 16.742676 19.75 7
0.153419 16.809814 19.736328 7
0.160255 16.797729 19.635742 7
0.155663 16.880493 19.638672 7
0.155807 16.923584 19.599609 7
0.070656002 4.7033691 -25.12793 7
0.063735999 4.6551509 -25.224609 7
0.049079999 4.623291 -25.419922 7
0.033966001 4.5915532 -25.620117 7
0.012917 4.5714111 -25.894531 7
0.0087430002 4.5150151 -25.958008 7
0.135811 1.59375 -24.605469 7
0.129333 1.536621 -24.69043 7
0.106873 1.4906009 -24.980469 7
0.123901 1.391968 -24.847656 7
0.104568 1.342285 -25.097656 7
0.081367001 -1.3273931 -23.435547 7
0.08326 -1.384766 -23.40918 7
0.053482 -1.463745 -23.755859 7
0.067749001 -1.512939 -23.583008 7
0.071121 -1.569458 -23.538086 7
-0.114494 -4.5057368 -25.342773 7
-0.106674 -4.5531011 -25.238281 7
-0.097374 -4.597168 -25.118164 7
-0.093993999 -4.652832 -25.067383 7
-0.109985 -4.7480469 -25.239258 7
0.10434 1.560303 -23.099609 7
0.119514 1.491089 -22.922852 7
0.118454 1.433838 -22.938477 7
0.112968 1.379395 -23.004883 7
0.122215 1.31543 -22.898438 7
0.055275001 -1.310059 -22.080078 7
0.059967 -1.362427 -22.024414 7
0.061439998 -1.416626 -22.00293 7
0.038605001 -1.487915 -22.25 7
0.047005001 -1.537598 -22.15332 7
0.054855 -1.5875241 -22.061523 7
-0.13191199 -4.5360112 -23.711914 7
-0.124413 -4.581543 -23.619141 7
-0.118675 -4.6291499 -23.544922 7
-0.124077 -4.6989751 -23.59082 7
-0.142754 -4.7962651 -23.78125 7
0.048615001 4.7254639 -21.697266 7
0.040656999 4.6877441 -21.792969 7
0.034836002 4.644897 -21.868164 7
0.030563001 4.5982671 -21.923828 7
0.022102 4.5606689 -22.026367 7
0.021523001 4.5057368 -22.042969 7
0.107185 1.291504 -21.4375 7
0.116585 1.231445 -21.334961 7
0.100708 1.186157 -21.513672 7
0.097488001 1.133301 -21.550781 7
0.115311 1.069458 -21.355469 7
0.122589 1.011475 -21.276367 7
0.046402 -1.2824709 -20.655273 7
0.052544001 -1.330688 -20.588867 7
0.060387 -1.377563 -20.503906 7
0.045609001 -1.439209 -20.651367 7
0.036490999 -1.497681 -20.741211 7
0.044884 -1.543579 -20.650391 7
0.047637999 -1.59375 -20.618164 7
-0.153282 -4.5058589 -22.268555 7
-0.14431 -4.5439448 -22.165039 7
-0.139313 -4.589478 -22.102539 7
-0.136024 -4.6383061 -22.056641 7
-0.147453 -4.7165532 -22.160156 7
-0.16059101 -4.7989502 -22.280273 7
0.095558003 0.95849597 -20.077148 7
0.104477 0.903198 -19.986328 7
0.111725 0.84924299 -19.911133 7
0.117851 0.79589802 -19.849609 7
0.110443 0.74804699 -19.926758 7
0.112061 0.69653302 -19.911133 7
0.118736 0.643677 -19.841797 7
0.039267998 -1.3076169 -19.397461 7
0.032570001 -1.36084 -19.457031 7
0.042709 -1.40332 -19.354492 7
0.043830998 -1.451538 -19.339844 7
0.017295999 -1.519043 -19.59082 7
0.027458001 -1.5612791 -19.489258 7
0.02977 -1.608765 -19.461914 7
-0.178078 -4.5461431 -21.03125 7
-0.17816199 -4.5992432 -21.020508 7
-0.17163099 -4.6390381 -20.945312 7
-0.16629 -4.6810298 -20.883789 7
-0.164589 -4.730103 -20.855469 7
0.099808 0.30761701 -18.873047 7
0.098557003 0.25988799 -18.884766 7
0.097305 0.212036 -18.897461 7
0.103241 0.16369601 -18.839844 7
0.113388 0.115356 -18.741211 7
0.112114 0.067749001 -18.75293 7
0.117455 0.020264 -18.699219 7
0.034340002 -1.322266 -18.164062 7
0.036850002 -1.366943 -18.138672 7
0.041267 -1.410156 -18.09375 7
0.013016 -1.475342 -18.345703 7
0.024475001 -1.513916 -18.238281 7
0.024383999 -1.560181 -18.232422 7
-0.187279 -4.5316162 -19.686523 7
-0.18029 -4.5678711 -19.613281 7
-0.17653701 -4.6098628 -19.568359 7
-0.172142 -4.6505132 -19.517578 7
-0.177376 -4.7103271 -19.551758 7
-0.190292 -4.785645 -19.654297 7
0.016318999 4.7347412 -17.738281 7
0.022636 4.675293 -17.693359 7
0.014328 4.647583 -17.77832 7
0.0053790002 4.620728 -17.869141 7
0.000252 4.5853271 -17.925781 7
-0.011879 4.5644531 -18.042969 7
-0.029114 4.5533452 -18.207031 7
0.011559 -1.3056639 -17.267578 7
0.010132 -1.350464 -17.276367 7
0.016845999 -1.390259 -17.214844 7
0.022179 -1.430542 -17.164062 7
0.0038149999 -1.486816 -17.316406 7
-0.00030499999 -1.534058 -17.348633 7
0.0043560001 -1.574707 -17.303711 7
0.011757 -1.613281 -17.237305 7
-0.198845 -4.4898682 -18.570312 7
-0.19892099 -4.5369868 -18.558594 7
-0.21192899 -4.6090088 -18.65625 7
-0.19842499 -4.6300049 -18.532227 7
-0.195122 -4.6702881 -18.492188 7
-0.193848 -4.7147222 -18.469727 7
-0.19666301 -4.7669678 -18.480469 7
-0.031479001 4.657227 -17.039062 7
-0.050377 4.6523442 -17.208008 7
-0.047049999 4.6009521 -17.191406 7
-0.042374 4.5469971 -17.162109 7
-0.033661 4.4851069 -17.099609 7
0.029335 -0.97363299 -16.081055 7
0.034279 -1.012329 -16.038086 7
0.040695 -1.050293 -15.983398 7
0.043503001 -1.089844 -15.958008 7
0.029091001 -1.138428 -16.071289 7
0.026169 -1.181396 -16.091797 7
0.032554999 -1.218994 -16.036133 7
0.037505999 -1.256958 -15.992188 7
0.030982999 -1.302124 -16.041016 7
0.010818 -1.355713 -16.200195 7
0.016502 -1.393555 -16.150391 7
0.014992 -1.435791 -16.158203 7
0.014214 -1.477905 -16.161133 7
-0.0030670001 -1.531494 -16.296875 7
0.006912 -1.566162 -16.210938 7
-0.19679999 -4.4951172 -17.352539 7
-0.21199 -4.5683589 -17.460938 7
-0.212791 -4.6142578 -17.455078 7
-0.202797 -4.6390381 -17.365234 7
-0.199287 -4.67627 -17.326172 7
-0.19504499 -4.7120361 -17.28125 7
-0.19873001 -4.7634282 -17.298828 7
0.006081 -1.32312 -15.266602 7
0.00070999999 -1.365723 -15.303711 7
0.0089870002 -1.399658 -15.236328 7
0.0081630005 -1.4393311 -15.238281 7
0.0096209999 -1.477661 -15.222656 7
-0.016257999 -1.534912 -15.416992 7
-0.005692 -1.567139 -15.331055 7
-0.0065080002 -1.607178 -15.333984 7
-0.0065609999 -1.646606 -15.330078 7
-0.206505 -4.5157471 -16.330078 7
-0.219513 -4.5822749 -16.414062 7
-0.218086 -4.6213379 -16.391602 7
-0.21205901 -4.6514888 -16.335938 7
-0.21138 -4.6920171 -16.319336 7
-0.210693 -4.7324219 -16.303711 7
-0.213066 -4.7788091 -16.308594 7
-0.028725 4.764771 -14.819336 7
-0.0053480002 4.6760249 -14.657227 7
-0.002357 4.6312261 -14.646484 7
-0.0076830001 4.6038818 -14.697266 7
-0.0054319999 4.5606689 -14.691406 7
-0.0054930001 4.5224609 -14.700195 7
-0.012314 4.4979248 -14.760742 7
-0.001686 -1.291382 -14.404297 7
0.0022740001 -1.3262939 -14.37207 7
0.011047 -1.358032 -14.305664 7
0.010193 -1.395752 -14.307617 7
0.0085300002 -1.433838 -14.31543 7
0.0036470001 -1.473999 -14.34668 7
-0.0052410001 -1.517334 -14.40625 7
-0.00048799999 -1.551147 -14.367188 7
-0.0021510001 -1.589478 -14.375977 7
-0.0046160002 -1.62854 -14.388672 7
-0.0054700002 -1.666382 -14.390625 7
-0.20539901 -4.5006099 -15.28418 7
-0.21350899 -4.5552979 -15.330078 7
-0.221634 -4.610352 -15.375 7
-0.218491 -4.6436772 -15.341797 7
-0.216957 -4.6800542 -15.319336 7
-0.21301299 -4.7116699 -15.280273 7
-0.210693 -4.7460942 -15.251953 7
-0.213982 -4.7918701 -15.262695 7
-0.035744 4.7709961 -13.886719 7
-0.029372999 4.7208252 -13.854492 7
-0.012642 4.6489258 -13.749023 7
-0.0054700002 4.5976558 -13.709961 7
-0.0094990004 4.5697021 -13.748047 7
-0.013519 4.541748 -13.786133 7
-0.017548 4.5137939 -13.824219 7
-0.025551001 4.4936519 -13.890625 7
0.0063629998 -1.292236 -13.548828 7
0.0037769999 -1.3288569 -13.5625 7
-0.0072630001 -1.3712161 -13.633789 7
0.0019680001 -1.400757 -13.567383 7
0.0044709998 -1.434448 -13.547852 7
0.0027010001 -1.4705811 -13.553711 7
-0.0049589998 -1.511108 -13.601562 7
-0.013466 -1.5526119 -13.65625 7
-0.010986 -1.5863039 -13.634766 7
-0.211952 -4.5100098 -14.425781 7
-0.215416 -4.5537109 -14.4375 7
-0.229027 -4.6169429 -14.515625 7
-0.224884 -4.6463618 -14.475586 7
-0.217346 -4.6690669 -14.415039 7
-0.219109 -4.7098389 -14.415039 7
-0.220039 -4.7487788 -14.408203 7
-0.22349501 -4.7927251 -14.419922 7
0.0031280001 -1.2961431 -12.819336 7
-0.0022509999 -1.332886 -12.849609 7
-0.0112 -1.371948 -12.904297 7
-0.00058699999 -1.398926 -12.832031 7
-0.002411 -1.433594 -12.839844 7
-0.0024639999 -1.467285 -12.836914 7
0.00103 -1.498413 -12.810547 7
-0.023887999 -1.549316 -12.966797 7
-0.020400999 -1.580811 -12.94043 7
-0.22003201 -4.5108638 -13.624023 7
-0.23169699 -4.5682368 -13.68457 7
-0.237091 -4.6140141 -13.707031 7
-0.237152 -4.6495361 -13.696289 7
-0.231003 -4.6732178 -13.646484 7
-0.228416 -4.7033691 -13.618164 7
-0.226715 -4.735352 -13.595703 7
-0.22588301 -4.769043 -13.579102 7
-0.002388 -1.4613039 -12.155273 7
-0.0035629999 -1.298462 -11.505859 7
-0.0045850002 -1.3293459 -11.507812 7
-0.009544 -1.362915 -11.532227 7
-0.009598 -1.393311 -11.529297 7
-0.00083199999 -1.417969 -11.474609 7
-0.002838 -1.449707 -11.482422 7
-0.0048449999 -1.481445 -11.491211 7
-0.01078 -1.515747 -11.520508 7
-0.026474001 -1.557373 -11.609375 7
-0.014778 -1.57959 -11.537109 7
-0.2304 -4.4857178 -12.139648 7
-0.23339801 -4.5231929 -12.146484 7
-0.24426299 -4.575562 -12.196289 7
-0.246315 -4.6113281 -12.195312 7
-0.24736799 -4.6452641 -12.189453 7
-0.241531 -4.665894 -12.146484 7
-0.24061599 -4.696167 -12.129883 7
-0.24362899 -4.7336431 -12.134766 7
-0.240761 -4.7598882 -12.105469 7
-0.010765 -1.30249 -10.964844 7
-0.0097810002 -1.330933 -10.956055 7
-0.010849 -1.36084 -10.958984 7
-0.018059 -1.394531 -10.996094 7
-0.01503 -1.421631 -10.975586 7
-0.0099719996 -1.4473881 -10.942383 7
-0.01207 -1.477783 -10.950195 7
-0.012115 -1.50708 -10.947266 7
-0.024429001 -1.544556 -11.011719 7
-0.033691 -1.580444 -11.05957 7
-0.251266 -4.7188721 -11.505859 7
-0.25132799 -4.7495122 -11.495117 7
-0.24831399 -4.7738042 -11.466797 7
-0.25042 -4.8083501 -11.46582 7
-0.259727 -4.8571782 -11.503906 7
-0.046844002 4.780273 -10.179688 7
-0.047882002 4.7547612 -10.195312 7
-0.04789 4.7269292 -10.207031 7
-0.035682999 4.6734619 -10.15332 7
-0.019401999 4.6115718 -10.079102 7
-0.017379999 4.5799561 -10.079102 7
-0.022491001 4.5629878 -10.116211 7
-0.026581001 4.5438228 -10.148438 7
-0.027611 4.518188 -10.164062 7
-0.027611 4.490479 -10.174805 7
-0.030678 4.4688721 -10.202148 7
-0.013779 -1.296387 -10.379883 7
-0.0149 -1.324707 -10.381836 7
-0.019226 -1.355347 -10.402344 7
-0.017136 -1.381714 -10.386719 7
-0.021484001 -1.412231 -10.40625 7
-0.01078 -1.432983 -10.345703 7
-0.014046 -1.462769 -10.360352 7
-0.020546 -1.494751 -10.389648 7
-0.017356999 -1.5205081 -10.370117 7
-0.035659999 -1.560913 -10.461914 7
-0.041083999 -1.592651 -10.487305 7
-0.23863199 -4.4960942 -10.811523 7
-0.239784 -4.526855 -10.804688 7
-0.247375 -4.5699458 -10.833008 7
-0.250664 -4.6048579 -10.836914 7
-0.25826299 -4.6480708 -10.864258 7
-0.25511199 -4.6706538 -10.836914 7
-0.25086999 -4.6912842 -10.804688 7
-0.251984 -4.7220459 -10.798828 7
-0.25206801 -4.750854 -10.787109 7
-0.25105301 -4.7773442 -10.770508 7
-0.36962101 -6.410645 -10.689453 7
-0.36538699 -6.4283452 -10.654297 7
-0.36329699 -6.4511719 -10.628906 7
-0.36769101 -6.4906011 -10.633789 7
-0.36669201 -6.5161128 -10.613281 7
-0.37105599 -6.5556641 -10.618164 7
-0.38514701 -6.6201172 -10.667969 7
-0.39384499 -6.6706538 -10.692383 7
-0.39176899 -6.6937261 -10.666016 7
-0.018089 -1.2956541 -9.8847656 7
-0.017014001 -1.321411 -9.875 7
-0.021545 -1.35083 -9.8955078 7
-0.019416999 -1.429077 -9.8740234 7
-0.022841999 -1.457764 -9.8876953 7
-0.025116 -1.485962 -9.8955078 7
-0.024055 -1.511719 -9.8857422 7
-0.254181 -4.6853032 -10.212891 7
-0.25429499 -4.7401118 -10.19043 7
-0.25661501 -4.7719731 -10.19043 7
-0.36908701 -6.401001 -10.012695 7
-0.36127499 -6.4080811 -9.9619141 7
-0.36022899 -6.4320068 -9.9414062 7
-0.36366999 -6.4674072 -9.9414062 7
-0.365982 -6.4997559 -9.9355469 7
-0.36717999 -6.5294189 -9.9248047 7
-0.37401599 -6.5736079 -9.9394531 7
-0.38870201 -6.638062 -9.9892578 7
-0.39779699 -6.6879878 -10.011719 7
-0.39562199 -6.709229 -9.9863281 7
-0.022812 -1.292725 -9.4169922 7
-0.026374999 -1.320312 -9.4316406 7
-0.026412999 -1.345703 -9.4287109 7
-0.026450999 -1.371338 -9.4257812 7
-0.039375 -1.4050291 -9.484375 7
-0.032379001 -1.426147 -9.4472656 7
-0.026573 -1.447876 -9.4140615 7
-0.030121 -1.475708 -9.4296885 7
-0.028999001 -1.500366 -9.4199219 7
-0.026703 -1.52417 -9.4033203 7
-0.043120999 -1.561157 -9.4804688 7
-0.052536 -1.593384 -9.5214844 7
-0.37605301 -6.4211431 -9.3857422 7
-0.37024701 -6.4317632 -9.3457031 7
-0.37265 -6.4631348 -9.3408203 7
-0.373909 -6.4914551 -9.3300781 7
-0.370453 -6.5075679 -9.2998047 7
-0.37287101 -6.539062 -9.2939453 7
-0.37998199 -6.5822749 -9.3076172 7
-0.391792 -6.637939 -9.3417969 7
-0.39421099 -6.6690669 -9.3349609 7
-0.39663699 -6.700439 -9.3291016 7
-0.036201 -1.368408 -9.0107422 7
-0.037498001 -1.418213 -9.0097656 7
-0.029121 -1.437622 -8.9648438 7
-0.034088001 -1.489746 -8.9804688 7
-0.034125999 -1.514282 -8.9765615 7
-0.034164 -1.538574 -8.9726562 7
-0.037857 -1.5656739 -8.9873047 7
-0.046432 -1.596069 -9.0224609 7
-0.268242 -4.768188 -9.1132812 7
-0.25853699 -4.7738042 -9.0595703 7
-0.377083 -6.4195561 -8.7714844 7
-0.36866799 -6.4460449 -8.7070312 7
-0.379738 -6.4976811 -8.7353516 7
-0.37123901 -6.4996338 -8.6865234 7
-0.37382501 -6.5533452 -8.6650391 7
-0.38001299 -6.5930181 -8.6728516 7
-0.38986999 -6.6418462 -8.6953115 7
-0.39366901 -6.6989751 -8.6796885 7
-0.017341999 -1.295776 -8.4638672 7
-0.017395001 -1.318848 -8.4599609 7
-0.026343999 -1.347656 -8.4960938 7
-0.023841999 -1.3692631 -8.4814453 7
-0.026427999 -1.394165 -8.4892578 7
-0.029015001 -1.419067 -8.4970703 7
-0.017601 -1.434937 -8.4423828 7
-0.018905999 -1.45874 -8.4443359 7
-0.021484001 -1.4836431 -8.453125 7
-0.022797 -1.507812 -8.4550781 7
-0.031746 -1.537354 -8.4902344 7
-0.036873002 -1.564087 -8.5097656 7
-0.040741 -1.59021 -8.5234385 7
-0.245094 -4.4880371 -8.5634766 7
-0.247719 -4.5163569 -8.5625 7
-0.247765 -4.5396729 -8.5527344 7
-0.25547001 -4.5773931 -8.5722656 7
-0.25426501 -4.5985112 -8.5556641 7
-0.25814101 -4.629272 -8.5605469 7
-0.26458699 -4.664917 -8.5751953 7
-0.25824699 -4.6760249 -8.5380859 7
-0.25448599 -4.6921391 -8.5117188 7
-0.25453901 -4.7154541 -8.5009766 7
-0.25204501 -4.7340088 -8.4794922 7
-0.25465399 -4.762207 -8.4785156 7
-0.25600401 -4.7878418 -8.4716797 7
-0.382126 -6.4101558 -7.5898442 7
-0.38085899 -6.427979 -7.570312 7
-0.37426001 -6.432373 -7.532227 7
-0.37432101 -6.4533691 -7.516602 7
-0.37704501 -6.480957 -7.5097661 7
-0.37579301 -6.4986572 -7.4892578 7
-0.378517 -6.5262451 -7.483398 7
-0.37858599 -6.5471191 -7.4667969 7
-0.37998199 -6.5715332 -7.4570308 7
-0.38669601 -6.6094971 -7.4638672 7
-0.397392 -6.6578369 -7.484375 7
-0.40277901 -6.6925049 -7.4863281 7
-0.37046099 -6.4125981 -6.954102 7
-0.37050599 -6.4321289 -6.938477 7
-0.36364701 -6.4342041 -6.9013672 7
-0.365089 -6.4572749 -6.890625 7
-0.372078 -6.4943848 -6.8974609 7
-0.37075001 -6.510498 -6.8779302 7
-0.372208 -6.5334468 -6.8662109 7
-0.37365001 -6.556519 -6.8554692 7
-0.38064599 -6.5936279 -6.8613281 7
-0.393181 -6.6452641 -6.8847661 7
-0.39879599 -6.6789551 -6.8867192 7
-0.40438101 -6.7128911 -6.8886719 7
-0.26109299 -4.6373291 -6.7099609 7
-0.27012599 -4.6925049 -6.7167969 7
-0.26721999 -4.705811 -6.695312 7
-0.27172899 -4.7336431 -6.6992192 7
-0.27179 -4.752563 -6.6875 7
-0.268852 -4.765625 -6.6660161 7
-0.270401 -4.7874761 -6.6591802 7
-0.279419 -4.677979 -4.7988281 7
-0.28483599 -4.7172852 -4.7910161 7
-0.28842899 -4.738647 -4.789062 7
-0.284935 -4.7462158 -4.7675781 7
-0.281425 -4.7537842 -4.7470698 7
-0.28147101 -4.768188 -4.735352 7
-0.281517 -4.7827148 -4.7246089 7
-0.2798 -4.7937012 -4.7080078 7
0.110193 -1.510275 -10.515796 7
-0.39681399 -6.439363 -10.724433 7
-0.212777 -4.8059378 -7.8792372 7
0.013525 -1.716579 -5.8174572 7
-0.34723401 -6.4623618 -6.828227 7
-0.28652799 -4.7914729 -4.5056758 7
-0.27608699 -4.7789941 -3.7254479 7
-0.029929999 -1.6297359 -0.58925098 7
-0.036657002 -1.752473 -0.582542 7
-0.022014 -1.711495 -0.37198699 7
-0.043469999 -1.876994 -0.40312901 7
0.0050030001 -1.419023 -0.19407 7
-0.008959 -1.568262 -0.21098299 7
-0.015736001 -1.679136 -0.206352 7
-0.034534998 -1.835129 -0.227917 7
0.01167 -1.400333 -0.038399 7
-0.002543 -1.543048 -0.056141 7
-0.011008 -1.650099 -0.057821002 7
-0.023597 -1.7947561 -0.058722001 7
-0.047081999 4.604239 -14.191352 7
0.064341001 1.223823 -5.5104318 7
-0.012519 -1.372394 -14.897246 7
-0.018785 4.4862261 -14.713647 7
-0.103629 4.5727482 -17.200266 7
-0.120633 -1.488923 -11.606484 7
-0.28277701 -4.727632 -14.061506 7
-0.067716002 -1.391284 -9.1172142 7
-0.26414099 -4.7800989 -11.44046 7
-0.037448999 -1.404907 -7.5894618 7
-0.24777099 -4.7734742 -9.5114431 7
-0.024162 -1.43464 -6.614687 7
-0.028178001 -1.680568 -6.6089382 7
-0.02476 1.174029 -6.037468 7
-0.066611998 -1.656638 -5.8235068 7
-0.001187 1.229095 -5.2968159 7
-0.001314 1.008283 -5.347393 7
-0.045887001 -1.448817 -5.2369361 7
0.0084899999 1.252167 -4.8047619 7
0.012726 1.085616 -4.8126068 7
-0.046319999 -1.647841 -4.795177 7
-0.257346 -4.7511811 -4.7090859 7
-0.23898099 -4.6968479 -3.821068 7
-0.229517 -4.7660351 -3.6021221 7
-0.025525 -1.733691 -3.975091 7
-0.044606 -1.684818 -3.4391379 7
-0.059140999 -1.835315 -3.4361229 7
-0.037760999 -1.637139 -3.233567 7
