# .PCD v0.7 - Point Cloud Data file format
VERSION 0.7
FIELDS x y z intensity
SIZE 4 4 4 4
TYPE F F F F
COUNT 1 1 1 1
WIDTH 580
HEIGHT 1
VIEWPOINT 0 0 0 1 0 0 0
POINTS 580
DATA ascii
0.230545 3.7753911 -73.270508 7
0.36960599 3.919189 -60.30957 7
0.368729 3.6265869 -60.338867 7
0.30039999 3.6104741 -62.666992 7
0.25075501 3.5488279 -64.357422 7
0.357651 0.249634 -60.599609 7
0.17697901 -3.1156011 -59.304688 7
0.21260799 -3.2012939 -58.216797 7
0.28316501 3.93396 -56.195312 7
0.25869799 3.845459 -56.939453 7
0.29690599 3.632812 -55.78125 7
0.27127099 3.5439451 -56.560547 7
0.199104 3.5340581 -58.753906 7
0.13028701 -3.1081541 -54.041992 7
0.15722699 -3.196533 -53.303711 7
0.26142099 3.9211431 -50.545898 7
0.234276 3.851074 -51.285156 7
0.28359199 3.6308589 -49.951172 7
0.251701 3.5675049 -50.818359 7
0.198494 3.53772 -52.262695 7
-1.054832 -4.7679439 71.833008 7
-1.124161 -4.699707 73.355469 7
-0.93665302 -1.536499 69.492188 7
0.232162 3.9482419 -46.34375 7
0.21841399 3.8613279 -46.686523 7
0.194427 3.7923579 -47.277344 7
0.157639 3.7442629 -48.185547 7
0.20544399 3.540405 -47.015625 7
0.182648 3.464355 -47.577148 7
0.13417099 3.4285891 -48.770508 7
0.25406599 0.26269501 -45.982422 7
0.25992599 0.15014599 -45.836914 7
0.218475 -0.031005999 -42.152344 7
0.222794 -0.23754901 -42.045898 7
0.26155099 -0.334106 -41.179688 7
-0.97880602 -4.8597412 64.34375 7
-1.038116 -4.7990718 65.540039 7
-1.097412 -4.7330322 66.734375 7
-0.83066601 -2.071533 61.608398 7
-0.89841503 -1.97229 62.97168 7
-0.89032 -1.821533 62.817383 7
-0.95246899 -1.7099611 64.066406 7
-0.85170001 0.64624 62.139648 7
-0.84944201 0.78967297 62.097656 7
-0.80304003 0.919312 61.171875 7
-0.90166497 3.7331541 63.126953 7
-0.838943 3.8010249 61.869141 7
0.17333999 4.004272 -43.146484 7
0.12884501 3.9841311 -44.139648 7
0.093612999 3.831543 -44.933594 7
0.1698 -0.25927699 -39.946289 7
0.20224001 -0.35144001 -39.27832 7
0.18130501 -0.45214799 -39.705078 7
0.211739 -0.54113799 -39.077148 7
-1.054436 -4.7684331 61.305664 7
-1.12204 -4.723145 62.570312 7
-0.94132203 -1.996948 59.426758 7
-0.88665801 -1.827148 58.420898 7
-0.84773999 -1.670532 57.706055 7
-0.82867402 -1.5274661 57.359375 7
-0.77206397 0.84765601 56.452148 7
-0.77616102 3.9880371 56.487305 7
0.145309 4.1413569 -40.208008 7
0.120995 4.09021 -40.712891 7
0.081038997 4.0670171 -41.538086 7
0.052147001 4.0192871 -42.133789 7
0.019264 3.9755859 -42.813477 7
0.195786 0.61328101 -39.428711 7
0.20197301 0.514893 -39.300781 7
0.17477401 0.424438 -39.858398 7
0.161064 -0.50598103 -36.474609 7
0.184677 -0.67712402 -36.027344 7
0.187408 -0.76464802 -35.973633 7
-0.91111797 -4.9371338 53.972656 7
-0.64897901 0.74536097 49.854492 7
-0.63034803 0.85461402 49.537109 7
-0.63700098 0.97094703 49.651367 7
-0.69959301 3.923218 50.711914 7
-0.65916401 3.9836431 50.015625 7
-0.62351203 4.047729 49.400391 7
0.47340399 24.647583 19.364258 7
0.47164199 24.718506 19.327148 7
0.472855 24.746338 19.257812 7
0.177696 4.338501 -35.869141 7
0.164474 4.2775879 -36.123047 7
0.143471 4.2314448 -36.523438 7
0.123047 4.1824951 -36.90918 7
0.098595001 4.1395259 -37.37207 7
0.058249999 4.1253662 -38.132812 7
0.228508 0.928711 -35.040039 7
0.203026 0.85290498 -35.515625 7
0.218803 0.75891101 -35.219727 7
0.19833399 0.678711 -35.601562 7
0.169724 0.59924299 -36.133789 7
0.149597 -0.71862799 -33.742188 7
0.170212 -0.79357898 -33.383789 7
0.163681 -0.87853998 -33.492188 7
0.178856 -0.953857 -33.227539 7
-0.59229302 0.678711 45.506836 7
-0.59398699 0.78356898 45.535156 7
-0.56458998 0.88098103 45.112305 7
-0.58171099 0.99096698 45.383789 7
-0.63163 3.982178 46.09082 7
-0.60246301 4.045898 45.623047 7
-0.59054601 4.1330571 45.426758 7
0.40522799 23.111206 19.448242 7
0.40721899 23.130615 19.375 7
0.40849301 23.15918 19.30957 7
0.40762299 23.215454 19.266602 7
0.40782899 23.25769 19.211914 7
0.153427 4.3825679 -33.351562 7
0.13843501 4.3312988 -33.616211 7
0.118378 4.2893071 -33.96875 7
0.099007003 4.2442632 -34.310547 7
0.070175 4.2165532 -34.813477 7
0.208961 1.1081541 -32.545898 7
0.182594 0.95922899 -33.000977 7
0.168045 0.80114698 -33.25 7
0.16167399 -0.95727497 -30.616211 7
0.150787 -1.11438 -30.780273 7
0.16699199 -1.180908 -30.520508 7
-0.039634999 -4.1992192 -33.495117 7
-0.02417 -4.2515869 -33.241211 7
-0.013893 -4.3132319 -33.068359 7
-0.61022198 -2.083252 42.249023 7
-0.62886798 -1.999512 42.529297 7
-0.67626202 -1.9343261 43.228516 7
-0.54431897 0.80541998 41.390625 7
-0.50590497 0.887573 40.829102 7
-0.49845901 1.071655 40.720703 7
-0.60965699 3.9362791 42.283203 7
-0.60194403 4.0222168 42.164062 7
-0.56915998 4.0706792 41.676758 7
-0.53440899 4.1138921 41.163086 7
0.339874 21.472656 19.258789 7
0.34007299 21.514771 19.208008 7
0.12740301 4.4515381 -30.798828 7
0.102989 4.4266362 -31.191406 7
0.085914999 4.384521 -31.467773 7
0.061119001 4.356812 -31.867188 7
0.049461 4.2209468 -32.067383 7
0.179886 1.256348 -30.158203 7
0.16311599 1.191162 -30.422852 7
0.186226 1.1025389 -30.057617 7
0.158989 0.96545398 -30.488281 7
0.107155 -1.0632319 -29.30957 7
0.132416 -1.121948 -28.933594 7
0.13272899 -1.193359 -28.924805 7
0.115631 -1.2755131 -29.171875 7
0.13573501 -1.334717 -28.87207 7
-0.045189001 -4.317627 -31.228516 7
-0.035094999 -4.451416 -31.058594 7
-0.578888 -2.1134031 39.306641 7
-0.60258502 -2.0410161 39.638672 7
-0.53219599 0.75427198 38.807617 7
-0.49712399 0.91955602 38.324219 7
-0.585114 3.932739 39.416016 7
-0.581146 4.0170898 39.354492 7
-0.55385602 4.0666499 38.97168 7
-0.52830499 4.11731 38.614258 7
0.28335601 20.16748 19.254883 7
0.095367 4.5870361 -29.085938 7
0.099982999 4.504272 -29.027344 7
0.078994997 4.4760742 -29.34375 7
0.064681999 4.4326172 -29.5625 7
0.047226001 4.3944092 -29.828125 7
0.020721 4.3734131 -30.225586 7
0.050147999 4.2393799 -29.802734 7
0.147385 1.264282 -28.543945 7
0.16978499 1.17981 -28.213867 7
0.149498 1.120483 -28.514648 7
0.132759 1.057739 -28.761719 7
0.098159999 -1.233032 -26.890625 7
0.124557 -1.283813 -26.526367 7
0.102242 -1.388184 -27.05957 7
0.119133 -1.44458 -26.828125 7
0.098953001 -1.526123 -27.099609 7
-0.071213 -4.2574458 -29.117188 7
-0.082878001 -4.3518071 -29.262695 7
-0.068397999 -4.395874 -29.056641 7
-0.056053001 -4.4432368 -28.878906 7
-0.046303 -4.4949951 -28.734375 7
-0.51976001 3.897949 35.87793 7
-0.55192602 4.0271001 36.279297 7
-0.53359199 4.08252 36.038086 7
-0.50884199 4.126709 35.71582 7
-0.490044 4.178833 35.46875 7
0.096855 4.6420898 -26.709961 7
0.083122 4.605103 -26.905273 7
0.067580998 4.5028081 -27.134766 7
0.032584999 4.507935 -27.618164 7
0.017136 4.4705811 -27.836914 7
0.14128099 1.570312 -26.363281 7
0.149574 1.432007 -26.253906 7
0.134094 1.376465 -26.467773 7
0.13822199 1.307373 -26.412109 7
0.120491 1.184814 -26.657227 7
0.070091002 -1.316406 -25.581055 7
0.092018001 -1.365845 -25.297852 7
0.091949001 -1.428833 -25.293945 7
0.070327997 -1.507324 -25.564453 7
0.087661996 -1.558105 -25.338867 7
-0.085068002 -4.5384521 -27.176758 7
-0.078293003 -4.5919189 -27.079102 7
-0.075172 -4.65271 -27.02832 7
-0.434441 0.93212903 32.831055 7
-0.444397 1.085083 32.948242 7
-0.51000202 4.0219731 33.566406 7
-0.49481201 4.075439 33.376953 7
-0.460556 4.1733398 32.953125 7
0.060570002 4.72644 -25.229492 7
0.061409 4.6607671 -25.230469 7
0.051261999 4.6192632 -25.367188 7
0.039329998 4.580688 -25.52832 7
0.023262 4.550293 -25.739258 7
0.004005 4.5253911 -25.992188 7
0.128952 1.537109 -24.654297 7
0.110558 1.488281 -24.891602 7
0.12889899 1.3898931 -24.862305 7
0.114426 1.336426 -25.052734 7
0.099266 1.2830811 -25.24707 7
0.064048998 -1.3444819 -23.723633 7
0.077293001 -1.394897 -23.5625 7
0.082663998 -1.450073 -23.495117 7
0.05249 -1.530396 -23.84668 7
0.064758003 -1.580811 -23.696289 7
0.070114002 -1.635864 -23.62793 7
-0.108589 -4.5102539 -25.37207 7
-0.11264 -4.581543 -25.407227 7
-0.103844 -4.6268311 -25.291016 7
-0.097023003 -4.6756592 -25.199219 7
-0.093650997 -4.7314448 -25.148438 7
-1.772514 -42.294373 15.063477 7
-1.748978 -41.902649 15.376953 7
-1.722198 -41.581848 15.379883 7
0.108421 15.62439 19.193359 7
0.112175 15.63916 19.125 7
0.114632 1.552979 -22.942383 7
0.107643 1.5 -23.027344 7
0.11834 1.434204 -22.90332 7
0.12907401 1.369019 -22.77832 7
0.10141 1.329102 -23.107422 7
0.059845001 -1.312866 -22.103516 7
0.049743999 -1.374878 -22.210938 7
0.060249001 -1.4237061 -22.091797 7
0.053314 -1.483887 -22.164062 7
0.041106999 -1.548218 -22.293945 7
0.047913 -1.598999 -22.214844 7
-0.138046 -4.5635991 -23.865234 7
-0.133369 -4.613647 -23.803711 7
-0.125008 -4.6561279 -23.700195 7
-0.122978 -4.71106 -23.665039 7
-0.121994 -4.7680659 -23.642578 7
0.016441001 4.7974849 -22.027344 7
0.046836998 4.6746831 -21.707031 7
0.036781002 4.6411128 -21.827148 7
0.029358 4.601562 -21.918945 7
0.019286999 4.5670171 -22.037109 7
-0.001823 4.5549321 -22.27832 7
0.087677002 1.248901 -21.620117 7
0.100723 1.1867681 -21.477539 7
0.110115 1.126953 -21.375 7
0.11528 1.0699461 -21.319336 7
0.106239 1.020142 -21.421875 7
0.110352 0.963745 -21.375977 7
0.057983 -1.280762 -20.605469 7
0.052834 -1.335815 -20.654297 7
0.057845999 -1.384521 -20.597656 7
0.062309001 -1.433472 -20.548828 7
0.043060001 -1.498657 -20.742188 7
0.040183999 -1.5531009 -20.768555 7
0.047455002 -1.599854 -20.688477 7
-0.139107 -4.493042 -22.206055 7
-0.15275601 -4.5750728 -22.332031 7
-0.143242 -4.612061 -22.222656 7
-0.140495 -4.662354 -22.182617 7
-0.138313 -4.7133789 -22.149414 7
-0.14856701 -4.789917 -22.241211 7
0.109734 0.59655797 -19.901367 7
0.104012 0.54711902 -19.961914 7
0.1101 0.49450701 -19.898438 7
0.117897 0.442139 -19.818359 7
0.124557 0.39001501 -19.749023 7
0.13123301 0.33862299 -19.679688 7
0.045028999 -1.30896 -19.40332 7
0.032974001 -1.3656009 -19.515625 7
0.044326998 -1.4074709 -19.402344 7
0.049674999 -1.452881 -19.34668 7
0.015388 -1.526001 -19.673828 7
0.027930999 -1.566406 -19.547852 7
-0.17756701 -4.558105 -21.100586 7
-0.174652 -4.6052251 -21.061523 7
-0.16992199 -4.6488042 -21.004883 7
-0.167603 -4.697021 -20.970703 7
-0.165268 -4.744873 -20.936523 7
0.020203 4.64856 -19.040039 7
0.021919001 4.5961909 -19.03418 7
0.024231 4.5422359 -19.022461 7
0.0068509998 4.529541 -19.198242 7
0.085135996 0.30822799 -19.072266 7
0.083297998 0.26013201 -19.09082 7
0.092262 0.210815 -19.00293 7
0.101181 0.162109 -18.915039 7
0.101738 0.114136 -18.910156 7
0.098693997 0.066161998 -18.939453 7
0.099845998 0.018310999 -18.927734 7
0.086220004 -0.55554199 -17.561523 7
0.086760998 -0.60046399 -17.554688 7
0.030296 -1.375854 -18.254883 7
0.012238 -1.527588 -18.40625 7
0.023048 -1.566406 -18.303711 7
-0.18279999 -4.5362549 -19.716797 7
-0.185425 -4.591064 -19.729492 7
-0.178482 -4.6271968 -19.654297 7
-0.174721 -4.669312 -19.609375 7
-0.17094401 -4.7113042 -19.564453 7
-0.174858 -4.7684331 -19.586914 7
0.003181 4.71875 -17.852539 7
0.013916 4.6495361 -17.766602 7
0.0081409998 4.6158452 -17.830078 7
0.002991 4.580811 -17.885742 7
-0.0027920001 4.5465088 -17.947266 7
-0.020035001 4.535645 -18.111328 7
-0.034095999 4.5175781 -18.246094 7
0.055817001 -1.110229 -16.954102 7
0.019722 -1.349243 -17.248047 7
0.018257 -1.437988 -17.25293 7
0.02227 -1.479248 -17.213867 7
-0.194839 -4.5410161 -18.586914 7
-0.203049 -4.6035161 -18.644531 7
-0.201759 -4.648438 -18.623047 7
-0.19302399 -4.6783452 -18.538086 7
-0.19310801 -4.7253418 -18.526367 7
-0.19248199 -4.7712402 -18.509766 7
0.019119 -1.313599 -16.1875 7
0.024086 -1.3519289 -16.143555 7
0.019684 -1.4375 -16.171875 7
0.02179 -1.477417 -16.150391 7
-0.004807 -1.537598 -16.361328 7
0.0051350002 -1.61377 -16.272461 7
0.0036470001 -1.656494 -16.280273 7
-0.193039 -4.499023 -17.381836 7
-0.201721 -4.559937 -17.438477 7
-0.210419 -4.6209722 -17.495117 7
-0.199715 -4.6445308 -17.399414 7
-0.197624 -4.6846919 -17.37207 7
-0.194107 -4.7218022 -17.333008 7
-0.198494 -4.7746582 -17.355469 7
0.0045699999 -1.2886961 -15.329102 7
0.010574 -1.3243411 -15.27832 7
0.015830999 -1.360229 -15.234375 7
0.010498 -1.402954 -15.271484 7
0.0097049996 -1.442871 -15.274414 7
0.0088879997 -1.4825439 -15.277344 7
0.0073170001 -1.523193 -15.285156 7
0.0034789999 -1.564941 -15.30957 7
-0.0042650001 -1.688965 -15.355469 7
-0.20647401 -4.7767329 -16.313477 7
-0.0065000001 4.641479 -14.662109 7
-0.0065540001 4.6030269 -14.673828 7
-0.011124 4.5739751 -14.71875 7
-0.001381 -1.332397 -14.441406 7
0.013763 -1.397217 -14.325195 7
0.010513 -1.436401 -14.345703 7
0.012856 -1.472046 -14.324219 7
-0.0096279997 -1.52478 -14.482422 7
-0.0072630001 -1.560425 -14.460938 7
-0.204613 -4.509521 -15.330078 7
-0.21364599 -4.644897 -15.358398 7
-0.21051 -4.6781011 -15.324219 7
-0.208961 -4.7142329 -15.301758 7
-0.20822901 -4.7520752 -15.286133 7
-0.21071599 -4.7961431 -15.290039 7
0.0046689999 -1.332275 -13.597656 7
0.002899 -1.404053 -13.602539 7
0.0061869998 -1.472412 -13.572266 7
0.0053019999 -1.508301 -13.575195 7
-0.020904999 -1.562134 -13.748047 7
-0.211632 -4.5196528 -14.475586 7
-0.215073 -4.563354 -14.487305 7
-0.225273 -4.6203609 -14.542969 7
-0.214417 -4.6741939 -14.449219 7
-0.21710201 -4.7537842 -14.442383 7
0.0046009999 -1.298828 -12.848633 7
0.001007 -1.334473 -12.868164 7
-0.001694 -1.369751 -12.882812 7
-0.0043870001 -1.405273 -12.897461 7
-0.001823 -1.4705811 -12.87207 7
-0.0036539999 -1.505371 -12.878906 7
-0.00103 -1.537231 -12.858398 7
-0.029448999 -1.591187 -13.039062 7
-0.220879 -4.5219731 -13.673828 7
-0.229904 -4.6099849 -13.707031 7
-0.23440599 -4.6540532 -13.724609 7
-0.23535199 -4.6914058 -13.71875 7
-0.22921 -4.7149658 -13.667969 7
-0.226585 -4.7451172 -13.640625 7
-0.228958 -4.525269 -12.947266 7
-0.233688 -4.567749 -12.963867 7
-0.239334 -4.6123052 -12.986328 7
-0.24592599 -4.6585689 -13.013672 7
-0.24039499 -4.6817632 -12.969727 7
-0.23763999 -4.7102051 -12.942383 7
-0.23024701 -4.7293701 -12.886719 7
-0.233124 -4.7685552 -12.892578 7
-0.023674 4.47998 -11.494141 7
-0.024651 4.4510498 -11.509766 7
-0.022826999 4.4163818 -11.509766 7
0.00036599999 -1.32959 -11.514648 7
-0.00076299999 -1.4519041 -11.506836 7
-0.002808 -1.5137939 -11.509766 7
-0.227432 -4.489502 -12.168945 7
-0.2314 -4.5289311 -12.180664 7
-0.23538201 -4.5683589 -12.191406 7
-0.24327099 -4.6152339 -12.224609 7
-0.24331699 -4.6472168 -12.213867 7
-0.244377 -4.6811519 -12.207031 7
-0.239555 -4.7037349 -12.168945 7
-0.239601 -4.7357178 -12.157227 7
-0.240639 -4.7695308 -12.151367 7
-0.239738 -4.799438 -12.134766 7
-0.042808998 4.4415278 -10.90332 7
-0.037964001 4.4024658 -10.886719 7
-0.24191999 -4.528564 -11.568359 7
-0.241982 -4.559082 -11.555664 7
-0.249268 -4.633667 -11.572266 7
-0.256477 -4.677856 -11.599609 7
-0.24835999 -4.692749 -11.544922 7
-0.247398 -4.7210689 -11.52832 7
-0.251587 -4.7900391 -11.527344 7
-0.247574 -4.8125 -11.494141 7
-0.36620301 -6.411499 -11.501953 7
-0.35806301 -6.421021 -11.445312 7
-0.35308099 -6.4685059 -11.389648 7
-0.357254 -6.5091548 -11.394531 7
-0.364586 -6.5878911 -11.397461 7
-0.37491599 -6.6445308 -11.433594 7
-0.386246 -6.7042241 -11.473633 7
-0.0099409996 -1.297119 -10.391602 7
-0.011047 -1.325562 -10.394531 7
-0.018608 -1.35791 -10.430664 7
-0.019707 -1.386475 -10.433594 7
-0.021888999 -1.415527 -10.441406 7
-0.016571 -1.439819 -10.40918 7
-0.016586 -1.467773 -10.40625 7
-0.018767999 -1.496948 -10.414062 7
-0.018805999 -1.524658 -10.410156 7
-0.037078999 -1.56543 -10.50293 7
-0.043540999 -1.598145 -10.53418 7
-0.25353199 -4.6480708 -10.882812 7
-0.36329699 -6.4080811 -10.702148 7
-0.36122099 -6.4309082 -10.675781 7
-0.35804701 -6.4512939 -10.644531 7
-0.35813099 -6.4796138 -10.628906 7
-0.36142701 -6.5162349 -10.629883 7
-0.36364001 -6.5499272 -10.624023 7
-0.37338999 -6.603271 -10.654297 7
-0.37992099 -6.648315 -10.667969 7
-0.38751999 -6.6964111 -10.6875 7
-0.25070199 -4.7150879 -10.224609 7
-0.25411201 -4.7489009 -10.229492 7
-0.250801 -4.7696528 -10.202148 7
-0.36730999 -6.4095459 -10.043945 7
-0.36739299 -6.4362788 -10.02832 7
-0.36295301 -6.4519038 -9.9931641 7
-0.36077899 -6.4728999 -9.9677734 7
-0.36197701 -6.5024409 -9.9570312 7
-0.36203 -6.5292969 -9.9423828 7
-0.36322001 -6.5588379 -9.9316406 7
-0.36441001 -6.588501 -9.9208984 7
-0.373474 -6.6386719 -9.9443359 7
-0.38027999 -6.6828609 -9.9580078 7
-0.020241 -1.294189 -9.4365234 7
-0.016776999 -1.317505 -9.4169922 7
-0.019142 -1.34436 -9.4248047 7
-0.025009001 -1.373413 -9.4501953 7
-0.028557001 -1.401123 -9.4638672 7
-0.035622001 -1.43103 -9.4931641 7
-0.028625 -1.452271 -9.4560547 7
-0.02282 -1.473755 -9.4238281 7
-0.028694 -1.5031739 -9.4482422 7
-0.031067001 -1.530273 -9.4560547 7
-0.039291002 -1.561523 -9.4921885 7
-0.040474001 -1.5880131 -9.4941406 7
-0.37222299 -6.4240718 -9.4072266 7
-0.371117 -6.4466548 -9.3876953 7
-0.367668 -6.4630132 -9.3574219 7
-0.36891201 -6.491333 -9.3457031 7
-0.36310601 -6.5015869 -9.3066406 7
-0.36668399 -6.5360112 -9.3056641 7
-0.365585 -6.5579829 -9.2851562 7
-0.36914799 -6.5922852 -9.2841797 7
-0.37625101 -6.6356201 -9.2988281 7
-0.38101199 -6.6730962 -9.3017578 7
-0.385773 -6.7104492 -9.3056641 7
-0.016602 -1.3349611 -8.9511719 7
-0.011787 -1.380493 -8.921875 7
-0.25890401 -4.758667 -9.1083984 7
-0.265053 -4.7952881 -9.1230469 7
-0.23962399 -4.5092769 -8.5644531 7
-0.24732199 -4.5469971 -8.5839844 7
-0.24482 -4.5655522 -8.5634766 7
-0.25124401 -4.6011958 -8.578125 7
-0.24875601 -4.6196289 -8.5566406 7
-0.25389099 -4.652832 -8.5673828 7
-0.257774 -4.6835942 -8.5712891 7
-0.257828 -4.7069092 -8.5595703 7
-0.25151801 -4.7180181 -8.5224609 7
-0.24772599 -4.7340088 -8.4960938 7
-0.250328 -4.762085 -8.4951172 7
-0.25295299 -4.7902832 -8.4931641 7
-0.272881 -4.8161621 -5.4550781 7
-0.064673997 4.478271 -3.9970701 7
-0.066436999 4.46875 -4.0126948 7
-0.066422001 4.455811 -4.023438 7
-0.064644001 4.4388428 -4.030273 7
-0.061104 4.4187012 -4.030273 7
-0.061110999 4.4056401 -4.0410161 7
-0.064636 4.3994141 -4.061523 7
-0.068366997 4.3930659 -4.078125 7
-0.068351999 4.3796391 -4.0898442 7
-0.080734 4.3903809 -4.1298828 7
-0.087775998 4.390625 -4.1582031 7
-0.075416997 4.3399658 -4.148438 7
-0.068336003 4.299561 -4.1513672 7
-0.029022001 -1.5652879 -8.6881924 7
-0.337098 -4.7417288 -11.037377 7
0.003151 -1.487475 -7.0232449 7
0.012964 -1.434777 -5.9013581 7
0.006844 -1.741526 -5.0284042 7
-0.060066 -1.669445 -4.2379212 7
-0.0054919999 -1.55082 -2.895205 7
0.0041789999 -1.7012661 -2.0600779 7
0.065408997 1.1479681 -6.523375 7
0.073524997 1.131422 -5.4536171 7
-0.036977001 4.4054322 -3.9062729 7
0.081915997 1.117923 -4.5771041 7
-0.117795 4.3981438 -3.187947 7
0.00154 -1.472614 -14.486714 7
-0.079498999 -1.4868129 -10.861911 7
-0.042838998 -1.486838 -8.7245283 7
-0.31746 -4.7616682 -12.305264 7
-0.025629001 -1.50515 -7.4156489 7
-0.29347 -4.7784882 -10.166843 7
-0.413986 -6.466836 -11.212906 7
0.045072999 1.227638 -6.5087318 7
0.036890998 1.019716 -6.6505008 7
-0.011799 -1.511583 -6.452878 7
-0.231804 -4.797132 -7.9683661 7
-0.0084159998 -1.487235 -5.80654 7
0.011269 1.230966 -5.6474299 7
0.0073009999 1.048656 -5.726491 7
0.026649 1.2795 -5.0167041 7
0.022105999 1.0837229 -5.1093092 7
-0.031707998 -1.280715 -5.1588259 7
-0.048012 -1.498698 -5.2409611 7
-0.056731999 4.4519711 -3.044497 7
-0.066767 4.4233251 -3.2552459 7
-0.072355002 4.3485732 -3.447818 7
0.034885999 1.1428829 -4.6036949 7
-0.021274 -1.302985 -4.7065792 7
-0.034619998 -1.494369 -4.7535272 7
-0.05071 -1.70162 -4.8113642 7
-0.019892 -1.338993 -4.3786359 7
-0.027935 -1.501277 -4.3801289 7
-0.039000001 -1.676584 -4.3940492 7
-0.035737 -1.674721 -4.081861 7
-0.046613 -1.840523 -4.0796232 7
-0.015082 -1.496838 -3.1837599 7
-0.002227 -1.378078 -3.0223081 7
-0.016473001 -1.503612 -3.02284 7
-0.014509 -1.578529 -2.95557 7
-0.0039940001 -1.389132 -2.880161 7
-0.035868 -1.824458 -2.1862731 7
-0.043033998 -1.898809 -2.1255319 7
-0.015577 -1.661535 -2.1169169 7
-0.019012 -1.7177401 -2.055424 7
-0.02946 -1.797437 -2.0030611 7
-0.031410001 -1.844419 -1.932399 7
-0.034263 -1.665343 -1.939952 7
