# .PCD v0.7 - Point Cloud Data file format
VERSION 0.7
FIELDS x y z intensity
SIZE 4 4 4 4
TYPE F F F F
COUNT 1 1 1 1
WIDTH 613
HEIGHT 1
VIEWPOINT 0 0 0 1 0 0 0
POINTS 613
DATA ascii
0.213432 3.7818601 -73.208008 7
0.251892 3.8686521 -64.530273 7
0.290115 3.6381841 -63.223633 7
0.24321 3.570435 -64.827148 7
0.35607901 0.24682599 -60.888672 7
0.16455799 -3.102051 -59.213867 7
0.19270299 -3.1999509 -58.359375 7
0.281616 3.944824 -56.400391 7
0.25092301 3.86853 -57.338867 7
0.29806501 3.6376951 -55.905273 7
0.25952101 3.57251 -57.082031 7
0.195076 3.548218 -59.046875 7
0.109993 -3.109375 -54.208984 7
0.138863 -3.195435 -53.423828 7
0.261848 3.803345 -50.709961 7
0.22538801 3.7487791 -51.706055 7
0.27834299 3.5238039 -50.21875 7
0.243553 3.462769 -51.166016 7
0.211334 3.392822 -52.044922 7
0.133766 3.394165 -54.155273 7
0.241272 -0.066895001 -46.00293 7
0.29233599 -0.174316 -44.755859 7
-1.125114 -4.6956792 73.520508 7
-0.91905999 -1.521606 69.272461 7
-0.90937799 0.087158002 69.125977 7
0.211807 3.880127 -46.950195 7
0.18319701 3.819458 -47.65918 7
0.151711 3.7607419 -48.438477 7
0.20089 3.553833 -47.233398 7
0.175331 3.482178 -47.866211 7
0.131973 3.4373779 -48.9375 7
0.239586 0.15734901 -46.050781 7
0.243324 0.045166001 -45.957031 7
0.18815599 -0.034423999 -42.931641 7
0.21764401 -0.137817 -42.270508 7
0.20777901 -0.24304201 -42.486328 7
0.224144 -0.34435999 -42.117188 7
0.246819 -0.44262701 -41.607422 7
-0.96340197 -4.833252 64.165039 7
-1.024345 -4.7755132 65.394531 7
-1.084442 -4.7106929 66.608398 7
-0.817505 -2.0543211 61.464844 7
-0.88746601 -1.956543 62.87207 7
-0.86215198 -1.7961431 62.373047 7
-0.83024597 0.65539598 61.825195 7
-0.83210802 0.79931599 61.865234 7
-0.78753698 0.928711 60.973633 7
-0.89758301 3.745728 63.18457 7
-0.83153498 3.80896 61.857422 7
-0.78324902 3.8894041 60.884766 7
0.173645 4.0093989 -43.253906 7
0.14393599 3.960449 -43.920898 7
0.124184 3.889648 -44.368164 7
0.091347001 3.8408201 -45.106445 7
0.073402002 3.7619629 -45.511719 7
0.24097399 0.47997999 -41.772461 7
0.22271 0.38073701 -42.175781 7
0.218605 0.27758801 -42.264648 7
0.187714 0.176636 -42.948242 7
0.15312199 -0.25402799 -40.083008 7
0.192917 -0.34521499 -39.269531 7
0.165543 -0.44738799 -39.823242 7
0.19387101 -0.53735399 -39.244141 7
0.210991 -0.62792999 -38.891602 7
-1.010078 -4.838623 60.572266 7
-1.041397 -4.7446289 61.166992 7
-1.108261 -4.6986079 62.419922 7
-0.92845201 -1.984131 59.304688 7
-0.77731299 0.85644501 56.592773 7
-0.71071601 1.09314 55.355469 7
-0.82765198 3.9337161 57.488281 7
-0.77196503 3.991699 56.447266 7
-0.72350299 4.0549321 55.539062 7
0.14015999 4.0571289 -40.389648 7
0.109093 4.0175781 -41.032227 7
0.082565002 3.9663091 -41.583984 7
0.045249999 3.9324951 -42.356445 7
0.015015 3.882324 -42.982422 7
0.18618 0.61889601 -39.424805 7
0.202438 0.51806599 -39.09375 7
0.166481 0.429932 -39.824219 7
0.152611 0.33459499 -40.107422 7
0.17598701 -0.58313 -36.025391 7
0.200096 -0.66333002 -35.573242 7
0.193306 -0.84106398 -35.693359 7
-0.89994001 -4.7928472 53.885742 7
-0.644409 0.87060499 49.853516 7
-0.615273 0.972534 49.37207 7
-0.62739599 1.090942 49.580078 7
-0.68440199 4.0279541 50.483398 7
-0.65251899 4.0985112 49.930664 7
-0.60634601 4.1452641 49.134766 7
0.467354 24.933838 19.129883 7
0.46823099 24.965942 19.064453 7
0.469109 24.998047 18.999023 7
0.467354 25.068359 18.958984 7
0.16433699 4.2828369 -36.203125 7
0.14150999 4.240479 -36.635742 7
0.117455 4.1986079 -37.092773 7
0.095573001 4.1503911 -37.509766 7
0.0513 4.1435552 -38.345703 7
0.023491001 4.1013179 -38.873047 7
0.22142801 0.93164098 -35.242188 7
0.193527 0.85656703 -35.762695 7
0.21584301 0.75952101 -35.344727 7
0.191048 0.68041998 -35.806641 7
0.14047199 -0.71350098 -33.755859 7
0.15978999 -0.78906202 -33.420898 7
0.177765 -0.86352497 -33.108398 7
0.151779 -0.95739698 -33.550781 7
-0.56184399 0.88622999 45.100586 7
-0.626221 3.9824221 46.03418 7
-0.60218799 4.0535889 45.646484 7
-0.56864899 4.108521 45.107422 7
0.40432701 23.368652 19.125977 7
0.40383101 23.4198 19.077148 7
0.402603 23.480347 19.036133 7
0.40566999 23.484375 18.952148 7
0.40374801 23.553955 18.916992 7
0.143723 4.4080811 -33.580078 7
0.13082901 4.3520508 -33.8125 7
0.114548 4.3017578 -34.100586 7
0.097916 4.250854 -34.394531 7
0.069504 4.2220459 -34.892578 7
0.058945 4.1560059 -35.083008 7
0.20198099 1.112305 -32.723633 7
0.18956 0.95556599 -32.938477 7
0.19009399 0.87353498 -32.928711 7
0.164299 0.80200201 -33.375 7
0.123878 -0.96704102 -31.085938 7
0.15136699 -1.029297 -30.657227 7
0.163551 -1.098511 -30.461914 7
0.154907 -1.1787111 -30.592773 7
-0.045775998 -4.2706299 -33.446289 7
-0.031730998 -4.325439 -33.21582 7
-0.011009 -4.3658452 -32.880859 7
-0.018928999 -4.462646 -32.993164 7
-0.59378803 -2.065552 42.069336 7
-0.62157398 -1.988892 42.482422 7
-0.649773 -1.910645 42.901367 7
-0.54377002 0.81494099 41.439453 7
-0.503815 0.89660603 40.853516 7
-0.50193799 1.082886 40.825195 7
-0.63810003 3.984009 42.725586 7
-0.605331 4.03479 42.238281 7
-0.57340199 4.0844731 41.765625 7
-0.53906202 4.1282959 41.255859 7
-0.52539802 4.2017822 41.047852 7
0.336983 21.796509 18.930664 7
0.121536 4.4685059 -30.94043 7
0.114441 4.40625 -31.060547 7
0.094154 4.3712158 -31.390625 7
0.077881001 4.3262939 -31.65625 7
0.0513 4.3010249 -32.083008 7
0.033913001 4.2554932 -32.365234 7
0.168121 1.187988 -30.391602 7
0.17524 1.032715 -30.27832 7
0.13578799 -0.96850598 -28.788086 7
0.107094 -1.054565 -29.206055 7
0.118942 -1.120605 -29.02832 7
0.136345 -1.182373 -28.768555 7
0.104851 -1.272827 -29.227539 7
0.119865 -1.335327 -29.001953 7
0.12934101 -1.400757 -28.859375 7
-0.081740998 -4.289062 -31.658203 7
-0.068703003 -4.3416748 -31.457031 7
-0.053672999 -4.3898931 -31.227539 7
-0.037857 -4.434937 -30.984375 7
-0.027214 -4.4897461 -30.818359 7
-0.56665802 -2.009155 39.195312 7
-0.589073 -1.935181 39.508789 7
-0.499733 0.925659 38.384766 7
-0.505943 1.015625 38.467773 7
-0.58016998 4.0224609 39.359375 7
0.28102899 20.481323 18.94043 7
0.27914399 20.545166 18.911133 7
0.095221996 4.518188 -29.139648 7
0.076645002 4.4848628 -29.421875 7
0.062401 4.440918 -29.641602 7
0.042617999 4.4075928 -29.94043 7
0.020096 4.3781738 -30.280273 7
0.014877 4.3128662 -30.367188 7
0.159164 1.328125 -28.40918 7
0.144463 1.266235 -28.628906 7
0.16010299 1.185547 -28.396484 7
0.13673399 1.127319 -28.744141 7
0.089240998 -1.242676 -27.055664 7
0.11132 -1.296509 -26.749023 7
0.086395003 -1.391235 -27.183594 7
0.10524 -1.44519 -26.930664 7
0.086189002 -1.593384 -27.179688 7
-0.076583996 -4.3200679 -29.081055 7
-0.074951001 -4.3885498 -29.047852 7
-0.063865997 -4.438477 -28.886719 7
-0.047722001 -4.5482178 -28.645508 7
-0.495491 -2.0625 35.620117 7
-0.52188098 -2.000854 35.962891 7
-0.52360499 -1.92041 35.990234 7
-0.452095 1.088379 35.166992 7
-0.53263098 4.005249 36.053711 7
-0.52658802 4.0784912 35.969727 7
-0.487167 4.1809082 35.451172 7
0.088737004 4.5958252 -26.862305 7
0.078896001 4.5496831 -27.005859 7
0.028457999 4.4501948 -27.71875 7
0.0092540001 4.4195561 -27.989258 7
0.024055 4.3198242 -27.797852 7
0.136757 1.506958 -26.474609 7
0.145622 1.434204 -26.356445 7
0.146782 1.30188 -26.326172 7
0.113747 1.188477 -26.782227 7
0.064400002 -1.311646 -25.577148 7
0.085014001 -1.362061 -25.3125 7
0.095062003 -1.4180911 -25.180664 7
0.06002 -1.5057369 -25.619141 7
0.077872999 -1.556152 -25.387695 7
0.087471001 -1.612061 -25.262695 7
-0.103813 -4.4888921 -27.339844 7
-0.096092001 -4.5410161 -27.229492 7
-0.081000999 -4.5780029 -27.02832 7
-0.074646004 -4.6320801 -26.9375 7
-0.090415999 -4.7315669 -27.121094 7
-0.458969 0.87011701 33.142578 7
-0.415268 1.151611 32.613281 7
-0.52284998 4.1237788 33.724609 7
-0.45596299 4.246582 32.902344 7
0.052475002 4.6837158 -25.370117 7
0.046021 4.633667 -25.461914 7
0.035858002 4.5267329 -25.610352 7
0.018021001 4.499146 -25.84668 7
0.000191 4.470459 -26.081055 7
-0.0030749999 4.411499 -26.131836 7
0.119949 1.544434 -24.796875 7
0.12001 1.394043 -24.899414 7
0.111778 1.3380131 -25.012695 7
0.097488001 1.2844239 -25.197266 7
0.069251999 -1.33313 -23.59668 7
0.075119004 -1.388306 -23.524414 7
0.081000999 -1.442993 -23.450195 7
0.052719001 -1.5218509 -23.779297 7
0.063529998 -1.5732419 -23.647461 7
-0.11657 -4.5710449 -25.378906 7
-0.109711 -4.6203609 -25.288086 7
-0.097411998 -4.6583252 -25.133789 7
-0.093047999 -4.7116699 -25.070312 7
-0.104057 -4.7971191 -25.185547 7
-0.37029999 0.98803699 30 7
-0.381134 1.060181 30.119141 7
-0.37686899 1.126465 30.070312 7
-0.353836 1.183594 29.810547 7
-0.353737 1.250854 29.807617 7
0.106743 1.442505 -23.0625 7
0.062599003 -1.303833 -22.019531 7
0.045586001 -1.3701169 -22.202148 7
0.058228001 -1.417358 -22.05957 7
0.062935002 -1.46936 -22.003906 7
0.034782 -1.544678 -22.307617 7
0.044257998 -1.593628 -22.200195 7
-0.127014 -4.5250239 -23.68457 7
-0.13507099 -4.6000981 -23.759766 7
-0.127716 -4.6445308 -23.667969 7
-0.12249 -4.6929932 -23.600586 7
-0.122055 -4.750854 -23.583008 7
0.037689 4.6972661 -21.824219 7
0.0308 4.6564941 -21.911133 7
0.023917999 4.615479 -21.996094 7
0.014923 4.5784912 -22.104492 7
-0.001419 4.5562739 -22.291992 7
-0.013023 4.5236821 -22.428711 7
0.108955 1.072998 -21.40918 7
0.107117 0.91039997 -21.432617 7
0.117043 0.85192901 -21.325195 7
0.124329 0.79479998 -21.244141 7
0.12529799 0.74011201 -21.234375 7
0.115211 0.68957502 -21.347656 7
0.053130999 -1.328735 -20.604492 7
0.054770999 -1.379639 -20.583008 7
0.057526 -1.429565 -20.549805 7
0.052368 -1.484863 -20.598633 7
0.035904001 -1.5487061 -20.764648 7
0.046592999 -1.592896 -20.651367 7
-0.14920001 -4.5524902 -22.242188 7
-0.14872 -4.6071782 -22.225586 7
-0.14086901 -4.6470952 -22.134766 7
-0.13755 -4.6956792 -22.089844 7
-0.14047199 -4.7570801 -22.106445 7
0.093718998 0.60009801 -20.084961 7
0.100388 0.54711902 -20.014648 7
0.103683 0.49511701 -19.982422 7
0.10923 0.44299299 -19.924805 7
0.115898 0.39074701 -19.856445 7
0.110771 0.340942 -19.90918 7
0.116302 0.289307 -19.851562 7
0.124107 0.23754901 -19.771484 7
0.127396 0.186646 -19.736328 7
0.129021 0.13623001 -19.719727 7
0.126678 0.085814998 -19.743164 7
0.124901 0.035521999 -19.759766 7
0.104027 -0.026245 -18.848633 7
0.101509 -0.121948 -18.871094 7
0.09967 -0.170044 -18.888672 7
0.104431 -0.217407 -18.842773 7
0.10437 -0.26501501 -18.84082 7
0.102531 -0.31310999 -18.858398 7
0.047844 -1.300537 -19.334961 7
0.028534001 -1.361694 -19.518555 7
0.045883 -1.448486 -19.342773 7
0.019943001 -1.515747 -19.589844 7
0.023499001 -1.562622 -19.550781 7
-0.170059 -4.528687 -20.983398 7
-0.179199 -4.598999 -21.056641 7
-0.172653 -4.638916 -20.983398 7
-0.169121 -4.6846919 -20.938477 7
-0.162567 -4.723999 -20.864258 7
0.010895 4.6702881 -19.139648 7
0.015625 4.6112061 -19.105469 7
0.016182 4.5609131 -19.110352 7
0.012535 4.5192871 -19.155273 7
0.075309999 -0.65148902 -17.670898 7
0.079696998 -0.69567901 -17.628906 7
0.081551 -0.74047899 -17.610352 7
0.072532997 -0.789307 -17.69043 7
0.072425999 -0.83483899 -17.686523 7
0.076172002 -0.878784 -17.649414 7
0.031380001 -1.322632 -18.212891 7
0.026833 -1.3718261 -18.250977 7
0.033829 -1.413574 -18.18457 7
0.039535999 -1.455811 -18.128906 7
0.015137 -1.5187989 -18.34668 7
0.019577 -1.562256 -18.300781 7
0.025847999 -1.650146 -18.234375 7
-0.176651 -4.5106201 -19.62207 7
-0.186996 -4.5800781 -19.702148 7
-0.182579 -4.6210942 -19.651367 7
-0.175606 -4.6568599 -19.578125 7
-0.169907 -4.6949458 -19.516602 7
-0.167404 -4.7391362 -19.482422 7
-0.028084001 4.7875981 -18.139648 7
-0.023041001 4.7303472 -18.105469 7
-0.0091089997 4.6539311 -17.990234 7
0.002296 4.5836182 -17.899414 7
-0.0053790002 4.5534668 -17.978516 7
-0.006691 4.509644 -18.000977 7
-0.021346999 4.4932861 -18.141602 7
-0.037941001 4.4797359 -18.299805 7
0.046234 -0.97973597 -17.017578 7
0.044151001 -1.024048 -17.032227 7
0.035950001 -1.071655 -17.098633 7
0.036582999 -1.114868 -17.09082 7
0.042633001 -1.155151 -17.036133 7
0.047309998 -1.196167 -16.992188 7
0.031661998 -1.248413 -17.12207 7
0.022133 -1.297852 -17.201172 7
0.020607 -1.43042 -17.202148 7
0.017829999 -1.476074 -17.22168 7
0.034058001 -1.508301 -17.078125 7
-0.17482001 -4.489502 -18.386719 7
-0.19796801 -4.5805659 -18.567383 7
-0.20143899 -4.6342769 -18.585938 7
-0.20288099 -4.684082 -18.585938 7
-0.190727 -4.7070308 -18.472656 7
-0.194901 -4.7619629 -18.494141 7
-0.188179 -4.795166 -18.426758 7
0.033629999 -1.299072 -16.044922 7
0.014191 -1.3525389 -16.198242 7
0.015564 -1.392944 -16.182617 7
0.016953001 -1.433594 -16.167969 7
0.019058 -1.4736331 -16.147461 7
0.022598 -1.512329 -16.115234 7
-0.0076290001 -1.575317 -16.354492 7
0.001656 -1.610352 -16.275391 7
0.0023040001 -1.6513669 -16.264648 7
0.0080030002 -1.688477 -16.214844 7
-0.189262 -4.52356 -17.311523 7
-0.194374 -4.5773931 -17.34082 7
-0.205956 -4.6439209 -17.419922 7
-0.201012 -4.6783452 -17.368164 7
-0.195328 -4.7111821 -17.3125 7
-0.19395401 -4.752563 -17.290039 7
-0.189697 -4.7878418 -17.245117 7
0.002876 -1.323608 -15.31543 7
0.0096589997 -1.358765 -15.260742 7
0.013405 -1.39563 -15.228516 7
0.010315 -1.4367681 -15.248047 7
0.0072329999 -1.478027 -15.267578 7
0.001877 -1.521118 -15.304688 7
0.002571 -1.559814 -15.294922 7
-0.0035399999 -1.6036381 -15.337891 7
-0.0043720002 -1.643677 -15.338867 7
-0.00367 -1.682495 -15.328125 7
-0.19535799 -4.4934082 -16.276367 7
-0.19922601 -4.542603 -16.294922 7
-0.209198 -4.603271 -16.355469 7
-0.216858 -4.6599121 -16.401367 7
-0.21314999 -4.6943359 -16.362305 7
-0.20864099 -4.7272949 -16.317383 7
-0.20491 -4.761353 -16.27832 7
-0.204208 -4.8015141 -16.261719 7
-0.211151 -4.8570561 -16.299805 7
-0.0096209999 4.610229 -14.700195 7
-0.051337998 4.4619141 -15.070312 7
0.01339 -1.318604 -14.318359 7
0.009331 -1.35791 -14.34375 7
-0.0051879999 -1.404175 -14.443359 7
0.01001 -1.431519 -14.330078 7
0.013199 -1.466431 -14.303711 7
0.012352 -1.503906 -14.306641 7
-0.0045779999 -1.5531009 -14.423828 7
-0.007828 -1.592651 -14.443359 7
-0.001465 -1.625244 -14.392578 7
-0.0023119999 -1.6630861 -14.395508 7
6.0999999e-05 -1.698364 -14.374023 7
-0.19767 -4.5244141 -15.248047 7
-0.20256799 -4.572876 -15.270508 7
-0.213112 -4.6324458 -15.333008 7
-0.21476699 -4.6750488 -15.333984 7
-0.210815 -4.7064209 -15.292969 7
-0.21008299 -4.7441411 -15.277344 7
-0.206131 -4.7753911 -15.237305 7
0.013924 -1.286743 -13.523438 7
0.0096589997 -1.324463 -13.548828 7
0.0096049998 -1.359741 -13.544922 7
0.001106 -1.400146 -13.599609 7
0.001915 -1.435059 -13.59082 7
0.0086289998 -1.465698 -13.541016 7
0.0068890001 -1.502075 -13.548828 7
0.0085300002 -1.536011 -13.533203 7
-0.010956 -1.585205 -13.661133 7
-0.199478 -4.4855962 -14.37207 7
-0.20462 -4.5323491 -14.394531 7
-0.211449 -4.5826421 -14.427734 7
-0.221687 -4.6395259 -14.483398 7
-0.225136 -4.6835942 -14.495117 7
-0.21505 -4.7011719 -14.416992 7
-0.214256 -4.7368159 -14.400391 7
-0.21264599 -4.7705078 -14.37793 7
-0.214394 -4.8111572 -14.37793 7
0.0048679998 -1.294067 -12.833984 7
0.00038099999 -1.330322 -12.860352 7
0.003883 -1.361572 -12.833008 7
-0.0032579999 -1.399658 -12.876953 7
-0.002419 -1.432739 -12.867188 7
0.001991 -1.463257 -12.834961 7
0.00017499999 -1.4981689 -12.84375 7
0.001884 -1.530273 -12.827148 7
-0.017715 -1.577759 -12.949219 7
-0.214035 -4.499146 -13.615234 7
-0.21944401 -4.5445561 -13.637695 7
-0.22216 -4.585083 -13.643555 7
-0.23291799 -4.6408691 -13.698242 7
-0.23745 -4.6851811 -13.71582 7
-0.229477 -4.7052002 -13.654297 7
-0.22687501 -4.735352 -13.626953 7
-0.226044 -4.769043 -13.610352 7
-0.32956699 -6.4171138 -13.688477 7
-0.32963601 -6.4526372 -13.673828 7
-0.33506799 -6.5019531 -13.69043 7
-0.34316999 -6.5583501 -13.722656 7
-0.00055699999 -1.295532 -11.513672 7
-0.00060999999 -1.32605 -11.510742 7
-0.002724 -1.44873 -11.508789 7
-0.003731 -1.479858 -11.511719 7
-0.0057219998 -1.511475 -11.518555 7
-0.0067750001 -1.54248 -11.519531 7
-0.224777 -4.5068359 -12.126953 7
-0.227791 -4.544312 -12.131836 7
-0.238647 -4.5965581 -12.181641 7
-0.23871601 -4.62854 -12.169922 7
-0.24758901 -4.6774902 -12.208984 7
-0.241753 -4.6981201 -12.165039 7
-0.23692299 -4.720459 -12.126953 7
-0.23796099 -4.754272 -12.121094 7
-0.23606101 -4.782104 -12.098633 7
-0.239059 -4.8198242 -12.103516 7
-0.24011999 -4.8535161 -12.09668 7
-0.35050201 -6.4022222 -12.125977 7
-0.34469599 -6.4189448 -12.079102 7
-0.34574899 -6.4532471 -12.069336 7
-0.34877801 -6.4925542 -12.069336 7
-0.34983101 -6.5266109 -12.058594 7
-0.35677299 -6.5761719 -12.080078 7
-0.36274001 -6.6231689 -12.095703 7
-0.37263501 -6.6807861 -12.131836 7
-0.026207 4.4671631 -10.788086 7
-0.029152 4.4438481 -10.813477 7
-0.240982 -4.6082759 -11.514648 7
-0.248344 -4.713623 -11.519531 7
-0.247383 -4.7418208 -11.50293 7
-0.24641401 -4.7702641 -11.486328 7
-0.37011701 -6.4375 -11.489258 7
-0.36608899 -6.4572749 -11.453125 7
-0.360001 -6.4719238 -11.40625 7
-0.35491899 -6.4890141 -11.365234 7
-0.35501099 -6.5189209 -11.348633 7
-0.358154 -6.5567632 -11.348633 7
-0.36542499 -6.6054692 -11.369141 7
-0.379875 -6.6730962 -11.424805 7
-0.38507801 -6.7165532 -11.43457 7
-0.36047399 -6.4155269 -10.657227 7
-0.35407999 -6.4276118 -10.611328 7
-0.34882399 -6.4703369 -10.555664 7
-0.35543099 -6.5432129 -10.554688 7
-0.36087799 -6.5853271 -10.564453 7
-0.36203799 -6.6162109 -10.553711 7
-0.37934101 -6.6893311 -10.618164 7
-0.35408801 -6.4693599 -9.9091797 7
-0.35527799 -6.4987788 -9.8994141 7
-0.35759699 -6.53125 -9.8935547 7
-0.36104599 -6.5665278 -9.8916016 7
-0.016785 -1.288452 -9.4150391 7
-0.019165 -1.31543 -9.4238281 7
-0.026215 -1.345093 -9.4541016 7
-0.025063001 -1.369873 -9.4462891 7
-0.028618 -1.397583 -9.4599609 7
-0.032157999 -1.425171 -9.4736328 7
-0.035705999 -1.453125 -9.4863281 7
-0.024055 -1.4705811 -9.4248047 7
-0.025238 -1.49707 -9.4277344 7
-0.026450999 -1.523315 -9.4306641 7
-0.022987001 -1.546265 -9.4091797 7
-0.035896 -1.580688 -9.4667969 7
-0.25434101 -4.7406011 -9.0800781 7
-0.250732 -4.757935 -9.0527344 7
-0.25324199 -4.787231 -9.0507812 7
-0.054175999 4.4820561 -8.0380859 7
-0.03788 -1.610962 -8.5341797 7
-0.031555001 -1.629517 -8.5019531 7
-0.026481999 -1.6488039 -8.4755859 7
-0.026535001 -1.671875 -8.4707031 7
-0.030379999 -1.69812 -8.4833984 7
-0.038063001 -1.727417 -8.5136719 7
-0.048285998 -1.758667 -8.5537109 7
-0.049598999 -1.782959 -8.5556641 7
-0.053444002 -1.809448 -8.5683594 7
-0.054749001 -1.833984 -8.5693359 7
-0.054793999 -1.8573 -8.5644531 7
-0.059914 -1.88501 -8.5820312 7
-0.063781999 -1.911743 -8.5957031 7
-0.037186 4.46106 -7.4375 7
-0.037216 4.4185791 -7.4580078 7
-0.037216 4.3973389 -7.467773 7
-0.056244001 4.3918462 -7.5664058 7
-0.056235999 4.3702388 -7.577148 7
-0.054985002 4.324707 -7.5917969 7
-0.061774999 4.47644 -4.320312 7
-0.060051002 4.4589839 -4.327148 7
-0.063454002 4.4520259 -4.3457031 7
-0.060059 4.431519 -4.3466802 7
-0.056618001 4.410645 -4.3486328 7
-0.058334 4.4000239 -4.3632808 7
-0.060028002 4.3895259 -4.3779302 7
-0.061728999 4.3787842 -4.3925781 7
-0.063423 4.3681641 -4.407227 7
-0.075386003 4.3770752 -4.4492192 7
-0.077072002 4.366333 -4.4638672 7
-0.077064998 4.3520508 -4.4746089 7
-0.061569002 4.4707031 -3.9824221 7
-0.066863999 4.4683838 -4.0058589 7
-0.068618998 4.4586182 -4.0205078 7
-0.066855997 4.4420171 -4.0263672 7
-0.066855997 4.428833 -4.0361328 7
-0.063316002 4.408813 -4.0371089 7
-0.063293003 4.3953862 -4.0488281 7
-0.063293003 4.3822021 -4.0585942 7
-0.070358001 4.3825679 -4.0869141 7
-0.072113 4.3726811 -4.101562 7
-0.079170004 4.3730469 -4.1289058 7
-0.095062003 4.3902588 -4.179688 7
-0.082680002 4.3531489 -4.1591802 7
-0.07914 4.3327641 -4.1601558 7
-0.087996997 4.3361821 -4.1914058 7
-0.077393003 4.3024902 -4.1748052 7
-0.075607002 4.285645 -4.1806641 7
-0.073830001 4.2687988 -4.186523 7
-0.070281997 4.2486572 -4.1875 7
-0.077362001 4.2484131 -4.2148442 7
-0.073813997 4.2279048 -4.2167969 7
-0.069916002 4.20752 -4.2167969 7
-0.073432997 4.2003169 -4.2363281 7
-0.073440999 4.186646 -4.2460942 7
-0.163984 -4.7870479 -13.2939 7
0.011538 -1.588596 -6.9043469 7
0.022185 -1.524511 -5.7890072 7
-0.030696999 -1.424795 -4.0806041 7
-0.28334099 -4.8458328 0.824323 7
-0.309358 -4.9021969 3.3402109 7
-0.30567801 -4.8810668 3.5027361 7
0.011404 4.5860162 -8.0052958 7
-0.057523999 4.4051461 -4.1042132 7
0.028286001 -1.387449 -13.715707 7
-0.040385 4.530601 -15.344522 7
-0.063452996 -1.4429179 -10.575337 7
-0.342794 -4.6489272 -15.198669 7
-0.109992 4.4763889 -10.78976 7
-0.30734 -4.7000008 -12.16086 7
-0.013784 -1.468735 -7.264184 7
-0.00337 -1.484803 -6.3590169 7
0.001357 -1.505188 -5.6978812 7
-0.08749 4.4519501 -4.344327 7
-0.0020860001 1.494972 -5.2325382 7
0.0065899999 1.2950439 -5.205451 7
-0.038242999 -1.513026 -5.1498742 7
-0.085582003 4.4238629 -3.547101 7
-0.092423998 4.3461008 -3.7461469 7
0.016356001 1.153854 -4.7631512 7
0.020734999 0.98987001 -4.7661629 7
-0.011451 -1.313815 -4.6231079 7
-0.028447 -1.514052 -4.695569 7
-0.040033001 -1.704994 -4.7203369 7
-0.003641 -1.327438 -4.2584648 7
-0.023658 -1.522687 -4.3383722 7
0.002961 -1.3062969 -3.9606099 7
-0.013468 -1.477306 -4.0083842 7
