# .PCD v0.7 - Point Cloud Data file format
VERSION 0.7
FIELDS x y z intensity
SIZE 4 4 4 4
TYPE F F F F
COUNT 1 1 1 1
WIDTH 1377
HEIGHT 1
VIEWPOINT 0 0 0 1 0 0 0
POINTS 1377
DATA ascii
0.083182998 -1.441895 -69.636719 7
0.13065299 -1.573608 -68.018555 7
0.09285 5.3251948 -69.647461 7
0.063865997 5.2275391 -70.639648 7
0.178177 1.865479 -66.794922 7
0.070373997 -1.595337 -62.331055 7
0.095900998 -1.72522 -61.548828 7
0.154434 -1.821655 -59.772461 7
0.040259998 5.4830322 -63.474609 7
0.118248 5.1348882 -61.120117 7
0.037459999 5.1810298 -63.575195 7
-0.025772 5.0155029 -65.507812 7
0.180641 1.6611331 -59.304688 7
0.0076069999 -1.744019 -57.185547 7
0.069061004 -1.829468 -55.519531 7
0.100098 -1.935303 -54.673828 7
0.162239 -2.0062261 -52.991211 7
0.08416 -2.217407 -55.079102 7
-0.76560998 -0.90978998 71.766602 7
-0.72120702 -0.73205602 70.714844 7
0.182579 5.081543 -52.592773 7
0.160248 5.0084229 -53.205078 7
0.081207 5.0689702 -55.350586 7
0.14276899 4.7893071 -53.695312 7
0.097557001 4.761353 -54.924805 7
0.022384999 4.794189 -56.964844 7
0.044555999 -1.924438 -50.77832 7
0.067101002 -2.0262451 -50.216797 7
-0.68844599 -0.51391602 64.207031 7
-0.64146399 -0.21301299 63.192383 7
0.109711 5.0123291 -49.269531 7
0.061767999 5.0047612 -50.452148 7
0.13326301 4.717041 -48.710938 7
0.091522001 4.6914058 -49.741211 7
0.052147001 4.6556401 -50.713867 7
-0.034203 -2.039062 -47.732422 7
0.025696 -2.0974121 -46.395508 7
0.042946 -2.193115 -46.004883 7
0.003212 -2.3491211 -46.793945 7
0.023087 -2.440552 -46.342773 7
-0.60135698 -0.323975 57.182617 7
-0.55190998 -0.058350001 56.202148 7
0.115692 4.8565669 -44.357422 7
0.070702001 4.850708 -45.362305 7
0.142517 4.5784912 -43.779297 7
0.09623 4.5723882 -44.81543 7
0.062781997 4.533936 -45.564453 7
0.013046 4.5258789 -46.675781 7
0.118492 1.1468509 -44.451172 7
-0.025299 -2.19519 -43.640625 7
0.021187 -2.2531741 -42.682617 7
0.051674001 -2.3240969 -42.051758 7
-0.002998 -2.4890139 -43.155273 7
0.024307 -2.562134 -42.588867 7
0.053344999 -2.630127 -41.987305 7
-0.51487702 -0.053100999 51.631836 7
-0.53797102 0.066405997 52.064453 7
0.091141 4.734375 -41.265625 7
0.053206999 4.7166748 -42.050781 7
0.0090030003 4.7089839 -42.963867 7
0.086600997 4.439209 -41.385742 7
0.049522001 4.414062 -42.15332 7
0.011566 4.387085 -42.9375 7
-0.02977 -2.395874 -39.743164 7
-0.006081 -2.466553 -39.292969 7
0.0081860004 -2.546021 -39.019531 7
-0.034729 -2.693604 -39.806641 7
0.01033 -2.7344971 -38.959961 7
0.033073001 -2.8001709 -38.527344 7
0.043586999 -2.8803711 -38.322266 7
0.045600999 -2.971436 -38.275391 7
-0.50338697 -2.985352 47.234375 7
-0.51660901 -2.8907471 47.469727 7
-0.44497699 -0.047363002 46.402344 7
-0.46532401 0.059691999 46.753906 7
-0.43579099 0.16528299 46.250977 7
0.057181999 4.8569341 -38.081055 7
0.03994 4.8016362 -38.412109 7
0.024246 4.7412109 -38.713867 7
-0.0082860002 4.7158198 -39.329102 7
0.025314 4.5480962 -38.712891 7
0.017151 4.4693599 -38.875 7
-0.0079190005 4.4241939 -39.349609 7
0.14145701 1.225952 -36.713867 7
0.15604401 1.127319 -36.442383 7
0.14032701 1.045288 -36.737305 7
0.132736 0.95825201 -36.879883 7
0.13348401 0.77587903 -36.867188 7
-0.022368999 -2.7401121 -36.394531 7
-0.022537 -2.8297119 -36.387695 7
-0.0084300004 -2.9003911 -36.136719 7
0.0080869999 -2.966675 -35.84375 7
-0.42517099 -2.8874509 42.71875 7
-0.450813 -2.8170171 43.133789 7
-0.46136501 -2.729126 43.310547 7
-0.41705301 0.054687999 42.757812 7
-0.41383401 0.25048801 42.709961 7
0.013916 4.9251709 -35.716797 7
0.006416 4.8536382 -35.856445 7
-0.011238 4.8034668 -36.169922 7
-0.031601001 4.757812 -36.529297 7
-0.050941002 4.708374 -36.871094 7
0.115379 1.230347 -34.207031 7
0.118996 1.1437989 -34.144531 7
0.090469003 1.073853 -34.638672 7
0.108864 0.55505401 -34.323242 7
-0.046806 -2.9538569 -33.59375 7
-0.051430002 -3.0428469 -33.65625 7
-0.035629001 -3.1035161 -33.397461 7
-0.021667 -3.1656489 -33.169922 7
-0.40559399 -2.822876 39.224609 7
-0.38632199 -2.713135 38.951172 7
-0.408546 -2.6468511 39.28418 7
-0.44396999 -2.5922849 39.808594 7
-0.37998199 0.139038 39.015625 7
-0.37691501 0.31701699 38.973633 7
-0.344513 0.400879 38.499023 7
0.014618 4.9162598 -32.545898 7
0.00054899999 4.8668208 -32.777344 7
-0.024590001 4.8404541 -33.181641 7
-0.046432 4.8052979 -33.535156 7
-0.076370001 4.785522 -34.014648 7
-0.085662998 4.7205811 -34.170898 7
0.11776 1.4362791 -31.182617 7
0.116859 1.28186 -31.201172 7
0.072723001 1.151001 -31.900391 7
0.080817997 0.436768 -31.77832 7
0.110657 0.35278299 -31.305664 7
0.124054 0.118896 -31.09082 7
0.096946999 -0.039062001 -29.374023 7
-0.081580997 -3.194824 -31.759766 7
-0.057091001 -3.2380371 -31.390625 7
-0.047485001 -3.378052 -31.229492 7
-0.064727999 -3.4819341 -31.47168 7
-0.0094529996 5.0239258 -30.598633 7
-0.0039980002 4.9353032 -30.530273 7
-0.026138 4.9084468 -30.864258 7
-0.046326 4.875854 -31.169922 7
-0.072838001 4.8553472 -31.569336 7
-0.092254996 4.8178711 -31.863281 7
0.099280998 1.572876 -29.292969 7
0.086571001 1.508911 -29.484375 7
0.071479999 1.445801 -29.708984 7
0.092743002 1.358032 -29.397461 7
0.066192999 1.301147 -29.791992 7
0.0634 0.25671399 -29.875 7
0.109619 0.178589 -29.192383 7
0.068282999 0.108276 -29.800781 7
0.092635997 -0.030762 -27.091797 7
0.107529 -0.097778 -26.887695 7
0.071944997 -0.167725 -27.371094 7
0.091118 -0.234009 -27.109375 7
0.094452001 -0.30127001 -27.061523 7
-0.099831 -3.272095 -29.49707 7
-0.094833001 -3.3378911 -29.419922 7
-0.082938999 -3.3929441 -29.249023 7
-0.071083002 -3.447021 -29.078125 7
-0.31771901 0.57458502 33.4375 7
0.028236 4.9819341 -27.617188 7
0.013695 4.9458008 -27.824219 7
-0.003853 4.9156489 -28.072266 7
-0.016685 4.8739009 -28.256836 7
-0.045761 4.8666992 -28.660156 7
-0.065421999 4.837646 -28.936523 7
0.105537 1.585327 -26.897461 7
0.077278003 1.538574 -27.285156 7
0.107094 1.449463 -26.880859 7
0.092926003 1.391602 -27.076172 7
0.068526998 1.339355 -27.412109 7
0.067489997 0.037597999 -27.436523 7
0.063666999 -0.161621 -25.600586 7
0.055167999 -0.290894 -25.705078 7
0.063316002 -0.35363799 -25.599609 7
0.078322999 -0.414673 -25.40625 7
0.075911999 -0.47851601 -25.433594 7
-0.118813 -3.4237061 -27.640625 7
-0.116211 -3.488281 -27.595703 7
-0.101166 -3.533447 -27.396484 7
-0.091201998 -3.585815 -27.260742 7
-0.091330998 -3.653564 -27.25293 7
-0.029686 5.105103 -26.348633 7
-0.013298 5.0018311 -26.154297 7
-0.023856999 4.9598389 -26.297852 7
-0.042206001 4.868042 -26.551758 7
-0.067832999 4.8565669 -26.885742 7
0.090507999 1.743652 -25.18457 7
0.055098999 1.580322 -25.644531 7
0.092545003 1.489136 -25.170898 7
0.058212001 -0.32897899 -23.732422 7
0.072913997 -0.38574201 -23.555664 7
0.088600002 -0.44152799 -23.368164 7
0.061324999 -0.50671399 -23.688477 7
0.062706001 -0.56567401 -23.669922 7
0.078887999 -0.62036097 -23.474609 7
-0.099205002 -3.530762 -25.28418 7
-0.111237 -3.612793 -25.414062 7
-0.104927 -3.665771 -25.331055 7
-0.092681997 -3.7089839 -25.177734 7
-0.084891997 -3.7589109 -25.077148 7
-0.083038002 -3.8182371 -25.044922 7
-0.0086059999 5.0576172 -24.040039 7
-0.015045 5.0115972 -24.125977 7
-0.026397999 4.97644 -24.271484 7
-0.038238999 4.941772 -24.419922 7
-0.063362002 4.9353032 -24.723633 7
-0.069808997 4.887085 -24.80957 7
0.085685998 1.79895 -23.321289 7
0.086493999 1.6218261 -23.321289 7
0.045134999 -0.476318 -22.206055 7
0.056770001 -0.751831 -22.063477 7
0.055054002 -0.80786097 -22.078125 7
-0.097953998 -3.5892329 -23.459961 7
-0.110283 -3.66748 -23.584961 7
-0.116241 -3.7363279 -23.639648 7
-0.107895 -3.7813721 -23.538086 7
-0.102715 -3.831665 -23.470703 7
-0.032806002 5.05896 -22.549805 7
-0.042847 5.0245361 -22.670898 7
-0.059760999 4.947144 -22.87793 7
-0.079802997 4.933105 -23.105469 7
-0.080367997 4.875977 -23.123047 7
0.063193999 1.8642581 -21.910156 7
0.064735003 1.807251 -21.897461 7
0.054131001 1.7607419 -22.017578 7
0.071998999 1.690552 -21.823242 7
0.047646001 1.598267 -22.099609 7
0.054062001 -0.65185499 -20.578125 7
0.060738001 -0.70153803 -20.505859 7
0.036354002 -0.76208502 -20.755859 7
0.041336 -0.81274402 -20.701172 7
0.049706001 -0.86169398 -20.612305 7
0.0513 -0.913086 -20.591797 7
-0.10836 -3.868042 -21.875 7
-0.103935 -3.915405 -21.819336 7
-0.100098 -3.963501 -21.770508 7
-0.108154 -4.0323491 -21.839844 7
-0.124702 -4.1166992 -21.99707 7
-0.036591001 5.0584722 -20.961914 7
-0.042236 5.018188 -21.030273 7
-0.049026001 4.9797359 -21.110352 7
-0.054122999 4.9375 -21.173828 7
-0.085120998 4.9511719 -21.499023 7
-0.086273 4.899292 -21.522461 7
0.055580001 1.905762 -20.460938 7
0.062302001 1.847778 -20.396484 7
0.049849998 1.806396 -20.529297 7
0.063323997 1.7431639 -20.392578 7
0.060454998 1.693604 -20.425781 7
0.054198999 1.646606 -20.494141 7
0.023094 -0.67077601 -19.554688 7
0.019989001 -0.72155797 -19.582031 7
0.033103999 -0.766357 -19.452148 7
0.039032001 -0.81359899 -19.392578 7
0.0082860002 -0.87512201 -19.688477 7
0.019615 -0.92028803 -19.574219 7
0.025513001 -0.96728498 -19.513672 7
0.029037001 -1.015137 -19.477539 7
-0.143097 -3.848145 -20.78125 7
-0.142616 -3.89978 -20.766602 7
-0.135506 -3.940063 -20.688477 7
-0.127785 -3.9790039 -20.604492 7
-0.126114 -4.027832 -20.577148 7
-0.119583 -4.0681152 -20.504883 7
-0.139587 -4.1556401 -20.683594 7
-0.052391 5.089355 -19.689453 7
-0.058998 5.0540771 -19.763672 7
-0.070395999 5.0289311 -19.882812 7
-0.075820997 4.990356 -19.946289 7
-0.084824003 4.959229 -20.043945 7
-0.104599 4.9508061 -20.243164 7
-0.107025 4.9044189 -20.276367 7
0.044631999 1.898682 -19.236328 7
0.026611 1.8651119 -19.415039 7
0.047538999 1.797974 -19.216797 7
0.040305998 1.754761 -19.290039 7
0.032478001 1.711548 -19.371094 7
0.022857999 1.669678 -19.467773 7
0.038383 1.608398 -19.319336 7
0.010666 -0.81787097 -18.306641 7
-0.13681801 -3.8959961 -19.307617 7
-0.14399 -3.9571531 -19.361328 7
-0.149223 -4.0151372 -19.397461 7
-0.137154 -4.0430908 -19.280273 7
-0.133415 -4.0854492 -19.236328 7
-0.131584 -4.1307368 -19.208984 7
-0.060493 5.123291 -18.376953 7
-0.057960998 5.0705571 -18.367188 7
-0.063079998 5.03479 -18.424805 7
-0.072678 5.0089111 -18.520508 7
-0.077774003 4.9726558 -18.578125 7
-0.094383001 4.9611821 -18.736328 7
-0.107796 4.9422612 -18.867188 7
-0.106567 4.8913569 -18.866211 7
0.011757 1.902832 -18.25293 7
0.039795 1.832031 -18.001953 7
0.034637 1.790161 -18.051758 7
0.028214 1.749023 -18.114258 7
0.017967001 1.710693 -18.211914 7
0.032584999 1.65271 -18.082031 7
0.034462001 1.60498 -18.068359 7
0.00048799999 -0.91113299 -17.349609 7
0.0067369998 -1.173828 -17.276367 7
-0.15384699 -4.1699219 -18.197266 7
-0.14987899 -4.209106 -18.15332 7
-0.152016 -4.2590332 -18.161133 7
-0.162323 -4.3242192 -18.234375 7
-0.10186 5.1072998 -17.563477 7
-0.105255 5.069458 -17.605469 7
-0.106621 5.0272222 -17.628906 7
-0.118118 5.0068359 -17.736328 7
-0.120834 4.967041 -17.770508 7
-0.095900998 4.8681641 -17.572266 7
-0.097946003 4.827148 -17.600586 7
-0.0053329999 -0.90295398 -16.322266 7
0.011009 -0.97937 -16.18457 7
-0.0027079999 -1.027588 -16.291992 7
-0.0057370001 -1.112793 -16.310547 7
-0.001503 -1.152588 -16.273438 7
-0.0066300002 -1.197144 -16.310547 7
-0.16066 -4.161499 -17.082031 7
-0.154274 -4.193604 -17.022461 7
-0.152229 -4.233398 -16.995117 7
-0.160965 -4.2928472 -17.052734 7
-0.174026 -4.3604741 -17.143555 7
-0.175568 -4.4069819 -17.144531 7
-0.175667 -4.4509282 -17.134766 7
0.016334999 1.897705 -16.025391 7
0.015579 1.856934 -16.035156 7
0.015541 1.815308 -16.040039 7
0.014793 1.7744139 -16.049805 7
0.018332999 1.730103 -16.025391 7
0.0233 1.684448 -15.988281 7
0.018234 1.647095 -16.033203 7
0.018196 1.605469 -16.036133 7
-0.005295 -0.97192401 -15.337891 7
-0.0053790002 -1.011475 -15.334961 7
-0.0039369999 -1.050415 -15.321289 7
-0.18504301 -4.1810298 -16.195312 7
-0.176018 -4.206543 -16.118164 7
-0.17382801 -4.243896 -16.09082 7
-0.17392001 -4.2852778 -16.081055 7
-0.172501 -4.323853 -16.05957 7
-0.185555 -4.3890381 -16.144531 7
-0.195526 -4.4492192 -16.207031 7
0.0096890004 1.916504 -15.095703 7
0.0089109996 1.877808 -15.106445 7
0.010376 1.837158 -15.098633 7
0.0149 1.794067 -15.069336 7
0.015602 1.75415 -15.067383 7
0.025405999 1.707275 -14.996094 7
0.014771 1.676514 -15.080078 7
0.005661 1.644043 -15.15332 7
-0.0051500001 -0.99267602 -14.408203 7
-0.0028309999 -1.029053 -14.387695 7
-0.028664 -1.116699 -14.567383 7
-0.016768999 -1.185791 -14.474609 7
-0.012817 -1.221069 -14.443359 7
-0.021729 -1.2637939 -14.503906 7
-0.180428 -4.177124 -15.132812 7
-0.180519 -4.216187 -15.123047 7
-0.17739099 -4.2496338 -15.091797 7
-0.17586499 -4.2857671 -15.070312 7
-0.192963 -4.394897 -15.166016 7
-0.197083 -4.4416499 -15.18457 7
-0.081405997 5.0793462 -14.15625 7
-0.074219003 5.026123 -14.118164 7
-0.079842001 5.0014648 -14.168945 7
-0.083045997 4.9715581 -14.204102 7
-0.087852001 4.9448242 -14.248047 7
-0.099068001 4.9316411 -14.337891 7
-0.114273 4.9266362 -14.454102 7
-0.111084 4.8822021 -14.444336 7
-0.097503997 4.8156738 -14.361328 7
0.011543 1.58606 -14.1875 7
0.025901999 1.5386961 -14.087891 7
0.031470999 1.497925 -14.050781 7
0.032249 1.460693 -14.048828 7
0.020203 1.431885 -14.138672 7
0.01857 1.395752 -14.15332 7
0.028137 1.3525389 -14.087891 7
0.036896002 1.310303 -14.025391 7
-0.0049899998 -0.97790498 -13.608398 7
-0.0042110002 -1.013184 -13.600586 7
-0.0042949999 -1.048462 -13.59668 7
-0.016266 -1.125488 -13.671875 7
-0.022232 -1.164307 -13.709961 7
-0.018928999 -1.198486 -13.68457 7
-0.019081 -1.269775 -13.677734 7
-0.19667099 -4.180542 -14.359375 7
-0.187546 -4.238647 -14.277344 7
-0.186882 -4.3112788 -14.250977 7
-0.191208 -4.355957 -14.268555 7
-0.206627 -4.4586182 -14.347656 7
0.032074001 1.247192 -13.275391 7
0.03373 1.211426 -13.266602 7
0.025284 1.180908 -13.328125 7
0.017654 1.14978 -13.383789 7
0.030266 1.1081541 -13.298828 7
0.034439001 1.071045 -13.272461 7
0.038619999 1.034058 -13.24707 7
0.043632999 0.99682599 -13.213867 7
0.036026001 0.96533197 -13.268555 7
-0.015198 -1.000854 -12.917969 7
-0.0082400003 -1.065063 -12.866211 7
-0.0047530001 -1.097046 -12.84082 7
-0.0092540001 -1.133057 -12.867188 7
-0.024413999 -1.174927 -12.962891 7
-0.019173 -1.205811 -12.923828 7
-0.0086519998 -1.267578 -12.848633 7
-0.204079 -4.195435 -13.557617 7
-0.197144 -4.25354 -13.493164 7
-0.195526 -4.3208008 -13.460938 7
-0.192055 -4.3493652 -13.428711 7
-0.196602 -4.3928218 -13.444336 7
-0.20381901 -4.440918 -13.478516 7
0.03112 0.95227098 -12.557617 7
0.035521999 0.91711402 -12.53125 7
0.022194 0.889404 -12.620117 7
0.020377999 0.856812 -12.632812 7
0.030098001 0.81958002 -12.571289 7
0.033606999 0.78491199 -12.549805 7
0.039763998 0.74951202 -12.511719 7
0.049461 0.713135 -12.449219 7
0.047683999 0.680664 -12.463867 7
0.040543001 0.64977998 -12.510742 7
0.0065080002 -0.97570801 -12.100586 7
-0.001938 -1.011475 -12.149414 7
-0.0094450004 -1.047363 -12.194336 7
-0.013252 -1.081177 -12.213867 7
-0.004929 -1.109131 -12.15918 7
-0.002197 -1.1398931 -12.139648 7
-0.017166 -1.179932 -12.229492 7
-0.021880999 -1.214722 -12.255859 7
-0.013565 -1.242432 -12.200195 7
-0.018288 -1.2771 -12.226562 7
-0.201515 -4.1937261 -12.773438 7
-0.201599 -4.2271729 -12.762695 7
-0.204483 -4.2658691 -12.769531 7
-0.200829 -4.29248 -12.737305 7
-0.196236 -4.317627 -12.699219 7
-0.19445799 -4.3476558 -12.678711 7
-0.19175 -4.3757319 -12.650391 7
-0.196495 -4.4177251 -12.667969 7
-0.206856 -4.4702148 -12.71875 7
0.037346002 0.61755401 -11.950195 7
0.053107999 0.58166498 -11.853516 7
0.045609001 0.55224597 -11.901367 7
0.039992999 0.521851 -11.9375 7
0.034363002 0.49169901 -11.973633 7
0.049171001 0.45703101 -11.881836 7
0.051910002 0.42504901 -11.865234 7
0.049065001 0.394043 -11.884766 7
0.054588001 0.361572 -11.850586 7
0.047081001 0.33142099 -11.897461 7
-0.0053559998 -0.96264601 -11.499023 7
-0.0054020002 -0.99328601 -11.49707 7
-0.0084760003 -1.055542 -11.508789 7
-0.002663 -1.083374 -11.472656 7
-0.0066379998 -1.1156009 -11.492188 7
-0.0037690001 -1.144653 -11.472656 7
-0.19332901 -4.1616211 -11.96582 7
-0.206154 -4.2158198 -12.02832 7
-0.207214 -4.2495122 -12.023438 7
-0.204353 -4.2758789 -11.99707 7
-0.19953901 -4.2987061 -11.958008 7
-0.19864701 -4.3286128 -11.942383 7
-0.199692 -4.3618159 -11.9375 7
-0.197807 -4.389771 -11.916992 7
-0.196907 -4.4196782 -11.900391 7
-0.204842 -4.4658198 -11.933594 7
-0.112633 5.080811 -11.140625 7
-0.091178998 4.9741211 -11.046875 7
-0.082405001 4.925415 -11.010742 7
-0.086310998 4.9042969 -11.043945 7
-0.090232998 4.882812 -11.077148 7
-0.089272 4.8510742 -11.082031 7
-0.11171 4.8388672 -11.229492 7
0.034531001 0.31921399 -11.227539 7
0.048179999 0.28710899 -11.148438 7
0.050055999 0.227173 -11.137695 7
0.050995 0.197266 -11.131836 7
0.053902 0.167114 -11.114258 7
0.045044001 0.13793901 -11.166016 7
0.034286 0.108521 -11.230469 7
0.040100001 0.078002997 -11.195312 7
0.047897 0.047974002 -11.150391 7
0.035080001 -0.013306 -10.741211 7
0.039069999 -0.070679002 -10.71875 7
0.040047001 -0.099243 -10.712891 7
0.032822002 -0.128296 -10.751953 7
0.023567 -0.157837 -10.803711 7
0.029610001 -0.214844 -10.768555 7
0.035689998 -0.24304201 -10.733398 7
0.033523999 -0.300659 -10.742188 7
-0.014778 -0.98205602 -10.97168 7
-0.0149 -1.040527 -10.966797 7
-0.020081 -1.072266 -10.993164 7
-0.0099259997 -1.096313 -10.932617 7
-0.012093 -1.156006 -10.938477 7
-0.023391999 -1.191162 -10.999023 7
-0.031638999 -1.2249759 -11.041016 7
-0.020508001 -1.2774661 -10.972656 7
-0.20283499 -4.172852 -11.361328 7
-0.20813 -4.2424321 -11.369141 7
-0.21435501 -4.2836909 -11.391602 7
-0.212387 -4.3103032 -11.370117 7
-0.209465 -4.3651118 -11.333008 7
-0.20954099 -4.3952641 -11.323242 7
-0.20449799 -4.4156489 -11.285156 7
-0.208656 -4.4534912 -11.296875 7
-0.119232 5.095459 -10.516602 7
-0.116188 5.0604248 -10.511719 7
-0.098839 4.993896 -10.43457 7
-0.089684002 4.9458008 -10.397461 7
-0.092743002 4.9241939 -10.425781 7
-0.094779998 4.9003911 -10.448242 7
-0.096832 4.8764648 -10.470703 7
-0.095810004 4.8460689 -10.476562 7
-0.098885 4.8242192 -10.503906 7
-0.109085 4.8172612 -10.568359 7
-0.118263 4.8078609 -10.62793 7
0.033507999 -0.34057599 -10.15332 7
0.028091 -0.36889601 -10.180664 7
0.028038001 -0.39624 -10.179688 7
0.025864 -0.42419401 -10.191406 7
0.016151 -0.45361301 -10.241211 7
0.019301999 -0.48034701 -10.222656 7
0.023552001 -0.50695801 -10.198242 7
0.024559001 -0.53405797 -10.191406 7
0.024513001 -0.56152302 -10.19043 7
0.018021001 -0.59057599 -10.223633 7
0.016891001 -0.61840802 -10.227539 7
-0.013847 -0.98925799 -10.362305 7
-0.013916 -1.017212 -10.360352 7
-0.019340999 -1.0476069 -10.385742 7
-0.016174 -1.07373 -10.366211 7
-0.0055010002 -1.096436 -10.306641 7
-0.010918 -1.126953 -10.332031 7
-0.010979 -1.154541 -10.330078 7
-0.020706 -1.187622 -10.37793 7
-0.031493999 -1.221313 -10.432617 7
-0.030471999 -1.2487791 -10.423828 7
-0.023010001 -1.272339 -10.380859 7
-0.19912 -4.164062 -10.654297 7
-0.204567 -4.2020259 -10.671875 7
-0.208939 -4.2384028 -10.68457 7
-0.21331801 -4.2745361 -10.695312 7
-0.214462 -4.3049321 -10.691406 7
-0.21021999 -4.3259282 -10.660156 7
-0.20922101 -4.3525391 -10.642578 7
-0.20822901 -4.3789058 -10.626953 7
-0.20723701 -4.405396 -10.611328 7
-0.21161699 -4.4420171 -10.623047 7
-0.209518 -4.4665532 -10.600586 7
-0.094825998 0.668091 13.333984 7
-0.077193998 0.69079602 13.240234 7
-0.07164 0.71728498 13.209961 7
-0.073798999 0.74585003 13.219727 7
-0.075951003 0.77465802 13.229492 7
-0.075911999 0.80261201 13.227539 7
-0.077262998 0.831177 13.231445 7
-0.076110996 0.85876501 13.223633 7
-0.077170998 0.88696301 13.227539 7
-0.077118002 0.915039 13.225586 7
-0.077087 0.94299299 13.222656 7
0.021088 -0.32751501 -9.7148438 7
0.01767 -0.35437 -9.7314453 7
0.017624 -0.38073701 -9.7304688 7
0.015343 -0.40759301 -9.7412109 7
0.016403001 -0.433716 -9.734375 7
0.0085140001 -0.461548 -9.7724609 7
0.0084760003 -0.48803699 -9.7724609 7
0.012894 -0.51342797 -9.7480469 7
0.017325999 -0.538818 -9.7236328 7
0.018386999 -0.56469703 -9.7167969 7
0.019463001 -0.590698 -9.7099609 7
0.020531001 -0.61682099 -9.7021484 7
0.013763 -0.64502001 -9.7353516 7
0.001396 -0.67517102 -9.796875 7
0.00135 -0.70178199 -9.7949219 7
0.0080030002 -0.72595203 -9.7587891 7
0.009087 -0.751831 -9.7519531 7
0.010139 -0.77771002 -9.7431641 7
0.0067210002 -0.80541998 -9.7587891 7
0.0021899999 -0.83349597 -9.7792969 7
-0.0045850002 -0.86267102 -9.8115234 7
-0.003517 -0.88867199 -9.8037109 7
-0.0069269999 -0.91674799 -9.8183594 7
-0.011467 -0.945068 -9.8388672 7
-0.01152 -0.971802 -9.8369141 7
-0.017151 -1.000854 -9.8632812 7
-0.01609 -1.027222 -9.8554688 7
-0.012794 -1.052124 -9.8359385 7
-0.025177 -1.084839 -9.8955078 7
-0.012917 -1.105469 -9.8300781 7
-0.0096049998 -1.130127 -9.8105469 7
-0.014137 -1.159058 -9.8300781 7
-0.016418001 -1.18689 -9.8398438 7
-0.022087 -1.216553 -9.8642578 7
-0.029975999 -1.247681 -9.9023438 7
-0.024436999 -1.27124 -9.8710938 7
-0.200996 -4.1759028 -10.074219 7
-0.204437 -4.209106 -10.080078 7
-0.20787799 -4.24231 -10.085938 7
-0.211327 -4.275269 -10.091797 7
-0.218132 -4.3146968 -10.115234 7
-0.21595 -4.3378911 -10.092773 7
-0.210403 -4.3548579 -10.055664 7
-0.20823701 -4.377686 -10.03418 7
-0.207184 -4.4029541 -10.018555 7
-0.21061701 -4.4361572 -10.024414 7
-0.209564 -4.46106 -10.008789 7
-0.311378 -6.0926509 -9.796875 7
-0.30469501 -6.1026611 -9.7509766 7
-0.30815101 -6.1374512 -9.7519531 7
-0.316109 -6.183228 -9.7734385 7
-0.32070199 -6.2209468 -9.7783203 7
-0.32528701 -6.2585449 -9.7832031 7
-0.33323699 -6.30481 -9.8037109 7
-0.34005699 -6.3482671 -9.8193359 7
-0.34351301 -6.3831792 -9.8183594 7
-0.078727998 0.71594203 12.743164 7
-0.080994003 0.74365199 12.753906 7
-0.080940001 0.77038598 12.751953 7
-0.083191 0.79797399 12.760742 7
-0.084305003 0.82531703 12.765625 7
-0.080811001 0.85095203 12.745117 7
-0.081909001 0.87817401 12.749023 7
-0.080727004 0.90466303 12.742188 7
-0.080681004 0.93139601 12.739258 7
-0.082938999 0.95922899 12.749023 7
-0.0083999997 -0.648682 -9.3603516 7
-0.0084380005 -0.67407203 -9.359375 7
-0.0084990002 -0.69946301 -9.3574219 7
0.00080099999 -0.72192401 -9.3105469 7
0.0042570001 -0.74597198 -9.2910156 7
0.006546 -0.77050799 -9.2773438 7
0.008835 -0.795044 -9.2646484 7
-0.00174 -0.82409698 -9.3134766 7
-0.012299 -0.85351598 -9.3632812 7
-0.018196 -0.88147002 -9.390625 7
-0.01123 -0.90405297 -9.3535156 7
-0.0054629999 -0.92688 -9.3212891 7
-0.005508 -0.95227098 -9.3193359 7
-0.0020369999 -0.97619599 -9.3007812 7
-0.0091089997 -1.004761 -9.3320312 7
-0.018524 -1.0344239 -9.375 7
-0.024413999 -1.062622 -9.4013672 7
-0.027953999 -1.090088 -9.4160156 7
-0.024506001 -1.11377 -9.3964844 7
-0.018723 -1.136353 -9.3652344 7
-0.018784 -1.161865 -9.3623047 7
-0.021172 -1.188599 -9.3701172 7
-0.016548 -1.2113039 -9.3447266 7
-0.032951001 -1.246094 -9.421875 7
-0.038857002 -1.2750241 -9.4472656 7
-0.32054901 -6.1018071 -9.2099609 7
-0.318275 -6.1212158 -9.1855469 7
-0.31364399 -6.1347661 -9.1494141 7
-0.31256101 -6.1567378 -9.1298828 7
-0.31145501 -6.1787109 -9.1103516 7
-0.31036401 -6.2008061 -9.0898438 7
-0.319832 -6.249023 -9.1152344 7
-0.32226601 -6.2797852 -9.1103516 7
-0.330551 -6.325439 -9.1308594 7
-0.33533499 -6.361938 -9.1347656 7
-0.338943 -6.3959961 -9.1347656 7
-0.012039 -0.963745 -8.8955078 7
-0.015738999 -0.98974597 -8.9111328 7
-0.023094 -1.0174561 -8.9423828 7
-0.014626 -1.037964 -8.8994141 7
-0.017105 -1.063477 -8.9091797 7
-0.01107 -1.084717 -8.8779297 7
-0.019646 -1.113403 -8.9150391 7
-0.020912001 -1.13855 -8.9179688 7
-0.020981001 -1.162964 -8.9150391 7
-0.023468001 -1.188599 -8.9228516 7
-0.019866999 -1.210938 -8.9033203 7
-0.030869 -1.241577 -8.9511719 7
-0.024834 -1.262573 -8.9199219 7
-0.325203 -6.0957031 -8.6386719 7
-0.316719 -6.0986328 -8.5898438 7
-0.31066099 -6.1071782 -8.5517578 7
-0.310738 -6.1308589 -8.5361328 7
-0.30837199 -6.1481929 -8.5117188 7
-0.30720499 -6.1687012 -8.4931641 7
-0.31706199 -6.2165532 -8.5175781 7
-0.32081601 -6.249146 -8.5166016 7
-0.32946 -6.294189 -8.5371094 7
-0.33810401 -6.3391109 -8.5556641 7
-0.334503 -6.3535161 -8.5263672 7
-0.34192699 -6.3955078 -8.5400391 7
5.3e-05 -0.96130401 -8.3759766 7
0.0025559999 -0.98327601 -8.3623047 7
0.0025249999 -1.006348 -8.3603516 7
-7.5999997e-05 -1.03064 -8.3691406 7
-0.0052189999 -1.056396 -8.3896484 7
-0.016716 -1.085083 -8.4375 7
-0.020592 -1.110229 -8.4511719 7
-0.018089 -1.132324 -8.4375 7
-0.0079570003 -1.150269 -8.3896484 7
-0.0092850002 -1.17395 -8.3925781 7
-0.009331 -1.197266 -8.3896484 7
-0.010658 -1.221069 -8.3916016 7
-0.023445001 -1.251465 -8.4453115 7
-0.027298 -1.276855 -8.4599609 7
-0.21021301 -4.4423828 -8.3603516 7
-0.21282201 -4.4700928 -8.3613281 7
-0.315422 -6.0892329 -7.967773 7
-0.31550601 -6.1113281 -7.953125 7
-0.30918899 -6.1175542 -7.9130859 7
-0.30158201 -6.1208501 -7.8701172 7
-0.29910299 -6.136353 -7.8457031 7
-0.30557299 -6.1741939 -7.8554692 7
-0.30819699 -6.2023931 -7.8505859 7
-0.31465101 -6.2402339 -7.859375 7
-0.313454 -6.2589111 -7.8398442 7
-0.32503501 -6.3096919 -7.867188 7
-0.331505 -6.3478999 -7.875977 7
-0.33412901 -6.3763428 -7.8691411 7
-0.082282998 -1.861938 11.201172 7
-0.085677996 4.7851558 -7.5625 7
-0.081871003 4.734375 -7.5693359 7
-0.083145 4.7155762 -7.5849609 7
-0.099655002 4.706665 -7.6738281 7
-0.020431999 -0.97546399 -8.0605469 7
-0.024460001 -0.99963403 -8.0751953 7
-0.024498001 -1.022095 -8.0732422 7
-0.015282 -1.0400389 -8.03125 7
-0.014 -1.06189 -8.0234385 7
-0.016693 -1.085327 -8.0322266 7
-0.012764 -1.105835 -8.0126953 7
-0.024727 -1.134277 -8.0605469 7
-0.02478 -1.156494 -8.0576172 7
-0.019531 -1.176025 -8.0322266 7
-0.018265 -1.197632 -8.0234385 7
-0.026253 -1.224365 -8.0546885 7
-0.024963001 -1.245972 -8.046875 7
-0.025009001 -1.268433 -8.0439453 7
-0.087791003 -1.903198 10.813477 7
-0.087775998 -1.880981 10.818359 7
-0.098563999 -1.867432 10.867188 7
-0.094460003 -1.81958 10.859375 7
-0.079567 -1.7854 10.801758 7
-0.076835997 -1.761108 10.794922 7
-0.076820001 -1.73877 10.799805 7
-0.074104004 -1.714478 10.791992 7
-0.080817997 -1.6973881 10.824219 7
-0.082145996 -1.676025 10.833984 7
-0.078071997 -1.650879 10.820312 7
-0.073996998 -1.62561 10.807617 7
-0.073974997 -1.603271 10.811523 7
-0.095450997 4.794312 -7.1308589 7
-0.099426001 4.7823491 -7.15625 7
-0.100731 4.7645259 -7.172852 7
-0.102043 4.7467041 -7.1894531 7
-0.099426001 4.7209468 -7.1894531 7
-0.102051 4.705811 -7.210938 7
-0.111305 4.704102 -7.257812 7
-0.119217 4.699585 -7.2988281 7
-0.120529 4.681396 -7.3154302 7
-0.113937 4.6473389 -7.3017578 7
-0.108658 4.6158452 -7.2919922 7
-0.108635 4.5950928 -7.3027339 7
-0.108627 4.5742192 -7.3144531 7
-0.105988 4.5480962 -7.3154302 7
-0.100723 4.5170898 -7.3037109 7
-0.105995 4.5065918 -7.3369141 7
-0.105995 4.4855962 -7.3466802 7
-0.202759 -4.1767578 -7.499023 7
-0.206963 -4.2052002 -7.5039058 7
-0.21116599 -4.233521 -7.5097661 7
-0.216812 -4.285645 -7.5097661 7
-0.21688101 -4.3066411 -7.5 7
-0.21692701 -4.3275151 -7.4892578 7
-0.21843 -4.3721919 -7.4746089 7
-0.221268 -4.398315 -7.4736328 7
-0.217178 -4.4116211 -7.4482422 7
-0.21175399 -4.4432368 -7.407227 7
-0.218758 -4.4768071 -7.4199219 7
-0.073959 -1.8988039 10.355469 7
-0.073921002 -1.877686 10.359375 7
-0.083755001 -1.864502 10.404297 7
-0.089363001 -1.8479 10.430664 7
-0.080894001 -1.819824 10.400391 7
-0.075255997 -1.793823 10.382812 7
-0.062592 -1.762817 10.336914 7
-0.066765003 -1.744751 10.357422 7
-0.061142001 -1.71936 10.339844 7
-0.063904002 -1.700439 10.354492 7
-0.075149998 -1.687744 10.404297 7
-0.075111002 -1.666382 10.408203 7
-0.068076998 -1.639771 10.383789 7
-0.063819997 -1.6156009 10.370117 7
-0.089217998 4.7935791 -6.6269531 7
-0.093337998 4.7832031 -6.6533198 7
-0.093330003 4.7640381 -6.6650391 7
-0.093330003 4.744751 -6.6757808 7
-0.091949001 4.7225342 -6.6826172 7
-0.096077003 4.7116699 -6.7070308 7
-0.098830998 4.697998 -6.7275391 7
-0.101585 4.684082 -6.749023 7
-0.104317 4.6702881 -6.7695308 7
-0.111198 4.664917 -6.8066411 7
-0.100197 4.6228032 -6.7773442 7
-0.101562 4.6060791 -6.7929692 7
-0.098807998 4.5809331 -6.7939448 7
-0.098793 4.5614009 -6.8056641 7
-0.101555 4.5473628 -6.8251948 7
-0.098784998 4.5220952 -6.827148 7
-0.096031003 4.4970698 -6.827148 7
-0.222633 -4.4326172 -7.0341802 7
-0.216942 -4.441895 -7.0039058 7
-0.21413399 -4.456543 -6.983398 7
-0.046890002 0.96081501 10.074219 7
-0.048301999 0.98193401 10.077148 7
-0.048271 1.002563 10.075195 7
-0.045334 1.021606 10.061523 7
-0.045288 1.042114 10.058594 7
-0.045258 1.062622 10.056641 7
-0.055411998 1.0880131 10.092773 7
-0.051018 1.106567 10.074219 7
-0.052437 1.127563 10.076172 7
-0.052391 1.1480711 10.073242 7
-0.050911002 1.167969 10.06543 7
-0.056685999 1.191406 10.084961 7
-0.058113001 1.212769 10.087891 7
-0.058067001 1.233276 10.084961 7
-0.059494 1.254517 10.087891 7
-0.059455998 1.2750241 10.084961 7
-0.094673 4.4909668 -6.4091802 7
-0.20886999 -4.1768799 -6.6894531 7
-0.22233599 -4.2193599 -6.7236328 7
-0.222389 -4.23877 -6.7148442 7
-0.216492 -4.247314 -6.6845698 7
-0.22847 -4.2875981 -6.7138672 7
-0.228539 -4.3067632 -6.703125 7
-0.216675 -4.3044429 -6.6523442 7
-0.216728 -4.3236079 -6.6425781 7
-0.22125199 -4.350708 -6.6474609 7
-0.234734 -4.394043 -6.6816411 7
-0.221375 -4.3886719 -6.6269531 7
-0.22142 -4.4077148 -6.6162109 7
-0.23340601 -4.44873 -6.6455078 7
-0.22898901 -4.4594731 -6.6191411 7
-0.217117 -4.4562988 -6.5693359 7
-0.075668 -1.914307 9.6572266 7
-0.074134998 -1.893555 9.65625 7
-0.074111998 -1.874023 9.6601562 7
-0.068047002 -1.849609 9.6425781 7
-0.071060002 -1.83252 9.6582031 7
-0.074059002 -1.81543 9.6738281 7
-0.081596002 -1.802002 9.7060547 7
-0.06797 -1.771484 9.6601562 7
-0.061905 -1.747192 9.6425781 7
-0.061882 -1.727661 9.6464844 7
-0.061859 -1.708252 9.6503906 7
-0.055808999 -1.684082 9.6337891 7
-0.052756999 -1.662354 9.625 7
-0.064834997 -1.651733 9.6738281 7
-0.067841001 -1.6343991 9.6894531 7
-0.066307001 -1.61377 9.6875 7
-0.056961 0.967529 9.7695312 7
-0.055411998 0.98669398 9.7617188 7
-0.049355 1.0037839 9.7373047 7
-0.046294998 1.021973 9.7236328 7
-0.047759999 1.04248 9.7265615 7
-0.052276999 1.0643311 9.7421885 7
-0.049224999 1.082642 9.7285156 7
-0.049187001 1.102173 9.7255859 7
-0.055190999 1.125 9.7451172 7
-0.067244999 1.150879 9.7880859 7
-0.059654001 1.16687 9.7568359 7
-0.053566001 1.18335 9.7314453 7
-0.061096001 1.207031 9.7568359 7
-0.068604 1.230835 9.7822266 7
-0.073112004 1.253418 9.796875 7
-0.064011 1.268066 9.7597656 7
-0.063285999 -1.892822 9.3125 7
-0.064834997 -1.875488 9.3222656 7
-0.069518998 -1.860474 9.3427734 7
-0.067932002 -1.840332 9.3417969 7
-0.072609 -1.825562 9.3623047 7
-0.071029998 -1.80542 9.3613281 7
-0.075691 -1.790405 9.3828115 7
-0.069420002 -1.766479 9.3642578 7
-0.056892 -1.738037 9.3242188 7
-0.050613001 -1.7146 9.3066406 7
-0.061531 -1.704224 9.3486328 7
-0.056846999 -1.6817631 9.3369141 7
-0.055252001 -1.661743 9.3349609 7
-0.059928998 -1.646484 9.3554688 7
-0.063026004 -1.630005 9.3710938 7
-0.058327001 -1.607788 9.3574219 7
-0.055077001 0.97082502 9.4667969 7
-0.055054002 0.98999 9.4648438 7
-0.048767 1.006104 9.4394531 7
-0.045600999 1.0238039 9.4257812 7
-0.047150001 1.043335 9.4287109 7
-0.043983001 1.060913 9.4150391 7
-0.045508999 1.080688 9.4179688 7
-0.057976 1.1055911 9.4609385 7
-0.056396 1.124023 9.453125 7
-0.056357998 1.143066 9.4501953 7
-0.059441 1.163574 9.4580078 7
-0.059425 1.182739 9.4560547 7
-0.057815999 1.200806 9.4472656 7
-0.064041004 1.223267 9.4677734 7
-0.056198001 1.238037 9.4365234 7
-0.059287999 1.2587889 9.4453115 7
-0.059250001 1.277832 9.4423828 7
-0.22260299 -4.4802251 -5.7900391 7
-0.221054 -4.4942632 -5.7753911 7
-0.225952 -4.5369868 -5.7675781 7
-0.227608 -4.5570068 -5.7617192 7
-0.058288999 -1.904541 8.9648438 7
-0.064758003 -1.89209 8.9912109 7
-0.059868 -1.8701169 8.9794922 7
-0.061469998 -1.835693 8.9931641 7
-0.067916997 -1.80481 9.0244141 7
-0.064644001 -1.78418 9.0175781 7
-0.067863002 -1.768677 9.0322266 7
-0.046753 -1.734497 8.9648438 7
-0.048386 -1.717651 8.9755859 7
-0.048363 -1.699707 8.9804688 7
-0.041870002 -1.67688 8.9619141 7
-0.049927 -1.647095 8.9970703 7
-0.051529001 -1.612305 9.0107422 7
-0.048278999 0.966919 9.125 7
-0.038527999 0.98083502 9.0898438 7
-0.04174 1.000488 9.0986328 7
-0.036858 1.0163569 9.0800781 7
-0.033585001 1.0330811 9.0664062 7
-0.038406 1.053589 9.0800781 7
-0.038376 1.071533 9.078125 7
-0.033493001 1.08728 9.0585938 7
-0.043166999 1.110352 9.0888672 7
-0.038284 1.126099 9.0693359 7
-0.043106001 1.146606 9.0839844 7
-0.041466001 1.16394 9.0761719 7
-0.049529999 1.1862791 9.1005859 7
-0.057601999 1.208984 9.1259766 7
-0.064041004 1.230835 9.1455078 7
-0.057533 1.245483 9.1201172 7
-0.32704201 -6.1157231 -4.4667969 7
-0.33375499 -6.1459961 -4.46875 7
-0.33048201 -6.1517329 -4.4462891 7
-0.33886701 -6.1859131 -4.4501948 7
-0.33391601 -6.1875 -4.4248052 7
-0.33898199 -6.213501 -4.420898 7
-0.342361 -6.2354741 -4.414062 7
-0.32744601 -6.2121582 -4.3642578 7
-0.327499 -6.2259521 -4.3505859 7
-0.32422599 -6.2310791 -4.327148 7
-0.324287 -6.244751 -4.313477 7
-0.322678 -6.2539058 -4.2939448 7
-0.32273099 -6.2674561 -4.280273 7
-0.32446301 -6.2851558 -4.2685552 7
-0.32784301 -6.3067632 -4.2617192 7
-0.317909 -6.2950439 -4.2236328 7
-0.31797001 -6.308228 -4.2080078 7
-0.32468399 -6.338501 -4.2089839 7
-0.34136999 -6.394043 -4.2304692 7
-0.067436002 -1.891235 8.6943359 7
-0.075828999 -1.880981 8.7255859 7
-0.064041004 -1.854126 8.6914062 7
-0.062339999 -1.835449 8.6904297 7
-0.067374997 -1.8223881 8.7109385 7
-0.069038004 -1.806396 8.7216797 7
-0.062293999 -1.783569 8.703125 7
-0.074051 -1.775635 8.7460938 7
-0.075714 -1.759644 8.7558594 7
-0.062240999 -1.731812 8.7158203 7
-0.053824998 -1.70813 8.6933594 7
-0.050446 -1.6882319 8.6865234 7
-0.052108999 -1.672485 8.6953115 7
-0.048728999 -1.65271 8.6884766 7
-0.057128999 -1.6413569 8.7207031 7
-0.065521002 -1.630371 8.7519531 7
-0.062141001 -1.610474 8.7451172 7
-0.043754999 0.96350098 8.8125 7
-0.045403 0.98168898 8.8154297 7
-0.050407 1.001587 8.8300781 7
-0.045341 1.0168459 8.8115234 7
-0.041962001 1.032715 8.7978516 7
-0.040252998 1.049561 8.7900391 7
-0.043586999 1.068481 8.7988281 7
-0.045226999 1.086792 8.8017578 7
-0.036796998 1.100098 8.7705078 7
-0.038451999 1.118408 8.7734385 7
-0.038414001 1.1357419 8.7714844 7
-0.045097001 1.156494 8.7910156 7
-0.051773001 1.17749 8.8105469 7
-0.051757999 1.195068 8.8076172 7
-0.063460998 1.218994 8.8417969 7
-0.053367998 1.230957 8.8076172 7
-0.046622999 1.244873 8.7822266 7
-0.051628001 1.2648931 8.7958984 7
-0.13542201 4.2338872 7.9619141 7
-0.130356 4.2402339 7.9375 7
-0.13028701 4.2556152 7.9277339 7
-0.12690701 4.264771 7.9082031 7
-0.118492 4.264648 7.874023 7
-0.121796 4.2861328 7.874023 7
-0.12510701 4.3076172 7.8730469 7
-0.121689 4.3166499 7.8525391 7
-0.121658 4.3317871 7.84375 7
-0.119934 4.3438721 7.828125 7
-0.123245 4.365356 7.827148 7
-0.12487 4.383667 7.8212891 7
-0.124825 4.3988042 7.8105469 7
-0.13816801 4.4394531 7.8378911 7
-0.146477 4.4707031 7.8505859 7
-0.24099 -4.4890141 -5.0986328 7
-0.234161 -4.4916992 -5.070312 7
-0.22561599 -4.4908452 -5.0361328 7
-0.230812 -4.5157471 -5.0400391 7
-0.22913399 -4.52771 -5.0244141 7
-0.227478 -4.5396729 -5.0087891 7
-0.23268101 -4.5646968 -5.0117192 7
-0.23273499 -4.5797119 -5 7
-0.232796 -4.594727 -4.9902339 7
-0.239723 -4.6231689 -4.9970698 7
-0.23803701 -4.6350098 -4.9824219 7
-0.241539 -4.6567378 -4.9794922 7
-0.25019801 -4.688354 -4.9912109 7
-0.24164601 -4.6867681 -4.9570308 7
-0.25718701 -4.7319341 -4.9863281 7
-0.25206 -4.736938 -4.9619141 7
-0.25385299 -4.755249 -4.954102 7
-0.25562301 -4.7736821 -4.9482422 7
-0.25910899 -4.7954102 -4.9443359 7
-0.32966599 -6.2637939 -3.832031 7
-0.32973501 -6.276123 -3.8173831 7
-0.33322901 -6.2971191 -3.8095701 7
-0.33155799 -6.3050542 -3.7910161 7
-0.33334401 -6.3216548 -3.7792971 7
-0.33512101 -6.3382568 -3.7675779 7
-0.338631 -6.3591309 -3.7597661 7
-0.33867601 -6.3713379 -3.7451169 7
-0.33355701 -6.3704829 -3.719727 7
-0.34051499 -6.3999019 -3.717773 7
-0.080200002 -1.915161 8.4433594 7
-0.071487002 -1.891113 8.4208984 7
-0.071448997 -1.874634 8.4248047 7
-0.073181003 -1.859375 8.4345703 7
-0.069687001 -1.8399661 8.4277344 7
-0.069672003 -1.82312 8.4326172 7
-0.078362003 -1.8137209 8.4638672 7
-0.081840999 -1.799683 8.4794922 7
-0.071381003 -1.77478 8.4511719 7
-0.078316003 -1.76355 8.4765615 7
-0.071350001 -1.741333 8.4599609 7
-0.06089 -1.716675 8.4316406 7
-0.055672001 -1.695923 8.4199219 7
-0.059119999 -1.682129 8.4335938 7
-0.057365 -1.664185 8.4326172 7
-0.055603001 -1.64624 8.4306641 7
-0.062546 -1.634766 8.4570312 7
-0.060791001 -1.616699 8.4550781 7
-0.040176 0.96008301 8.5244141 7
-0.043616999 0.97839397 8.5332031 7
-0.038361002 0.99291998 8.5136719 7
-0.034859002 1.0081789 8.5009766 7
-0.034828 1.0250241 8.4980469 7
-0.029579001 1.039307 8.4785156 7
-0.034775 1.058472 8.4931641 7
-0.034729 1.075195 8.4902344 7
-0.036469001 1.092896 8.4941406 7
-0.034690998 1.108887 8.4873047 7
-0.034667999 1.12561 8.484375 7
-0.039848 1.144897 8.4980469 7
-0.041556999 1.1624759 8.5009766 7
-0.051956002 1.184814 8.53125 7
-0.053665001 1.202759 8.5341797 7
-0.048431002 1.216675 8.5146484 7
-0.048377998 1.233521 8.5107422 7
-0.057045002 1.255249 8.5361328 7
-0.046585001 1.265991 8.5 7
-0.142349 4.164185 7.6904302 7
-0.144035 4.1821289 7.6855469 7
-0.142242 4.1938481 7.6699219 7
-0.135277 4.1960449 7.641602 7
-0.149094 4.2358398 7.6689448 7
-0.149033 4.2506099 7.6601558 7
-0.147255 4.262207 7.6445308 7
-0.13682599 4.257812 7.6064448 7
-0.12812001 4.2565918 7.5732422 7
-0.129814 4.2744141 7.5673828 7
-0.126305 4.2824712 7.5488281 7
-0.126266 4.2971191 7.539062 7
-0.124504 4.308228 7.5244141 7
-0.126183 4.3259282 7.5195308 7
-0.129601 4.3468022 7.5185552 7
-0.127823 4.3579102 7.5029302 7
-0.12605999 4.3691411 7.4882808 7
-0.129471 4.3900151 7.4863281 7
-0.12596101 4.3977051 7.467773 7
-0.136314 4.4318848 7.484375 7
-0.14492799 4.462769 7.4970698 7
-0.144852 4.4770508 7.485352 7
-0.33371001 -6.0933838 -3.592773 7
-0.33732599 -6.11377 -3.5839839 7
-0.33381701 -6.117065 -3.5625 7
-0.33387801 -6.1286621 -3.5488279 7
-0.337486 -6.1491699 -3.5410161 7
-0.341095 -6.1694341 -3.5341799 7
-0.334023 -6.1636958 -3.5048831 7
-0.33407599 -6.175293 -3.4902339 7
-0.341263 -6.2043462 -3.4892581 7
-0.344879 -6.224731 -3.4814451 7
-0.350288 -6.2495122 -3.4775391 7
-0.343216 -6.2432861 -3.4482419 7
-0.348602 -6.2680659 -3.4443359 7
-0.34330699 -6.2661128 -3.4189451 7
-0.34336099 -6.2775879 -3.4042971 7
-0.34164399 -6.2845459 -3.3857419 7
-0.33989701 -6.2915039 -3.367188 7
-0.32926199 -6.2758789 -3.332031 7
-0.329308 -6.2871089 -3.3173831 7
-0.33113101 -6.302856 -3.3066411 7
-0.331184 -6.3139648 -3.2910161 7
-0.34016401 -6.3475342 -3.2919919 7
-0.336647 -6.3496089 -3.2705081 7
-0.338478 -6.3649902 -3.2587891 7
-0.34566501 -6.394043 -3.2568359 7
-0.33859301 -6.3869629 -3.2285161 7
-0.088394001 -1.917236 8.1972656 7
-0.073982 -1.889282 8.1591797 7
-0.084778003 -1.882202 8.1953115 7
-0.077568002 -1.8601069 8.1796885 7
-0.077545002 -1.844116 8.1835938 7
-0.077545002 -1.828003 8.1884766 7
-0.082924001 -1.8162839 8.2080078 7
-0.081115998 -1.7987061 8.2070312 7
-0.077477001 -1.7800291 8.2011719 7
-0.079262003 -1.765137 8.2109385 7
-0.072059996 -1.74353 8.1933594 7
-0.063042 -1.7205811 8.1708984 7
-0.068428002 -1.708618 8.1904297 7
-0.064819001 -1.689941 8.1835938 7
-0.064804003 -1.673828 8.1875 7
-0.064788997 -1.657715 8.1923828 7
-0.064773999 -1.641724 8.1962891 7
-0.068351999 -1.628296 8.2099609 7
-0.073746003 -1.616089 8.2314453 7
-0.039925002 0.974365 8.2626953 7
-0.039909001 0.99047899 8.2607422 7
-0.039879002 1.006714 8.2578115 7
-0.047035001 1.0263669 8.2783203 7
-0.052406002 1.044922 8.2929688 7
-0.041595001 1.0562741 8.2568359 7
-0.041556999 1.0723881 8.2539062 7
-0.04332 1.089478 8.2568359 7
-0.045097001 1.106567 8.2597656 7
-0.045067001 1.122681 8.2578115 7
-0.045035999 1.138916 8.2548828 7
-0.043212999 1.154053 8.2460938 7
-0.046783 1.172119 8.2548828 7
-0.044952001 1.187378 8.2460938 7
-0.041320998 1.20166 8.2324219 7
-0.048477001 1.22168 8.2519531 7
-0.046654001 1.236816 8.2431641 7
-0.048424002 1.253906 8.2460938 7
-0.051994 1.272339 8.2539062 7
-0.134895 4.1717529 7.3310552 7
-0.136658 4.1888428 7.3261719 7
-0.147339 4.2220459 7.34375 7
-0.141922 4.22644 7.3193359 7
-0.149048 4.25354 7.328125 7
-0.15258799 4.2740479 7.327148 7
-0.15255 4.2879639 7.3164058 7
-0.143555 4.2853999 7.2841802 7
-0.138138 4.289185 7.2607422 7
-0.13272899 4.2932129 7.2373052 7
-0.13088199 4.3034668 7.2216802 7
-0.130844 4.3171391 7.2119141 7
-0.13259099 4.3343511 7.2060552 7
-0.13076 4.3444819 7.1914058 7
-0.130714 4.3581538 7.1816411 7
-0.132477 4.3753662 7.1767578 7
-0.12884501 4.381958 7.15625 7
-0.127014 4.3920898 7.1425781 7
-0.12876099 4.4090581 7.1367192 7
-0.134094 4.4329829 7.139648 7
-0.134041 4.4465332 7.1279302 7
-0.141151 4.4737549 7.1357422 7
-0.106308 4.7979741 -3.9326169 7
-0.102753 4.777832 -3.9355471 7
-0.09922 4.75769 -3.938477 7
-0.092124999 4.72998 -3.933594 7
-0.090340003 4.713501 -3.9404299 7
-0.095650002 4.7116699 -3.9638669 7
-0.095627002 4.6989751 -3.9746089 7
-0.097388998 4.6895752 -3.9912109 7
-0.095611997 4.6729741 -3.9970701 7
-0.092049003 4.652832 -4 7
-0.090286002 4.636353 -4.0058589 7
-0.093803003 4.6304932 -4.0253911 7
-0.097351 4.6246338 -4.0449219 7
-0.099105999 4.6152339 -4.0595698 7
-0.107925 4.619873 -4.092773 7
-0.116768 4.6245122 -4.125 7
-0.114975 4.607666 -4.1318359 7
-0.107887 4.5803218 -4.125977 7
-0.10434 4.5600591 -4.1279302 7
-0.097259998 4.5325928 -4.1210942 7
-0.097259998 4.5192871 -4.1318359 7
-0.091941997 4.495728 -4.1289058 7
-0.061377 0.846102 13.539017 7
-0.073564999 -1.752833 10.744939 7
-0.037397999 -1.766935 9.8071365 7
-0.03444 1.028849 9.9555941 7
-0.029174 -1.8248121 9.2166376 7
-0.015412 1.142037 9.2990065 7
-0.067391001 -1.8494411 8.6636543 7
-0.061955001 -1.641731 8.6993046 7
-0.052080002 1.033941 8.8027096 7
-0.057741001 1.241979 8.7949791 7
-0.16486999 4.2761912 7.8705759 7
-0.14901599 4.3601398 7.6295552 7
-0.047417 -1.682538 8.2486391 7
-0.027571 1.1137429 8.3065186 7
-0.053580001 -1.7579581 7.95647 7
-0.078997999 -1.767442 7.5768428 7
-0.075263001 -1.609386 7.6271939 7
-0.068388999 -1.788933 7.276772 7
-0.05023 -1.611613 7.2672768 7
-0.060010999 -1.806891 7.0112801 7
-0.045903999 -1.6485389 7.0247421 7
-0.043265 -1.796728 6.7366128 7
-0.033666998 -1.6594501 6.770927 7
0.134363 -1.077162 -10.291655 7
-0.004743 -1.064927 -8.5438147 7
-0.32757699 -6.2917581 -9.9324036 7
-0.30173701 -6.0871568 -8.033514 7
0.062885001 -1.0505691 -5.5156388 7
0.040667001 -1.423025 -5.639071 7
-0.179884 -4.4466939 -6.4941459 7
0.049589999 -1.3813601 -4.7515039 7
-0.0082729999 -1.684829 10.875593 7
-0.0077979998 -1.341354 -3.930619 7
-0.244111 -4.4448948 -4.3941779 7
0.0079809995 -1.312269 -3.306531 7
-0.24593 -4.754261 -3.509032 7
-0.051982999 -1.834756 9.5616398 7
-0.20558301 -4.6344042 -2.6929259 7
-0.033914998 -1.769647 9.0642586 7
-0.082824998 -1.716161 8.6660099 7
-0.25190601 -4.5615878 -1.612216 7
-0.084379002 -1.890439 8.3313084 7
-0.051707 -1.659158 8.228075 7
-0.053886998 -1.822191 7.936656 7
-0.033755999 -1.6155109 7.8937058 7
-0.327622 -6.439899 3.209553 7
-0.33276701 -6.4523859 3.4380541 7
-0.035966001 -1.769608 7.6332698 7
0.012884 -1.385221 -1.035463 7
-0.0039130002 -1.570918 -1.071635 7
-0.084138997 -1.906 7.3864799 7
-0.073523998 -1.726926 7.393302 7
-0.022056 -1.362832 -0.79353303 7
-0.032729998 -1.5347871 -0.80227101 7
-0.239351 -4.6713881 0.48093301 7
-0.063066997 -1.850907 7.1318402 7
-0.055337999 -1.684448 7.147769 7
-0.014639 -1.344898 -0.59075302 7
-0.023928 -1.507653 -0.59468597 7
-0.226105 -4.4850769 0.62106103 7
-0.038205002 -1.797291 6.883605 7
-0.025885001 -1.6384569 6.8807449 7
-0.0045759999 -1.327575 -0.394137 7
-0.0124 -1.481411 -0.39339399 7
-0.213782 -4.6659279 1.394434 7
-0.220872 -4.7540178 1.543137 7
-0.047906999 -1.917564 6.7271862 7
-0.246269 -4.4928579 1.480885 7
-0.248282 -4.56216 1.6292861 7
-0.251937 -4.6303329 1.778306 7
-0.25900701 -4.702776 1.9264539 7
-0.25712299 -4.742568 2.086416 7
-0.26222199 -4.797152 2.2416351 7
-0.243196 -4.5278101 1.988593 7
-0.242938 -4.5705771 2.139472 7
-0.24620099 -4.61763 2.2888851 7
-0.251187 -4.6638999 2.439105 7
-0.239521 -4.6546922 2.600292 7
-0.242401 -4.6825519 2.7533491 7
-0.231445 -4.483315 2.478658 7
-0.226858 -4.4945469 2.6283381 7
-0.23543601 -4.537889 2.7724321 7
-0.013811 4.8557472 -10.308941 7
-0.125972 4.7252312 -6.63622 7
-0.056761999 4.5392141 -3.991816 7
-0.124851 4.7188592 -2.9816871 7
-0.037925001 1.2387429 10.005449 7
-0.020212 1.218804 9.4456635 7
-0.066742003 1.199739 8.9687309 7
-0.181817 4.3454218 7.9214492 7
-0.04338 0.96279597 8.5696602 7
-0.045421001 1.184657 8.5380201 7
-0.165289 4.2906408 7.4603791 7
-0.025722999 0.96534097 8.197197 7
-0.031629998 1.17231 8.1887798 7
-0.16137099 4.2671151 7.087606 7
-0.15873601 5.0166831 -18.757984 7
0.022387 1.4025151 -13.853415 7
-0.029679 -0.51196402 -10.024147 7
-0.30941701 -4.3100939 -14.647449 7
-0.144647 4.8607392 -11.336399 7
-0.045426 -1.090678 -8.8092442 7
-0.210861 -4.430326 -10.687844 7
-0.028098 -1.177418 -7.4988232 7
-0.198737 -4.4446321 -8.935771 7
-0.068963997 4.720747 -6.7920761 7
-0.094143003 4.6607881 -7.2198148 7
-0.0070179999 -0.99034399 -6.4896798 7
-0.014058 -1.233857 -6.533566 7
-0.18934999 -4.4308891 -7.5904698 7
-0.28597701 -6.08319 -7.9693842 7
-0.034136999 -1.033903 -5.659925 7
-0.044957001 -1.25098 -5.7183909 7
-0.051197998 -1.4623049 -5.7275438 7
-0.024636 -1.262444 -5.101706 7
-0.030206 -1.446581 -5.0988698 7
-0.079276003 4.6447072 -3.126297 7
-0.090944 4.6248121 -3.350914 7
-0.093117997 4.5169148 -3.5365779 7
-0.017735001 -1.443763 -4.6316652 7
-0.20784301 -4.4656162 -4.4230208 7
-0.199816 -4.5688949 -4.2130022 7
-0.29236701 -6.1298652 -3.3116801 7
-0.012675 -1.420926 -4.2931828 7
-0.016876001 -1.569169 -4.2660732 7
-0.191314 -4.533843 -3.4231739 7
-0.18970799 -4.639966 -3.2379241 7
-0.038116001 -1.41899 -3.9669981 7
-0.039437 -1.543659 -3.91906 7
-0.235348 -4.5327692 -2.5364001 7
-0.23153301 -4.585999 -2.345104 7
-0.028456001 -1.414595 -3.6873469 7
-0.036805 -1.549323 -3.6739531 7
-0.0098789996 -1.280103 -3.446032 7
-0.022057001 -1.413873 -3.4531641 7
-0.023714 -1.518117 -3.4051111 7
-0.0096310005 -1.299814 -3.2672441 7
-0.0082639996 -1.3867019 -3.2098091 7
-0.027404999 -1.591601 -1.237481 7
-0.018957 -1.57068 -1.17054 7
-0.020547001 -1.580074 -1.0878921 7
-0.020747 -1.580988 -1.021397 7
-0.015830001 -1.56244 -0.956837 7
-0.017786 -1.563495 -0.88984001 7
-0.006143 -1.517784 -0.83177102 7
-0.020869 -1.513968 -1.233127 7
-0.014009 -1.4985549 -1.1695 7
-0.012533 -1.497318 -1.106775 7
-0.010801 -1.492421 -1.028556 7
-0.0058329999 -1.474299 -0.96769398 7
-0.0079530003 -1.475795 -0.90438998 7
-0.001289 -1.447264 -0.84646899 7
-0.0035620001 -1.408931 -1.227397 7
-0.00027799999 -1.404547 -1.168283 7
0.001133 -1.4033329 -1.109495 7
0.004336 -1.394215 -1.051252 7
0.0078070001 -1.380983 -0.97924501 7
0.0054950002 -1.383029 -0.919837 7
-0.00036800001 -1.34516 -0.86763501 7
-0.010902 -1.329318 -1.278705 7
-0.013422 -1.343774 -1.223453 7
-0.010061 -1.339357 -1.167073 7
-0.014509 -1.354658 -1.110474 7
-0.011198 -1.345645 -1.054271 7
-0.00017499999 -1.312459 -1.001317 7
-0.0082860002 -1.329547 -0.92833698 7
-0.0031679999 -1.307864 -0.87530702 7
-0.007303 -1.283757 -1.220108 7
